# .PCD v0.7 - Point Cloud Data file format
VERSION 0.7
FIELDS x y z
SIZE 4 4 4
TYPE F F F
COUNT 1 1 1
WIDTH 1663
HEIGHT 1
VIEWPOINT 0 0 0 1 0 0 0
POINTS 1663
DATA ascii
-3.737553 46.5439 7.641751
2.284444 47.63114 8.084805
-19.38927 55.8387 4.465878
-20.04191 54.32096 3.976955
-18.29402 49.27349 4.696987
-13.27475 53.46171 7.131018
-20.03927 83.13918 4.404062
-17.46912 97.43196 3.04603
19.42393 88.99054 3.861126
-15.66229 107.0722 2.711691
-17.65834 96.95524 2.413351
13.5011 109.963 6.723722
-9.145532 118.6435 9.932913
-10.67555 120.4963 9.027789
-9.945941 118.0914 9.27735
-11.70578 116.2204 6.768382
-9.041542 112.0694 9.708996
-7.619668 117.1989 10.38722
-7.350176 110.8086 10.59095
-13.39062 116.4737 4.05378
-14.39871 111.1052 3.627729
7.940316 48.85772 7.777547
20.36531 57.50839 4.318556
19.67269 62.92278 4.910478
20.01453 67.07368 4.780919
20.58487 72.53077 4.252537
20.15719 70.19622 4.719245
13.03833 48.18222 6.531272
15.75923 50.13929 5.985212
20.68981 51.20318 4.043567
16.4802 58.46236 6.449225
-2.210917 123.5765 12.22569
2.808972 118.1236 11.82089
5.413831 121.165 11.67778
-3.167511 121.5 11.98373
12.64161 113.1662 6.674182
14.29579 112.5397 3.90494
10.38139 118.9122 9.062548
11.44466 116.465 8.087876
8.739428 119.2201 10.25469
-19.97032 79.08442 4.824051
-21.2714 65.18721 3.14301
-20.90018 60.35127 3.477211
-20.70252 63.63583 3.706829
-11.10526 47.40839 6.729893
0.8685074 47.3448 8.038828
-20.58175 57.10655 3.677222
-19.73155 53.60776 4.149293
-13.66664 49.32883 6.362289
-19.24392 88.88419 4.589492
-19.19844 87.05876 5.663279
-18.44867 93.83585 1.942207
-18.01949 95.20815 2.600221
20.10258 78.63997 4.754634
19.65273 86.42774 4.630015
19.3216 87.4191 5.202955
18.75186 90.80436 4.728055
-16.46272 103.8972 1.92898
-17.05402 101.012 1.182436
-17.37969 98.55719 2.403685
15.82493 105.7539 4.513361
14.83523 109.1455 4.083344
17.20862 100.1578 1.852676
16.28324 99.96364 5.452625
16.424 98.84879 5.48353
16.55493 98.26894 5.433268
16.94981 101.4359 2.42307
-6.94186 119.0712 10.92223
-13.18393 114.7484 4.636512
-13.95517 108.6041 6.372528
6.044421 46.6437 7.489314
20.85414 60.80301 4.035948
20.25234 73.20831 4.636201
12.24535 49.80046 6.96681
14.54412 50.20705 6.358955
18.58386 52.39011 5.098431
19.56548 58.52593 4.8255
0.516285 120.9948 12.03353
4.521832 120.1895 11.70967
12.96894 110.723 6.756197
9.278305 120.4297 10.16551
8.977178 117.6555 9.819199
4.255186 119.5925 11.70266
-20.35423 74.6558 4.147691
-20.23652 67.46141 4.232363
-19.81093 72.45129 4.893985
-18.10497 59.72059 5.545108
-18.25343 63.40239 5.760603
-9.752628 49.32859 7.443316
-7.209888 48.82654 7.850743
-17.19869 49.63188 5.175488
-19.86014 82.36879 5.041236
-18.72476 82.99205 7.166373
-18.63754 86.93877 6.803991
-19.33435 85.88509 5.719894
-19.6624 86.24087 4.725493
-18.14726 92.45089 5.208358
-17.57752 95.13612 4.644534
-17.94114 91.22443 6.389382
-18.16119 88.78852 7.046574
20.20783 77.5097 4.604921
19.58383 77.99062 5.637171
19.68423 79.59295 5.496574
19.12339 85.09984 6.321465
19.91706 81.9401 4.954936
18.19763 78.58263 7.731722
18.74686 89.35606 5.728793
18.05702 88.99702 7.141467
17.50088 97.29854 3.029227
-15.75936 104.0813 5.414462
-16.4674 102.5603 4.202684
15.54212 105.3297 5.483102
14.50881 108.2241 5.875388
-11.64985 115.7663 6.979125
7.780935 49.95592 8.055794
5.39886 50.30264 8.527191
17.21651 59.11617 6.140216
17.59951 58.66849 5.921559
17.39521 73.42216 7.856519
13.15636 49.73669 6.699107
11.83663 48.74527 6.907269
13.00711 52.48616 7.127734
15.1607 54.41235 6.590264
0.2078099 120.0202 11.98614
-0.5964983 119.0174 11.95341
4.792842 116.9056 11.48518
14.11264 110.3604 5.736126
5.161796 119.9999 11.56687
7.659805 118.6743 10.61947
1.92539 115.3205 11.90677
-19.35286 77.68053 5.949389
-19.8865 70.58895 4.716271
-19.36039 67.53797 5.14223
-18.01206 69.01565 6.582981
-19.71964 67.5742 4.772041
-9.193707 49.49363 7.609809
-18.72205 87.74697 6.425478
-19.0766 91.04426 3.133307
-18.10862 92.50238 5.278153
-16.86704 98.5848 4.610682
18.10119 80.94816 7.961596
18.86775 86.50125 6.4947
18.10399 82.47602 7.946478
16.57816 89.50748 8.598405
17.846 87.27152 7.846993
-16.20692 104.12 4.076317
14.42831 104.029 7.459164
14.20739 104.5739 7.639979
15.1496 105.8574 5.952606
15.42229 53.55431 6.410142
16.99764 53.62454 5.82652
12.46374 110.5446 7.495721
13.3689 108.6479 7.627127
15.097 107.458 5.708078
-18.94354 73.43581 6.113286
-16.31018 70.57761 8.229894
-16.68265 100.2129 4.504782
19.16309 80.55679 6.488037
17.50776 83.28396 8.526922
16.51715 90.25971 8.502241
16.87659 96.79185 5.412563
12.89506 103.3814 8.647
17.73471 72.26952 7.338768
13.61796 107.375 7.529972
4.063428 117.5379 11.64895
5.199894 113.1706 12.02332
11.70289 111.8153 8.349434
5.296213 114.4052 11.5344
6.8686 114.2644 11.28767
3.733033 115.6741 11.70917
-17.86833 74.03593 7.499329
-17.94572 72.47187 7.153894
-18.3727 65.50853 5.870195
-17.42517 65.83878 6.661534
-16.79058 96.7906 5.582522
-13.38011 97.69283 8.628529
18.67781 80.37371 7.253958
17.46703 95.19122 4.960745
18.44526 91.84983 4.802269
12.63272 104.0057 8.807994
12.39012 107.1898 8.775906
2.171412 117.9722 11.8647
8.885457 113.6879 10.57578
11.70097 104.0778 9.187985
4.337504 112.1219 11.91362
17.43645 93.20899 6.244618
13.40241 91.0742 9.75
12.64396 108.1019 8.455473
2.587204 117.3941 11.83794
6.479442 111.7741 11.04623
-0.5445196 113.0665 12.105
4.178555 112.4669 12.07826
16.06193 99.22805 6.052866
15.7472 92.51493 8.432888
8.826985 112.6005 9.769263
16.66587 95.08094 6.632147
14.25919 101.3214 7.736434
7.180473 111.8441 10.66387
10.2822 110.7477 9.906392
12.40911 111.4697 7.69391
4.825086 109.1543 12.35234
8.675209 109.1493 10.59233
6.322882 110.3694 11.32034
7.858083 108.085 10.67883
6.14855 111.9105 11.19067
14.48807 100.4927 7.620008
11.67454 115.2408 7.214306
11.37188 114.8562 7.922105
12.17766 111.2589 7.817624
11.08782 93.87397 9.400989
14.60194 100.5797 7.515383
15.2644 101.642 6.748893
13.51927 100.1087 8.280107
11.51165 96.7943 9.137982
11.10945 108.5949 9.352908
9.706182 106.5622 10.13084
7.813037 104.0847 10.50759
10.96342 94.05212 9.379722
10.11234 92.17329 9.566482
13.05281 101.531 8.506408
13.02835 98.94997 8.620119
12.07363 98.34911 8.946106
13.04163 100.1813 8.513631
10.92526 100.239 9.367433
10.15935 103.6316 9.609315
11.99299 92.87694 9.548466
9.70868 104.0276 9.80362
1.718407 98.98541 10.72547
11.00383 89.47967 9.95492
11.81771 88.87045 10.02943
12.24515 89.14964 10.00808
9.391339 89.61462 9.922611
10.2406 87.96981 10.08127
12.93571 92.13457 9.631801
9.093053 90.87285 9.739174
9.231515 89.28332 9.950325
9.302817 93.30614 9.349203
7.440359 92.58266 9.367321
6.773889 100.6239 10.24196
7.789206 92.83973 9.339785
16.51997 84.39484 9.257387
14.91172 85.9418 9.926797
7.762589 96.05791 9.183545
8.87622 98.72891 9.442114
16.12885 82.68432 9.495178
14.50414 86.68735 10.0001
15.08262 86.41731 9.857206
13.8844 84.25063 10.20154
8.415509 98.89302 9.652063
6.366599 102.9032 10.74405
12.14556 86.07425 10.22668
6.057846 103.2758 10.94782
9.190855 103.7212 9.926963
7.515896 108.6439 11.06114
9.590042 104.7005 9.955516
5.304419 102.1488 10.89846
4.474779 104.0437 11.64434
2.82975 105.4545 12.20877
3.09028 105.4054 12.1874
4.075597 106.2353 12.10942
-0.2887632 105.9157 12.28797
2.697325 101.9006 11.5041
4.429409 101.8156 11.07534
4.521259 101.0252 10.84687
-12.24411 122.8951 7.511014
-12.8714 113.4561 5.06511
-14.07666 109.124 5.789865
-3.998013 49.24351 8.381655
-3.380016 49.42556 8.481639
-11.6667 112.0515 7.874354
-11.33424 114.5914 8.371016
-10.27873 112.2684 8.996505
18.97789 68.52216 5.746439
18.29435 66.22791 6.11261
18.16463 67.53325 6.341782
16.49759 72.24706 8.368073
-19.05103 78.68391 6.582959
-16.97024 51.05254 5.386905
-15.0962 54.26556 6.511603
-17.28634 53.85491 5.492619
-17.60925 53.37067 5.295805
-17.15868 55.27026 5.685073
-14.0066 54.55852 7.012464
-13.24125 51.94968 6.903548
-16.30808 49.91473 5.543257
-12.87545 50.5256 6.797154
-6.385583 116.0677 11.07026
-12.78531 112.3747 7.071934
-13.18497 111.231 6.946455
-10.87557 114.7457 8.719713
-5.480771 48.65912 8.062848
-3.744041 51.22431 8.868889
-10.1287 51.86385 7.870302
-3.930872 53.22132 9.232651
-6.584155 49.62303 8.150568
-3.271547 54.22188 9.440055
-4.726751 54.93904 9.436671
-3.148654 54.14284 9.433666
2.037878 49.96692 8.728414
-3.843283 51.92565 9.003202
3.962828 49.64737 8.523784
5.056472 52.47609 9.041809
-1.306162 52.73438 9.29007
-2.954893 52.56458 9.183844
-3.657402 54.96746 9.513154
-0.9954339 53.67058 9.445613
0.1793629 56.04582 9.753207
-1.140148 55.77964 9.70806
-5.846653 57.07186 9.617526
-12.10546 105.6307 9.062432
-16.02726 102.8585 5.279425
-15.84565 99.57468 6.261378
-14.93542 97.03105 7.916599
18.7603 64.64752 5.646328
16.81351 65.54426 7.097229
17.58504 62.10452 6.2149
-17.9501 87.09216 7.733843
-16.87331 90.30634 8.150189
-17.4692 93.64718 5.949946
-16.04654 91.41628 8.540913
-15.69868 94.76566 7.88501
-15.57734 97.02886 7.30675
-14.44962 92.90729 9.112723
15.43919 54.19096 6.461868
10.88396 53.00164 7.90123
15.90351 55.15179 6.376301
12.10834 53.12955 7.523278
14.368 58.95581 7.517797
9.823301 50.68399 7.762616
12.16721 52.85228 7.457884
11.05053 55.07837 8.232961
9.367943 53.79176 8.503241
14.7013 58.61766 7.314523
16.87057 60.01406 6.40575
11.06558 54.32743 8.08594
16.23217 58.89259 6.615655
8.993633 55.33026 8.903989
9.58765 58.63426 9.337724
-14.9783 83.47219 9.98853
1.392383 118.958 11.91442
-0.572611 116.7216 11.94335
6.257616 108.1696 11.52754
6.07544 106.1732 11.427
3.987546 109.8151 12.11862
6.306798 106.8752 11.38638
4.866163 107.4095 11.96019
2.981969 110.1107 12.18332
2.753936 109.1691 12.42379
12.02531 101.7789 8.944497
6.197642 90.45932 9.714391
4.324011 96.77984 9.589112
-0.08692298 99.32522 10.92321
4.56717 98.44786 10.27283
1.954982 99.208 10.78012
1.048745 97.87562 10.40154
0.7111472 102.2671 11.76805
4.485558 97.34614 9.788548
0.7924014 96.35288 9.888888
6.961021 98.32806 9.743271
-0.4175905 102.1242 11.73905
-2.300395 96.44505 9.821207
1.299437 109.5516 12.32791
-15.25223 107.5521 4.760827
-14.05924 104.9773 7.726369
-11.3099 108.656 9.306638
-12.84578 107.6968 8.285447
-10.59938 105.8269 9.682368
-14.21149 109.4535 5.127901
-12.18764 104.994 9.030879
-14.13078 106.5903 7.275341
-1.021748 103.3149 11.99337
-12.71772 110.768 7.276085
-12.3049 111.4322 8.145786
-9.944186 111.1657 9.290049
-7.27243 114.9966 11.10917
15.89766 67.84257 8.059662
17.18365 72.30338 7.854733
16.94918 70.12899 7.691576
14.49417 69.94495 9.169108
14.29018 68.95999 9.133433
14.60938 69.63706 9.059293
-13.70044 55.85599 7.334347
-14.68351 57.22596 7.110122
-18.89705 59.19378 4.973874
-6.176615 119.1647 11.18867
-8.623567 50.66769 7.998734
-11.20046 52.4946 7.672201
-11.43719 52.39555 7.582805
-15.11213 57.60584 6.960307
1.767506 52.86966 9.325092
3.68342 53.26369 9.314629
5.212324 54.26197 9.358562
7.103268 52.32053 8.709796
-15.42943 105.6091 5.437676
-16.50721 101.972 4.339754
13.38677 65.9877 9.151607
16.11695 65.79031 7.587564
15.67274 62.45829 7.360857
16.0441 65.23006 7.553143
18.74734 56.95574 5.225791
16.20909 57.62774 6.496974
-17.09602 84.81303 8.790372
-17.66393 86.13338 8.161731
-16.65453 88.74597 8.724743
17.76903 76.87018 8.020272
17.13143 78.0654 8.682421
11.6585 85.99277 10.22229
15.78885 81.66676 9.652485
17.22965 80.58296 8.742564
10.57583 85.33902 10.22477
15.05599 84.00594 9.94862
17.1841 79.14079 8.725838
11.71581 82.40262 10.24719
12.76487 78.15641 10.0995
14.13688 82.66395 10.15463
10.95149 82.7262 10.24997
10.73713 80.85802 10.23201
7.722626 79.71334 10.23514
9.521067 81.90958 10.24695
9.721514 80.2094 10.2318
4.848437 57.0207 9.782101
7.283575 54.69165 9.150961
12.63182 62.56767 8.951229
10.71424 59.80558 9.21672
12.92435 59.94235 8.366247
12.43324 62.27456 8.98595
15.50866 61.37611 7.294658
-16.97287 71.17097 7.826305
-15.3647 61.66119 7.416501
-1.593897 113.7558 11.97499
0.6484707 110.2009 12.32008
0.530845 107.0395 12.34942
1.025137 107.2158 12.36289
5.324173 87.41328 10.07047
-16.03648 105.3245 3.56073
-15.08645 104.2144 6.556136
-15.646 102.3575 6.102257
-8.464431 115.1039 10.29107
-7.33063 114.1886 11.11806
-5.911753 112.4064 11.18499
-3.97733 112.9273 11.73666
-3.132228 113.6745 11.82972
-3.074677 112.7404 11.88182
-6.499564 115.7365 11.19073
-1.070855 109.9729 12.25416
-2.495836 110.472 12.12967
-2.211413 106.3998 12.31425
-1.757414 111.7645 12.09114
0.3430792 113.275 12.17072
-3.973976 106.9304 12.19757
-0.1406858 114.8038 12.00933
-1.441805 113.9705 11.97629
-3.02658 115.3773 11.82743
15.92722 73.93685 8.927529
12.31058 71.34983 9.991946
14.63366 74.5582 9.586201
16.19104 75.28059 8.948585
11.77972 77.0406 10.12418
14.3401 76.92846 9.796947
16.21303 76.45803 9.074648
13.31631 72.03252 9.835438
10.23418 68.97414 10.1452
10.98113 71.25363 10.11762
12.26814 65.00149 9.458822
12.15199 66.06156 9.636813
13.35802 67.3145 9.330342
11.10834 66.13282 9.924276
12.65533 64.49612 9.239817
12.83311 63.08746 8.947257
-13.38255 56.6116 7.593819
-9.260546 54.18309 8.570065
-12.31662 57.02667 8.103221
-11.96908 54.59307 7.807456
-14.07358 60.21926 7.876243
-10.30442 56.79795 8.775887
-14.38907 58.89925 7.507239
-10.86238 59.05626 8.996726
-10.38302 59.10678 9.150851
-8.11827 58.27023 9.506049
-5.184134 63.65218 10.09422
-7.990737 58.98859 9.609382
-7.002298 60.88747 9.884296
-5.268538 56.45994 9.591672
-5.346089 59.64188 9.894848
-15.25534 60.03056 7.235498
-4.526969 61.49288 10.02761
-16.41877 62.95923 6.971788
-15.7606 64.53786 7.61975
-15.64395 62.13222 7.326744
-18.53971 61.10598 5.354613
-15.63603 63.58759 7.552258
-17.46341 61.29545 6.101875
-2.831197 60.10312 9.997379
-6.552886 55.70614 9.368574
4.077208 52.19669 9.084127
8.290728 52.03359 8.409644
6.425044 55.60006 9.442992
17.68264 58.23071 5.84896
-16.96365 82.295 8.964373
-15.48769 82.43018 9.77739
-15.42907 85.36692 9.779628
-15.5476 81.33179 9.724425
-18.59937 77.10099 7.101826
-18.3649 76.92666 7.376322
-18.23294 79.2076 7.716581
-17.69441 77.26955 8.130027
-17.25774 78.4005 8.59834
-16.49753 78.22276 9.110107
-15.26159 75.70574 9.440308
11.34347 76.78915 10.13883
4.321416 53.51546 9.311223
-15.30592 72.93497 9.154984
-13.44247 70.18981 9.593387
-13.41678 72.23411 9.749635
-14.13825 74.36835 9.69641
-12.03208 78.85544 10.16029
-10.35374 70.32817 10.0743
0.07215957 106.6274 12.32567
0.2924508 104.7802 12.20426
-0.68102 104.0716 12.12182
2.641319 89.29408 9.844274
7.538852 87.724 10.06623
5.771896 90.41174 9.708806
4.130539 86.52702 10.11559
3.571975 87.42942 10.05692
-0.4456507 85.58345 10.14952
2.44977 86.6234 10.10126
4.630465 93.38062 9.143685
4.664381 91.11449 9.536307
8.939915 87.55609 10.09427
7.325824 80.09266 10.23815
6.409732 85.10053 10.18885
-7.321793 110.0029 10.73047
-10.95932 108.1454 9.614731
-9.845569 109.4098 10.43552
-8.400592 109.0525 10.86149
-7.888429 106.2195 10.73352
-4.653759 107.1188 12.08043
-6.279449 106.7567 11.57474
-6.45968 105.1202 11.11411
-4.625014 104.8861 11.77016
-3.190046 105.1081 12.12645
-11.5924 99.58138 9.018807
-3.731321 101.274 11.13054
-9.98805 101.9284 9.545546
-10.72211 103.7487 9.559391
-9.95453 103.1056 9.840529
-6.217431 110.9003 11.18045
9.253494 72.82585 10.17217
10.52423 65.18608 9.942698
12.12558 64.74882 9.472367
-7.687494 56.64079 9.348944
-15.53822 65.90881 7.983112
-17.5457 60.61649 5.985728
1.145628 57.84211 9.912574
0.7528707 59.02901 9.986597
-3.305682 59.13484 9.933019
0.9833589 58.87948 9.979198
-0.937434 60.55281 10.04373
0.4257154 59.79453 10.02407
-4.730759 62.11708 10.04871
-14.50017 86.3445 10.01109
-16.02947 80.06134 9.492759
-15.22561 82.88546 9.888086
-13.77781 82.04699 10.17927
8.157099 78.73624 10.2248
9.68248 76.52061 10.17963
11.36935 74.51138 10.12062
5.989734 75.32141 10.20582
8.84083 74.86726 10.17534
6.780113 77.30633 10.21818
6.497136 78.89427 10.23156
0.959823 83.04526 10.2166
1.820086 76.66753 10.22311
8.901427 79.11735 10.22471
5.011334 74.56221 10.20499
4.040721 74.1657 10.20604
7.707269 73.60632 10.17885
8.437066 73.3018 10.17476
1.745963 73.05814 10.20527
2.289707 72.0111 10.19837
-7.875287 69.68692 10.15854
-6.863159 70.07289 10.17257
-1.661855 105.0207 12.22236
-0.888221 88.24822 9.961167
0.06074962 88.94547 9.876564
1.75189 85.97968 10.1315
-9.491057 88.07576 10.06402
-2.542085 84.28875 10.19341
-3.448014 87.69666 10.02713
-3.529779 86.7356 10.09805
-0.1389588 78.94077 10.23105
1.978857 81.39549 10.23287
1.730249 79.18583 10.2328
-2.027551 80.06948 10.23293
3.838939 76.80296 10.22237
-1.013014 80.46859 10.23277
2.121426 72.76707 10.20291
2.022412 79.71791 10.23369
1.273019 75.842 10.21937
0.6359738 77.12633 10.22527
-3.185443 80.59502 10.23338
2.809322 76.38076 10.22117
-1.058527 79.28398 10.23152
-2.395631 81.45964 10.23115
-2.637274 76.5924 10.22123
8.505256 84.78854 10.21835
-14.02908 93.3862 9.177548
-11.41848 93.80331 9.431851
-12.29708 97.10931 9.013097
-13.63718 99.42413 8.29439
-13.13361 100.9429 8.458465
-10.33516 101.7839 9.421943
-11.00546 99.21249 9.13552
-11.58967 96.95874 9.130249
-13.11225 93.59013 9.373847
-13.33339 100.4078 8.369573
-7.727427 96.26738 9.33896
-12.38393 94.28401 9.3667
-11.13576 90.47666 9.847804
-10.86232 95.76038 9.246776
-10.70361 88.82608 10.01737
-14.89509 91.38378 9.230894
-5.665709 97.31078 9.732388
-5.393218 94.66469 9.186073
-4.517483 96.06534 9.541345
-11.8858 90.51165 9.857713
-9.858833 92.00525 9.57689
-9.581855 92.94546 9.39785
-7.333376 87.7412 10.06128
-7.853996 92.15422 9.44676
-9.13762 89.69915 9.902348
-4.342832 93.31605 9.134701
-6.522279 92.28576 9.364737
-5.295164 93.16024 9.166635
-11.75334 89.49178 9.975137
-13.29816 89.48058 9.955787
-8.249176 94.69703 9.161514
-7.005294 99.35252 9.778401
-3.804836 95.24267 9.378736
-3.17169 93.03548 9.144313
-4.212377 94.33099 9.164624
-8.723554 94.01058 9.224778
-1.880704 94.72424 9.361298
-0.6712884 99.02995 10.81359
-2.60392 92.79218 9.172654
-4.82855 102.6516 11.24386
-3.794904 102.3694 11.42715
-14.29116 101.2542 7.715091
7.586387 62.8161 10.09991
8.700408 64.00554 10.07982
9.076146 65.94646 10.1452
10.15493 68.14652 10.14712
7.39914 67.45239 10.20304
7.942728 68.39125 10.2017
8.643488 68.40228 10.196
7.379285 72.14767 10.17974
7.378237 64.45793 10.1664
7.257584 62.99531 10.1254
6.481386 70.35614 10.18334
7.110863 72.80813 10.17913
-12.3991 64.22766 9.268804
-8.781145 60.61711 9.686988
-13.39661 63.07954 8.681502
-10.30935 63.76122 9.756546
-12.54633 65.89544 9.440091
-12.67117 63.62725 9.081194
-12.10812 60.79652 8.851627
-9.367704 64.64082 9.950726
-13.72846 66.71461 9.098496
-11.57405 69.11465 9.923851
-9.019453 69.43301 10.12437
-9.451161 66.30943 10.02199
-6.756494 64.04953 10.06876
-8.582194 70.47159 10.15265
-7.390526 64.33374 10.05363
-6.490209 67.10183 10.14899
-6.336235 66.92267 10.14843
-7.704889 65.09919 10.06663
-13.68123 85.52206 10.20105
-11.46607 86.40498 10.20351
-11.48728 87.8269 10.12023
-10.28678 86.76764 10.16643
-8.851356 85.38754 10.20441
-13.34541 77.88705 10.02893
4.897475 83.69284 10.21661
2.955088 69.52124 10.18576
-15.88635 76.68587 9.270305
-16.02818 76.88058 9.230526
-2.78416 104.2081 12.03146
0.3903463 91.35854 9.399544
-0.8903584 91.31698 9.405508
-3.337614 84.34618 10.19589
5.113821 84.71585 10.19258
6.780169 81.36974 10.2416
4.104021 78.19392 10.22978
8.217087 83.31259 10.23992
6.412376 81.52985 10.24098
6.416386 77.81302 10.22397
7.160753 83.55598 10.2318
5.205259 78.53928 10.23101
-5.179944 70.30573 10.18485
-11.91068 102.4245 9.052195
-6.484357 101.8484 10.65336
-4.359012 86.19827 10.1361
1.495654 96.10259 9.746045
2.418684 91.49758 9.393411
4.961182 95.21902 9.181906
0.8936163 93.55641 9.120507
2.8668 92.61301 9.207161
6.209767 94.40803 9.118426
2.855708 93.70241 9.108455
4.008711 94.99875 9.181315
-4.039579 102.2297 11.34159
-2.1716 99.57034 10.86294
5.577265 68.4604 10.18529
-7.10244 74.26218 10.19249
-14.50658 77.90551 9.834658
-5.077752 77.24612 10.22115
-9.031624 83.85744 10.2369
-7.294058 83.83665 10.22781
-10.93585 79.49892 10.20343
-8.547401 77.32996 10.20447
-3.475703 78.23061 10.22773
-9.871151 76.40565 10.17569
-6.913779 75.03869 10.19884
-8.602633 72.02993 10.16692
-7.156138 84.71706 10.20885
-3.963151 79.3107 10.2312
-6.420664 80.09023 10.23353
-3.500185 78.8928 10.23006
-7.470078 77.55938 10.21393
-11.35472 76.29739 10.13156
-13.11111 79.4769 10.12006
-13.80212 77.2928 9.93542
-4.327498 81.36331 10.23434
-3.126782 81.63195 10.23148
-3.147793 83.78117 10.20884
-4.937126 80.63313 10.23488
-5.469125 86.18945 10.14251
-6.649853 88.1835 10.01721
-5.199339 80.33713 10.23416
-6.511084 79.46521 10.23092
-6.547502 83.66772 10.22611
-12.91803 83.05593 10.24414
-0.4427955 68.8511 10.187
1.597705 68.01302 10.18137
-2.17945 88.56219 9.932586
-5.239156 90.92945 9.58369
-7.489951 89.58342 9.881424
-0.5753837 74.42625 10.2127
-2.706913 71.69498 10.19896
-2.100423 75.32052 10.21577
-0.4158755 71.64735 10.20077
-3.203009 73.23411 10.20475
-5.110421 71.73512 10.19171
-5.077357 74.96533 10.20811
-5.585938 70.40465 10.18336
-4.111081 76.0601 10.21669
-6.964438 72.74116 10.18554
-5.347614 67.61663 10.16433
-0.8051046 69.53622 10.19061
-7.515865 76.40394 10.20465
-4.579101 70.94488 10.19043
-2.962039 67.56133 10.17499
-2.533395 65.7835 10.15894
0.1407141 67.98235 10.18204
-0.4189531 67.61201 10.17965
-2.501615 66.79752 10.16975
-1.691261 92.18873 9.249399
2.93243 90.88644 9.538594
-10.15631 74.7933 10.15574
0.8329526 66.3472 10.17163
2.403384 65.12469 10.16569
3.69924 66.38511 10.1769
-0.9703788 62.10027 10.09827
0.02941508 64.34978 10.15003
1.717398 62.22765 10.11816
1.642745 61.38324 10.09567
2.156735 59.77621 10.03184
3.899323 62.44077 10.13619
3.981832 59.89812 10.03672
6.248691 64.0938 10.17603
5.194968 66.81878 10.18691
6.623351 61.56016 10.07815
3.221517 56.60054 9.794433
3.338939 56.90192 9.822622
7.380978 57.54234 9.603105
8.877455 57.22977 9.276641
5.675314 60.61347 10.05084
8.248604 59.60698 9.762341
6.736851 55.99723 9.464213
14.86534 65.52134 8.317553
-0.5990091 90.48113 9.593961
19.72945 48.1185 -7.281577
16.78066 100.8014 -1.026602
12.43437 116.3942 0.5099974
18.50281 59.6781 -5.752603
13.52193 112.9969 0.512241
17.93148 72.02739 -6.170516
19.19265 57.90154 -5.233582
17.36655 99.13794 0.7077119
-13.56607 114.2894 1.741895
13.68683 50.21044 -13.36411
-17.0051 99.56097 -1.206519
1.497627 48.64456 -11.82912
0.5774625 49.29521 -11.74876
-16.67385 96.32818 -4.718688
19.16728 87.94234 -3.284887
17.65099 95.70659 -2.393559
15.14646 106.7176 -0.9570005
16.64332 102.5587 0.4300292
16.15051 104.0761 -0.1697568
17.70621 96.89893 -0.1722284
14.01017 113.5731 3.657258
13.15495 116.3464 2.319617
12.79487 115.8145 0.9588161
12.87522 118.9556 3.713682
15.22118 108.4157 2.099021
10.66144 120.3097 -2.048957
9.844987 120.1037 -3.150573
15.1394 107.8601 0.3199944
19.70461 85.31264 -3.123783
17.41128 98.88544 1.361144
-5.232889 48.36308 -13.04636
15.89887 105.3796 0.3746116
-16.44978 48.02932 -9.623454
-19.52039 47.50367 -7.936194
14.13215 112.4991 2.325517
-17.44748 51.16288 -7.903718
12.9433 118.0008 3.016284
-9.473976 82.42956 -12.85984
-18.88954 64.11548 -5.274791
13.74618 114.9175 3.940629
-10.5088 101.0833 -9.745399
14.34859 110.7444 0.9989313
13.04382 117.162 2.642222
-1.91156 120.5672 -6.783313
12.12499 118.9807 1.054751
-13.30742 116.5834 3.122264
16.27719 104.1451 0.6081691
17.47729 98.49551 1.053212
-13.22433 113.8152 0.3819342
17.09 100.1476 -0.1359924
-18.61464 92.95291 -1.885023
-18.03694 94.79942 -1.707298
12.79604 114.6162 0.1403555
14.64868 111.0535 3.623209
13.52925 115.8996 3.912271
-15.60796 107.4212 2.313085
-15.34614 108.28 2.205375
-19.9032 89.38857 -3.316553
15.45479 107.6687 2.17974
-17.3018 62.64133 -6.930788
-18.84998 49.59286 -7.260434
5.124719 105.7447 -8.85526
-8.453463 120.9196 -4.573121
-12.81958 118.9621 3.164124
12.73999 116.8415 1.498142
11.65599 117.4674 -0.458271
-16.33132 99.11615 -3.646293
-17.93008 87.21883 -5.658131
-13.84525 110.4391 -0.9720498
13.40095 115.0478 2.003025
-16.8134 101.7638 0.3430513
17.99737 95.78175 -0.08274662
18.51916 94.3807 -0.4919696
-12.88844 113.0618 -0.8372367
-13.46988 112.0603 -0.4267596
18.79796 48.14352 -8.06561
11.94941 49.51939 -15.13269
10.19381 56.52831 -14.83061
-0.6585951 60.07956 -11.89071
-2.172071 52.83279 -11.97063
-17.10815 50.36123 -8.407822
0.9710127 120.1307 -6.808018
6.867546 117.8466 -6.154628
-11.43354 119.4752 -0.4716344
11.86797 119.2615 0.4886799
-17.91691 88.57011 -5.508192
-14.2031 109.8558 -0.6291945
-17.95065 94.51434 -2.429946
-17.28675 94.97759 -4.134734
-16.07135 104.0721 -0.4772339
16.17937 103.2117 -1.002849
16.70062 93.40397 -6.125375
17.33718 98.7401 -0.3683228
-12.75488 112.4306 -1.495964
18.25629 51.22673 -7.024223
17.25216 49.77769 -8.247943
14.05875 48.75543 -12.5948
19.72275 66.62265 -4.38484
-17.80945 55.39236 -6.897512
-14.87604 48.43744 -11.11342
-18.74362 60.59817 -5.552088
-13.7491 48.40222 -12.58995
-17.72099 50.35224 -7.856771
-17.50978 53.32288 -7.459761
-15.94676 77.85401 -8.010636
-6.967298 119.7524 -5.775183
9.187482 119.1476 -4.158694
-10.02411 120.4651 -2.938892
-6.148856 120.6699 -6.06184
-11.84975 117.3066 -0.221114
10.93721 118.2606 -1.491079
-14.17523 107.7128 -2.504387
-15.63053 104.3126 -1.698649
-14.58013 102.8986 -4.822879
14.70949 106.7969 -1.996859
18.61985 90.75915 -3.739094
15.64938 101.8212 -3.47338
-13.04463 113.4551 -0.2283473
17.15925 59.05421 -7.057024
17.49075 57.44001 -6.839581
14.95125 50.16227 -10.61203
16.82102 73.04697 -7.193549
18.60619 64.58955 -5.512369
-17.65128 65.47752 -6.479797
4.169237 51.01577 -12.42964
-11.302 49.65897 -14.68838
-16.99738 55.08229 -7.782441
-15.87876 47.64387 -10.19373
-17.71777 52.61346 -7.373596
18.93352 83.1416 -4.738775
-17.20697 78.00475 -6.789588
-0.7671267 118.3038 -6.956002
-3.603031 120.8508 -6.681499
2.110033 120.3066 -6.763113
6.938617 117.7848 -6.133966
-10.78804 117.2609 -2.009424
-10.99605 115.5776 -2.373057
-4.622287 117.0983 -6.856947
-10.2358 114.2823 -4.08353
-6.580137 119.0725 -6.069086
-18.76566 87.8766 -4.497294
-18.69614 81.46258 -5.117729
-18.52618 92.63403 -2.420785
-18.18375 91.80462 -4.374141
-17.18809 97.26509 -2.614126
-15.69204 101.0179 -3.886227
15.4706 105.5801 -1.073377
18.42624 90.84821 -4.040258
17.73277 93.47838 -4.126841
16.42392 94.81672 -5.993793
-13.50582 110.196 -1.940798
18.38149 57.12458 -6.021321
17.1152 54.47148 -7.483291
16.76651 50.30844 -8.467016
13.98942 50.15568 -12.67673
20.01377 75.01741 -3.75883
19.6269 63.92196 -4.55463
18.82972 70.59007 -5.240808
19.06622 66.84557 -5.033064
-18.90365 62.79626 -5.302744
-18.09777 60.78957 -6.193445
-19.23436 68.43931 -4.839344
-17.77946 68.55074 -6.30512
4.943215 49.90198 -12.77562
-14.85145 49.74757 -10.9558
-11.69387 49.776 -14.45676
-18.27329 56.43487 -6.323207
-16.60283 53.71074 -8.362759
-6.368439 50.75489 -13.53953
19.74438 84.92119 -3.140596
-19.69099 82.23055 -3.833814
-19.33484 73.23754 -4.629208
3.123306 120.2061 -6.679411
2.167772 118.7037 -6.819673
4.312392 118.349 -6.60325
-4.759961 119.7276 -6.512788
4.522119 118.3889 -6.573468
-11.38148 111.8567 -3.70585
-18.98874 83.05647 -4.675634
-17.88653 90.73705 -5.223825
-18.54498 89.20452 -4.779276
-15.77267 91.41937 -7.92631
-16.43958 90.31799 -7.2613
19.80634 86.06101 -2.675571
19.78237 90.68534 -2.006603
16.66525 97.92477 -3.683203
16.4189 102.8487 -0.4439687
14.9751 53.7776 -10.17
18.41184 58.70953 -5.883646
13.8391 56.86972 -12.18229
12.86084 50.61223 -14.47464
13.62839 52.93388 -13.08828
13.31008 52.31522 -13.70009
13.71425 51.88039 -13.04278
19.24194 76.90682 -4.631925
19.63242 71.40205 -4.343261
17.59644 69.75187 -6.456101
16.17163 59.01943 -8.120614
8.052845 48.90423 -14.53686
5.989122 49.28348 -13.30055
-18.39136 58.40854 -6.038692
-18.92348 70.58175 -5.12719
-3.563451 50.06626 -12.28982
-15.0054 50.86539 -10.62492
-17.55612 57.08025 -6.994212
-8.877569 50.76823 -14.67243
-5.917417 51.42605 -13.26717
-14.5 50.70198 -11.33098
19.03578 81.98997 -4.674382
-19.02689 81.63622 -4.711573
-18.52752 70.66473 -5.547737
-18.3469 77.90859 -5.620353
3.518676 117.1103 -6.820163
-17.02711 92.73977 -5.837991
-16.47428 88.40968 -7.315609
-14.90561 87.55962 -8.926286
18.88439 86.98409 -4.199778
16.35503 101.2294 -2.141979
15.33036 101.773 -4.178564
17.20168 97.91558 -1.956362
15.90783 51.47711 -9.154172
12.35915 51.74958 -14.77169
12.35572 50.61637 -14.87965
12.1248 53.76949 -14.69829
7.853182 52.42028 -14.2268
12.35959 57.72742 -14.10312
9.38126 54.38623 -14.78847
18.22153 74.4275 -5.842454
17.78742 79.18389 -6.195905
17.88276 77.42295 -6.141427
17.52904 62.52081 -6.557418
16.74181 66.33327 -7.240657
7.369699 49.92897 -14.07142
7.417925 56.50247 -13.81246
-17.0649 57.92481 -7.456968
0.6694492 52.52031 -11.76575
-8.147441 50.71515 -14.41369
-4.73293 50.8712 -12.70073
18.70757 82.70782 -5.054434
17.10631 85.35767 -6.752197
2.904924 117.0324 -6.886077
2.762387 114.6259 -7.173988
7.642754 117.3377 -5.840271
-4.745202 117.5172 -6.788043
-0.6358505 118.5511 -6.935209
-2.393117 117.0774 -7.037623
-5.030247 116.5479 -6.86562
-17.20924 86.39478 -6.600061
18.54561 86.10553 -4.950256
16.42717 100.4047 -2.524164
14.50804 102.3651 -5.220801
15.47069 52.34236 -9.6016
18.32255 80.05367 -5.627699
14.86436 63.4141 -9.604832
15.81138 66.49286 -8.170342
18.07453 69.13376 -6.005042
6.604522 53.41215 -13.49662
-2.246616 51.32565 -11.96798
-6.547309 52.12197 -13.57278
17.95438 82.61841 -5.957169
-16.83723 80.13138 -7.11066
-17.6834 73.63485 -6.412609
3.981 114.6639 -7.100949
-3.561742 116.0331 -7.107181
17.43112 85.85886 -6.374165
16.64637 82.46124 -7.253486
17.92621 90.19559 -5.076139
16.11674 100.9841 -2.957051
16.94715 100.6028 -0.4573477
14.62871 53.22787 -10.87871
5.556621 52.03609 -12.98652
17.49198 67.85268 -6.544913
3.292283 50.29309 -12.13951
-7.899386 52.09042 -14.23811
-16.98389 74.89214 -7.056618
-18.24197 81.83421 -5.643126
-16.40626 79.44145 -7.535638
-16.24265 71.4577 -7.809572
-15.53132 72.05556 -8.584172
-16.98551 70.72543 -7.075325
-16.51977 69.76185 -7.54062
-1.388882 112.3769 -7.653748
-13.53543 105.0993 -5.016876
16.5523 87.47514 -7.260776
8.222488 102.2239 -10.30665
15.36733 100.057 -5.066999
13.97306 52.60662 -12.38546
1.621028 57.76111 -11.87473
8.672533 58.67466 -14.31973
10.36329 59.24183 -14.64771
7.04484 54.9073 -13.67816
11.59269 56.97673 -14.60493
11.74826 60.79138 -14.12794
13.16379 57.99455 -13.30005
15.12127 59.24232 -9.480815
14.49357 59.06847 -10.62909
15.92303 57.09666 -8.528305
16.10791 63.26546 -7.945912
18.5894 65.93494 -5.508845
0.9617515 53.00362 -11.77465
3.734854 51.81952 -12.25229
-17.92113 82.71313 -5.971726
-15.35657 84.40988 -8.527628
-14.66072 75.10425 -9.541716
0.2433701 112.8463 -7.548142
-1.714787 114.4037 -7.383841
-7.568286 119.0579 -5.593524
-7.242186 118.054 -5.940138
14.18762 99.14876 -7.272989
4.463487 102.5833 -10.55705
9.906253 61.12178 -14.48259
16.18758 55.64109 -8.363554
13.96943 53.74583 -12.26108
-0.4444681 51.96281 -11.77282
1.030179 55.94979 -11.80979
-15.03575 78.16764 -8.979924
-15.36966 78.62149 -8.59547
-16.47274 64.30306 -7.759876
-15.84893 64.21036 -8.50942
-15.49642 66.57514 -8.838086
-14.72269 67.22095 -9.861621
-14.60604 68.82713 -9.922736
-6.984431 117.264 -6.207798
-8.092402 116.7663 -5.685036
14.87946 97.7683 -7.022321
13.26517 60.49466 -12.90203
17.18289 58.45302 -7.072464
16.13071 54.01025 -8.613514
14.637 55.25073 -10.67419
-4.316049 54.31541 -12.47402
3.269003 54.16327 -12.12494
-17.51857 61.62587 -6.747546
-6.402346 110.14 -7.57722
16.06943 56.4002 -8.430357
11.9968 56.13695 -14.50579
0.8371819 54.07042 -11.77811
-14.07777 71.62345 -10.47928
-14.23961 65.89756 -10.63077
-13.94928 70.09411 -10.74885
-13.96887 66.88521 -10.94162
-0.6515681 54.62357 -11.80682
-13.52548 69.0756 -11.36082
-5.217189 59.57368 -12.73448
-5.111734 114.2368 -7.19785
-5.914793 112.3786 -7.320768
-8.434892 109.8257 -6.831377
5.727882 54.42656 -13.00256
-13.21785 66.68772 -11.84592
-2.396132 58.68219 -12.01775
-12.13362 67.5694 -12.82282
-1.845511 59.03434 -11.96272
-13.21546 70.68082 -11.60968
-10.87267 60.82959 -13.95732
-14.08873 61.79858 -11.11912
-3.332567 56.05758 -12.18722
-11.75536 70.47755 -12.86015
-12.99493 70.7783 -11.85535
-13.52431 74.19416 -11.01331
-11.8161 64.44033 -13.27812
-11.55874 62.30501 -13.58959
-13.85954 64.80766 -11.22625
-1.692994 52.52111 -11.88345
-2.66921 56.57959 -12.04935
-3.264262 59.78313 -12.1748
-0.7300474 58.16382 -11.8562
2.382575 57.9074 -11.94774
-10.13736 67.11275 -13.74741
-4.391294 59.05585 -12.45394
-2.113562 62.47654 -12.03807
0.7216675 59.84558 -11.84984
2.59526 55.06269 -11.96659
-0.7673372 62.59908 -11.94474
0.4933802 59.13101 -11.83218
-0.4262995 62.2314 -11.92112
3.117278 61.32544 -12.09923
10.51816 115.4696 -3.09556
11.20049 117.1181 -1.35302
10.22165 115.1232 -3.744531
9.627937 113.8051 -5.009959
9.208272 114.9509 -5.174459
-15.35294 106.0871 -0.9289111
-15.46137 106.2547 -0.4166971
-15.46917 102.7915 -3.246476
-14.0701 104.2348 -4.793493
-14.43616 106.2335 -2.956789
-14.03012 107.1576 -3.076705
-12.35236 102.6334 -7.557202
14.46955 110.0829 0.659233
6.540939 119.294 -6.049605
10.71668 118.7314 -1.782171
9.953486 119.0182 -3.004427
-10.00317 114.6943 -4.239744
-10.61084 113.081 -4.087698
-9.647251 112.2411 -5.519795
-13.07586 51.34171 -13.15643
17.24318 90.149 -6.18633
17.22092 87.42262 -6.517879
16.28969 89.85609 -7.468658
14.97348 90.39713 -8.813186
16.92491 92.52435 -6.091314
-15.59945 53.04329 -9.630022
-14.58029 55.97915 -10.8024
-12.27129 53.04794 -13.84191
-13.54384 55.41072 -12.28919
-13.7555 52.08382 -12.2533
-12.89342 52.11651 -13.31792
-15.75166 88.98845 -8.074783
-17.36778 58.96738 -7.049607
17.921 78.20842 -6.083089
17.3296 83.50912 -6.575026
16.38788 80.78453 -7.505231
16.55492 84.0279 -7.331711
16.86473 79.06767 -7.08716
16.41165 79.95187 -7.490455
15.75619 77.33591 -8.116164
14.38267 78.76648 -9.56853
-15.10883 85.21665 -8.765053
-16.00666 84.4099 -7.872856
-16.80906 85.86786 -7.047151
-15.66584 81.65845 -8.245994
-14.38017 87.70129 -9.425757
-14.38715 81.36631 -9.614907
-12.99658 81.00565 -11.11939
-14.30425 78.76891 -9.812892
-18.26489 83.65798 -5.544972
4.636518 53.04377 -12.5398
6.391496 55.26598 -13.31316
6.421231 58.11028 -13.23352
6.656454 57.3305 -13.37565
5.633918 57.47729 -12.87143
4.221312 61.02165 -12.34157
3.554329 55.95541 -12.1747
8.328264 62.39262 -13.99395
6.165498 58.70671 -13.08595
8.353806 61.1782 -14.06757
4.918456 67.73365 -12.487
6.025788 63.78254 -12.91524
8.105944 63.53447 -13.84444
-1.177162 64.35915 -12.00047
9.19992 60.78173 -14.36796
10.9894 61.2262 -14.47508
3.905599 61.76702 -12.27701
-1.126605 65.44754 -12.02279
0.2468866 64.88126 -11.97327
3.646768 63.55363 -12.20428
3.595514 62.80709 -12.19451
3.377795 63.55264 -12.15807
1.29714 65.77711 -11.99804
10.5707 65.23144 -14.16071
5.532782 66.09048 -12.69065
4.461191 63.64338 -12.38022
6.834639 65.55664 -13.19823
8.71266 64.43855 -14.03097
8.479659 65.46838 -13.88684
-0.8143756 67.08081 -12.05193
0.6813443 68.95587 -12.07725
-1.607193 67.11097 -12.08701
-6.132444 53.00082 -13.3129
-11.4586 54.96787 -14.14583
-7.489816 56.0799 -13.85298
-7.414688 57.00996 -13.78702
-8.59208 57.18113 -14.20037
-9.175874 58.98945 -14.20052
-7.351689 60.80132 -13.60805
-7.632425 63.11167 -13.60385
-7.424534 61.55837 -13.59344
-8.622331 62.31176 -13.91005
-3.606722 64.65066 -12.26158
-5.509573 62.98269 -12.79448
-9.349936 54.17397 -14.56442
-5.964103 59.17956 -13.05318
-8.405847 59.40558 -14.02565
-4.889484 61.94249 -12.5978
-11.20302 59.10973 -13.98525
-7.20841 54.79827 -13.79266
-6.871572 53.5127 -13.68102
-15.38866 74.44621 -8.679343
-15.63772 74.77958 -8.385295
-15.09256 76.78132 -8.957234
-14.61149 76.65545 -9.528982
-14.18441 72.23057 -10.29591
16.09004 60.33441 -8.113523
16.04702 59.2626 -8.247832
14.11456 62.45886 -11.06299
14.38259 61.82902 -10.58296
14.20083 59.39205 -11.16732
17.19894 55.59157 -7.286798
1.505313 54.30655 -11.82192
-3.545554 110.1869 -7.934894
-2.377181 104.6904 -9.478467
-1.189423 113.0271 -7.560354
-2.34441 112.2299 -7.670184
2.788096 113.6099 -7.313552
1.586893 112.7401 -7.492163
0.5710518 110.9435 -7.814848
6.285322 112.1481 -7.150113
7.335277 113.1688 -6.6366
7.199738 113.4815 -6.647704
7.895977 117.03 -5.736455
7.271655 115.9574 -6.248749
5.235092 110.7286 -7.582158
5.672072 116.8374 -6.605393
10.37245 113.0822 -4.287713
8.594838 112.5125 -6.129555
-0.03908771 107.4418 -8.530146
9.015337 116.8353 -4.878889
-14.8883 61.49146 -9.994054
-9.357594 76.86446 -13.21206
-14.64226 60.96651 -10.38735
-11.78394 60.26198 -13.62816
-13.14627 60.79793 -12.34575
-4.095428 52.19891 -12.417
-3.322962 54.72388 -12.19062
-5.331966 65.26318 -12.71404
-12.3866 105.0018 -6.309928
-15.04416 102.2274 -4.428181
14.02974 110.4524 -0.4792824
10.25319 111.3441 -5.01701
11.22123 111.7584 -3.854405
12.7873 108.5041 -4.024584
13.88585 110.8057 -0.521532
12.77871 110.8216 -2.63609
13.05047 109.1422 -3.325408
12.75486 107.8839 -4.391697
11.94968 110.5626 -3.789731
12.45249 111.4635 -2.600777
11.23186 107.585 -5.880002
10.05115 108.223 -6.234414
11.42823 106.1868 -6.470382
9.329131 110.1543 -6.033612
9.248329 111.1299 -5.910364
12.36976 109.149 -4.153158
7.768377 103.3725 -9.861452
7.580263 108.6643 -7.265106
7.357028 111.6865 -6.865746
13.17317 104.5007 -5.794332
10.90688 105.217 -7.358767
8.995777 107.6865 -6.977669
9.004749 106.2834 -7.729425
13.61026 105.1417 -4.894731
8.262074 104.5066 -9.049939
9.968332 105.6565 -7.673863
7.015569 106.2343 -8.285331
4.26069 105.6607 -8.957895
6.858351 103.5452 -9.971761
6.894894 103.3151 -10.09604
10.27571 104.5746 -8.11947
-11.98829 110.6467 -3.720075
-6.669415 111.5067 -7.286016
-10.61465 110.4222 -5.159439
-10.12855 108.9312 -6.005334
14.80704 92.27499 -8.823732
-15.53172 90.11425 -8.283267
14.52923 82.05863 -9.348314
13.9984 84.40471 -9.872272
14.4789 81.28191 -9.420425
13.71028 84.47501 -10.17436
13.06872 86.13493 -10.72815
15.11092 90.39862 -8.685773
14.9271 89.11027 -8.858535
12.65193 91.30869 -10.67785
17.23529 73.72405 -6.830567
-13.87473 90.16354 -9.793633
-14.21677 89.28265 -9.52712
-13.30617 79.35754 -10.92671
-12.33421 79.33334 -11.82808
-13.54069 82.17126 -10.49922
-12.52191 78.83759 -11.70772
-9.801774 80.62916 -12.92343
-8.547118 82.39258 -12.92027
-10.3282 81.22947 -12.7257
-9.954185 82.94478 -12.68272
-11.30891 84.06062 -12.09645
14.75503 67.87088 -9.530056
13.4939 63.46914 -12.1302
3.823074 66.12478 -12.23612
0.009344295 68.14326 -12.05564
4.923945 67.285 -12.49341
1.613573 68.34074 -12.06839
4.960715 69.13341 -12.48773
-0.1727801 68.77271 -12.07638
1.57171 69.35808 -12.09015
1.288841 69.56705 -12.09381
-1.248378 72.41718 -12.19899
6.825192 71.89967 -13.00452
1.13873 71.17405 -12.13788
-6.699915 65.27812 -13.19312
-6.178687 64.01564 -13.02524
-8.700267 66.59641 -13.75353
-5.24655 64.46622 -12.69407
-8.943987 68.85228 -13.69188
-7.207622 69.58864 -13.26039
-8.562993 68.25788 -13.65309
-7.876655 66.20625 -13.56415
-12.0323 57.58022 -13.64819
-11.87154 61.38214 -13.47428
-13.6832 58.69999 -11.83287
-13.67962 59.74397 -11.78594
-16.46433 57.37054 -8.176763
-14.03413 58.72983 -11.38814
-14.32293 59.4751 -10.94641
-1.335428 110.2557 -7.978619
-0.8764746 109.519 -8.105113
0.8000859 107.6649 -8.463508
5.134978 104.8678 -9.335007
-16.20839 59.17644 -8.352012
-11.88883 76.65074 -12.40959
-10.46949 80.1063 -12.75142
-3.977138 77.62204 -12.46298
-9.408719 78.15236 -13.13467
-12.57857 102.9975 -7.17891
-14.3666 101.7482 -5.752496
-15.51849 92.35672 -8.049788
-14.1953 99.16372 -7.256556
-15.01936 101.3474 -4.965694
-14.5691 97.83372 -7.389143
-14.54208 96.06465 -8.137652
-13.85895 100.7213 -6.937433
-13.05933 99.58289 -8.325309
-14.48218 95.05107 -8.542602
-13.5343 95.33041 -9.411489
-14.6979 90.56997 -9.074613
-15.87296 96.23415 -6.249374
-12.14391 99.71118 -9.118931
-11.61712 98.44215 -10.00524
-12.97157 92.45467 -10.37033
-13.91395 94.05801 -9.377499
5.533484 108.4009 -7.915783
11.28559 99.89345 -9.718881
9.083694 101.9961 -10.09124
12.00227 99.31261 -9.395715
12.06038 99.64355 -9.214551
8.651584 100.9004 -10.75542
0.8812091 99.25788 -11.80949
5.528369 100.5765 -11.46902
9.347232 99.33278 -11.0458
9.45624 100.4507 -10.60019
10.04636 99.23326 -10.75494
10.86759 103.1723 -8.504601
-13.68424 106.3952 -4.069094
-11.38883 106.3472 -6.416407
13.3932 87.51314 -10.32392
12.93805 88.45406 -10.66204
9.628903 97.17871 -11.59326
12.07773 92.28861 -10.99921
16.91863 71.88643 -7.113658
16.63379 72.04142 -7.360404
15.73152 75.50748 -8.147894
-13.1418 88.08677 -10.50456
-12.64662 85.39511 -11.11647
-14.08549 84.73756 -9.815231
-9.999825 85.60056 -12.46403
12.00267 65.1674 -13.69914
-10.05383 69.26546 -13.62122
-9.425174 75.03902 -13.3071
-9.855513 73.05174 -13.37952
-8.570795 73.84184 -13.39512
-15.45139 59.10115 -9.352669
12.82979 66.86576 -12.73255
14.96996 64.12725 -9.388499
1.674443 107.5636 -8.459404
-2.504941 104.5986 -9.522158
2.911807 105.8483 -8.932678
-1.329446 103.901 -9.835031
3.475248 105.1684 -9.202492
-2.208126 102.9817 -10.30158
1.546475 104.0859 -9.73925
2.049492 102.1505 -10.69961
-3.737266 105.738 -8.993129
4.741009 102.8663 -10.41563
0.123913 102.6669 -10.43781
3.968946 100.9421 -11.27456
1.110994 99.93142 -11.59838
0.2281818 99.7085 -11.66112
-0.4758178 101.0268 -11.18176
0.810672 96.52231 -12.43227
-1.452939 102.772 -10.39235
-5.633471 107.5201 -8.244921
-2.060104 101.4679 -11.01033
-13.04175 94.57767 -10.05239
2.544292 108.1386 -8.289294
13.04829 94.22476 -10.11423
11.99185 94.00236 -10.91847
14.22621 96.08547 -8.472836
12.53802 95.52247 -10.23163
13.74187 96.82822 -8.724103
11.60112 97.32858 -10.41538
14.97508 95.76527 -7.723635
11.55584 96.55506 -10.6793
15.02059 95.57153 -7.737142
8.714767 95.89963 -12.18348
6.911126 99.5786 -11.70024
5.906493 100.4681 -11.50726
3.737321 95.41633 -12.65626
3.07807 97.33397 -12.33023
5.99497 95.46214 -12.71416
4.430374 93.89394 -12.77903
9.288451 95.65907 -12.05282
5.269644 97.48917 -12.37594
8.886898 91.39803 -12.38157
8.529458 93.35903 -12.48345
8.864266 91.5866 -12.38321
9.095495 93.82027 -12.31222
10.70956 86.55943 -12.33254
6.960172 91.49952 -12.67894
-10.62438 108.411 -5.869903
-6.624417 108.506 -7.817782
-5.265411 106.7827 -8.512368
-10.41958 105.878 -7.295384
-12.12092 102.7689 -7.699727
-10.88187 104.0454 -8.001106
-6.656575 105.759 -8.678963
-3.093542 104.6127 -9.515428
-2.151684 104.0209 -9.782119
-4.826196 103.4751 -10.10354
-8.059261 103.4256 -9.749532
-4.253087 102.2085 -10.72436
-3.379856 102.1906 -10.70926
-5.579226 101.5851 -11.04147
8.226819 84.58601 -12.85606
13.34091 83.44585 -10.6624
10.36815 68.9528 -13.93342
-12.64855 83.54128 -11.23807
-11.01748 86.46888 -12.01107
15.45118 67.12959 -8.553235
16.18878 70.06837 -7.739391
10.48342 65.93475 -14.13345
8.639285 66.62284 -13.88214
9.542883 67.6792 -14.01484
6.290282 69.9034 -12.88023
7.243626 71.70875 -13.15685
7.869728 68.72932 -13.50423
5.005837 71.96754 -12.50303
11.7196 73.2999 -13.13632
11.33197 68.4964 -13.71263
9.084558 73.39955 -13.59146
11.08381 69.29474 -13.76109
10.53785 71.58715 -13.72423
10.84334 73.87707 -13.50233
11.03677 74.99162 -13.30102
12.04717 71.20862 -13.08553
10.10726 76.46038 -13.41973
9.110123 74.33688 -13.54595
-7.876846 68.75484 -13.46066
-9.221629 74.62148 -13.36668
3.137827 104.9463 -9.311883
-4.802681 98.56621 -12.0987
-5.812145 86.17745 -12.70447
3.709077 94.95386 -12.69593
2.510781 96.26176 -12.5064
-7.572521 101.0252 -11.02148
6.947328 87.38946 -12.69682
11.39897 90.45148 -11.51542
12.82262 81.3129 -11.36894
5.685016 84.71083 -12.64031
13.46584 81.11349 -10.66231
-13.56592 91.41578 -10.0068
-13.75171 91.6338 -9.85046
-10.68357 88.54488 -11.96545
-10.32392 86.5775 -12.27188
-7.1057 85.72152 -12.75277
-4.918404 84.82381 -12.64514
-7.393811 79.22366 -12.98226
-4.492376 80.66919 -12.56015
-5.439873 80.17541 -12.6741
-6.431921 80.41676 -12.81732
-3.208342 80.03735 -12.45672
-2.344012 77.54015 -12.36265
-6.626349 82.25213 -12.81118
-3.213462 76.07835 -12.36946
-7.322434 82.78427 -12.85759
1.357459 87.72008 -12.6218
-2.871366 85.41363 -12.5761
-2.40619 83.96033 -12.53261
2.995413 85.94224 -12.57936
-2.133223 80.10128 -12.42634
0.06340376 73.60251 -12.21785
-4.58447 76.11013 -12.53167
-3.192537 79.31583 -12.43719
-5.037834 77.21988 -12.60222
-5.989411 76.80534 -12.78547
-0.9233024 86.36497 -12.58831
0.2315986 79.04708 -12.38585
-0.7987274 74.0118 -12.23658
-0.01225524 69.62795 -12.09807
0.2143271 73.02642 -12.19887
-0.3599865 77.38718 -12.33657
-5.942956 72.62206 -12.81922
-5.788494 83.44331 -12.70967
2.259583 83.25526 -12.50458
-1.955015 70.83437 -12.18948
-7.109551 72.7076 -13.14903
-6.478086 87.64352 -12.70915
-6.558213 87.64738 -12.70841
-1.100035 85.95129 -12.57806
-0.9567841 87.97203 -12.62684
-0.6384086 90.0603 -12.67031
1.197598 89.83126 -12.66892
-1.796051 71.75842 -12.20043
-3.778503 71.39882 -12.37293
16.50578 74.49556 -7.461112
13.45196 74.16374 -11.20027
12.44112 73.2104 -12.52407
13.38951 65.89107 -12.06319
11.00623 79.55266 -12.94167
-10.99036 97.78607 -10.68657
-10.36529 100.2618 -10.17853
0.2853183 97.76722 -12.19893
-2.82456 95.98745 -12.54559
-4.623574 96.29694 -12.58519
-4.051536 93.49701 -12.75034
-3.99726 93.18632 -12.75041
-2.457776 90.37043 -12.6867
-4.06377 88.98795 -12.679
-5.158861 98.39132 -12.15453
-5.947566 94.35429 -12.79669
-11.04102 91.89873 -11.57809
1.159037 94.28342 -12.66577
6.863525 89.39058 -12.68263
4.344816 93.33154 -12.77947
5.157909 86.43201 -12.63534
5.282831 89.09009 -12.68611
-2.17831 90.65305 -12.68784
0.7691567 93.36309 -12.68999
-0.3185267 92.19566 -12.69609
1.415514 95.67581 -12.55727
0.08438269 90.67437 -12.67955
-1.225768 94.84561 -12.62622
1.559612 95.31081 -12.59067
0.4112456 92.09336 -12.69622
-0.9951693 92.69518 -12.69699
5.174583 85.31892 -12.61061
3.165565 88.44582 -12.64912
4.886891 84.25428 -12.57621
-9.489857 104.9139 -8.347863
-10.64776 103.3396 -8.533746
-9.23819 101.2133 -10.36479
-6.436997 102.2026 -10.71588
-10.47241 102.999 -8.83404
-9.163414 98.64594 -11.3554
-5.557683 100.0356 -11.65217
-4.151332 100.5079 -11.45214
-4.808644 96.32906 -12.58746
9.259007 86.96632 -12.64123
8.516375 85.5291 -12.80846
11.0636 85.50256 -12.28265
10.71791 79.85468 -13.01915
11.87204 88.78732 -11.41265
9.771989 91.01962 -12.16866
12.07055 84.82281 -11.67764
13.28268 78.32803 -11.0817
13.13989 82.82316 -10.90859
12.61229 81.69891 -11.53733
0.102389 76.35249 -12.30301
2.850459 75.78329 -12.30163
5.135151 75.33281 -12.52065
5.924298 76.28616 -12.68034
3.709509 77.6995 -12.37354
5.907973 78.18836 -12.66347
7.004932 76.61388 -12.95214
5.834683 79.19966 -12.64634
9.337079 82.26958 -13.00883
5.675073 80.83371 -12.61493
6.288671 77.47636 -12.75031
6.777386 81.18378 -12.79986
10.65638 80.28819 -12.99253
10.70392 77.77943 -13.23411
9.903739 77.5714 -13.36383
7.219188 82.03696 -12.85654
