# .PCD v0.7 - Point Cloud Data file format
VERSION 0.7
FIELDS x y z
SIZE 4 4 4
TYPE F F F
COUNT 1 1 1
WIDTH 1660
HEIGHT 1
VIEWPOINT 0 0 0 1 0 0 0
POINTS 1660
DATA ascii
13.96222 148.8147 -9.844654
14.31165 132.6467 -4.426669
11.44887 142.5303 -11.79249
9.58141 140.1556 -12.33338
13.25088 129.6435 -4.15206
7.661221 140.2043 -12.69822
2.97209 139.1551 -12.76679
14.06552 132.8204 -5.678836
13.66857 128.6658 -0.8709014
14.37776 135.8932 -8.146576
13.38065 145.5874 -10.96273
13.24752 148.3305 -10.20778
14.00311 140.2299 -10.49887
0.9929047 134.9298 -11.88098
14.39997 132.2172 -2.40379
13.82767 130.9432 -3.530056
14.7866 136.7531 -8.109572
14.35398 137.097 -8.914673
12.09917 140.7473 -11.52529
12.81575 139.3868 -10.97412
12.79626 145.3888 -11.14048
12.30352 149.9251 -9.26278
2.092312 129.6644 -9.955849
2.523225 135.4695 -12.02628
14.47384 134.7762 -6.943267
14.30353 140.4449 -10.38064
11.31515 139.4442 -11.71357
11.21808 137.9173 -11.40318
11.9616 137.2675 -10.85125
14.20832 144.8222 -10.86804
7.075774 138.0379 -12.60512
4.179114 133.8492 -11.56622
7.080534 127.7566 -8.692742
10.99765 133.1222 -9.514451
13.81313 131.8175 -5.175892
4.586656 127.6292 -9.047545
12.65286 134.7169 -9.216237
7.859631 134.9311 -11.54904
8.865291 135.8168 -11.59545
11.18984 140.492 -11.8614
11.76324 131.2624 -7.930013
5.497938 134.639 -11.75152
7.12356 132.671 -10.91224
6.708821 136.4616 -12.23282
4.180566 136.106 -12.19256
4.385107 132.5889 -11.16421
7.052485 132.421 -10.83275
7.275176 131.1868 -10.25707
3.83488 131.9494 -10.92981
-2.902343 127.3284 -8.998704
-4.751856 128.7719 -9.541485
-8.747395 128.1666 -8.204717
-11.62416 128.3466 -6.222769
-0.5519471 135.9882 -12.16683
-14.041 136.1656 -8.731627
-5.249496 139.1099 -12.77426
-1.040665 133.8569 -11.56858
-13.45396 147.7243 -10.38637
-13.8288 128.4775 0.4352891
-13.31704 138.3773 -10.40367
-13.86441 130.2062 -2.157318
-9.022066 127.4341 -7.842678
-11.40926 127.3755 -6.638958
-11.53178 148.8205 -10.16922
-12.42096 148.1384 -10.4187
-5.790413 127.6388 -8.881193
-11.08845 128.6085 -6.872608
-13.59893 144.9207 -11.0169
-12.37162 149.4019 -9.678313
-12.90128 151.7006 -5.829107
-2.698228 133.8492 -11.56434
-1.318853 130.9947 -10.54058
-6.538133 128.1179 -8.963475
-3.185873 137.511 -12.51047
-14.25703 134.6335 -7.253229
-11.98827 142.4105 -11.62733
-10.79828 145.2895 -11.62846
-1.284881 132.8135 -11.22736
-0.2672913 136.8538 -12.3734
-0.8780206 133.2367 -11.38018
-2.174983 130.8713 -10.48676
-2.659732 137.3959 -12.48784
-1.334041 133.3685 -11.42351
-4.722764 130.3115 -10.24416
-4.270177 133.0869 -11.33197
-8.870454 140.5252 -12.50814
-7.321318 136.3067 -12.11882
-5.519789 139.3089 -12.79511
-6.437876 135.5206 -11.95008
-7.890978 134.567 -11.40886
-5.932326 133.7 -11.47873
-12.33904 133.2989 -8.657748
-13.26575 139.439 -10.71735
-12.77696 136.4716 -9.99799
-7.487529 133.819 -11.25376
-8.316806 137.9946 -12.44661
-12.78343 136.1612 -9.863356
-10.31156 133.2456 -9.971478
-10.49123 127.6123 -7.157181
-12.62491 131.9712 -7.465128
-12.37561 129.2099 -5.705683
-4.027599 131.2897 -10.65075
-6.849438 130.6677 -10.1403
-13.40808 131.6829 -5.859963
-13.03522 131.4543 -6.547141
-12.09389 131.4912 -7.712844
-9.715305 132.3182 -9.819575
-9.903316 128.5535 -7.702195
-9.686997 130.9851 -9.203691
-21.87062 45.06258 -2.95493
12.1415 118.3703 6.246742
-21.91755 50.08385 -1.261875
-21.58722 54.84614 -1.298588
-21.1604 58.671 -0.5736448
-20.12352 66.58266 1.880282
-7.306999 39.14009 9.62036
-0.6644565 112.8496 11.94126
2.219937 110.6825 12.06405
17.82247 96.53441 1.586716
12.62817 113.5974 5.628894
4.528588 112.2613 11.70073
1.01324 114.4546 11.88157
-20.63431 81.52224 0.4310521
-19.90891 88.25089 0.8209215
-0.4263332 115.8828 11.86527
-19.20264 87.7605 5.417702
-3.436717 119.1395 11.79473
-16.2006 105.0899 2.256329
-19.36998 90.41636 2.242728
-3.575505 99.72393 10.78861
-4.217949 117.6471 11.63407
-8.121555 118.8147 10.49598
-12.56996 116.7778 3.076152
-9.734674 117.7549 9.322184
-9.02072 118.8032 10.02133
16.34225 104.5364 2.407327
20.30751 74.61411 2.384534
-2.164158 45.30885 7.576524
7.072266 113.2305 10.66259
5.897019 116.1791 11.12641
-7.35149 117.7253 10.62386
17.26276 40.8403 2.16944
3.882731 115.5278 11.71623
20.47912 58.85235 -0.1360973
-1.986013 116.638 11.85405
20.0082 69.34015 1.754078
20.07418 71.20055 2.348635
19.79175 61.76755 1.803865
-5.259778 118.1678 11.37733
3.368358 118.5705 11.78476
13.50098 112.7129 2.562245
19.83463 50.7745 -0.4758241
13.64078 112.0684 3.496951
7.474693 118.9383 10.81096
12.41662 118.0418 5.210801
11.42905 118.7441 7.785577
17.65533 97.271 1.893813
19.84491 79.65224 5.086114
8.844736 118.421 10.14014
-2.575003 116.7753 11.841
16.09143 105.1996 3.48611
16.43896 103.557 3.456427
7.815639 46.62378 7.344872
5.026511 111.6831 11.6202
3.665372 110.7243 12.00003
2.010719 108.7067 12.2319
-20.96282 43.37179 0.5584688
-20.76074 49.85935 0.1204249
-20.34904 73.50781 1.322412
19.28642 42.37215 0.8242808
-13.42256 110.6361 5.936318
14.73343 109.5633 2.419226
2.800438 116.9212 11.83447
12.8496 115.7541 3.466541
12.15362 117.0793 5.924646
-8.598418 115.869 9.792409
-12.50036 118.6496 4.137744
5.858683 114.6798 11.14132
6.20639 116.9549 11.02781
-22.18602 47.62793 -2.283911
-20.82626 60.45882 -0.6182075
-9.091688 45.70348 8.70457
13.65976 57.60264 6.314939
9.251667 39.37957 6.579586
18.89113 41.73919 1.134585
20.14547 49.37357 -1.151129
-15.18787 108.2843 1.402739
-15.16748 108.4129 1.835185
-16.18043 104.8126 3.466339
15.30773 98.64835 7.186722
19.25207 90.4217 3.126362
-12.93694 112.3745 5.510905
-10.61765 116.2173 8.362453
-8.801456 113.2458 9.700229
-6.032955 116.7073 11.07404
7.931489 110.5212 10.50759
-22.14998 48.14135 -2.18086
-21.52644 51.73999 -0.323902
-20.60623 61.78279 1.573606
-6.516975 41.67651 9.516092
19.57595 84.87237 5.405446
-20.65878 81.13883 1.014921
5.266748 42.64596 8.396717
19.75806 63.74191 1.368484
9.010692 40.44326 6.721616
19.83629 47.46411 -0.1572129
-13.72509 111.7592 3.310092
-16.50382 102.9022 3.769618
16.04551 105.6399 2.179819
17.15722 99.01787 3.431571
19.23045 88.25957 4.998873
-12.82767 109.5693 7.548719
12.6474 115.0974 4.860463
11.50395 116.4852 7.239684
12.88798 111.9047 6.054675
11.30387 114.4199 7.570229
9.62213 114.1777 9.130521
-4.9452 114.6271 11.4867
6.579766 111.6696 10.99876
-21.29836 57.03444 -0.8771867
-21.57315 47.14648 -1.591382
-20.58784 45.62622 -1.151238
-19.25276 43.944 0.9687762
-20.46097 64.59879 0.2761546
-21.15716 56.34965 -1.504151
-13.38951 40.26754 6.274041
-7.200204 42.83822 9.494504
20.57582 80.67808 2.317039
19.96718 86.62454 3.209107
-20.10573 86.99387 1.569238
-20.62632 80.22623 0.1775327
-20.06187 72.81103 2.953272
4.989809 38.85686 8.76107
20.59304 56.84048 -0.1778114
19.71062 61.29126 2.045035
20.00735 60.02913 1.324172
16.20458 42.04943 2.888268
19.99913 48.6708 -0.1057156
17.34797 44.27238 2.265078
-16.60853 103.1194 1.192322
-17.5788 97.78191 1.784056
15.47266 105.9064 5.1135
17.253 97.11392 4.272202
16.98613 101.2603 2.414791
18.6825 91.30346 4.574334
-13.14236 112.2161 5.138224
-13.12565 111.3407 5.990314
13.23288 111.4006 5.690054
14.85466 108.5722 4.234213
8.429772 112.6965 10.02042
-2.956992 113.5364 11.83406
-5.307066 113.21 11.40049
-18.4203 41.53334 3.425486
-18.7449 46.15491 1.547941
-20.33005 73.79205 1.751704
-20.94472 58.71081 -1.098184
-10.27401 42.78695 7.979071
-14.63908 41.89751 5.859068
-0.9357488 40.47532 7.780913
17.89704 68.92496 6.451992
20.51225 79.62237 2.796921
20.17735 84.08857 3.724262
19.82211 68.94508 2.568045
-19.667 88.03364 3.607837
-18.80243 91.81635 3.495273
-20.47689 81.75008 2.878965
10.06392 39.63871 6.245732
10.44793 40.49584 6.12739
4.308762 39.44342 9.180531
19.76264 62.64448 1.786832
-16.67342 102.2659 3.540953
-11.90391 100.9599 8.968296
-12.19291 105.3481 9.041921
-16.28793 103.8759 4.006974
-14.64644 106.8593 6.322143
-11.34917 104.0467 9.340775
-14.01207 109.3283 5.751437
-13.15374 109.9479 6.8658
-9.673745 113.5377 9.097752
-16.77532 99.77737 4.313403
-17.69671 97.18169 1.321596
15.00485 107.3534 5.169234
15.36234 105.7019 5.52851
16.90925 101.283 3.153551
16.82675 98.34718 4.766499
17.42148 93.11528 6.344089
19.79615 88.07845 2.905777
-12.33583 109.6164 8.07157
-9.851527 112.0619 9.205221
-7.449243 111.9233 10.54728
-8.061757 112.2508 10.21156
-6.592537 111.5329 10.99248
-6.074015 110.7361 11.31418
-3.510783 110.5875 12.00429
-5.07541 107.5743 11.88953
-6.511287 109.6336 11.22838
-5.565192 108.7634 11.72765
12.65436 109.9015 7.581007
-4.158745 114.4866 11.68331
-20.88617 54.61981 1.058425
-19.83874 67.76279 2.880525
-20.0047 71.19749 2.71185
-20.46768 75.4017 1.077201
-20.32862 65.51842 0.2139733
-20.71887 60.07084 1.568082
-11.81498 42.78142 7.077097
-11.61926 43.77018 7.187546
-5.578563 41.62236 9.205686
-4.009575 42.73982 7.960862
-5.597294 42.83815 9.193763
-8.702474 40.20607 9.095137
-2.533447 39.95325 7.28343
20.47236 76.55858 2.03847
19.68447 82.09681 5.48666
12.7562 94.21989 9.343447
-20.23113 86.28644 1.112622
-19.418 86.8457 5.238479
-19.35613 88.19348 4.731656
-18.72885 92.86237 2.074641
-20.25564 77.20889 3.578492
-18.15544 79.66759 7.892278
-20.41789 75.15851 1.726721
8.834216 41.51089 6.83299
7.530123 41.00083 7.274678
4.447848 41.42162 9.004154
18.61621 64.49619 4.236831
18.08759 64.64629 5.085368
18.81565 61.93377 3.584984
12.86921 41.41506 4.955107
-14.4494 102.9998 7.541683
-17.30656 99.63271 1.712019
-18.37538 94.06181 2.286548
16.38691 101.8029 4.831394
15.73747 102.0076 6.055113
15.16259 98.20058 7.450612
14.77894 99.54222 7.532313
16.8867 96.79952 5.450161
16.11997 92.49902 8.174299
-11.79602 110.5943 8.200933
-2.609273 108.2275 12.28762
1.568875 110.2448 12.10321
2.113552 109.3949 12.18489
10.55156 96.5276 9.494293
13.75568 108.6781 6.717574
-20.01059 68.25731 1.986127
-15.39133 48.79905 6.273474
-3.406481 41.95308 7.605212
4.96434 42.68101 8.584039
19.50638 76.31966 5.504762
19.16938 71.97249 5.298156
19.35835 87.06672 5.264142
19.31136 72.93417 5.250623
-20.27903 85.76294 1.963192
-20.06849 79.53566 4.540453
7.274599 45.8528 7.444835
7.26382 44.96866 7.417396
16.92391 62.7897 5.69721
16.41158 62.79818 6.069232
-13.78907 102.3325 8.025355
-11.59548 104.2702 9.264671
-11.65857 106.5489 9.236867
-9.595023 105.403 10.02577
-8.799396 104.0868 10.20455
-10.51154 107.4971 9.77894
15.67037 105.023 5.210041
15.98245 98.71115 6.32868
13.08498 97.06669 8.842264
12.29716 98.99763 8.877009
18.26362 90.03667 6.404601
-11.62123 109.712 8.668775
-6.484585 107.4848 11.35571
-9.017448 106.834 10.33159
3.511153 110.4324 12.05576
-7.432685 105.1313 10.79978
-13.71626 44.74061 6.516133
-8.857043 48.15745 8.762938
-9.428213 44.08524 8.536732
-2.504783 44.62546 7.536273
20.30758 73.81961 1.982721
19.33862 85.90007 5.744079
18.69952 73.61618 6.408438
19.36845 69.53716 4.277072
17.80346 74.64402 7.676457
16.44548 68.97174 7.623417
-20.50855 80.11965 2.866093
-20.41358 82.53397 3.170222
10.00513 42.2368 6.440875
12.88071 44.15821 5.154647
5.761299 44.47479 8.063732
2.648838 42.52104 9.622344
-10.31985 102.9724 9.600658
-5.979734 102.2997 10.85521
-7.840066 106.3912 10.75056
10.83173 104.1227 9.521131
-10.48908 47.56051 7.792603
-11.40058 46.37626 7.333111
19.20188 85.52206 6.122739
18.71002 85.32135 7.023367
19.07137 66.40691 4.012284
9.348001 48.55042 7.064351
1.367724 46.66002 9.285065
4.605562 48.19362 8.609179
16.34072 44.8469 2.951538
-15.14415 98.97602 7.290865
-6.430176 106.4801 11.3224
13.76031 98.21664 8.328917
-12.04697 45.16492 7.032804
-15.02789 42.38153 5.74259
-15.67935 46.83246 6.00159
-15.12431 46.96366 6.278454
-7.256277 50.07855 9.111538
-1.814682 43.56581 7.527048
19.51713 82.90221 5.845811
3.690516 42.47286 9.311676
1.105282 46.51538 9.149238
15.34025 45.36238 3.598064
17.95035 50.34816 2.335241
18.51939 48.03252 1.287873
-12.75261 99.67809 8.667192
-7.710837 101.1269 10.19836
7.775294 104.8037 10.65146
-16.84719 44.76648 4.70287
-18.32908 47.05482 2.218616
-20.59402 47.82141 -0.3150837
-19.5608 48.29294 0.9055857
-15.14072 48.36121 6.406931
-11.54724 47.83408 7.300744
-3.190758 47.0219 7.699156
11.36633 42.69293 5.86902
2.9931 46.19028 9.360392
4.346107 49.73064 8.656358
1.052297 42.55805 9.295784
18.82855 47.04551 0.7940107
16.13363 49.77711 4.105725
14.64289 49.09115 4.62876
15.21524 50.35998 4.67882
-17.46894 93.43898 6.096676
-11.0419 98.60348 9.225862
-16.35178 47.66671 5.275289
-19.56103 51.24265 1.711632
-18.90096 50.7217 2.229698
-12.53411 50.61813 7.248717
-6.004072 48.12989 9.17166
-1.12606 45.6662 7.82857
-8.332942 101.8185 10.11152
-20.08672 50.89508 1.107797
-20.97363 51.50039 0.291226
-18.91495 52.10746 2.532596
-8.95225 48.84697 8.704785
12.37262 48.21337 5.615983
-11.86192 98.0737 9.051423
-16.50121 94.99098 6.88015
-13.33787 48.46128 6.941827
-8.54676 48.96628 8.871354
-6.52829 48.86229 9.205545
-5.726671 101.0082 10.6705
-14.58676 49.1132 6.654672
-11.54412 52.3362 7.517678
-16.26068 51.40779 5.455387
-11.35855 95.81901 9.362137
-19.47733 56.23932 2.837068
-18.46948 53.18384 3.171641
-18.75818 56.4655 3.538032
-19.62853 56.76411 2.789654
6.355993 109.1653 11.33483
20.22562 46.86119 -0.8268107
11.45802 112.8731 7.708282
10.83136 107.8553 9.601068
19.51808 49.62619 0.8105947
19.17947 50.77061 1.554721
17.302 51.25824 3.102609
19.34954 60.03949 2.557606
-16.10281 97.35772 6.573932
-17.59121 96.4618 3.387431
-13.08939 106.8095 8.261138
-19.27855 73.72833 5.471361
18.69629 78.41154 7.055037
16.77988 77.54515 8.887692
-18.50306 89.11868 6.360895
-19.27676 74.45435 5.602215
-17.54948 72.35676 7.537462
-16.25026 73.4283 8.64318
-18.26128 74.05753 7.082273
-15.7361 73.38842 8.887718
-14.70465 76.59697 9.613276
-18.33195 80.00426 7.69061
-17.54963 75.2532 7.99496
-19.25266 77.52276 6.137843
-20.07897 78.08095 4.317848
-16.22207 78.73195 9.320085
-16.16834 80.77372 9.469276
-18.88377 78.63827 6.857572
-18.10036 81.23817 7.932509
-18.12101 91.79032 5.764195
-18.55973 89.17 6.242354
-18.34883 90.53981 5.950452
-16.06132 91.84084 8.424871
14.18756 96.68595 8.442331
5.778946 107.3866 11.64184
7.522324 105.2827 10.78482
12.27519 106.1378 8.956696
10.41707 108.3861 9.721933
8.764879 110.3548 10.141
4.454533 94.1799 10.11399
16.17666 87.74516 9.194054
14.70853 66.53432 7.697687
17.22222 69.03255 7.067726
16.32307 70.45927 8.045011
-19.65178 84.06847 5.294639
12.65222 102.6436 8.747062
11.31817 104.9987 9.403406
10.38225 105.7325 9.774367
10.66471 100.6704 9.380047
8.678476 100.3862 9.935344
10.48772 104.3186 9.654281
8.667836 101.8099 10.05573
10.82934 97.13509 9.403909
8.919458 97.99255 9.788227
14.54375 94.67717 8.714315
13.20318 95.20031 9.10531
9.030932 95.56812 9.776512
7.210999 95.48111 9.972793
16.11982 93.40372 7.898207
17.93096 91.33684 6.377214
15.15047 96.09921 7.913921
12.85338 92.41046 9.602051
0.4811965 40.68403 8.988651
16.93594 45.90425 2.879783
18.44954 45.50137 1.658781
5.883242 49.46411 7.985267
12.89478 49.93485 5.410275
9.248895 52.41661 7.271812
14.95699 52.08308 5.071249
14.00299 49.98293 5.00032
15.30126 51.53873 4.824083
17.55189 52.92762 3.350221
16.26611 53.36266 4.407202
17.15897 53.34798 3.724717
17.50672 55.57251 4.027618
15.73687 56.5379 5.183753
17.85174 60.70509 4.467788
14.29435 53.55431 5.534904
11.84567 53.83041 6.334646
16.52748 55.03812 4.455521
14.11589 59.60952 6.432305
9.328795 54.01177 7.333384
14.92547 58.17848 5.871932
13.04445 60.14014 6.852161
16.93819 59.41383 5.132006
9.433115 55.41615 7.352726
10.95023 53.78008 6.738865
16.47499 60.14134 5.526607
12.2484 58.56903 6.861188
-13.03983 69.71635 8.712684
6.242568 59.50459 8.149084
6.73757 54.33374 7.897936
6.688675 59.40618 8.083374
12.53168 70.64806 8.861087
8.99333 63.29776 8.057348
9.753141 62.17384 7.830015
10.09901 60.91236 7.63533
10.66761 60.18722 7.445036
14.856 63.14653 6.839595
13.86169 63.84802 7.267214
10.98579 64.54182 7.938779
15.89358 65.61199 7.037861
12.40623 67.89398 8.344211
12.63645 67.25783 8.197071
-10.04782 97.39075 9.499457
-7.690079 100.719 10.15506
-5.779158 100.5938 10.59277
2.729716 98.96953 10.77148
-6.369142 96.74897 10.04345
-3.894452 97.88564 10.42338
-10.04929 94.96826 9.609407
-6.708041 92.59295 9.952936
5.780254 95.56224 10.10306
-12.78423 49.34282 7.114371
-11.1769 53.58935 7.686222
-9.591693 51.38349 8.288148
-16.25553 53.3326 5.564808
-7.337662 54.6135 8.831267
-1.903118 103.1444 11.92204
-2.505681 103.0974 11.84658
1.6947 106.0039 12.29889
3.332162 104.3298 11.98102
1.45191 103.0087 11.91274
-3.367234 103.9948 11.90375
0.6304998 105.5267 12.26286
-3.845679 106.929 12.20033
5.574179 105.9138 11.61538
5.270305 104.5506 11.48411
0.5723025 103.211 12.00345
3.258634 102.8236 11.66271
-0.2129074 101.4296 11.56746
6.44384 95.18042 10.03774
0.06018107 99.59634 11.03458
7.304177 97.26186 10.02981
5.341437 101.5898 10.90457
-0.03684151 100.4562 11.28837
0.2811582 101.7172 11.64971
2.521829 96.99274 10.43843
-0.1538548 98.34634 10.71994
-14.22741 94.9801 8.796469
-15.74247 52.22434 6.094977
19.22866 56.98771 1.857549
-19.8015 66.36282 3.039581
-19.98444 64.77191 2.765205
17.09433 75.24619 8.384501
16.9346 74.75232 8.430526
16.98169 73.91132 8.259431
17.69882 71.62022 7.188204
19.61267 75.51073 5.087841
13.64606 71.06908 8.893437
15.07406 71.41391 8.674195
16.16349 74.95914 8.914801
16.53384 75.90091 8.863381
9.644246 72.46115 9.206386
10.86549 65.70045 8.132709
8.061803 63.89639 8.220705
8.893174 67.29832 8.534348
5.163278 64.76713 8.518835
5.655385 63.3666 8.392562
6.496207 64.9133 8.446924
-17.61894 90.96066 7.072431
-17.73083 88.23074 7.798915
-19.43731 88.05314 4.562032
-18.01614 69.54135 6.480666
-18.48456 67.61493 5.383931
-11.48247 68.89506 8.714498
-19.08937 66.01031 4.390449
-5.770993 84.02238 10.10438
-17.41651 84.00282 8.600371
-19.29908 84.88669 6.053849
-16.44593 85.73317 9.217321
-17.17375 84.61265 8.779518
-15.57242 87.95505 9.518804
-16.36331 82.29588 9.360243
-15.28204 83.20049 9.886048
-14.65972 81.04018 9.98083
-11.71943 79.5823 10.02537
-16.3242 94.06337 7.477333
-16.36642 95.3707 6.878489
16.94373 95.53847 5.971024
13.31967 109.3593 6.968448
15.86234 79.55722 9.543865
18.53363 69.92351 5.932998
4.718502 48.60036 8.543323
0.086738 51.12329 8.53419
1.346759 47.03825 9.258672
-1.780002 45.63741 7.647218
-0.7536754 48.68654 8.073467
7.345649 48.90014 7.548373
10.88229 49.71424 6.56558
17.64486 61.91647 4.931004
-7.214546 51.91671 9.033686
-5.144342 51.16008 8.757021
-7.470781 52.07094 8.979133
-5.659329 94.73978 10.02377
4.163529 96.99569 10.35055
1.37062 96.67606 10.43318
4.379685 95.57429 10.19888
3.333285 94.77863 10.18754
5.082804 91.74041 10.04754
6.737082 92.51429 9.996499
-2.320373 92.7149 10.08835
2.954037 92.72822 10.09886
8.361381 94.23423 9.87048
8.104937 88.53015 10.08228
0.4413504 92.8331 10.12118
11.28402 92.92165 9.683784
8.354746 91.80923 9.944611
-0.7197974 93.33612 10.13536
-2.013705 94.35594 10.16976
9.629192 92.00816 9.877633
14.15891 90.22511 9.709189
-1.450411 98.6673 10.75432
10.29306 89.31544 10.03708
11.72395 91.2681 9.828609
12.14658 89.94238 9.959517
10.97623 91.3528 9.854233
17.28322 90.60319 7.612321
15.55916 87.21873 9.606193
17.64183 85.7538 8.186503
16.05905 85.21262 9.482479
5.560174 88.49055 10.08438
6.675379 89.74323 10.05113
2.221204 88.52657 10.08292
9.687669 88.33019 10.09397
13.51919 87.96181 10.10434
12.71714 83.7113 10.24038
7.261575 86.00455 10.1306
0.5771868 89.1669 10.07725
4.499983 88.36884 10.08602
12.78212 88.30672 10.12051
16.57806 82.96564 9.262981
17.63099 82.24693 8.433023
10.24977 84.69608 10.18347
12.21783 85.95493 10.23261
-16.40042 92.55159 7.948295
-10.15462 93.4659 9.700119
-11.03059 92.36671 9.738886
-14.31803 90.45086 9.605259
-13.22768 55.69212 7.402167
-14.83222 54.30969 6.812651
-18.95255 57.63379 3.566838
-17.19572 57.48764 5.050906
-15.88237 61.74859 6.563006
-18.13576 57.87777 4.333607
-19.92841 70.57618 2.836321
10.9523 72.98654 9.258697
11.13755 70.68163 8.915662
8.627395 63.91639 8.165581
5.289724 51.0745 8.235172
1.466139 51.73596 9.023521
7.795199 50.89096 7.542565
7.771492 52.97025 7.6339
6.420898 50.63648 7.821702
5.697808 56.05175 8.155756
7.080117 55.0141 7.853709
3.657668 54.06002 8.641966
-7.043019 90.8321 9.984643
2.063773 89.59737 10.07691
-2.273022 90.32848 10.06278
-5.232083 92.18179 10.00755
-5.160172 93.01535 10.01397
-0.9857352 90.55577 10.07053
-5.290914 84.90981 10.10533
-1.909499 89.22183 10.06968
-3.83532 87.96239 10.07805
-2.503339 88.95024 10.0696
-8.632734 91.02414 9.937001
-9.219543 90.95992 9.928315
-8.507635 86.14712 10.1313
-6.485776 86.91899 10.09957
-11.21046 87.17693 10.14611
-11.58484 84.1879 10.20341
-1.418029 86.2682 10.09253
-0.1937295 88.07626 10.08232
13.60019 84.81606 10.21703
13.92997 83.69932 10.18847
2.24704 85.31264 10.09661
5.027206 85.67821 10.11246
-15.85429 55.64227 6.100334
-11.18776 54.69917 7.735303
-15.4365 57.639 6.552269
-16.12337 58.98509 6.128408
-10.27787 56.86425 8.0762
-13.15033 57.77546 7.504816
-10.98118 63.73845 8.223363
-15.87656 60.02163 6.377135
-12.96767 58.6082 7.578887
-12.22422 60.46618 7.822772
-12.32478 63.15059 7.953897
-11.15597 62.13424 8.113261
-14.1557 61.62016 7.343625
-14.1072 65.4772 7.750567
-16.05841 66.45036 7.193118
-14.7217 67.22495 7.855643
-16.97584 66.81348 6.73279
-18.02125 65.79322 5.608449
-11.53821 57.30497 7.816229
-9.755296 60.53705 8.267649
-16.14537 64.83296 6.824647
-17.12124 62.68643 5.875985
-12.33435 65.06798 8.124581
-11.24599 78.65668 9.938646
-10.17183 70.79745 9.035365
-12.49823 69.96747 8.799985
-13.0463 71.88408 9.080892
-13.80371 74.8778 9.507716
17.31323 75.3232 8.247073
17.17101 79.24458 8.760438
16.46426 81.29986 9.297669
7.077288 83.30301 10.10783
11.50225 80.05091 10.05034
12.50724 77.77119 9.865417
14.12443 75.29768 9.546721
11.33475 75.22399 9.551407
11.37925 82.32294 10.16273
8.60251 72.11132 9.177124
7.362527 72.2409 9.212509
5.974382 67.75757 8.741401
7.51696 72.55294 9.24727
4.834347 64.50316 8.51853
5.703096 69.43826 8.926407
6.608564 70.12709 8.979082
-6.566694 54.38984 8.877971
4.948621 59.96975 8.308641
5.506695 73.83051 9.407558
-10.85634 70.42084 8.960844
3.598694 60.08699 8.433171
4.533439 67.85251 8.802778
1.603202 67.1721 8.820256
3.800214 73.39024 9.372542
5.133201 71.94921 9.208182
2.858141 72.23084 9.260722
1.78384 73.84119 9.428023
3.071754 75.17877 9.553983
-14.79727 78.7138 9.849117
5.228122 52.61469 8.258629
-2.271713 51.75319 7.99234
3.958506 51.57781 8.723972
-3.551725 55.28212 8.340308
1.070442 55.27705 8.730428
0.7459552 54.02304 8.726324
-1.060821 56.69152 8.441381
0.795754 56.89742 8.614199
2.690524 55.33881 8.678885
-7.944451 56.04196 8.66561
3.259986 57.45389 8.504742
-1.599307 54.28207 8.195139
-10.46116 53.48243 7.906545
-1.039054 59.97927 8.554451
1.121226 58.4641 8.563851
-6.501121 60.61793 8.56065
-5.754447 58.692 8.607924
-7.58844 57.02481 8.641743
-4.117382 56.94825 8.49448
-2.888929 58.49001 8.495608
-7.171725 61.30023 8.529281
-7.140134 59.13208 8.572214
2.872097 60.6245 8.484519
-2.5153 60.52113 8.568897
-0.7648331 62.39885 8.617235
-1.267812 62.89972 8.637042
0.4523886 63.3586 8.631001
1.652578 62.62944 8.57435
-12.6809 90.3165 9.892303
-14.93559 87.16037 9.841325
-13.01909 88.1058 10.05805
-13.12979 89.16553 10.00464
-8.464646 89.49186 10.01596
-7.823318 84.54662 10.12767
3.802829 82.13004 10.04477
-16.675 68.91295 7.482346
15.2634 77.17857 9.559592
7.982891 76.33208 9.666228
7.819285 73.38553 9.341556
9.736565 73.9739 9.39846
-0.3955154 65.54853 8.745759
0.1228736 68.18964 8.917805
0.378538 72.04378 9.258185
0.3535192 71.09192 9.167166
-1.267254 66.59853 8.815737
-2.906309 66.84956 8.832767
-2.847588 67.92942 8.90851
-6.241998 69.8763 9.036766
-3.55384 72.85184 9.342457
-0.01603276 72.42594 9.296705
1.920573 77.16795 9.735627
3.775089 58.83273 8.417281
-4.175564 59.78537 8.558366
-6.54426 62.75499 8.577476
-7.02175 63.35466 8.570531
-6.824528 62.75774 8.566757
-10.96283 64.67827 8.296904
-11.0422 81.90416 10.14296
-10.38727 81.37747 10.10059
-12.58902 77.38404 9.846927
-2.730422 76.84647 9.717063
-6.097801 82.38259 10.07151
-9.358603 83.47482 10.143
-2.243306 83.0086 10.06549
-3.022883 85.45045 10.09628
-3.260858 82.9667 10.06825
-1.127071 85.83043 10.09399
-0.4882715 86.34294 10.09216
7.312404 84.43676 10.12854
-12.84418 68.71432 8.556016
-7.594011 67.65157 8.803803
-8.795098 66.29568 8.637196
8.764498 76.90981 9.727525
8.895213 78.24275 9.852814
-4.782416 67.17122 8.836349
-6.53942 66.14281 8.727301
-3.869806 67.51653 8.871572
-5.674056 65.92042 8.73983
-6.567652 68.86994 8.937818
-1.365872 73.52495 9.406299
-1.740159 76.21717 9.659473
-0.9418591 78.29216 9.828729
-2.206709 79.14708 9.891315
-9.112733 78.37856 9.884136
-6.277181 73.61826 9.411816
3.188797 82.51829 10.05546
2.860523 85.19539 10.09851
0.4905565 84.37103 10.086
7.255224 82.55748 10.08742
4.096384 79.09075 9.887933
3.910142 78.13098 9.815164
5.212777 76.84293 9.709119
4.676325 78.30697 9.829924
5.717751 79.15115 9.899073
-4.606462 79.17393 9.90347
-6.082131 75.79355 9.630228
-9.29731 72.56936 9.269754
1.62727 80.34134 9.95831
-0.8319576 79.89819 9.934073
-1.814138 85.24057 10.09235
0.3220147 79.36112 9.89996
-3.737687 75.6764 9.614771
-8.835362 75.60938 9.615397
5.312302 81.52718 10.03013
-1.778665 71.91799 9.252154
-5.856878 63.28014 8.613938
-11.85922 76.92671 9.774811
-12.48568 78.57549 9.962375
-8.18038 76.84948 9.738965
-6.086255 77.94334 9.822737
-6.330449 72.36851 9.283023
-9.163729 71.16451 9.112505
-8.813686 72.56585 9.275971
-6.996397 70.00798 9.036301
-11.05047 73.66704 9.377004
-7.504733 66.31688 8.702742
7.534114 76.18539 9.649276
-10.99803 114.8325 -2.951847
20.9917 48.65202 -3.108728
21.87932 44.01955 -5.755392
19.11567 58.97952 -4.13208
19.94006 62.82459 0.01623252
6.633728 116.0135 -4.865355
5.289423 39.86238 -10.12671
3.949864 43.91137 -9.815266
-11.49624 116.7226 -1.606454
-20.88314 51.6004 -3.427022
17.87314 42.80147 -11.01394
2.622468 115.7155 -5.789563
-5.855691 116.3086 -5.152316
13.6337 104.9859 -4.964366
19.0147 91.55049 -1.012724
13.23773 100.1855 -7.900231
15.82063 105.3386 -0.1224532
11.64041 114.1487 -1.823272
14.15199 110.6044 0.5904137
12.93567 114.5981 0.8996418
-2.360618 113.9365 -6.140625
-5.305924 115.8791 -5.302327
10.96031 117.0376 -1.496065
-20.15703 46.88692 -8.502181
-5.416487 40.5665 -10.10578
-16.01746 42.39006 -11.24733
-17.50569 42.15462 -11.28056
-12.40548 116.8234 1.480443
-20.49782 77.76755 -0.3768649
-19.79925 83.55923 -2.963649
-22.02526 45.62284 -3.861088
-22.16433 49.86943 -2.764329
-20.30448 73.68975 -0.5092469
-19.99664 61.23592 -2.150312
4.164488 111.2497 -6.439034
-20.27839 56.62056 -2.720264
1.198255 114.8181 -6.02421
-15.73402 106.1434 0.5690419
-13.71552 111.6067 0.8423028
-10.63745 116.1745 -2.418698
1.724702 112.7592 -6.347904
-17.26144 98.99466 -0.6915882
-19.74857 79.66566 -3.314472
10.73756 112.3287 -3.882633
-8.38086 116.8203 -3.987143
-16.57935 102.9218 0.467528
3.607239 114.9075 -5.680281
-7.163635 115.8448 -4.697021
19.31754 90.33232 -0.9671955
13.08652 114.6631 1.845527
-13.67127 111.3254 -0.1010274
2.858039 114.8642 -5.776011
-0.4347931 114.225 -6.121585
-4.17912 111.9433 -6.023486
-4.776023 110.4123 -6.509727
-6.543481 114.7703 -5.23278
-10.52542 113.2615 -4.198631
21.7008 44.5682 -5.734924
13.70701 41.33152 -11.17264
-17.802 71.11176 -6.245005
-7.923295 47.39634 -10.03906
-21.41236 43.83148 -7.860131
-18.84676 50.20436 -7.219563
16.91056 101.7724 1.145153
19.75501 88.94168 1.433041
13.16895 113.5567 0.6021828
12.11537 113.0005 -1.898894
13.51722 112.3728 1.007451
-10.05168 108.9288 -5.913706
-12.65524 113.4657 -0.3145443
5.787681 111.9103 -6.200756
3.364431 112.4645 -6.27136
19.66004 59.17907 -2.023587
21.26972 46.09728 -4.555413
19.27373 71.34599 -3.806279
20.42457 57.84203 -0.8518889
1.129849 40.51147 -9.729362
-19.20071 64.89252 -3.9072
-0.5086809 44.20427 -9.615129
-20.04175 66.20832 -1.042596
-17.82534 45.67397 -9.882941
-21.40409 48.09262 -4.224473
15.37178 106.0625 -0.8906226
18.68485 93.16438 1.196066
20.06528 87.00089 -0.2020694
13.5259 111.6211 -0.1287948
14.79178 109.0955 0.7376112
-15.74636 101.8327 -3.274872
-10.83916 114.3751 -3.691018
-12.87974 113.5521 0.4075134
8.588243 112.8139 -5.05041
6.17797 113.2433 -5.371231
20.0188 52.86344 -3.530174
21.22877 46.783 -5.366719
21.17449 49.41301 -4.00525
19.97934 68.51798 -0.4937757
20.35664 59.05628 -0.4838777
10.27691 42.73068 -10.48385
9.178438 41.32646 -10.52878
-0.7671184 39.51553 -9.744367
-20.13284 76.05096 -1.962192
-18.77902 69.02512 -4.627575
19.90233 85.29203 -2.156138
-10.41084 42.11491 -10.60585
-3.170477 40.91025 -9.863523
-20.56372 53.42644 -3.257328
-18.13227 42.28036 -11.09315
-20.59711 52.41147 -3.635065
15.68627 104.9352 -1.033288
13.19882 108.7536 -3.438845
17.56989 97.90854 0.7900738
16.8941 101.5878 0.5319554
19.5502 89.89265 1.431317
20.2837 85.81039 1.037655
-18.60413 92.01362 -2.443572
14.65423 108.1251 -1.125343
-16.153 103.6128 -0.7664892
-14.75757 108.3856 -0.540066
-11.27659 112.3421 -3.334125
4.50543 110.0795 -6.601472
1.894258 112.1318 -6.428397
21.09106 51.33945 -2.809854
20.97328 48.73208 -4.783271
18.36892 52.49129 -6.069253
20.54591 55.37866 -1.970963
20.37122 76.61392 -0.9419591
19.78158 64.59519 0.251009
14.75481 41.48964 -11.33645
18.58791 42.90025 -10.74711
3.095841 42.69062 -9.792896
-1.849238 40.21099 -9.773917
-20.24183 82.20587 -1.835837
-20.41424 80.23377 -1.283735
-20.42714 83.65443 -0.4717478
20.5996 82.35905 0.7272111
20.15408 86.1952 -0.4275553
19.06201 83.42348 -4.419589
20.36151 77.6337 -1.263783
20.04034 76.76269 -2.363288
-13.38377 41.5498 -11.05971
-7.5461 43.47419 -10.19658
-6.187656 40.28219 -10.20675
-19.76825 61.23951 -2.754475
-19.72001 46.01864 -8.929203
-14.89635 44.45182 -10.70818
-21.12017 48.29049 -5.418549
-20.19393 50.59556 -5.992657
16.64676 102.6676 0.5572236
14.90095 105.2031 -2.792858
17.69557 97.11772 0.2060417
16.86768 100.3941 -1.031103
16.2626 100.7557 -2.674092
18.81249 91.69798 -1.937566
19.95151 87.6504 -0.2285455
-17.88182 92.8477 -4.067229
14.79949 107.1392 -1.538824
-17.32614 99.38876 0.4764684
-14.83713 105.5658 -2.64411
-13.03961 99.52682 -8.402755
12.02672 111.9232 -2.821188
8.285699 111.895 -5.645308
12.073 110.7364 -3.581902
-0.4028564 111.0777 -6.557529
-2.06643 109.3679 -7.000974
19.63293 57.25572 -2.538032
20.3713 44.74729 -8.744565
20.51016 47.88542 -6.309861
19.70361 72.1437 -2.825151
19.49006 67.6147 -2.716974
18.73966 67.98768 -4.562566
20.14169 60.9867 -0.3860382
13.28499 43.8713 -10.56764
18.17532 44.55836 -10.27288
9.749357 42.7991 -10.42625
5.471491 44.17613 -9.935197
8.272082 41.40016 -10.41102
-1.588248 42.73092 -9.698565
-19.39398 71.76223 -3.665556
-20.29467 79.41937 -1.72908
-19.52171 66.42638 -2.887352
-20.14463 72.28046 -1.034692
19.22128 84.22021 -4.13888
19.55904 82.91094 -3.629692
-12.3194 42.1886 -10.82502
-12.07495 44.23087 -10.62332
-9.500379 44.21629 -10.35084
-5.702826 44.41619 -9.969574
-19.17118 60.39172 -4.741886
-19.34675 60.21655 -4.225281
-19.00488 58.77015 -5.460705
-19.69564 54.48608 -4.571215
-17.97498 45.89188 -9.740531
-18.80452 45.03226 -9.812333
-20.52964 47.39979 -6.272303
-21.81857 45.59358 -5.658831
13.17517 105.8895 -5.020719
18.01714 95.35474 -0.7417302
16.25521 98.71371 -4.126874
14.15331 101.9982 -5.951823
-18.13791 94.8888 -0.6829717
-18.08166 92.05386 -4.005063
-19.72781 88.23563 -1.108865
-16.89883 101.2961 0.1287841
-5.426716 109.838 -6.750014
19.62912 57.96992 -2.398478
19.7346 45.75251 -8.783534
18.22421 49.8214 -8.193795
19.29979 74.15711 -4.06918
19.64983 72.4383 -3.047742
19.81259 63.68864 -0.2441369
19.05697 72.61195 -4.426792
10.51632 42.16293 -10.59239
7.801477 41.74334 -10.32974
14.53273 46.52615 -10.06014
13.61222 44.89994 -10.57006
5.834515 42.93246 -10.04054
3.413112 44.26516 -9.755707
-20.05987 73.8122 -1.850155
-19.05989 88.06613 -3.508419
-19.04392 65.83184 -4.16098
20.40382 78.35754 -1.012525
18.63798 86.21957 -4.799376
19.24434 80.50682 -4.277189
19.96184 77.65347 -2.574321
-14.62438 45.9109 -10.21464
-10.76409 44.81209 -10.45705
-19.38613 56.67556 -4.607465
-22.13482 46.1747 -3.950473
13.72307 103.0188 -5.958117
-17.07402 96.15509 -3.895304
-17.70449 95.3503 -2.610451
2.694228 109.9016 -6.816843
19.02262 61.32713 -3.946779
20.50073 49.50236 -5.60611
19.01418 55.74563 -4.487112
18.75555 69.3834 -4.74532
14.86507 46.32421 -10.09132
17.27515 52.24222 -7.47955
18.63997 46.50978 -9.17869
2.944989 47.48167 -9.581171
6.391434 46.32913 -9.827158
-0.3026329 44.29514 -9.609713
-19.91306 77.63786 -2.852097
-19.08327 74.6955 -4.488997
-18.28885 71.04955 -5.628876
-14.74936 70.03986 -8.245551
-17.64929 69.45117 -6.29939
-19.31808 89.27427 -2.092214
-15.14138 87.70004 -8.449039
-18.04198 87.39179 -5.490448
-18.88995 70.66016 -4.614474
19.31768 80.05069 -4.188468
-16.95005 47.73735 -9.403484
-5.957877 42.35913 -10.09391
-8.478938 44.49423 -10.22833
11.94729 108.323 -4.946406
14.86302 102.5196 -4.603374
-17.95528 91.066 -4.75757
-17.83877 92.09238 -4.561173
-16.20267 90.65105 -7.528553
-13.98635 89.29203 -9.578742
18.06806 62.90649 -5.355158
18.59493 49.86106 -8.049287
6.731782 44.64807 -9.996463
6.143793 48.87082 -9.630256
19.21457 86.33104 -3.708611
-15.96943 45.1405 -10.38674
-10.41701 47.64199 -10.28644
11.84558 108.7149 -4.863556
12.28538 108.0658 -4.785366
9.144023 109.4481 -6.018081
18.92823 64.341 -3.804517
11.16603 46.93155 -10.35172
3.009493 49.82782 -9.473252
-9.531833 47.84785 -10.20447
-18.83288 55.96897 -6.06398
12.22371 111.1928 -3.103693
6.162274 106.905 -7.94945
10.60584 104.2283 -8.129028
9.131355 111.394 -5.330789
11.40523 113.5184 -2.532637
4.809887 108.0084 -7.442062
10.9246 106.4242 -6.674012
9.192581 106.487 -7.534122
18.43269 64.43933 -4.68701
7.077421 48.02813 -9.7317
18.6881 87.14896 -4.509468
18.18526 85.0784 -5.563945
13.86449 85.62768 -8.858063
11.56533 114.6596 -2.17652
9.575311 107.7914 -6.675848
8.373282 105.4794 -8.465697
19.11063 67.1147 -3.711507
18.27838 88.33436 -4.916049
19.54243 88.94377 -1.474301
9.616551 103.7821 -8.925357
17.86237 86.72613 -5.779964
-6.094173 49.67899 -9.750995
14.87338 87.78387 -8.656703
14.06831 85.39684 -8.694102
17.58056 89.79095 -5.754265
4.222693 114.5652 -5.583373
-14.21704 106.472 -3.226698
19.09087 89.27464 -2.779167
19.43143 55.5335 -3.753805
19.4161 57.16992 -3.418341
-18.19123 86.98527 -5.327828
-17.55504 86.52622 -6.208348
-10.20253 43.89203 -10.4475
16.89842 95.91145 -4.512537
-19.3662 78.49686 -4.082029
-17.20208 78.52774 -6.6775
-19.6055 68.57413 -2.534676
-18.84459 66.90897 -4.465909
-18.42044 67.10349 -5.156408
-16.81495 61.77643 -7.191504
-16.90799 64.13864 -6.883155
-14.93633 58.84024 -7.820095
-14.96317 60.87581 -7.809066
-19.16239 64.14536 -4.072868
-17.43604 65.75848 -6.341818
-14.19557 61.42141 -7.971609
-11.88566 64.01715 -8.47688
-14.1439 61.65205 -7.982453
-20.08384 52.34015 -5.226735
-19.08425 54.55443 -6.279558
-16.0116 49.85138 -9.494965
-19.47617 47.14477 -8.857031
-2.296992 44.16919 -9.699706
-11.87656 98.64842 -9.764551
-19.29972 89.82088 -1.726947
-18.4099 87.81783 -4.82271
-16.40129 86.86664 -7.329848
-14.08039 79.43856 -8.252226
-14.27228 90.08401 -9.416701
-13.70934 88.44483 -9.637935
-13.99961 81.05583 -8.273269
-17.21247 84.112 -6.612017
-17.37975 80.84675 -6.518193
-16.13387 81.79605 -7.380803
-17.92044 81.29691 -5.970945
-15.79812 85.9586 -7.790251
-16.86333 80.66328 -6.911153
-17.98739 79.08236 -5.932
-16.67794 76.92803 -7.184994
-16.61154 76.56831 -7.248149
-14.05739 75.53754 -8.479591
-14.52568 83.79639 -8.303284
-16.10008 72.07327 -7.683547
-14.03558 83.08088 -8.419661
-12.88162 74.60262 -8.749043
-13.21084 83.4674 -8.707625
-13.00095 75.02495 -8.72598
-8.112323 65.01774 -8.760468
-11.52839 92.55241 -11.31127
-14.35189 92.17802 -9.283844
8.505023 50.39728 -9.836537
8.298604 47.48469 -9.877629
0.3949786 106.8057 -8.311521
0.2030431 108.0081 -7.666205
2.979138 108.4801 -7.363461
-6.076748 48.31064 -9.808124
14.16739 92.28017 -9.461137
15.80841 89.43672 -7.995027
14.49335 81.44007 -8.125072
16.06909 82.22194 -7.414652
15.73098 81.42947 -7.604369
17.87885 79.86497 -6.059247
12.61224 84.67747 -9.102429
12.77322 83.20829 -8.764702
-8.962424 111.6603 -5.531603
17.57667 58.81228 -6.399788
18.91552 58.20443 -4.600615
18.3013 56.57315 -5.756564
15.34974 58.40601 -7.703899
17.24156 62.84482 -6.16537
17.4467 65.20156 -6.024958
16.46663 68.09121 -7.24858
17.4337 66.20286 -6.147834
16.33203 66.34556 -7.153012
14.09108 67.05289 -8.307033
17.38578 64.34374 -6.013226
-18.92102 61.82586 -5.1681
-16.96744 98.961 -1.981158
-6.7122 110.2637 -6.56199
-18.77061 74.97943 -5.015723
-18.72214 73.13563 -5.080456
-15.82753 59.12283 -7.664162
-12.69523 59.06656 -8.316617
-13.96006 67.66231 -8.363442
-14.7054 67.05005 -8.103793
-18.55896 52.44652 -7.201052
-17.30073 50.78465 -7.774806
-14.62917 105.8603 -2.885284
-1.707452 44.63006 -9.649258
-4.525511 46.03443 -9.792182
-1.345318 44.45649 -9.635869
2.205692 48.13883 -9.526482
-16.23855 95.80691 -5.86151
-16.64408 95.32786 -5.362544
14.65001 49.94397 -8.643514
14.94928 53.09227 -8.645594
12.44005 53.04881 -8.502713
11.96975 50.20078 -9.224288
9.28049 48.49838 -10.06603
-11.1063 86.1274 -10.12512
-13.48449 84.43068 -8.804531
-10.94452 87.71102 -10.80626
-11.34909 87.68588 -10.67135
-15.68381 93.85973 -7.464082
-9.96261 89.44405 -11.60844
-9.273958 92.06703 -12.22921
-9.924614 90.9747 -11.91174
-14.43028 99.82996 -6.661423
-12.10974 97.40219 -10.01694
-8.23795 97.70154 -11.94155
-15.7265 73.22889 -7.911185
-16.03938 71.10442 -7.697002
-16.41972 68.23739 -7.297199
-15.81394 70.57581 -7.810639
-8.619613 75.69315 -8.810116
4.246289 48.89946 -9.565577
12.0806 49.77421 -9.347953
10.14946 99.45484 -10.62065
-1.938973 103.2934 -10.14854
-5.279315 47.26826 -9.789216
-1.438243 51.55854 -9.385721
-3.543602 51.49979 -9.472111
-3.309947 49.48176 -9.55416
-12.97871 47.3817 -9.893879
-8.506067 51.51604 -9.624761
-10.08927 49.60306 -9.762891
-10.71469 52.89304 -9.239513
-9.193192 50.95538 -9.601898
-10.65697 55.56588 -9.339093
-14.71035 49.49604 -9.613231
-11.5084 55.08654 -9.394565
-9.780594 54.94364 -9.14841
-13.41956 48.29123 -9.574442
-15.28308 48.16433 -9.543305
-9.56277 54.21131 -9.106658
-12.63735 52.79256 -9.611271
-17.43332 49.80833 -8.412002
-3.393933 54.15068 -9.330981
-5.870371 53.36224 -9.503261
-8.763792 62.14314 -8.795117
-5.210752 54.5124 -9.375559
-11.09632 59.44196 -8.83985
-6.105117 56.37182 -9.20146
-10.99064 57.26163 -9.208447
-15.23888 50.41006 -9.654211
-13.35954 67.12409 -8.444784
-13.29519 58.91831 -8.151407
-11.86176 57.36977 -8.904694
-6.107049 55.78737 -9.249221
-2.518009 54.69783 -9.275977
-11.41695 58.68775 -8.872523
-15.16046 54.9329 -7.839473
-8.228105 61.59564 -8.840898
-14.62882 55.63217 -7.915791
-8.34555 60.01776 -8.91669
-0.3236363 55.26057 -9.209425
-8.455311 63.83024 -8.760491
-7.313546 62.56078 -8.842186
4.320747 48.75092 -9.577302
2.631299 56.4893 -9.13685
4.99401 52.92798 -9.359335
4.14578 50.76275 -9.450483
0.8677612 57.9696 -9.084234
3.335211 50.71726 -9.432804
1.100913 55.50292 -9.187059
-0.02136157 57.7868 -9.099863
4.335378 50.70131 -9.459094
2.339849 50.17187 -9.435463
5.094542 54.03244 -9.294259
4.043377 56.73186 -9.11817
4.44383 56.14767 -9.150088
10.13982 56.36943 -8.610737
1.778702 58.5015 -9.05413
14.30478 64.50639 -7.967689
10.56091 53.11493 -8.895007
-2.12324 58.65217 -9.080395
4.907909 59.17559 -8.97092
5.8463 58.68723 -8.9714
13.19519 59.10007 -8.327258
11.03707 58.9716 -8.531804
6.675589 60.6472 -8.836846
12.70265 59.62535 -8.338581
10.74221 57.80641 -8.545664
8.284701 59.96648 -8.75377
8.140156 60.7783 -8.737998
12.3113 64.98936 -8.372805
14.74627 60.21311 -7.755507
14.30726 58.50841 -8.09699
13.26991 60.36928 -8.163891
13.84943 54.95218 -8.426409
12.70706 55.62439 -8.748666
-6.113803 45.44876 -9.952574
15.24747 89.72704 -8.570075
14.07213 89.70267 -9.551048
17.40716 93.25191 -4.906795
17.26786 92.69512 -5.429845
17.62343 91.66167 -5.199019
16.92306 92.05994 -6.209043
13.03524 95.05074 -9.952217
14.8203 94.54083 -8.326583
12.56542 90.10172 -10.59913
15.42964 75.669 -7.984652
19.043 75.61028 -4.582017
17.9678 77.26356 -6.023159
17.02863 77.75927 -6.877106
9.642999 85.79908 -10.21096
-6.659245 113.1553 -5.280646
-8.385712 110.383 -5.913233
-7.965108 108.6219 -6.685615
-7.530377 109.0225 -6.576838
14.50795 69.45437 -8.297822
14.56746 67.19987 -8.149708
14.91672 66.19968 -7.946517
15.24584 71.78329 -8.118463
12.7143 66.14088 -8.427197
12.89299 71.40867 -8.708158
16.89157 97.45881 -3.428155
14.71327 95.23299 -8.246155
16.6651 99.23887 -2.728494
17.17313 97.23354 -2.806111
14.09022 96.84602 -8.372853
12.35064 95.90884 -10.28724
12.98134 97.3378 -9.296237
-15.2801 100.1063 -5.165778
15.20742 99.18839 -5.795754
13.76119 97.24187 -8.571929
-11.78075 103.6785 -7.577888
-13.55566 105.1395 -4.994018
-12.68573 106.5191 -5.216612
-10.35205 106.2802 -7.146053
-8.750942 106.2435 -7.852681
-7.543571 106.4212 -8.068312
-7.353639 105.0925 -8.97797
-5.794795 103.5411 -10.0978
-7.946518 103.3956 -9.80355
-3.063084 102.4487 -10.59249
0.2272388 104.3507 -9.583224
3.215736 104.289 -9.640448
-9.505371 101.1758 -10.28465
0.8684391 100.3436 -11.47081
-1.370061 99.93294 -11.61779
-4.059698 108.4722 -7.31486
-3.0864 105.7907 -8.815521
-0.08906659 102.2569 -10.64917
-9.523754 102.4906 -9.634605
2.062133 103.5555 -10.01489
-7.230755 100.7394 -11.25177
4.608431 104.4538 -9.574286
4.52297 104.6407 -9.470528
6.116749 105.3725 -9.002208
-7.056139 102.3146 -10.5896
-11.63256 100.899 -9.037642
-4.298572 98.62253 -12.08663
-7.423232 98.58916 -11.90989
-7.630661 98.92471 -11.77237
-10.86699 101.7339 -9.233104
-11.37114 98.94479 -10.04585
-12.71808 96.79057 -9.717317
-13.27258 97.49273 -8.971247
-12.60822 95.39735 -10.22989
-14.22557 95.92704 -8.553215
-13.56156 101.0257 -7.129145
-14.16683 101.3773 -6.234673
-14.3039 98.31878 -7.527637
0.8889183 49.82369 -9.424552
-0.2410062 48.79527 -9.46124
1.410778 47.28526 -9.534636
16.90697 56.43817 -6.950366
13.13505 54.66907 -8.791916
12.53768 51.04297 -8.763915
-1.853945 94.32497 -12.74665
-8.359092 89.43996 -11.96403
-10.3786 70.36343 -8.748951
-10.0771 65.38222 -8.657887
-11.75133 68.40544 -8.640989
-11.39184 65.87096 -8.566747
-10.86052 64.43152 -8.590286
-14.16512 70.98595 -8.469361
-11.94918 70.51395 -8.716064
-3.745826 66.57217 -8.832874
-7.557784 68.846 -8.776983
-7.861864 71.69794 -8.797239
-8.659905 74.45741 -8.809237
-9.560741 73.96747 -8.802075
-4.947414 77.05602 -8.881011
-10.15564 68.59304 -8.712971
-4.829257 72.45245 -8.820787
-6.868493 65.24159 -8.801199
-4.267825 68.34888 -8.815235
-5.536124 67.10485 -8.808153
-7.76955 69.67209 -8.779846
-3.293428 69.34416 -8.81797
-6.39635 68.84946 -8.793572
-5.842309 70.63441 -8.805119
-1.992783 67.86962 -8.828929
-2.31689 70.61332 -8.822044
-4.523111 72.14854 -8.820683
-0.07626413 67.10783 -8.835781
-0.4902452 72.94521 -8.839869
-5.360662 74.24935 -8.831579
0.6782683 68.57295 -8.822477
-3.408804 74.5947 -8.850621
-0.1628753 74.16718 -8.857443
-1.143742 74.34082 -8.858479
-3.792569 75.16425 -8.856462
-2.75557 72.34749 -8.829449
-0.1427563 67.87411 -8.828899
-0.3287315 76.51594 -8.917807
3.12434 62.4072 -8.892327
-0.4595425 80.12003 -9.17554
0.09197069 78.84824 -9.050535
0.1039195 67.29666 -8.83305
5.045264 72.49014 -8.819333
5.933468 76.84654 -8.879407
10.18885 79.60058 -8.756846
6.271606 74.18559 -8.833356
0.8936645 106.2145 -8.609525
-3.591588 106.3521 -8.492666
-14.10078 53.13392 -8.833802
-16.85466 55.22211 -7.55379
-17.81036 56.00653 -7.394598
-17.82597 57.9405 -7.222443
-5.413514 57.08425 -9.168632
-3.262876 56.83803 -9.178913
-2.015814 59.18476 -9.056592
-4.267087 64.38256 -8.865227
-4.872287 61.49179 -8.943765
0.04087684 60.44715 -8.995315
-0.529186 62.00887 -8.945281
-6.379653 61.72299 -8.902191
-6.110916 57.15819 -9.140296
-1.281809 50.55059 -9.420911
12.22177 62.31926 -8.274164
9.961871 69.80019 -8.733355
10.38383 66.12971 -8.602943
11.71125 69.93456 -8.706268
11.32167 70.14796 -8.721014
10.05924 67.45541 -8.663804
9.284187 73.83681 -8.809302
8.283034 71.57944 -8.785565
11.82231 73.92547 -8.808368
2.713525 66.78642 -8.819921
7.422337 73.19975 -8.813469
1.369001 67.74538 -8.823919
1.471639 69.27157 -8.817883
7.945863 67.07854 -8.722095
6.547739 66.2891 -8.756061
7.268942 66.6026 -8.736493
7.438531 59.98927 -8.82036
6.768363 68.74197 -8.766795
2.373429 64.51767 -8.854914
2.10093 71.05106 -8.820685
4.228543 63.9153 -8.833598
2.837014 64.40351 -8.85092
5.401559 64.46082 -8.793778
1.789924 61.63533 -8.938098
-0.8296404 60.38932 -9.003132
4.709896 60.27931 -8.927907
17.36622 94.08239 -4.529815
14.13429 78.94204 -8.272024
11.61753 79.41015 -8.647243
12.29404 88.71649 -10.53042
17.79525 72.95984 -6.328053
17.55657 72.56181 -6.562524
11.03229 75.90491 -8.796179
14.34374 75.55368 -8.420236
13.96557 77.02647 -8.464908
8.905614 76.86289 -8.81789
12.60231 76.06218 -8.747519
9.994437 76.63192 -8.799597
17.47157 70.49104 -6.556545
9.496711 74.72726 -8.814797
10.57745 77.87986 -8.750416
8.989747 77.17065 -8.815503
1.907737 99.75273 -11.68338
0.2565364 100.606 -11.3707
-2.895771 99.28782 -11.85453
-3.628339 98.59072 -12.07573
-6.450423 95.08813 -12.73054
-12.11096 93.48017 -10.9186
-10.85226 97.95012 -10.71175
-8.465043 97.17569 -12.01785
-6.419911 95.82877 -12.6451
-8.651481 92.76329 -12.43171
-11.37128 96.94233 -10.71706
-10.63375 96.03677 -11.38152
-2.832992 96.49103 -12.5359
-5.056764 90.48394 -12.37518
3.475453 97.91074 -12.24546
-1.588367 96.73728 -12.4752
2.643931 95.56552 -12.65892
5.395989 97.58632 -12.38787
-3.05558 91.73043 -12.60559
4.514595 93.74721 -12.80024
6.959169 94.36246 -12.72701
-4.48903 91.58264 -12.60896
-4.878549 89.70776 -12.16144
-2.099897 86.43386 -10.85535
-3.174723 89.26396 -11.98235
0.13625 92.93724 -12.71219
0.7519107 89.1238 -11.92052
1.415647 91.79633 -12.58835
-0.3061972 93.45152 -12.7292
-4.241384 95.24566 -12.72451
7.400803 97.29066 -12.23612
5.459947 92.16863 -12.72747
11.77969 97.06452 -10.35644
9.282174 95.75143 -12.02346
6.57452 97.01799 -12.43606
10.91582 97.66501 -10.76879
9.773088 96.27671 -11.74337
-2.118263 93.06155 -12.72419
4.28111 96.84637 -12.49346
4.948666 98.81644 -12.03997
3.357026 98.44688 -12.11128
4.314011 98.05218 -12.23492
12.98906 98.67637 -8.793769
6.284818 98.73416 -12.03036
2.415905 98.82286 -11.9843
6.657741 100.7965 -11.32011
8.126041 89.88182 -12.09058
10.96634 90.57078 -11.47516
11.80051 86.32995 -9.993602
6.104575 90.48944 -12.39857
-15.98686 94.73653 -6.725575
-2.554801 47.49979 -9.596821
-10.52562 85.15876 -9.73273
-12.23735 83.69705 -8.951797
-7.548389 80.03731 -8.926767
-6.803031 79.52087 -8.930384
-5.241792 78.39706 -8.928188
-4.332598 79.54922 -9.036848
-5.456732 80.15245 -9.049581
-9.215927 78.57819 -8.782336
-2.428797 81.76277 -9.400713
-7.736626 84.60062 -9.850266
-8.876987 84.19196 -9.571738
