# .PCD v0.7 - Point Cloud Data file format
VERSION 0.7
FIELDS x y z
SIZE 4 4 4
TYPE F F F
COUNT 1 1 1
WIDTH 1668
HEIGHT 1
VIEWPOINT 0 0 0 1 0 0 0
POINTS 1668
DATA ascii
-14.31509 132.1914 9.725998
5.792523 149.7549 1.418172
-29.07253 30.3037 4.649305
16.60037 15.59854 10.65697
-13.96951 13.14564 12.08091
18.49532 93.81195 0.3781259
0.8856514 155.5893 -8.688313
-28.57829 12.97726 7.303039
-27.16128 54.79935 2.550814
-30.13139 11.99794 6.641331
-25.32191 14.91926 6.300886
-19.30625 89.51528 3.856428
-5.884113 153.8606 -3.068082
-16.20066 104.91 1.516628
12.9018 112.9217 5.158
-13.77158 130.3569 9.463276
1.610533 155.387 -8.661849
-5.94916 154.4548 -4.552557
-11.53218 140.7942 6.51941
-5.934718 142.5011 7.541552
-9.490017 147.6828 1.347349
-7.915371 148.1547 1.855395
-4.257617 154.9537 -7.68489
-1.278579 156.4456 -8.405362
-6.410769 148.0876 2.63079
6.658402 153.3143 -3.828248
12.53101 13.07223 12.11103
-27.72712 52.31222 2.22367
23.56616 76.8277 1.12508
20.08167 85.7576 3.295066
-27.65982 24.84157 6.041065
-29.73265 13.33077 6.704138
-18.67384 46.07241 1.910791
30.87339 15.05966 8.167023
3.002631 154.8624 -8.458341
-8.815009 144.2829 5.118485
6.644794 149.7822 0.9966733
28.45426 42.34102 3.232174
-17.19921 14.20475 2.086534
4.571588 144.0387 6.096533
-18.68601 41.20624 1.649935
-1.1968 137.6195 9.836796
2.769044 156.0969 -8.108215
-11.64102 125.2411 8.298192
-6.619563 152.3678 -2.235147
16.27787 104.5799 2.969056
-11.19838 138.4848 9.381297
18.19314 94.90778 0.495582
-0.1390219 136.925 11.47676
-12.37043 118.7891 3.062221
-25.06497 12.19979 5.846054
13.52277 128.0684 5.573583
2.493565 13.50676 11.68943
-7.839227 140.049 9.488637
-7.725944 146.3996 3.633761
-7.352671 144.9239 5.162033
24.2971 59.76348 6.156696
30.51158 22.7966 8.519355
30.95629 19.42975 10.34901
10.35184 136.5166 11.8721
8.449493 139.3087 9.961235
9.53637 144.198 4.735675
8.477674 145.7164 3.83405
13.02307 130.356 10.81529
12.6427 120.0394 4.340586
-12.76444 121.203 5.137733
-25.58044 15.88484 6.47239
-28.99904 33.81502 4.189831
-21.54572 13.73375 -1.772559
-19.24934 14.092 11.86939
23.81163 75.86539 1.387051
-23.62589 75.21334 1.355432
-13.52618 130.8954 10.27466
-13.21255 123.8823 4.034766
-3.812764 138.7929 9.921819
14.64881 14.06994 11.6395
21.84653 16.83339 7.201147
30.80487 16.88544 17.53301
30.13729 25.25391 5.844249
11.99091 134.5036 11.99565
-0.185334 136.0071 12.78389
5.489352 145.0943 5.346221
4.524858 141.1123 8.347686
-13.79545 111.4226 3.802846
-10.12346 115.9015 8.735044
-11.70153 118.2512 7.194235
10.90273 119.7316 8.620586
14.21606 109.4563 5.063895
-26.1818 15.58875 6.855153
-29.55933 38.11288 2.768008
-29.55968 27.47519 4.714509
-24.32345 12.3852 3.712002
-18.04141 13.26193 4.688452
-23.95407 50.92905 2.81052
-11.38951 16.22392 11.72018
25.21625 68.43153 3.722918
20.22039 87.00413 1.271858
16.80161 101.9242 3.053566
-17.06472 99.3448 3.607516
-12.68345 130.9386 11.44838
-13.23484 134.9651 10.48969
-7.330308 143.4574 6.522983
-6.698929 141.1716 8.687255
28.49929 43.99535 3.969835
21.95174 15.76631 7.233735
29.43789 38.99934 6.679605
30.35517 23.02026 7.026318
8.62009 140.7731 8.5422
7.964084 140.3768 9.120004
8.122339 137.9934 11.20794
0.1585198 137.5348 10.01986
13.25111 126.9934 5.497788
-15.13131 108.4248 2.96011
-5.674323 114.6772 11.20093
13.50146 112.2371 3.394536
-29.04895 39.41402 3.37065
-26.59744 31.07177 5.465438
-26.45071 29.40417 5.653129
-26.92165 26.80145 5.899934
-27.21743 22.7381 6.381165
-28.63344 20.0286 6.35655
-24.22731 11.93971 3.160861
-17.2974 13.12683 0.7874102
-26.31527 57.38636 2.669272
-27.82359 48.37952 3.161746
-13.28312 13.46552 12.02263
-0.08802015 15.35475 11.34875
24.07508 74.6465 1.449484
21.46848 84.06688 0.5004051
-19.29416 90.89471 1.402322
-22.93708 78.17639 1.281263
-16.8982 101.8095 2.057544
-18.11305 95.11759 1.970467
-13.7714 127.7722 3.223885
16.42841 13.79717 10.83729
28.55465 45.0535 4.643973
26.63631 19.04785 12.74045
23.05741 14.85666 7.431062
30.06307 28.22697 7.284346
28.47428 43.1473 3.577914
30.13048 24.82536 5.413888
8.845454 135.5799 13.05303
-3.635622 134.481 13.60513
-13.01918 112.8697 4.82091
-14.74095 108.7002 4.363036
-9.76494 113.3328 9.029752
-6.754494 116.6701 10.72122
-9.651361 117.7365 9.417532
15.34745 106.7928 4.710582
-26.37588 37.29423 4.781425
-23.83289 15.13129 0.3048401
-18.96786 14.98473 -0.6347881
-27.65985 52.86197 2.081483
-23.84611 45.05556 2.934292
-20.26212 16.26564 11.07337
-14.8717 14.20545 12.109
2.031072 14.26828 11.58814
25.48769 65.32962 1.545762
23.31335 76.07634 2.725304
-19.99546 87.82733 1.203332
-20.77728 83.05278 2.222204
-24.2217 73.41096 1.146586
17.48948 97.03719 3.272174
-16.27233 102.3315 4.896379
-17.5113 96.1803 4.019036
-11.26365 119.6969 8.212884
15.05003 17.88608 11.38907
12.43207 15.97642 12.11899
9.030797 13.0719 12.15136
28.25113 49.31714 5.015285
28.74898 44.65957 5.402063
28.67288 46.60168 8.596465
26.62244 16.983 12.59585
20.65473 18.51826 7.284641
29.76547 32.44485 6.765819
27.24294 17.02782 14.28668
-12.90808 111.661 6.111598
-5.189844 115.4775 11.36655
12.36724 116.2871 4.408854
14.22972 105.7369 7.409638
-24.24033 41.15601 3.663583
-28.14949 43.27282 3.639229
-26.41068 21.97198 6.360261
-19.11147 17.92226 -0.5171822
-25.64948 65.66586 0.8272626
-25.89807 63.40121 1.911071
-25.43587 46.46901 3.873406
-17.42192 15.12035 12.11572
-20.32026 15.36802 8.050841
-14.19403 16.74744 11.99298
-17.95874 15.19916 4.531596
-18.03307 19.67075 0.482394
-6.919046 15.27253 11.41628
-0.7301599 19.79129 10.85613
-0.7076282 15.41376 11.31747
-0.555169 16.90485 11.15792
-5.538146 14.0833 11.47955
24.46246 71.52373 3.307426
19.34193 78.90264 6.341763
-19.05804 90.6049 3.813205
-22.10465 81.57912 1.238836
-20.47634 82.11734 2.827658
-21.02398 77.33123 1.589823
16.23629 103.3073 4.487801
17.4358 98.63902 1.915097
-17.06087 100.2776 3.02534
-12.35131 133.6004 11.99398
16.71396 14.54333 10.62762
7.578254 16.27073 11.97713
4.968791 17.15507 11.62484
30.06392 38.03783 9.37581
28.09959 51.59138 5.886108
28.30912 49.65057 5.531357
25.91435 19.87946 10.70164
29.9099 28.05684 5.44415
4.526875 138.3661 10.55957
-14.39437 107.6409 6.216166
-12.13034 113.9596 6.186279
10.65011 111.9952 8.619246
15.07102 107.615 4.634642
-26.62243 18.87528 6.723509
-26.28073 24.80005 6.030753
-24.61235 19.73645 4.557511
-22.80526 20.64234 -1.14082
-21.05907 17.5062 -1.423186
-24.08539 59.47438 2.537254
-23.1911 60.2547 1.957296
-19.89717 61.03367 1.486845
-25.17363 51.93971 3.326519
-20.75432 15.6735 9.398078
-17.45817 15.40187 3.149324
24.92686 69.01279 3.982337
-18.94212 90.86965 4.043252
-22.72667 76.34797 1.514079
16.83373 99.73582 4.2254
16.97878 97.26887 4.935988
18.83307 92.6178 0.4898544
-18.01156 93.5611 4.698399
-16.6392 98.81796 5.095829
28.84959 46.13335 8.400965
29.71235 39.4057 7.885014
27.16457 56.73658 3.681713
30.27611 35.7143 9.307481
3.655371 136.6825 12.0783
-7.21788 112.2672 10.52586
12.58028 110.9113 7.083077
-24.69958 24.77341 4.779119
-21.34139 59.83378 0.8675411
-19.90439 17.94803 7.3951
-14.43303 18.50888 11.9601
-1.426799 18.64977 10.94258
19.59603 85.82458 5.069286
14.73084 99.15935 7.602588
18.32754 93.99939 2.747129
-13.14739 90.45551 9.854854
26.90307 53.1548 7.945407
29.77369 34.12735 7.143534
-8.359262 114.1033 9.809746
-24.81468 23.96654 4.95403
-25.09113 20.14781 5.646669
-24.03736 48.40858 3.034527
-18.09769 19.09228 4.572753
19.90849 86.49481 3.697314
20.09106 80.87656 4.484251
15.40191 95.32505 7.938218
18.86986 91.11822 4.074114
11.21513 109.5151 9.031917
-23.17631 52.84147 2.008738
-19.01544 22.92724 -0.1795247
14.91264 101.7082 7.138984
13.57419 92.2457 9.526354
16.62848 92.2691 7.786695
18.84706 85.15029 6.819401
-9.711139 123.2264 10.0964
11.57698 110.6307 8.348015
-4.874001 114.6692 11.45542
9.968699 107.7059 9.986273
-19.02306 48.1946 1.497428
17.44009 82.72717 8.605133
26.15889 47.66185 9.090364
8.811657 114.8192 9.571812
15.58939 93.7423 8.267068
14.53745 87.37239 9.952267
28.15636 48.70701 8.692186
11.1284 115.1112 7.682659
2.22784 109.4416 12.16672
18.3299 79.66139 7.999365
3.678238 120.155 11.82979
6.157008 112.7524 11.04621
-22.55506 54.94941 1.374364
25.4894 49.06143 8.376418
-4.088425 122.2424 11.99274
24.0487 48.92933 6.773435
-2.555778 113.0575 11.77573
19.86883 55.87801 4.60596
25.0316 51.57232 7.625556
6.754485 115.8175 10.66725
27.82754 53.54103 6.056106
24.80651 52.62063 7.316182
26.82839 59.02407 3.601721
26.37391 57.68425 6.749049
23.79331 66.38168 5.026027
26.44307 61.89523 4.339505
31.20203 17.80931 11.29015
31.59311 17.51057 13.18434
31.01567 20.85849 16.18905
31.84711 21.78253 15.37626
31.82022 22.53953 13.74514
28.81951 19.93157 16.11255
31.72787 22.88072 15.22832
30.54737 20.08651 7.261506
31.00146 24.22274 10.80894
-3.970859 139.0942 9.807795
-8.830729 137.8343 11.23734
-7.955699 138.7454 10.65456
-8.501984 140.1215 9.227788
-7.156116 132.5049 13.89659
-7.203419 134.5885 13.58023
12.02044 119.5581 6.936058
-24.75846 19.24046 4.941094
-24.50996 22.01727 4.217112
-13.01817 127.3885 6.399858
5.934449 140.9669 8.750014
-27.62063 25.88221 5.912565
-25.49315 19.57731 6.171091
30.23283 26.05425 7.553037
30.15613 27.94782 14.36743
30.08605 31.74032 8.110049
31.40966 22.70615 15.50296
30.73185 21.08094 9.463237
30.96182 29.28938 10.94088
30.82544 28.75242 10.43384
30.91995 26.95912 14.3561
27.17156 23.29142 13.87051
-8.339787 124.5792 10.82879
-22.42651 68.14925 1.324922
-19.72985 69.41233 3.350091
-20.49219 72.6158 1.893129
-20.32896 75.49171 2.661021
-20.16649 70.04195 1.922879
-20.55701 68.53886 1.428511
-22.81212 65.11916 1.555828
-20.68002 66.20311 1.39024
-19.86317 67.96694 2.212163
-19.46768 61.85908 2.388957
-19.60441 66.41938 4.372529
-19.59343 76.29565 6.493392
-20.48034 79.24223 2.937476
-19.31643 76.78239 7.071025
-9.011308 15.66281 11.52768
3.521857 15.49206 11.59651
18.28663 67.72324 8.396086
22.51231 62.62579 4.658281
21.94174 61.996 4.343305
22.61067 60.53331 4.82584
8.419785 19.28706 11.93223
7.98597 23.59934 11.61866
2.485158 20.9307 10.97534
0.7340429 19.46411 10.96488
23.69953 20.38928 7.461729
24.99474 21.45149 8.855286
25.62767 23.26992 9.969799
24.80692 24.11951 8.466026
-14.73089 107.6686 5.494269
-15.46856 103.8723 6.078765
-1.673391 121.3293 11.9579
-12.07729 120.7733 7.173976
-25.02186 41.54414 4.100793
-24.95562 43.93812 3.914687
-13.55612 97.74593 8.518208
-15.70914 97.53943 7.033703
-10.89034 132.5661 13.10064
-9.568299 127.0003 10.31686
-10.19229 129.044 12.15097
-9.083181 136.8496 12.08062
26.09557 18.45963 11.11582
27.98549 18.52585 15.68448
-24.33826 32.3896 3.979636
-24.05365 38.1911 3.218338
-24.12131 31.08835 3.136037
-20.1227 58.51564 0.8753756
-19.66257 59.29046 1.483403
-19.72628 62.11588 1.943967
-19.49818 63.48779 4.26492
-19.71721 64.53941 7.528616
-19.8575 64.93186 6.418532
-19.61759 64.3841 4.752527
-19.07848 69.47949 8.194261
-19.83754 60.65147 6.464085
-16.27751 65.8455 10.15829
-15.57309 65.09773 10.22573
-18.35552 64.08105 9.41724
-19.84586 72.39613 5.538609
-13.22985 67.02581 9.949232
23.75948 68.22415 4.58396
-15.65313 92.07317 8.653197
-13.82382 92.29905 9.460617
-16.1841 89.7341 8.865398
-13.468 87.62518 10.13371
-11.22014 87.72842 10.14758
-15.11173 86.36874 9.814051
3.383087 134.8707 13.39434
13.15061 105.656 8.452597
12.98914 104.2676 8.61609
11.55071 101.6211 9.086383
9.479935 103.2979 9.890023
-2.851664 17.54389 11.04327
-7.761855 21.31312 10.99927
-7.944786 19.59583 11.13488
-3.363342 24.07919 10.4986
-4.960987 23.26307 10.62838
-4.446687 25.66325 10.44371
-10.19016 23.62851 11.17108
-11.76533 25.03391 11.36159
-10.39235 20.12592 11.38541
-13.60923 17.78775 11.89683
11.59997 93.64353 9.464396
12.94357 100.0333 8.572598
13.71534 98.55548 8.364536
12.94559 94.07066 9.337722
10.48387 95.0914 9.26599
8.887356 101.304 9.755086
10.04743 98.16676 9.240814
3.660354 101.3029 11.12941
4.771 99.59752 10.35514
5.315253 101.2049 10.65867
9.423765 100.6545 9.547757
2.91871 101.8562 11.47313
12.47101 81.51945 10.25219
0.2483368 94.70763 9.355468
1.604474 96.78416 9.990932
4.356593 97.81992 9.931705
-0.3820608 95.06548 9.464527
4.171607 100.9794 10.88459
-0.3414906 100.6523 11.338
-3.468017 101.0633 11.11573
-2.497176 101.0941 11.30041
-0.2837436 95.97656 9.782829
-0.4606707 98.15234 10.53026
-5.581456 103.0036 11.06869
-4.070217 102.3692 11.36423
2.939008 93.00879 9.110036
1.319091 93.12707 9.095713
0.1228274 91.66763 9.648229
4.716288 90.57811 10.06183
11.13096 91.97319 9.689498
11.14992 88.55927 10.13048
14.8542 90.14047 9.49112
-9.935987 120.7858 9.714288
-3.881963 123.1839 12.11621
-5.784773 126.3701 11.58977
-6.64161 128.7827 12.48473
-6.335908 130.5935 13.55481
-4.549886 118.7604 11.57407
-3.259593 127.1405 12.01778
-2.47075 121.5246 11.97322
-2.045572 117.0539 11.82496
-2.176341 122.2236 12.05233
3.230114 120.4164 11.86941
-1.552133 118.5097 11.84224
2.162763 122.0314 12.03843
4.037447 119.5496 11.73207
7.525774 120.4679 11.03259
3.020864 124.2364 12.19746
30.48555 34.07206 9.834924
30.42415 35.45497 11.27153
30.49764 34.846 10.21106
29.93804 37.68487 8.385683
30.01682 38.05582 8.976828
27.6131 36.66911 11.87335
27.96287 37.24347 11.89858
-24.00356 30.40415 2.199141
-23.70671 31.10451 0.9831832
-23.90878 27.76347 1.266033
-23.9355 25.37077 1.309279
-23.64675 24.4689 0.3410442
-20.25355 19.2688 8.061898
14.00162 18.07082 11.76546
19.58108 18.78896 7.841208
11.97931 23.77184 12.00249
11.53456 20.12749 12.11328
19.00966 21.31763 7.994756
5.614539 112.0846 11.34218
9.296097 108.3563 10.1931
9.097695 107.4242 10.36209
5.296002 108.9201 11.80169
3.964611 109.1996 12.1387
6.481068 106.6318 11.40267
-0.9071904 104.2023 12.14115
9.475405 106.3735 10.22132
-19.65211 48.4754 0.7963445
-20.67023 52.70229 0.4405214
-18.93396 49.59964 3.983003
10.17339 123.1574 9.746347
3.115722 115.7952 11.79837
-0.2830843 114.2838 11.80107
2.066575 107.8711 12.28954
6.03141 117.6876 11.06231
26.82269 59.76508 4.337061
-26.89698 17.54375 6.906319
26.97908 26.36008 13.15871
11.39689 126.5514 8.513503
-23.95877 63.57477 2.255112
23.84339 73.88137 3.09322
20.58666 17.87517 7.345586
25.70395 23.25677 10.14635
-8.131869 100.9881 9.854526
-7.669162 104.5668 10.61733
-6.533142 103.1488 10.83102
-10.09292 106.6184 9.923039
-12.04624 106.2782 9.062899
-8.418501 106.8767 10.62091
-6.053448 110.1877 11.37108
-3.929581 115.4545 11.71534
0.1038169 113.2778 11.77025
-22.74025 47.51962 1.020658
-21.6365 45.76321 0.05562966
-19.83717 45.367 0.591873
-11.48498 100.6859 9.046253
-15.24441 98.45228 7.296782
-13.87512 96.86101 8.578376
-11.38021 96.88462 9.154415
26.88517 19.87845 13.47467
-23.56735 36.24211 1.391208
-23.78408 38.15239 2.637775
-23.37059 31.97278 0.2783223
-17.87556 27.0703 3.458926
-19.41173 57.61545 4.473329
-19.44532 58.13235 4.598705
24.64699 67.6014 4.608486
24.14454 66.82012 4.959394
-18.3776 77.44904 8.315453
-16.50865 76.28364 9.520233
-19.8807 80.72841 5.111823
-17.59226 83.07611 8.438788
-18.28282 83.24509 7.749453
-19.48454 87.98708 4.419896
-16.17991 85.92213 9.36252
-14.81237 83.12007 10.01731
-17.16716 85.91547 8.694164
-16.20314 88.05787 9.149619
-2.82067 24.60636 10.44995
1.716987 21.86502 10.81468
-4.380597 25.17632 10.46992
-3.891208 27.40349 10.31459
-12.88207 28.76217 11.40441
-13.69455 23.74204 11.7149
-13.48947 20.05552 11.80528
-17.00101 20.58276 12.00392
0.4474383 100.5831 11.31304
-8.065378 92.75651 9.340072
-7.501365 93.66222 9.134222
-12.49575 91.00937 9.823808
-3.195165 92.35445 9.299707
-10.09186 85.73843 10.23434
-9.278458 89.15826 10.1747
-11.86959 91.44995 9.776332
-6.102362 98.08665 9.763128
9.790038 89.25142 10.1395
9.403725 86.83817 10.20769
15.43523 88.80988 9.453145
15.97157 88.25193 9.262458
-5.692067 130.297 13.42221
-3.393101 130.755 13.76726
-4.179511 130.5692 13.6416
1.193697 131.7269 13.95331
-0.7477158 133.1784 13.95203
1.722559 125.3769 12.25124
-2.03249 124.714 12.24623
-0.761861 127.9759 11.9581
4.494538 129.6268 12.98442
-0.3625872 129.1539 12.43604
4.880796 132.28 13.86704
2.016625 132.7075 13.96557
4.39238 122.327 11.98744
4.07012 125.4033 12.15243
30.59787 30.79873 13.10081
-19.48793 22.2398 -0.5298452
-18.44923 25.9014 0.519972
-19.56959 28.89454 -0.04319642
-16.3993 24.17559 11.92372
-18.43532 20.28757 11.85669
-20.07513 22.53493 7.602036
-19.17071 21.01959 6.175335
21.21261 79.20398 2.720726
17.4198 81.70974 8.658674
17.98032 76.8823 8.545034
16.03248 77.2929 9.448433
15.53964 78.58923 9.634131
14.49265 83.2655 10.083
8.663514 22.99504 11.7665
11.65229 22.38113 12.05072
14.08854 22.50793 11.67921
13.09691 26.87635 11.79235
7.501343 25.97899 11.34642
14.75129 27.13623 11.3607
11.59574 30.71625 11.73435
11.5387 17.89544 12.14765
-18.88526 50.33385 3.198174
-19.49788 57.00554 8.867544
-19.79516 59.90086 5.857088
-19.73704 51.78824 6.294039
-19.85127 59.42321 7.448838
-19.83451 61.10766 7.320649
-19.86635 54.86658 6.771229
-18.66242 46.62276 2.654821
-20.11377 44.47105 8.076503
-19.26719 39.53255 1.007517
-20.11686 43.92189 7.998818
9.80244 122.3466 10.008
9.933078 129.7398 12.6668
9.21344 132.4944 13.68385
9.677251 132.2561 13.54471
6.030982 132.6867 13.85706
13.03772 124.3927 5.790301
10.69433 124.4464 9.257546
12.79024 126.2114 6.739284
6.288473 20.70865 11.54357
26.49604 22.57549 12.3491
-11.06491 109.7192 9.084805
-4.706649 102.8382 11.30054
-1.261845 107.1432 12.32906
-2.956212 104.4157 12.048
0.6587791 109.2444 12.2005
0.1015752 105.9537 12.29557
-5.720924 109.6871 11.55667
-3.151523 107.7698 12.29102
-7.717436 111.5989 10.33642
1.651262 116.1475 11.83889
-19.1466 44.24284 1.20184
-14.33455 98.95506 7.909205
-12.34738 101.9105 8.836711
-12.39106 65.78693 9.903572
-17.17576 74.4186 9.398103
-13.91112 75.03294 9.969743
-17.25502 69.97218 9.682492
-15.03526 71.18958 9.952172
-9.904354 75.34763 10.42679
-13.30957 71.8606 9.948239
-14.30292 76.50052 9.951611
20.99295 67.80544 3.665439
22.0546 69.30797 3.88722
19.20965 70.26211 5.577027
20.17409 68.5963 3.782165
19.18478 71.27177 5.91849
19.44273 68.7046 4.664457
19.71484 65.98993 4.264358
-19.55465 83.61687 5.681356
2.109636 22.72519 10.76828
-5.318248 32.39857 10.1535
-11.76263 25.76786 11.32907
-9.94903 28.8784 10.86371
-9.815199 30.8324 10.7469
-14.68371 41.09253 11.16281
-6.859869 31.4736 10.32248
-7.247181 35.85535 10.16935
-2.117162 33.00291 9.989899
-12.01496 24.46512 11.42654
-20.46566 25.08785 9.679275
-10.76619 78.24167 10.36335
1.199 87.40625 10.25749
-4.137869 91.59386 9.69087
-7.784453 97.61417 9.447252
11.24094 83.07521 10.26926
9.817194 128.7803 12.0273
6.788495 128.6867 12.39467
8.142004 125.0725 10.8793
26.14599 38.04075 10.32265
-20.27603 23.56429 -0.7767496
-17.99843 23.71402 4.159855
-19.68962 29.50289 -0.06394746
-17.74335 19.35906 12.00555
-17.39397 20.97549 1.999868
19.71392 78.67184 5.389974
16.21516 76.19521 9.40096
14.76823 77.69862 9.802214
20.26922 77.05334 3.574869
21.21736 76.16139 3.011788
20.88921 78.13594 2.995515
19.26377 75.01778 6.333123
11.77194 80.91516 10.26942
15.7072 85.27145 9.666911
18.56857 21.69496 8.367478
13.68604 24.39089 11.76548
15.83832 26.78692 10.70535
14.11564 30.51452 11.46543
-17.20306 60.21983 10.23804
-17.33834 41.82468 11.14038
-19.92413 45.81814 8.863886
24.36702 42.87191 7.404173
28.7119 43.54048 10.2127
25.23489 41.14347 8.793942
27.55028 47.1332 9.560767
26.44061 26.85792 12.03545
27.84749 26.76793 14.05442
25.44004 27.69438 9.562818
25.53877 28.08123 9.775591
13.89251 31.49832 11.51918
26.70274 32.78657 11.75413
26.39188 33.47248 11.20024
-20.88212 35.85991 -0.1543312
-19.08892 36.32954 0.9104683
-11.72567 69.63956 9.9859
-10.62837 72.46062 10.26758
18.66388 60.74385 6.478481
21.85164 59.43412 4.501898
22.94747 58.91642 5.137856
21.39505 56.8646 4.413199
-12.08947 79.78699 10.28764
-16.72373 25.54054 11.85484
-8.449919 85.41182 10.23362
-7.228138 86.97229 10.16102
-4.810375 87.08039 10.19256
-1.782324 89.57454 10.27714
-6.987104 97.05875 9.44441
18.29149 75.4689 8.380904
19.06758 70.00616 6.145097
20.41679 23.91099 6.978152
18.26121 25.4374 8.341943
18.04501 29.45127 8.316773
19.03218 29.88317 7.191741
23.58724 28.29124 7.046837
24.12162 31.62579 7.379366
22.6582 26.88008 6.671645
18.11406 33.5265 7.931105
22.58102 30.9135 6.375844
15.0494 29.89602 11.16092
18.62982 31.94979 7.423457
21.47227 34.00449 5.991542
22.15565 38.95531 5.642741
25.7579 36.73809 9.902681
24.71054 39.65102 8.009442
19.86432 40.46055 5.786762
22.26188 39.49258 5.662669
22.37793 43.56252 5.495636
22.63473 39.32792 5.910945
16.42081 30.108 10.11458
18.28048 34.10525 7.67244
13.21831 33.09869 11.61137
16.73048 34.18472 9.691672
12.44287 34.86283 11.54851
11.05072 34.23184 11.41575
15.72557 39.64835 10.56106
14.73244 38.45208 11.10474
-0.3721884 27.71034 10.24193
-19.70685 50.04565 6.254087
-19.99945 48.97737 7.483217
-11.62243 75.76652 10.27768
-7.486619 79.45711 10.28029
-7.440902 81.04317 10.26883
-8.898808 82.63936 10.26215
-12.85679 82.11219 10.25047
-0.2883482 25.50424 10.39961
-15.42827 26.12382 11.85188
-19.96871 23.17093 7.359382
-20.33533 29.83187 8.872001
-19.44941 28.80778 10.83478
-0.1919428 85.11852 10.2107
-1.653839 83.66923 10.243
-4.868835 83.61743 10.25479
8.550977 86.27593 10.21792
7.361338 82.19241 10.27828
19.44974 35.63618 6.400615
18.1338 54.02363 7.440964
7.512279 30.24797 10.95256
6.767866 27.91982 11.01153
2.837513 26.02184 10.53906
2.604787 28.06837 10.34825
5.984433 27.71997 10.87055
-21.67119 39.49377 -0.3446583
-8.897438 76.69553 10.38393
-15.46603 28.87083 11.75457
-17.77034 26.19927 3.115628
-18.44514 24.70764 4.987943
-18.0293 24.16128 4.220121
-17.35669 30.37496 11.60055
0.2974144 78.09966 10.30085
0.9207633 85.54698 10.21518
3.767647 88.091 10.27113
6.969759 87.28499 10.21884
6.251313 82.58929 10.27116
18.41247 64.01198 7.696434
18.46312 65.36385 7.718909
16.65706 62.20214 9.607209
18.36099 56.63764 7.004452
17.57992 59.25764 9.025164
17.70875 51.33154 8.378267
14.08545 49.79317 10.69036
17.1865 52.53221 9.219646
18.74144 55.70962 5.926884
18.19684 56.33065 7.457272
17.09104 51.87848 9.302793
23.16918 53.21873 5.663563
23.23167 52.38877 5.768338
20.41264 57.07758 4.407014
20.59339 51.97457 4.562669
18.90274 48.1747 6.09879
22.65652 47.17232 5.522111
17.71882 45.38715 8.049084
20.14036 46.58943 5.086053
17.51811 45.01714 8.435883
17.94187 47.34124 7.612652
16.65574 48.22545 9.763324
17.48583 41.5869 8.502661
18.76769 49.23954 6.165095
17.83985 49.32912 7.937989
15.59018 42.69741 10.60952
15.17745 51.31631 10.50553
16.54075 50.8818 9.872982
15.80244 52.06077 10.32537
19.36965 40.2924 6.113471
10.91912 79.35025 10.30528
7.410131 79.86291 10.30558
7.191195 78.95681 10.31892
8.24849 77.80745 10.35181
10.93524 43.7734 10.57574
9.392668 35.29277 10.9579
11.32887 40.97694 10.9471
-1.311443 30.89704 10.06957
0.05426023 30.21573 10.10074
-21.08308 42.09209 -0.1645476
-18.75251 42.2912 4.462274
-18.17182 38.72258 3.030422
-18.37218 43.46423 3.014807
-18.64431 40.43108 4.395434
-19.66771 32.07622 10.49867
-18.96617 35.26225 5.403795
-19.58593 36.18729 6.435715
-22.04771 39.82501 -0.1805598
-18.07664 27.30555 4.138887
-18.48467 28.87526 4.979434
-18.24166 30.5144 4.233091
-18.61886 31.36465 5.046126
-14.67228 34.7421 11.44823
-13.57619 33.29841 11.33638
-17.70622 36.34648 11.31119
-19.86978 33.37051 7.082451
-19.86496 41.06279 9.383716
-17.99169 41.84346 10.95885
-17.49359 41.15069 11.16405
-17.03343 38.76546 11.32374
1.919973 84.82368 10.2192
16.29318 65.38037 9.570989
4.091121 47.60396 9.543872
14.87725 66.50893 9.679495
15.78733 68.32744 9.58275
18.8925 71.76844 7.1021
17.95943 71.39134 8.768221
13.83149 51.83234 10.52014
14.31911 50.85312 10.60886
10.76629 45.13104 10.39164
15.19904 48.02377 10.62124
11.86436 44.45981 10.76579
13.65103 58.07331 9.975512
13.11666 57.49323 9.922432
13.96649 55.788 10.19844
9.077959 43.64499 10.06945
11.12586 54.04587 9.744313
11.09519 51.83113 9.874671
20.46397 37.68174 5.759671
2.769499 81.22044 10.28287
2.212948 81.39356 10.28008
1.370507 79.68005 10.29344
15.73162 70.98683 9.538938
9.85718 73.48309 10.20271
11.95218 68.24454 9.584975
4.126442 74.12083 10.36547
5.476439 36.79724 9.972752
9.036838 37.65977 10.64646
9.102248 40.77067 10.3525
1.803724 33.82157 9.921044
-19.83528 53.49221 8.541368
-18.07023 53.74533 10.18425
-17.83366 30.14706 1.887294
-17.87105 29.98558 2.989703
-18.02449 34.42136 2.668834
19.07587 39.83666 6.386113
10.07453 46.56707 10.06552
8.700772 47.68394 9.68861
5.548778 44.24551 9.590625
6.776205 41.03847 9.836358
6.347986 47.71788 9.511918
2.818196 46.73708 9.602196
5.997838 70.86238 10.32882
7.961616 70.6784 10.20092
10.80909 64.70793 9.514253
4.394699 66.17567 10.17048
7.924616 70.55991 10.19599
6.911325 54.21862 9.449544
8.044032 50.62358 9.507919
-2.792366 78.68913 10.29001
14.117 74.50018 9.721864
-2.145104 36.19772 9.888532
2.180037 37.37888 9.767218
1.803916 40.49875 9.691624
-0.9768408 38.81807 9.802204
0.7925344 38.98529 9.748049
4.309992 46.1612 9.544206
0.8013549 33.26506 9.942327
-18.30068 37.3481 11.03624
-13.89461 34.75808 11.32509
-19.17723 35.66314 10.63637
-16.28551 38.41306 11.38864
-11.9729 37.18914 10.85416
-12.81597 35.87539 11.08006
-12.47308 35.34972 11.03443
-10.34969 35.41372 10.62237
-6.03809 35.79612 10.07197
-4.827775 35.61813 10.0064
1.356428 35.54412 9.840464
-2.56111 35.10742 9.930889
5.761465 47.61923 9.50794
1.158816 50.72971 9.754058
-0.6106982 48.85939 9.824042
3.025617 66.41254 10.23944
4.936779 65.67794 10.10262
10.13783 63.11029 9.4892
6.675351 71.17583 10.31219
3.633765 73.9632 10.35961
1.62398 69.54845 10.33181
-1.550825 76.40172 10.30444
-1.899937 74.08263 10.31606
-8.690449 68.65817 10.31541
-5.612963 76.95654 10.30291
-0.8154051 73.30305 10.32228
0.9378191 69.49165 10.32888
1.717096 65.06972 10.22877
-1.087264 73.85153 10.31927
-5.226429 72.45759 10.36502
-2.448548 68.68182 10.33816
-1.607594 70.82392 10.33148
-3.439301 70.76016 10.34496
-4.5505 69.95968 10.37358
-4.355398 65.8017 10.34497
-6.065513 69.36984 10.40728
-9.156568 66.33035 10.15633
-1.648705 59.34133 10.15037
3.118532 59.75634 9.923788
-3.613276 66.29083 10.33915
-1.628101 56.12159 10.05694
-4.411039 59.2171 10.17593
4.904988 57.11711 9.657169
0.3327284 57.97789 10.02373
6.323073 59.98482 9.659074
3.286062 63.68209 10.10379
2.716052 55.56023 9.778916
5.570805 67.34006 10.16332
10.22291 64.01913 9.511013
0.8581013 54.05882 9.859871
7.786734 65.32752 9.809344
6.562324 62.30301 9.754773
-2.877824 51.44735 9.94375
3.982476 68.93163 10.31486
3.567189 51.20876 9.595172
1.60258 53.5611 9.794392
-3.676665 78.77316 10.28735
6.448489 31.68636 10.58691
1.778098 34.14712 9.904536
0.4008913 40.12072 9.740873
-0.9445413 44.08481 9.773096
-2.086439 39.89116 9.81848
-16.93191 51.25336 10.7212
-18.60436 43.903 10.56697
-15.07719 49.065 10.9113
-16.96851 45.90408 10.99762
-12.91461 53.1801 10.36409
-6.98991 62.51443 10.19119
-13.26312 61.81969 10.07349
-16.83268 59.97272 10.31903
-17.53922 59.75853 10.11817
-19.23247 60.07231 8.934824
-15.06105 58.95468 10.46153
-19.33107 34.68898 10.56603
-13.5101 41.11214 10.98801
-4.894579 40.93901 9.882238
-6.925542 40.91072 9.970324
-6.442018 40.55538 9.949507
-2.637881 44.36919 9.821112
-3.945951 48.5956 9.886156
-4.767621 49.93581 9.892252
0.3402892 51.14826 9.815565
-2.706714 48.65379 9.880918
-11.67094 50.75527 10.21114
-9.747869 48.92486 9.986891
-2.188704 53.30099 9.988123
-0.2263366 50.68888 9.838191
-1.629045 43.81265 9.793359
-9.320477 49.6319 9.928787
-12.25781 42.89847 10.66721
-16.80949 48.73486 10.85371
-18.38878 45.94342 10.5466
-6.12625 59.12336 10.10675
-1.522226 51.16109 9.908695
-6.023313 48.94997 9.853802
-14.48599 45.39498 10.97618
-11.51059 53.28495 10.08534
-6.003298 55.24619 9.978488
-12.76366 55.337 10.24625
-11.94245 56.6291 10.04345
9.014565 65.52396 9.667322
2.333565 77.65794 10.31135
6.357242 56.6295 9.517902
-4.715982 75.80091 10.31103
-14.91166 47.05177 10.98061
-17.98526 57.70297 10.00281
-7.560403 52.51126 9.847172
-10.07154 50.92262 9.973182
-6.59448 63.36013 10.24942
-9.039763 62.38034 9.990734
-12.16477 57.86691 10.03683
-14.21315 42.72807 11.03406
-5.062232 52.38716 9.935468
-8.335981 53.95364 9.846136
-9.20648 55.9354 9.8408
-24.42344 34.97513 3.939049
30.69934 13.73804 6.189336
13.72396 111.6507 1.040866
23.82162 9.488545 -3.827
-29.92372 13.37658 1.470868
-9.521795 9.097946 -9.298259
-28.86682 12.22451 1.039735
14.28494 3.529604 -10.26501
12.41049 125.843 -2.338974
27.58554 45.92466 2.175783
12.8691 124.6072 0.2222891
12.67704 124.4879 -0.2933888
-19.21128 91.13005 -0.1416021
24.38469 65.18741 0.3973784
-12.41873 113.1841 -1.110858
16.78875 89.87691 -6.85904
14.98618 103.2642 -3.903154
13.35536 126.7804 -0.1895285
12.93986 113.93 3.081852
12.5303 114.6485 1.04736
13.68891 126.9304 2.499835
12.16389 126.9761 -3.949276
11.43617 126.6792 -4.988419
1.355427 4.129688 -14.98974
-23.82617 66.78714 0.002701665
-25.25648 41.38678 0.4943896
23.7147 10.4753 -4.247061
-26.89448 54.89417 1.07613
28.95083 15.47271 3.596153
-16.43365 98.79884 -3.647797
-29.75514 27.65304 1.491835
-30.34578 12.893 1.73192
-10.09818 126.0718 -6.082029
-11.93341 116.8806 0.7319106
-12.49368 120.6653 2.300765
13.30856 124.7859 2.5238
-5.790258 124.6835 -7.525964
12.40074 116.2517 3.338382
-12.92522 127.2556 -2.297876
-20.81589 72.38196 -1.65338
-25.19102 57.57196 0.428237
-26.10965 62.96484 0.765325
-18.56062 91.25146 -3.201917
-19.64335 88.55129 -1.220835
13.44697 125.6274 2.124277
-23.74497 9.043036 -0.6965708
-23.43707 10.04085 -3.020176
-11.60332 118.4138 0.1143392
-12.45309 122.4072 0.79285
-16.61631 102.5746 0.2112231
11.64477 117.0418 -0.05822778
-12.25782 119.1364 2.168041
28.99712 23.85422 3.487554
28.29142 15.06146 2.980853
23.60717 11.71877 -4.024384
22.24677 6.702933 -14.53067
-19.72836 71.60841 -5.011868
-21.53361 76.05602 -0.7527428
11.93657 123.3892 -1.348787
-29.15328 35.09563 1.642586
-23.46793 9.603352 -1.445046
-26.88987 11.21898 0.6084055
-31.24557 16.76811 3.108665
-5.911891 125.5338 -7.855711
-12.43256 126.9608 -3.337762
-10.94116 123.6981 -3.375654
-11.82139 121.6872 -0.3954777
3.532681 126.0583 -8.500921
-16.19264 103.2885 -0.8745479
-15.34016 107.3285 0.5366777
11.54246 116.9404 -0.3784514
-12.93245 111.653 -1.639323
29.54143 20.10203 4.143719
23.7784 10.09768 -3.309713
26.26038 49.27901 1.32645
23.04319 10.55707 -13.30172
4.642311 0.5129362 -13.58202
-21.48035 49.12801 -3.064368
-18.06699 95.25556 -0.288941
19.89397 88.09545 -0.2166984
12.23775 120.9611 1.087929
2.383926 125.4142 -8.271738
-8.21941 1.774251 -9.848595
-23.67303 9.393266 -3.87599
-29.78956 23.26232 1.307611
-25.58505 10.64664 0.2655775
-30.80674 12.66094 2.09462
-30.29346 14.75903 1.708876
-24.80824 12.88218 -0.05769024
-7.274782 124.5935 -6.941177
-1.760683 123.3003 -7.513865
-10.02864 122.8483 -4.003899
14.92139 108.4421 0.220616
16.82149 101.0004 -0.6224805
-17.8438 95.1987 -2.091299
12.88403 109.4374 -3.455319
28.8421 21.04155 3.374895
23.85 9.278626 -5.71427
28.03743 44.46656 2.500552
23.82203 8.43042 -9.753476
19.46873 5.966403 -15.03084
13.59607 3.881835 -9.683347
-0.2116914 2.382465 -15.04107
-22.74535 54.20744 -0.4769647
24.05682 71.99937 0.3407659
23.46616 69.90999 0.01377115
-19.85204 85.41969 -2.316192
19.87914 87.52298 -1.001646
8.174332 124.3563 -6.389693
4.401207 124.9252 -7.949727
-28.87108 43.72053 2.166923
-8.98376 2.910044 -9.455951
-19.63053 6.970264 -15.42937
-23.63535 10.36503 -4.826195
-30.62489 25.08798 3.516791
-27.87035 26.69914 0.8334506
-26.17487 11.92467 0.4722849
-23.2099 11.82067 -1.959054
-29.24822 19.11049 1.132721
1.757679 125.766 -8.400846
16.18821 104.9188 1.297016
16.91136 101.5507 0.7497661
-14.37053 106.6527 -2.81027
-16.65509 100.2811 -1.970502
28.34954 25.34986 2.886268
27.82465 28.41995 2.429663
28.13707 27.69954 2.676043
23.11011 31.72941 -7.33955
23.6502 23.13324 -1.714879
28.13966 20.22438 2.791852
23.82597 63.02797 0.1079451
28.37155 36.44281 2.793697
15.51238 4.068078 -11.6001
14.65277 4.74308 -10.70093
-0.8912283 0.6348636 -15.56949
-24.45124 66.62003 0.1669289
-23.96374 70.4996 0.04255941
22.6011 73.41338 -0.3649882
24.88851 65.9774 0.6604902
-18.22467 94.43118 -0.8290733
-19.0171 89.89385 -2.711112
-20.16558 80.26427 -2.25094
19.06103 91.35368 -1.046215
11.27148 123.3983 -2.669408
-29.66613 35.25989 2.188415
-26.43667 45.3634 0.7038848
-27.97631 49.51417 1.617739
-10.6638 2.795409 -9.128789
-21.93803 6.820281 -15.77059
-19.28663 8.223328 -15.22185
-24.08014 9.774829 -7.252381
-29.6598 31.05867 1.673946
-25.08105 30.12885 0.3676044
-27.87314 30.70966 0.8500759
-23.31625 15.01818 -1.49745
15.38122 106.766 -0.1305911
14.11231 103.4699 -5.166795
-17.04452 99.6284 -1.000124
11.42225 113.9082 -2.314172
25.46502 33.29317 0.9046974
23.7076 9.987025 -7.064683
26.2845 52.66065 1.336367
27.28899 45.45346 1.955693
27.69394 39.09043 2.264349
11.82478 3.868811 -8.905034
12.2061 7.085387 -9.119525
6.924733 3.60834 -10.37479
-0.276725 3.506382 -15.01182
2.418817 1.197773 -15.25208
-25.22016 58.61371 0.4282524
-27.35138 51.79773 1.265794
20.21904 68.07906 -3.554404
-19.98428 87.37463 -0.4980827
-21.86342 77.85903 -0.423629
18.34452 91.70248 -3.490181
19.62681 86.71539 -2.485411
-28.87326 35.11313 1.366266
-27.25916 45.19442 0.9085018
-8.614264 4.702695 -9.576756
-15.97551 4.096999 -12.25075
-17.47372 5.529472 -13.90825
-23.79552 14.106 -0.8736085
14.05328 100.6873 -6.714874
12.47381 103.4984 -7.037216
17.24508 95.53082 -3.889256
27.97168 30.6463 2.515018
24.15554 21.06514 -0.8258029
23.43899 13.63257 -7.273442
24.80446 40.65889 0.7005324
15.20356 5.293879 -11.35063
12.00792 10.38555 -9.164543
6.891111 8.417928 -10.28799
-22.25794 67.03851 -0.5923641
-21.84195 75.51949 -0.5951706
-21.31593 55.45943 -1.977314
-26.46481 56.33559 0.8750011
21.36316 66.17609 -1.413697
20.97183 68.17539 -1.785951
-20.34873 77.89765 -1.961777
-20.24021 77.79385 -2.204032
17.93136 93.68333 -3.279793
1.958641 122.5268 -7.208819
-24.35682 42.65241 0.2820663
-24.71735 37.74515 0.3986269
-10.3912 5.040507 -9.161597
-24.65688 10.08908 -11.72545
24.42868 30.49687 0.1535215
25.9375 15.98063 0.950184
26.70375 19.48974 1.708604
24.19603 12.87643 -1.534474
22.78662 58.33144 -0.5248567
15.88638 8.211068 -12.33484
11.85234 9.396032 -9.06041
-22.44918 62.90603 -0.5868947
-24.94016 53.14699 0.3318456
21.04354 78.49572 -1.252791
-20.7031 75.70786 -1.515813
-27.1096 47.57302 0.9476579
-13.90872 12.54224 -10.68537
-23.94159 9.421402 -13.95201
27.50332 14.57944 2.266535
23.04951 54.383 -0.4118611
15.68 11.53314 -12.18484
12.07803 12.97361 -9.333551
-23.41343 64.70242 -0.1164137
-21.60488 48.04747 -3.353815
20.70064 75.67289 -1.782974
19.90312 81.10993 -2.943767
-24.30187 38.99614 0.2837269
-6.606793 6.089162 -11.11443
-12.59359 7.777894 -9.673221
24.74077 12.05955 -0.6287827
23.06622 53.60119 -0.3992749
26.29702 31.95395 1.416208
16.74033 6.870013 -13.21613
20.57594 63.77323 -3.167069
-23.34712 38.19588 -0.1177422
-9.282663 8.95361 -9.342192
23.06455 35.87382 -3.115475
21.2183 55.71115 -2.993788
-12.21656 9.148962 -9.532092
-13.98515 10.88166 -10.70019
23.65186 13.92556 -2.969879
23.60546 20.5834 -2.110251
5.970032 3.569077 -11.44558
21.02507 59.34627 -2.593605
-8.458116 12.89841 -9.727264
24.1718 16.81752 -1.142573
25.09336 19.41418 0.2743457
7.199248 12.57763 -10.03117
8.454925 13.14051 -9.330791
20.52552 62.12355 -4.529082
-8.538719 9.77165 -9.622922
-7.566553 10.32344 -10.24864
-8.025488 12.79104 -9.919525
23.21294 34.3488 -1.587161
4.17076 9.810356 -13.26602
6.758156 12.03902 -10.37669
21.45248 52.62865 -3.623912
-7.964955 8.583851 -9.962078
-1.998862 3.453276 -15.07424
4.599343 9.780204 -12.72561
21.17284 54.58289 -6.466143
-6.843752 13.60997 -10.91794
4.866782 2.71616 -13.29446
23.36911 50.32396 -0.2029167
5.009223 11.68291 -12.26705
22.78283 51.17968 -0.6023583
21.07834 55.75053 -5.739948
20.49756 59.84101 -7.208813
-0.9523735 22.87424 -15.52294
23.52884 50.18628 -0.0948872
21.22063 53.76007 -6.889767
24.34425 40.05361 0.4218509
20.92077 50.63875 -9.189412
20.18666 60.79907 -8.052295
25.57723 45.78531 1.030799
21.88515 46.10214 -7.808506
24.55343 45.73738 0.5532614
18.77481 55.79354 -10.89834
19.49792 61.31091 -9.396194
14.07707 58.20519 -10.60771
16.72896 57.79437 -11.27087
13.85965 52.95649 -10.6302
15.81226 58.17145 -11.15813
-11.87084 115.5573 -0.3809134
-9.982172 111.781 -4.593456
-8.457283 113.3573 -5.81896
-10.24828 109.3272 -5.613961
-6.171737 110.8703 -6.057036
-7.836986 113.3033 -6.22109
-5.119193 115.6009 -5.326859
-2.842279 113.441 -6.344879
-3.980352 113.5392 -7.127592
-1.698396 114.877 -5.64087
-1.845984 111.9024 -6.161139
-8.847293 114.653 -4.027435
-0.5125166 111.7865 -6.207084
-2.992891 109.6406 -6.807177
-2.750192 108.3553 -7.403036
-11.19184 121.0546 -1.386684
11.21514 120.8528 -1.228964
11.11685 118.6593 -0.945386
8.765924 117.4129 -3.721864
10.2332 117.2988 -2.39977
-7.034506 116.1284 -4.682153
-14.15451 107.3798 -2.756759
-14.76677 102.3145 -4.862534
-15.40988 100.356 -4.805148
-15.99751 97.52244 -5.329803
-17.70637 95.03174 -2.889055
-30.38853 23.2965 2.074116
-28.52932 25.58503 0.9489216
-25.33707 14.03483 0.2318176
-26.03879 20.26314 0.451449
-25.77271 19.50331 0.3645266
-25.55849 23.97353 0.3653698
-24.27975 14.46379 -9.714592
-23.10305 20.72271 -1.426478
-22.90457 17.02686 -2.462712
-24.81019 28.04076 0.2392432
-22.8208 24.84522 -3.772091
23.558 12.83754 -10.58193
-24.37077 61.46071 0.1740564
-26.21125 50.01846 0.6685038
-23.87767 11.15429 -6.821278
-24.37727 13.47477 -10.84446
-24.24358 12.31638 -8.824715
-24.15306 14.00986 -8.831294
-22.94595 14.67798 -14.16426
-24.28197 11.77974 -12.7255
-23.99089 15.673 -12.23478
-21.96505 15.90728 -14.64703
-18.48253 17.29612 -14.49571
-18.76508 16.09581 -14.65257
-23.46985 36.84273 -0.1227186
-22.81509 33.40399 -2.565444
-22.74627 32.61136 -1.337817
-22.73362 31.68079 -1.649702
-22.89294 27.12666 -4.054007
-20.17986 80.4549 -2.211582
-19.31579 83.6007 -4.004733
-17.13295 86.19937 -7.122937
16.90437 98.9427 -2.253075
16.14793 93.26939 -7.028196
23.18791 20.59384 -5.67584
23.22414 32.32212 -5.557211
-24.22812 44.21141 0.2219793
-22.33696 43.91528 -1.084859
-22.56091 46.78929 -0.76494
-23.67373 47.91461 -0.020354
-4.146213 5.228249 -14.21677
-4.384507 7.526444 -13.85475
-3.358064 2.628148 -15.00313
-1.305766 5.185596 -15.29512
0.4728192 6.47253 -15.41858
-3.454797 9.02289 -14.6294
-20.30564 68.24506 -2.789745
-20.51767 70.06964 -2.242905
-21.13255 67.70927 -1.543053
-19.78944 70.49692 -5.108679
-19.90998 68.47216 -5.755444
-20.52064 62.34937 -3.193539
-20.8148 63.77015 -2.152925
-21.34266 11.2724 -15.42458
-18.23996 10.80456 -14.55223
-17.35121 11.72691 -13.92166
-14.65031 17.32395 -11.42604
-16.23536 9.991078 -12.86372
18.6902 80.45837 -5.967481
-22.17798 41.43521 -1.841618
-22.6351 40.32161 -4.167502
-22.77187 40.18069 -5.984334
-22.7237 37.25386 -2.988695
23.53922 13.28557 -9.171548
23.46114 14.6115 -8.784487
23.6279 16.36654 -2.723319
23.3301 15.68581 -6.374298
23.36919 16.92369 -10.3055
23.35648 17.45558 -8.304482
23.17066 18.18981 -11.10465
23.20578 19.97626 -5.155747
7.134578 4.887655 -10.12005
-5.763411 13.58984 -12.1365
-4.436064 16.40836 -13.71016
-8.489242 13.56219 -9.713346
23.20918 35.00585 -5.96367
20.14993 65.4618 -5.579759
10.73337 16.34074 -9.092841
12.20517 15.7466 -9.464674
13.96885 14.99559 -10.47794
14.61843 14.23741 -11.08577
16.07087 16.48771 -12.65494
14.66532 10.27389 -10.99384
12.61856 12.09499 -9.538746
14.03387 14.19781 -10.50843
17.43525 17.84509 -13.63391
17.56996 19.37912 -13.64886
20.20275 15.44102 -14.31485
19.2752 19.10461 -14.08428
21.95123 19.07601 -13.21646
23.15171 14.88244 -11.97697
22.12457 15.33563 -13.60812
16.76922 21.20775 -13.15526
20.88709 21.84793 -13.55646
17.14731 11.74297 -13.63009
17.47233 11.56717 -13.84884
22.70334 12.36268 -13.42492
22.45281 26.68284 -11.31961
19.02783 21.56824 -13.88176
17.56802 63.8397 -10.69608
-8.687088 120.8301 -4.334433
-4.134098 121.8692 -6.852825
-5.757716 117.7219 -5.258495
-2.148479 119.8692 -6.392092
4.313546 115.2012 -5.531703
-2.864731 119.0475 -6.216671
1.759275 120.2087 -6.488617
-7.919454 117.7369 -4.276461
-10.48491 116.1864 -2.397392
-10.74779 119.0655 -1.624416
-9.166774 107.0941 -7.20205
-9.904428 95.17192 -11.8884
-16.42741 91.84531 -7.018787
-16.10827 94.50723 -6.642916
-15.93698 93.65823 -7.180725
-16.05973 90.063 -7.720624
-22.84228 20.40643 -3.826499
-23.82322 17.43525 -7.895216
-23.26003 18.94273 -5.773875
-22.772 28.41966 -3.145451
-23.24111 29.73526 -5.481967
-23.40777 28.51962 -6.670038
19.52178 84.39677 -3.464166
18.08288 85.1605 -5.933725
17.1748 85.37617 -7.230509
-24.17646 15.27761 -11.4377
-23.15209 36.21225 -4.858172
-23.11055 34.72702 -8.072952
-22.70739 34.80623 -1.853728
-23.28551 31.87534 -8.524426
-22.72879 32.31458 -10.76615
-23.42278 29.46109 -9.052176
-23.58175 26.59547 -7.915525
-19.84037 82.06232 -3.032197
-18.71614 83.83118 -5.172668
23.34916 27.20439 -2.573509
23.20506 29.44389 -4.65851
22.66845 33.18209 -9.298522
-2.876588 10.37449 -14.96466
-2.607644 10.56659 -15.11748
-3.678527 12.56215 -14.36613
0.968783 11.29859 -15.57042
4.567895 13.63636 -12.83067
1.395202 13.82334 -15.38281
-19.87741 69.06493 -5.325936
-19.31952 72.1927 -7.415924
-14.32158 14.3855 -11.07741
-11.46284 14.6005 -9.421304
-20.16364 65.34499 -5.078658
-20.36673 62.92489 -4.356157
-20.78063 58.2744 -5.595151
-18.99192 57.14723 -10.96436
-20.97051 56.3444 -7.769989
-20.20421 57.49422 -9.673563
-20.49363 60.14296 -8.164315
-21.99556 42.69659 -9.729913
-19.42544 57.35801 -10.60573
-20.4305 62.16508 -6.588901
-18.73609 60.94941 -10.58295
-22.64969 40.23367 -7.809442
-22.56004 41.55653 -7.312446
-22.60125 38.18761 -9.137583
-22.23483 35.47518 -11.04124
-22.00753 42.44825 -9.775763
23.2613 20.14019 -7.765064
23.17216 23.80281 -8.137419
23.27038 20.62878 -9.154982
22.25634 21.1619 -12.49924
23.18533 29.66606 -5.940831
23.18319 28.69197 -5.4409
23.16116 24.16063 -7.511817
23.15719 25.73774 -5.624767
22.17157 23.52984 -12.27361
22.49818 25.9387 -11.35842
22.83109 28.6618 -9.794331
19.89567 24.95292 -13.52725
20.16392 26.85913 -13.25509
19.10662 28.49077 -13.38867
18.54083 25.6543 -13.62395
22.15091 29.46026 -11.31343
17.01509 26.65285 -13.17474
16.47138 33.34418 -12.67288
6.309025 5.808203 -10.81736
-11.17675 13.96736 -9.327082
5.813865 16.38973 -11.37491
8.69798 18.77057 -9.310856
10.58997 19.42871 -9.117605
12.5957 14.66479 -9.602764
14.69105 24.32962 -11.4921
14.35406 25.59116 -11.27083
13.40453 25.74166 -10.56871
13.44818 26.12904 -10.61563
15.59169 28.77694 -12.2766
12.91616 28.33163 -10.34777
13.10005 31.55133 -10.6341
13.58609 32.15218 -11.02729
10.36196 27.46273 -9.339155
12.89798 34.45763 -10.70146
15.35142 35.04523 -12.1711
3.310774 35.42971 -14.0127
13.08524 36.5686 -10.95535
10.48846 31.83677 -9.475532
4.336273 31.95981 -13.20679
8.095533 29.57959 -9.8891
6.128167 35.41165 -11.57496
4.772099 30.45049 -12.77248
6.330387 34.50009 -11.36913
6.119567 30.00556 -11.41048
5.854323 26.65894 -11.55891
6.023425 24.9843 -11.33797
5.003716 24.54504 -12.42756
5.720008 23.77772 -11.62018
5.53495 22.8692 -11.79659
4.151022 14.39597 -13.32017
4.445278 18.76944 -12.95032
8.342397 25.48169 -9.64431
1.781511 16.24435 -15.17623
3.167842 18.57064 -14.21544
10.60395 22.58522 -9.219674
8.330818 21.00926 -9.505297
2.099304 23.62883 -14.86575
-0.4775669 23.27078 -15.50968
3.682264 24.19237 -13.74368
-1.375786 16.81149 -15.52403
2.582582 19.59654 -14.64302
-1.311619 19.35635 -15.48408
20.53605 50.28957 -9.935012
15.00382 61.86216 -10.80807
14.93413 60.92129 -10.82303
11.3727 54.13025 -9.856786
12.09847 57.42963 -9.988614
12.39713 52.15285 -10.0604
14.33349 51.22697 -10.92282
15.79551 52.93158 -11.4396
17.92906 53.15732 -11.47242
14.63583 49.62466 -11.12234
14.74995 48.60522 -11.20116
12.87107 46.3854 -10.3163
15.17874 47.54655 -11.44608
12.16237 47.47849 -10.00696
12.22097 45.87591 -10.04786
18.65878 46.66475 -11.83701
7.280739 37.75904 -10.76233
9.129514 46.02751 -10.04969
19.26285 45.37081 -11.66601
2.111521 119.3943 -6.294586
6.143472 116.5187 -5.021792
4.991891 113.9526 -6.597318
4.951641 121.0511 -6.351475
9.413352 119.7341 -3.420793
8.846877 119.8008 -3.921858
9.356491 113.874 -4.50497
5.07439 112.6125 -5.914836
10.08383 113.6907 -4.465144
8.549829 112.5623 -5.363215
10.13284 114.3137 -3.339766
12.14904 110.8672 -3.387118
4.613844 112.0347 -5.932504
-17.40978 94.9959 -3.822851
-13.85338 92.86132 -9.653967
-14.23862 97.48413 -7.9347
-13.16491 96.12087 -9.529536
-8.368696 96.83319 -12.11788
-18.0704 84.52316 -6.262702
-17.04106 80.09267 -8.714267
-14.54087 87.18738 -9.347595
-10.5188 95.11596 -11.60617
-14.20398 82.95167 -10.07724
-14.1876 81.98927 -10.12943
-14.98793 81.7579 -9.920312
-18.49058 89.41364 -4.238739
-18.65435 88.18091 -4.283333
16.01109 91.24774 -7.661201
16.90226 86.74448 -7.237864
19.5976 79.53297 -3.760386
18.78535 82.99229 -5.086633
18.96051 77.18504 -6.188342
18.82957 81.26359 -5.351523
18.51583 78.97617 -6.803075
20.14395 73.77991 -2.889707
14.2522 82.29874 -10.05172
18.76604 75.26351 -7.365882
16.58226 78.32302 -9.448488
17.62083 75.48071 -9.093954
17.72581 74.59768 -9.148355
17.79445 72.22166 -9.502029
-23.4627 20.73315 -12.35563
-23.66907 20.00319 -11.97736
-23.90723 20.88651 -9.880466
-23.04798 23.17309 -4.942266
-23.51353 23.87503 -7.063248
-23.77221 23.33302 -9.421373
-20.99526 30.16763 -13.31547
-22.90751 27.44806 -11.67196
13.76658 107.8581 -3.119381
11.92208 106.8209 -5.752622
15.28433 93.43137 -8.080192
-18.93024 68.64471 -9.077824
-13.94399 17.47851 -10.80955
-13.41474 14.31601 -10.3299
-20.39438 63.72955 -3.468506
-21.51487 48.85041 -2.576921
-22.0574 45.44002 -5.033782
-22.171 45.01029 -5.971885
-21.9454 47.13504 -7.349001
-21.40508 51.77738 -5.747839
-21.47324 51.48153 -6.119561
-21.5001 44.22984 -10.48494
-21.37109 52.40693 -7.506736
-20.46648 50.00663 -10.84101
-17.55182 57.90141 -11.37007
-19.04284 54.28862 -11.27193
-15.77998 59.07626 -11.30897
-17.73306 53.00684 -11.78412
-16.52195 62.17118 -11.13472
-15.9633 50.77776 -11.78926
-15.51924 60.76928 -11.19144
-10.84071 53.75065 -9.941606
-12.83898 56.32832 -10.41573
-14.0706 54.41897 -10.94415
-13.33564 45.09603 -10.79694
-12.82725 46.63652 -10.4829
-11.47452 48.11659 -9.993932
-12.17572 49.87657 -10.23694
-20.43425 61.45478 -7.836944
-18.10439 61.96684 -10.8577
-21.9106 34.54306 -11.76616
-21.41017 32.47155 -12.72895
-20.17283 36.49202 -12.94345
-23.62483 23.51607 -11.01202
-21.44306 24.7963 -13.72182
-21.42761 35.57571 -12.17115
-20.53874 25.93202 -14.02505
-16.78992 30.71452 -13.09494
-21.08044 28.65869 -13.47673
-18.10601 34.06142 -13.341
-16.12586 26.03875 -12.84496
-21.15193 22.72136 -14.1214
-19.21583 21.26479 -14.49127
-18.07495 23.27735 -13.96618
-19.12671 19.88523 -14.57513
-15.91114 23.52591 -12.67912
-15.01223 26.05635 -11.97598
