# .PCD v0.7 - Point Cloud Data file format
VERSION 0.7
FIELDS x y z
SIZE 4 4 4
TYPE F F F
COUNT 1 1 1
WIDTH 1657
HEIGHT 1
VIEWPOINT 0 0 0 1 0 0 0
POINTS 1657
DATA ascii
14.79799 135.9267 3.906113
9.174891 151.4004 -2.984861
9.87596 151.5644 -3.710295
-10.64468 121.2182 9.197897
7.450003 147.1292 2.812568
-4.131176 119.2521 11.7247
-0.1910326 131.8979 13.69458
-5.023952 118.7101 11.48015
-14.26291 138.2082 4.290012
-11.08724 141.8275 5.05944
2.475581 120.4745 11.9896
-1.80273 123.284 12.14357
-1.735392 142.1472 7.69862
-0.2611642 142.0376 7.807079
0.7882648 119.2885 12.60108
-6.659488 146.2303 3.600276
-9.044581 148.8465 0.438704
0.09531333 121.1783 12.16486
8.029898 119.1691 10.6091
-0.0187974 129.5764 13.08019
1.049418 130.4463 13.37647
15.27615 135.0148 1.623997
-13.01953 139.3871 5.457334
5.280215 141.3336 8.152714
15.21283 135.4564 0.2667611
0.5389237 127.6621 12.4964
-0.1828308 142.2046 7.6738
-2.704654 135.1002 13.15444
-12.67021 122.277 6.202345
-8.983034 151.4286 -3.169812
9.496383 145.056 3.21026
0.1571849 134.147 13.52549
9.49389 151.9713 -4.572298
10.47278 150.1672 -1.218928
10.51273 148.4453 0.4529372
-7.270278 143.2688 6.244644
-8.97028 145.8555 3.227084
-3.353876 139.0494 10.2462
5.929398 131.0545 13.60266
2.568491 141.4474 8.240201
14.80534 136.8735 2.757756
5.748797 143.124 6.675717
9.226205 148.6321 0.8463801
-11.38752 118.6966 7.85096
-6.103752 127.9627 12.34834
-15.08926 136.3094 1.008386
-12.64077 138.9152 6.478434
-0.7140359 121.7476 12.12884
-2.194048 122.3659 12.09419
-8.439093 143.5934 5.030443
-7.881444 144.375 4.63147
-8.01224 146.4937 3.213279
3.477524 124.5746 12.25018
4.546757 128.991 12.81198
14.13359 129.9975 6.338336
8.431129 119.7626 10.55922
13.02875 123.1961 2.544177
13.7194 138.3846 5.389008
1.257613 138.6328 10.61126
10.59789 144.2786 3.389539
-12.35193 118.8545 5.680508
-8.697026 119.1261 10.26154
-12.72645 121.3112 2.948156
-14.43556 131.5524 1.982807
-13.63679 126.444 3.439285
-3.912418 123.1739 12.14783
-0.8378729 122.8171 12.08582
-4.206056 124.4375 12.21421
-3.108237 135.0769 13.1697
-9.182049 143.3777 4.884037
1.971659 123.9365 12.18771
2.230111 134.2896 13.47703
9.714051 120.5545 10.01702
1.873065 138.0653 11.09357
13.473 125.3463 3.539545
14.88763 133.6389 1.538493
1.19175 142.596 7.372978
3.076201 142.2118 7.629228
4.342646 144.8365 5.44266
7.79324 146.4439 3.050954
11.37803 141.7438 5.127996
-11.29866 121.9246 8.571393
-13.49367 126.951 5.021414
-14.93982 133.7063 3.533763
-1.34575 139.0116 10.28919
-14.27279 138.629 3.951296
1.805243 130.5285 13.39894
10.14837 119.0829 9.377649
13.83447 128.6122 4.314707
0.7285929 138.6844 10.56611
13.08429 125.4158 5.968422
12.74956 126.0692 6.939308
12.91186 121.8442 4.136247
11.3357 122.2279 8.587661
12.44064 120.3438 6.173961
14.72505 135.8323 5.177167
14.28344 130.5711 3.120348
6.849966 142.3559 6.99797
-13.44706 128.2956 6.907445
-2.430626 132.4284 13.75806
-15.28653 134.8114 2.597653
-3.657417 139.1527 10.15088
-2.416757 135.8363 12.76965
5.435617 120.8787 11.64833
2.397324 125.7807 12.26683
3.120305 125.7539 12.23511
7.887284 123.6761 11.18204
8.748854 127.0283 11.35741
5.897445 128.1651 12.40265
3.143258 128.079 12.52494
7.042992 121.5405 11.40903
13.14361 128.6295 8.404513
11.40244 121.9535 8.456034
3.759227 140.4097 9.050547
5.437771 139.9625 9.319974
6.438014 143.2805 6.417577
-13.37364 127.2936 5.924336
-1.629925 136.2691 12.48227
5.534788 121.6506 11.74788
9.94945 128.9991 12.23224
4.493012 132.7403 13.78154
7.37983 134.6674 13.5637
12.89784 134.4867 11.07519
7.301468 139.0325 10.06334
8.439064 139.0604 9.722618
10.66981 122.4371 9.295533
9.002223 128.4624 12.08948
5.306841 134.7775 13.3904
8.614547 137.8937 11.15227
6.484157 135.2073 13.26832
3.691706 138.2791 10.92206
13.4323 128.9632 8.167079
13.81275 137.1651 6.554679
-5.496565 129.8169 13.16537
11.02505 127.1564 10.14547
7.82177 129.4042 12.92288
10.29594 136.0239 12.31399
13.33372 129.5492 9.528593
15.02722 133.9738 4.748771
14.80998 134.0312 7.054353
13.34878 133.1009 10.94016
9.660636 125.4481 10.37705
10.74454 125.5193 9.669807
7.902746 133.411 13.85029
6.930877 138.0839 11.14294
-4.164646 129.6974 13.12627
9.777711 126.1042 10.53204
7.644675 124.8076 11.2612
9.36769 124.3412 10.32223
12.01666 130.7363 12.00213
9.965473 133.3166 13.42652
12.70268 134.9184 11.11231
-5.947934 131.6216 13.73096
11.28163 135.7411 11.91592
-7.031587 134.986 13.42102
-10.00992 131.9371 13.42234
-14.56123 131.8498 3.026398
-13.64416 129.388 8.468352
-10.17958 122.0034 9.688142
-7.744043 122.4193 11.24378
-8.223111 122.7296 11.03992
-11.38297 123.0056 8.611897
-8.589158 128.1208 12.00593
-9.027552 127.3075 11.3677
-10.94401 125.5915 9.419066
-14.53731 131.2524 7.490008
-12.2446 128.3718 9.868985
-12.52868 129.5262 10.81536
-12.27856 125.0972 7.683083
-14.30009 130.5094 7.766484
-12.04354 122.2054 7.581572
-12.37013 130.9272 11.76471
-13.00573 131.1705 11.19328
-12.96126 134.056 11.21179
-12.24923 134.7413 11.69657
-11.93436 131.691 12.28975
-12.0564 136.3142 10.6964
-14.36464 134.6008 8.300133
-14.82833 132.3114 6.532977
-14.86399 135.5506 5.117272
-14.06267 136.9314 6.291001
-7.480253 142.1412 7.046766
-6.958485 141.9353 7.31386
-5.628636 141.7547 7.759491
-8.882858 140.3532 8.037533
-6.143376 139.6264 9.580664
-12.68244 139.4721 5.772131
-11.24164 137.1423 10.58283
-12.89594 137.6801 7.741348
-12.43813 138.9636 6.728025
-6.103109 138.6262 10.59027
-7.080221 137.216 11.92474
-10.63825 136.2161 11.97795
-9.899279 142.1926 5.580769
11.00548 140.9162 6.034491
12.24239 138.7065 7.314999
12.56957 138.8945 6.650273
12.78834 136.3629 9.693027
7.416163 139.3619 9.629251
7.836589 143.4309 5.658861
2.823297 120.722 11.95399
13.18745 127.9431 7.351794
-13.38403 127.2148 5.787077
-9.539837 137.7988 10.95256
5.991909 133.258 13.78678
14.89624 132.8356 5.704518
11.1411 136.7011 11.16869
-7.986515 124.6359 11.14241
-3.598149 124.3384 12.25165
-8.831002 126.4271 11.10529
-8.00548 126.291 11.39952
-7.880397 131.3302 13.75574
-9.310391 131.3898 13.53837
-9.741571 136.3889 12.2757
-14.32785 130.6119 4.575799
-1.786731 140.8972 8.704021
13.0686 123.6468 2.244226
-10.3456 146.79 -11.77439
5.153074 135.4854 -12.01929
14.40225 131.6805 0.7980853
8.511721 118.7732 -4.035014
0.3453039 119.4823 -6.409641
2.629555 126.8216 -8.823053
0.03071258 134.9599 -11.79676
1.05969 135.3771 -11.93215
15.21013 135.8085 -5.456904
11.30191 144.2803 -11.67863
10.9795 151.8353 -7.433205
9.515443 152.284 -5.731693
12.86371 137.4456 -10.34464
1.437604 135.2805 -11.90845
10.27317 145.2424 -11.96293
8.843111 141.2781 -12.49664
-9.930532 148.238 -11.06881
-8.311701 119.0479 -4.200398
-12.16302 138.3787 -11.10049
-2.071064 121.1107 -6.773362
-0.9151939 125.0282 -8.155913
-10.88744 151.7819 -7.507828
-13.49783 125.9511 1.667554
-15.05946 134.7954 -0.8797655
-9.948406 150.6263 -9.429866
9.834005 120.3484 -3.131296
-9.071039 141.1447 -12.46361
8.617074 137.9334 -12.34825
-3.707294 134.7716 -11.81711
-11.32099 147.3537 -11.26181
12.15981 136.7938 -10.52172
-5.079151 132.4309 -11.09853
12.75202 123.0618 1.25324
14.38238 132.481 -3.432306
0.7918456 126.9723 -8.876833
12.83737 138.1037 -10.6091
8.631768 137.0103 -12.07617
-9.552871 119.2145 -3.170025
-12.01906 118.7899 1.24963
-15.13422 135.3048 -2.664704
-5.91602 136.8697 -12.37994
-9.400501 137.9551 -12.14743
-9.332649 142.6115 -12.33126
-10.88772 146.9945 -11.6928
7.951086 122.657 -5.688676
13.87417 133.3097 -6.725158
14.12077 130.048 1.243579
1.005968 125.2298 -8.229929
0.4149885 134.2362 -11.57312
0.6074163 130.1795 -10.1335
4.979733 135.7991 -12.11098
-5.204157 124.6281 -7.681705
-5.986793 120.609 -5.86189
-2.237562 136.2803 -12.19429
-4.977888 134.1376 -11.65404
-11.45109 131.2766 -8.212164
-11.12453 118.3489 -0.9974849
-13.11571 124.7356 1.086207
-12.52865 125.8026 -2.051387
-14.11175 130.3073 0.1621215
-13.0252 133.0482 -7.790038
-12.85474 135.2461 -9.346488
-11.49359 137.5866 -11.19805
13.69572 127.9102 0.2042047
11.66321 120.8722 -0.413633
10.11591 118.6307 -2.549359
14.59516 133.0665 -2.230169
1.645217 121.2066 -6.83435
3.679219 123.2801 -7.451175
3.939469 134.8944 -11.85174
5.706281 131.8749 -10.83283
4.447134 135.5559 -12.04134
2.58201 127.7859 -9.185432
6.198089 136.2272 -12.19998
-1.141698 122.9101 -7.396593
-4.548797 120.6617 -6.362774
-3.110868 124.298 -7.858328
-6.778943 119.5629 -5.196751
-6.574502 135.3444 -11.88226
-10.53735 119.1949 -1.968425
-11.05339 121.9366 -2.111866
-14.47943 134.8576 -6.993354
-13.99292 129.8452 -0.2923485
-14.84227 134.154 -3.94525
-12.77547 129.4627 -5.173616
-12.29049 132.3685 -8.122143
-12.54336 130.5662 -6.550301
-11.98431 126.795 -4.185636
-10.07385 131.8829 -9.440414
-10.46395 131.3768 -8.968689
-9.483118 130.8778 -9.250908
-9.347773 134.6233 -10.99038
12.56872 123.5895 0.1336735
12.85889 125.4671 -0.7881144
12.84399 123.1451 1.596976
10.73953 118.5209 -1.715692
11.40226 122.4911 -1.804788
13.14364 135.6984 -9.359494
14.25683 131.4324 -0.9249212
5.976382 120.5057 -5.826222
0.5237812 128.8613 -9.610217
4.096248 129.2512 -9.767277
-5.190546 123.6664 -7.303553
-8.504597 125.4785 -6.828403
-0.1968496 128.3137 -9.394954
-5.856081 122.118 -6.470129
-6.41756 124.7346 -7.364281
-8.97413 134.7664 -11.16808
-2.531055 129.3792 -9.811322
-2.066836 133.4281 -11.35239
-12.26811 122.2535 0.309622
-14.4009 132.0377 -0.5938727
-13.38354 128.526 -2.138982
13.52785 127.6673 -0.4443363
14.06253 130.9171 -1.887273
3.4268 127.2199 -8.964678
6.573879 130.2023 -9.99573
3.904222 125.8267 -8.390106
7.806497 135.1342 -11.63632
-0.8327677 127.6206 -9.124619
-7.949416 122.3285 -5.527401
-8.899137 121.2273 -4.365245
-8.430022 122.2476 -5.157318
-4.504405 129.2029 -9.740396
-6.079408 127.6961 -8.85519
-11.27487 122.0559 -1.791961
-13.07007 125.7048 -0.270975
12.79576 125.8016 -1.33305
9.102114 132.7249 -10.28808
9.855964 135.6158 -11.18176
5.123412 120.5778 -6.165399
-7.921721 126.3068 -7.553727
-11.29663 127.7868 -6.068052
13.55737 129.0616 -2.043142
12.85847 132.704 -7.748894
8.850329 126.985 -7.495054
5.79598 122.4493 -6.604658
-11.38328 127.9989 -6.125122
-6.901846 129.4445 -9.552493
-11.77792 127.2759 -5.038595
11.68186 124.7393 -2.989065
11.19282 126.0877 -4.896034
12.71696 134.3717 -8.936028
6.91366 127.2487 -8.414347
-10.35052 125.1947 -5.255827
-8.360669 130.4016 -9.508738
7.61722 123.1541 -6.096493
10.7472 125.8811 -5.331144
11.07214 123.0131 -2.754614
-9.501251 139.2827 -12.31558
6.842509 120.2787 -5.370904
-6.624055 131.7467 -10.66033
8.13297 130.8862 -9.849406
-12.06532 123.7912 -1.399034
12.29267 127.6152 -4.403027
13.33608 131.0982 -5.607225
11.0035 128.1301 -6.651623
10.84832 127.9388 -6.664303
10.43946 126.0895 -5.787121
9.925777 130.927 -9.038404
9.401264 128.3194 -7.942803
7.268759 129.0858 -9.269424
9.061622 129.7823 -8.913709
12.1335 115.9833 -0.9302123
12.51559 115.2268 1.786357
-4.88166 112.397 -5.93622
12.42697 116.2396 0.6400989
12.09781 116.2747 0.9163818
8.431469 117.5206 -3.989057
3.934608 111.9655 -6.478756
13.09771 116.9997 1.961513
-11.72078 113.6581 -2.108465
-13.46816 112.8326 0.6058562
-13.18739 113.1804 1.528367
-13.28797 114.3153 2.006312
-11.93452 118.1438 0.9535017
-12.12173 118.2862 1.764197
11.9798 115.5474 -1.208716
12.10382 116.9437 -0.05758201
-12.63393 114.5098 -0.9912441
-6.717625 112.3347 -5.513319
1.418738 112.4588 -5.877672
-0.3905253 113.0862 -6.288065
12.26464 114.0593 -0.836298
-11.07469 117.3524 -1.305682
-12.37364 115.7538 1.689861
11.36001 114.0991 -3.820186
9.535535 112.9882 -4.69707
6.276615 115.0036 -5.058805
-10.38234 113.1119 -3.664157
5.026787 112.136 -6.702784
4.434136 115.4117 -5.524682
-5.276044 114.3286 -6.553751
-5.1481 116.6417 -5.391609
2.308053 112.4091 -5.961759
11.65585 113.0622 -2.566854
-9.713287 116.4516 -3.089203
-11.00169 116.6028 -1.619166
3.2687 116.3481 -5.778688
-3.305271 112.9535 -6.429831
3.200616 114.1616 -6.58881
1.249718 116.0995 -5.870611
3.062529 114.3266 -6.667087
1.943832 115.215 -6.266784
-0.8858624 118.0126 -6.086745
-9.00736 114.2883 -4.212308
-9.286648 112.2499 -4.713763
10.48072 117.5953 -2.146173
-3.838065 113.6781 -6.793713
-3.903043 114.5811 -6.318354
-8.71344 115.0033 -4.075753
4.045548 113.7174 -5.834984
8.212622 114.0446 -4.955155
-6.490291 115.0064 -4.979838
12.33179 115.8792 -1.192545
23.77845 33.98767 -2.544848
23.90029 32.81878 -5.195108
-28.00593 34.92176 -1.592623
23.39457 46.2261 -2.090184
23.56623 50.24582 -3.000521
-24.30028 60.89561 0.4985425
-1.222501 44.45713 -11.81922
5.958823 37.24824 -7.958381
10.51827 36.084 -9.779859
-6.472073 91.75364 -12.67475
20.08828 69.95968 -3.532782
21.87562 72.86853 -1.248805
22.51262 67.97221 -1.557496
19.35309 80.7762 -4.093039
4.319466 110.2513 -6.9601
16.63916 98.39545 -3.440651
16.56956 102.0187 -0.7493898
6.226156 109.7732 -6.492415
12.41132 110.8661 -3.284071
6.80175 112.1196 -6.714283
-22.60632 35.71218 -10.46365
-1.660707 39.056 -12.58417
21.76975 33.88405 -10.51071
18.42508 78.41967 -5.485772
-23.00027 67.51951 0.07613821
-24.35681 54.69464 -3.559569
-27.24512 39.96765 -3.391968
-27.2277 40.73378 -2.547196
14.47855 109.3462 -0.3267419
14.8556 108.0351 -0.6167051
-15.5359 107.3506 1.814865
-9.163447 108.9667 -6.202708
-16.72131 102.5977 1.239389
-2.569789 110.987 -6.47893
17.20187 97.11809 -2.801678
-25.85887 48.10763 -2.882365
-13.96783 110.6523 -0.1245644
-20.94615 77.22353 0.2327632
23.15552 38.34399 -2.480703
-17.79579 96.7515 0.674441
23.17991 37.17016 -4.863286
-25.39657 38.07925 -8.022092
-27.97443 35.16524 -3.887707
-16.36159 104.1534 1.100759
-13.98801 109.7607 -1.322938
-13.0954 111.3877 -2.035542
23.22782 37.94238 -1.99852
23.31077 35.87584 -6.461436
22.68342 35.14288 -8.854171
23.54879 51.63436 -3.447757
23.15756 44.863 -2.814427
17.24458 36.77287 -12.16606
23.49088 58.86597 -1.87991
-19.24854 85.85413 -3.770819
19.28938 89.23395 -2.288316
7.968802 110.6017 -5.894688
17.55882 97.07982 -1.273
10.75279 112.0008 -4.173951
-9.332699 38.45218 -13.17816
-24.75664 55.31169 -2.117557
-23.40909 36.79959 -9.722526
-26.99009 42.50907 -2.109295
-26.58411 40.99706 -4.994968
-18.32186 93.58937 -1.917794
-10.14281 111.7846 -4.470757
-7.696709 110.2432 -6.045865
-14.59851 109.1372 -0.1174055
22.99979 42.56676 -4.71163
20.9191 36.43511 -11.01245
21.29263 34.52871 -10.95633
23.47832 47.26888 -2.049168
22.84781 39.82114 -7.492818
23.16805 37.86866 -5.191059
16.95671 34.59322 -12.28057
12.33245 35.20314 -10.81063
21.07718 71.42239 -2.42412
22.39835 62.41489 -3.120963
6.845205 37.62134 -8.061718
-17.54897 95.9071 -2.630611
18.2868 91.59153 -3.766546
21.21029 75.69474 -1.390905
-4.75628 109.1572 -7.060863
17.87427 95.37897 -1.783223
13.98964 109.1236 -1.848709
13.00276 108.8912 -3.604548
6.933609 111.3923 -6.374681
-19.06404 35.5033 -12.08304
-24.8179 56.71679 -0.9775041
-23.23233 66.24834 -0.03746607
-24.76025 36.64235 -8.848434
-26.24213 34.71155 -8.172269
-27.46431 38.85393 -3.234574
-17.30262 98.16322 -1.382244
-6.302811 111.0819 -5.982375
22.2283 35.96463 -9.538526
18.55082 36.56377 -12.00997
21.88523 40.87605 -9.103178
19.98375 40.74074 -10.84699
23.53567 56.90595 -2.292176
23.71219 56.28739 -1.842856
22.97039 51.31083 -5.11657
19.01721 52.33338 -8.877107
22.42205 50.55279 -6.32549
22.30142 47.5592 -7.232754
22.02598 41.31637 -8.79126
15.15028 35.2826 -11.99102
20.82262 70.41225 -2.760411
23.10353 63.94702 -1.608916
2.993748 36.01544 -8.8644
-1.280843 37.63384 -12.51037
-20.16817 86.68838 0.5771024
-18.99825 92.04425 1.633588
-18.97834 91.07279 -1.771492
-20.61915 80.20878 0.1395838
18.85929 90.28345 -2.993926
19.48791 87.43776 -2.656905
19.20441 84.55227 -4.110922
5.854499 108.706 -6.98531
2.207799 111.4825 -6.878682
17.19186 99.01237 -1.038915
17.6174 96.43558 -1.779715
14.93079 102.8353 -4.309988
12.11307 109.9748 -4.279912
-15.3161 35.50523 -12.63743
-18.9287 35.67351 -12.09299
-25.13282 56.05542 0.2399008
-24.65423 58.59097 -0.02557982
-22.48064 66.97774 -2.169719
-22.7133 37.91563 -9.895645
-26.11592 46.70578 -2.889404
-17.41173 98.92532 1.472255
-15.68316 104.4841 -1.458289
20.86114 42.00216 -10.01621
22.45677 59.11181 -3.994409
23.65916 53.51986 -2.879109
20.68238 69.5064 -2.979635
21.65905 66.51491 -2.644589
19.36466 72.4506 -4.36196
21.87554 66.46004 -2.489529
21.04808 62.7758 -4.013745
17.6776 62.6364 -6.451917
1.132443 36.52488 -10.50126
0.1522935 39.98758 -11.24583
1.574333 43.28619 -9.631638
1.171939 40.91705 -10.21564
8.596155 39.10043 -8.787734
6.519741 38.88534 -8.054117
-19.47121 86.60942 -3.01477
-15.62893 91.49567 -8.09784
18.72534 88.38066 -4.130728
18.30704 93.18127 -2.525368
18.6322 89.52343 -3.926176
19.75069 81.08391 -3.339844
-2.219143 111.1035 -6.444173
14.98499 105.9958 -2.031666
-12.06808 38.38297 -12.90962
-23.72471 60.56973 -2.2968
-23.2945 61.33087 -3.04902
-22.80303 68.37731 -0.08193899
-22.04181 72.43068 1.151259
-16.81791 99.95103 -1.714449
-16.33832 103.4441 -0.1915462
-16.26137 100.96 -2.621256
-16.3985 104.1161 1.319513
18.5727 38.82174 -11.77668
18.00358 37.15655 -12.05496
22.1726 60.01689 -3.986782
23.53646 53.96091 -3.123857
1.691919 40.55719 -9.716275
-0.2372352 35.82236 -11.90497
-0.6936309 40.6741 -11.82049
-2.883352 42.14873 -12.78194
-4.352044 36.17369 -13.57729
3.066492 39.63062 -8.670693
-20.41393 84.91845 1.101406
-19.06915 89.95192 -2.552089
-20.48886 77.34988 -1.580157
18.05158 93.06374 -3.466658
18.42473 88.63216 -4.635031
19.69917 78.52151 -3.503544
1.575053 109.5859 -7.247732
1.909096 107.6377 -7.846771
14.05272 101.939 -6.103376
-17.31142 38.83664 -12.04076
-13.94648 39.42239 -12.6289
-21.04874 38.15084 -10.81755
-8.267657 37.62326 -13.31699
-23.86911 57.15947 -3.58389
-23.1616 65.16 -1.273604
-21.26185 69.45512 -3.647671
-14.77655 107.0745 -1.695183
-13.79093 105.3571 -4.537129
18.98859 45.9423 -10.37299
18.682 42.64034 -11.16391
21.42182 55.35006 -6.099012
21.15827 55.49833 -6.274233
20.4469 58.61452 -5.80253
19.7055 59.56767 -5.976065
-4.878306 38.18473 -13.42421
1.671627 44.43563 -9.44556
-20.57504 80.81222 -0.3693653
-18.4126 85.59113 -5.207584
-21.00172 76.32462 -0.5757673
-19.53068 75.27672 -4.036872
-20.18601 80.66102 -2.188352
-15.80068 78.72762 -7.612589
-18.65179 79.15668 -5.185861
16.90144 98.12576 -2.90271
18.34357 89.79468 -4.434479
-5.157538 108.5294 -7.170523
-2.175464 106.9397 -8.2211
12.49631 106.7739 -5.27543
-13.73041 37.42185 -12.74984
-17.03415 44.63566 -10.92034
-13.19128 37.37243 -12.82232
-23.34617 56.78052 -4.695231
-22.82256 64.89645 -2.459062
-21.58656 71.78484 -1.81992
-14.17196 109.7942 -0.7658659
-13.30434 109.6047 -2.78961
1.502674 104.7438 -9.408608
19.5603 43.82124 -10.48024
17.59741 61.95343 -6.694348
-7.485056 39.07077 -13.27978
-6.828144 37.60727 -13.42967
5.139269 43.23518 -8.037131
-18.50504 83.9213 -5.24691
16.66844 94.39099 -5.806982
16.57393 91.79773 -6.84664
20.42537 74.72321 -2.842499
1.704354 108.8307 -7.345726
1.644225 103.6048 -10.03563
-0.7245563 106.2197 -8.613967
-10.98803 96.24851 -11.1253
3.119474 104.1086 -9.771364
13.7806 105.8481 -4.253813
14.55356 104.5395 -3.870547
12.94447 103.8209 -6.419993
10.44861 109.0698 -5.634784
-8.122847 41.06123 -13.13632
-13.19512 109.1694 -3.196414
-11.41848 106.2335 -6.473228
16.57332 42.08065 -11.81456
16.49679 42.68748 -11.77803
20.67696 54.0097 -7.093388
19.08488 65.21725 -4.851248
-10.74576 42.41475 -12.91944
-6.974531 43.09541 -13.06649
-19.07873 77.46766 -4.538471
-20.30293 74.17251 -3.270509
18.91093 78.00376 -4.813503
10.06596 106.9595 -6.920797
-24.0546 40.95597 -8.322302
-22.69784 40.81286 -9.260262
-22.00867 43.01307 -9.240965
-10.90029 41.96263 -12.91734
-13.98913 43.45818 -12.22544
-18.67884 76.23183 -5.172832
-21.32932 67.75917 -4.108498
-10.28688 110.2809 -5.166689
-8.175944 109.5566 -6.202973
-8.745712 107.6155 -7.033142
-11.41287 107.1873 -5.966791
-8.274512 103.0626 -9.89884
-13.25144 105.168 -5.3471
18.78419 54.43496 -8.450856
17.05858 63.22063 -6.891541
18.46942 65.65828 -5.493069
15.58565 66.21638 -8.442943
-18.59235 84.65406 -5.055311
16.44442 91.44861 -7.119618
15.3287 89.05947 -8.460913
18.30012 86.24296 -5.291786
17.80359 84.95545 -5.996464
17.31796 80.62386 -6.57905
-1.753348 100.1945 -11.5813
11.81674 103.2525 -7.772032
-18.48873 44.37614 -10.53057
-3.535017 48.01397 -12.38795
-20.5245 72.98182 -3.43193
-5.440989 106.2065 -8.502952
-7.198048 104.3322 -9.469052
17.32669 51.36271 -10.24661
17.13241 69.54525 -7.261147
13.87154 66.1621 -9.581085
14.50483 87.04655 -8.833885
14.55188 88.81499 -9.087111
14.04402 82.00039 -8.27322
16.64268 89.04596 -7.102511
17.10577 82.89454 -6.730121
17.61338 82.22519 -6.289889
2.451872 100.8321 -11.34682
-4.029978 102.1504 -10.79884
14.18645 102.6073 -5.590946
-17.59297 40.53686 -11.72636
-18.07363 42.99044 -11.03473
-23.89601 52.81066 -5.158959
-12.36093 104.7327 -6.509014
20.31975 53.1143 -7.633324
17.0274 84.07648 -6.752992
18.06505 78.11459 -5.915162
15.31029 81.13452 -7.79732
15.44287 78.52246 -7.810591
-1.963995 100.9052 -11.31835
-4.003532 101.5507 -11.0699
13.04531 99.06562 -8.583945
-15.45907 42.93773 -11.88359
-10.69407 44.16471 -12.84961
16.5495 56.96911 -9.446269
15.2824 56.66088 -10.42861
16.66418 85.31458 -7.087166
2.915869 100.89 -11.33006
-4.042828 105.3661 -9.048829
-13.15528 101.3183 -7.425232
8.742922 103.5843 -9.428749
-12.53917 44.46503 -12.48161
17.13814 77.09643 -6.806468
19.6102 84.54505 -3.274957
0.2491796 99.8774 -11.68576
9.257648 103.5928 -9.214322
9.569613 104.0715 -8.798573
9.486453 103.3457 -9.231821
-27.74684 37.04221 -2.925443
-26.88457 37.15216 -6.403244
-24.05382 41.70134 -8.159637
-26.38838 43.92905 -3.846166
-26.97281 42.16484 -2.648116
-25.60814 42.01207 -6.524276
-24.69839 42.10229 -7.504737
-25.98434 48.30532 -2.243512
-24.50161 46.4211 -6.430536
-25.06061 44.86014 -6.233039
-24.53662 45.92061 -6.542196
-21.54983 44.31208 -9.226663
-22.76938 46.17437 -8.055735
-23.26169 47.50484 -7.366105
-21.37511 45.36272 -9.105036
-15.78504 46.03828 -10.9433
-25.31394 48.55228 -4.158291
-24.95686 49.93161 -4.336071
10.84809 37.4571 -10.01618
14.8142 38.85246 -11.88752
7.396725 36.21612 -8.204861
10.46502 36.71221 -9.761652
-17.03696 98.14294 -2.514719
-17.72009 95.43952 -2.415154
-16.46758 97.23541 -4.639318
-14.99143 97.55747 -6.996312
-16.43829 98.94694 -3.570799
-18.44929 91.83778 -3.127985
-17.48838 93.19994 -4.777845
23.11721 46.68806 -3.978156
14.67092 101.1429 -5.657652
-1.07287 46.08521 -11.57207
-23.09147 60.305 -3.900187
-22.54249 59.66846 -4.870866
-23.15961 57.36808 -4.791667
21.22553 42.70979 -9.524514
21.97994 46.06824 -7.98091
20.82821 42.89989 -9.871675
20.52812 45.06015 -9.596431
18.67802 47.43569 -10.25369
18.43715 48.0604 -10.26509
20.41519 50.58308 -8.257748
16.09956 43.48853 -11.76827
18.14362 49.54894 -10.13663
16.12514 44.80894 -11.69713
13.02258 44.77681 -11.4439
11.90145 44.06588 -10.96507
15.40219 46.37227 -11.65462
10.26286 39.98542 -9.770607
9.162226 39.68854 -9.118293
10.63752 42.91664 -10.18324
6.700047 42.23096 -8.227378
15.52789 36.94911 -12.06266
-2.221535 45.23063 -12.21593
-1.715165 44.6645 -12.07789
-5.022627 47.32142 -12.70211
-8.568714 45.13824 -12.93121
-7.363103 45.8252 -12.89965
-6.688258 46.22247 -12.85901
18.57899 73.59708 -5.427923
16.35052 70.05344 -7.76299
17.71588 71.5707 -6.604106
16.71051 73.76656 -7.32293
15.04331 78.95842 -7.93125
12.93039 69.49093 -9.115191
15.36209 70.33714 -8.136683
12.50139 80.62102 -8.574488
13.887 77.87718 -8.403687
13.35962 79.24332 -8.443929
12.59803 75.06231 -8.782226
11.70664 81.67196 -8.717934
-20.18441 82.3457 -2.066111
15.83662 96.94628 -6.00234
15.55428 98.07169 -5.875428
15.04915 92.70534 -8.523294
15.39707 96.6318 -6.836486
11.08612 88.16753 -10.89624
15.12206 99.33466 -5.904976
10.99521 92.96552 -11.58557
9.390526 93.51087 -12.24685
-22.93883 53.96706 -5.997882
-20.81328 55.93821 -6.942297
-15.69634 88.16209 -8.041188
-14.6418 77.36675 -8.212956
-16.30699 79.80953 -7.289782
21.59516 50.10813 -7.411214
16.31187 60.86368 -8.153726
17.69488 59.99915 -7.308947
15.55254 61.04285 -8.78881
17.25607 60.73689 -7.389781
15.5087 55.44918 -10.53817
9.2562 60.33155 -10.50723
14.68006 53.48336 -11.11914
17.09538 52.70204 -10.1259
13.01085 55.19499 -11.24314
14.20652 47.85612 -11.62947
8.40772 61.19431 -10.19672
14.4122 83.71499 -8.358831
-8.841864 101.167 -10.58981
-11.03975 102.6264 -8.669331
-12.07309 99.98154 -9.089375
-12.65662 101.2206 -8.007684
-10.13256 103.9528 -8.563492
-14.39768 101.9886 -5.619989
-14.02676 98.6508 -7.724016
-13.55245 97.64955 -8.640607
-2.264083 97.04701 -12.45592
-6.853148 101.1342 -11.13998
-4.866624 99.60921 -11.81133
-6.933921 97.9118 -12.1967
-4.929591 102.358 -10.71434
-14.58834 45.6698 -11.48684
-14.89907 49.08971 -10.51799
-13.54989 47.88723 -11.40058
-17.07327 48.16358 -9.938224
-11.5572 52.27114 -11.54491
-11.43922 51.53892 -11.71456
-13.07095 52.90097 -10.65686
-10.04407 45.09197 -12.8536
-9.105127 47.87435 -12.73936
-11.09018 49.76393 -12.13885
-6.199582 48.0918 -12.70685
-4.80305 50.12069 -12.41532
-8.096145 50.77596 -12.53297
-6.007815 49.48441 -12.58111
-5.88649 53.48289 -12.20894
-1.947353 49.54357 -11.69372
-10.51919 52.30615 -11.97521
-4.67002 54.01744 -12.03341
-12.33148 56.25333 -10.6081
0.7757319 47.90603 -9.943201
-0.4173544 44.63672 -11.25816
-0.2283446 46.07321 -10.97195
2.294761 41.40891 -9.138586
1.998873 45.10711 -9.167906
0.908539 42.23423 -10.35517
4.312396 44.10478 -8.143355
17.94405 75.87547 -6.103021
9.480185 101.6125 -10.08587
4.284223 107.3154 -7.899904
-21.79149 52.05824 -7.262604
-20.39889 50.19751 -8.406532
-18.08394 49.09471 -9.407376
-17.95737 50.3721 -9.136633
-16.69188 49.5723 -9.720183
-14.5841 98.03148 -7.308084
-14.01437 96.10448 -8.74015
-3.928871 96.09628 -12.62427
-12.71245 93.70437 -10.47272
-10.17406 94.61231 -11.85048
-11.52684 95.78171 -10.90484
-14.88885 93.90163 -8.418807
-12.18578 94.47897 -10.74013
-9.342221 94.54578 -12.19227
-14.20119 92.33829 -9.433617
-15.20993 92.8445 -8.328027
-9.002994 90.58436 -12.08129
-8.189452 94.77495 -12.50729
-5.276319 87.56149 -11.29569
5.881976 93.91148 -12.83553
-5.050989 91.5283 -12.61008
-6.20476 92.49915 -12.76935
-6.788085 95.66418 -12.6274
-8.659005 88.22529 -11.51034
6.58116 108.5464 -6.959453
22.31786 42.04457 -8.218954
13.5164 43.27725 -11.57267
10.33155 44.66432 -10.10453
9.737647 48.13435 -10.01093
9.586573 43.19111 -9.559629
12.61189 51.28102 -11.37457
10.62412 45.9659 -10.35838
10.54777 46.40988 -10.346
9.022333 47.58498 -9.556479
8.175942 43.87363 -8.820938
7.318028 43.05851 -8.443346
10.60307 51.68094 -10.74811
9.64154 51.36641 -10.21098
8.754396 51.04214 -9.674714
5.191873 49.94425 -8.15326
8.91835 49.12174 -9.615151
7.787603 43.08636 -8.622877
8.349277 70.31557 -10.1362
13.90361 66.61288 -9.49237
9.979586 68.12948 -10.36269
13.86574 58.48416 -10.78971
8.869271 68.09154 -10.35809
10.40364 58.60233 -10.88991
10.70094 65.66917 -10.61018
6.333364 65.35537 -9.488958
12.08805 58.89133 -11.10297
13.34277 56.96785 -11.08221
10.64562 61.71969 -10.91176
14.468 61.34354 -9.760197
10.5235 57.37284 -10.89894
8.37854 59.32792 -10.09063
5.38081 65.85908 -9.130526
-1.558112 78.01087 -9.152937
2.91676 51.48849 -8.447136
10.66341 52.68199 -10.8234
12.45054 55.68252 -11.23338
12.36356 55.0603 -11.2486
7.715437 62.96108 -9.974261
6.317665 69.24168 -9.681112
9.14187 70.00122 -10.16459
4.489501 70.38519 -9.071532
5.971801 70.51197 -9.596008
13.83712 72.98678 -8.577816
10.36723 71.8735 -9.607523
8.328117 79.02123 -8.975193
6.98695 80.38824 -9.0834
9.206017 79.51052 -8.898846
8.138336 76.89391 -9.142451
7.672505 78.97622 -9.027182
7.377433 75.74857 -9.371867
7.409438 73.13658 -9.772393
12.80007 86.20239 -9.564447
4.867486 72.29708 -9.301337
3.499429 92.72836 -12.7535
6.337414 73.73685 -9.589849
1.637772 74.31533 -8.934952
-0.225148 77.71832 -9.150055
-0.6055226 76.90406 -9.156874
12.05756 86.60877 -10.02236
2.534918 94.48003 -12.77623
11.59552 84.20988 -9.184479
9.305746 82.62496 -9.126757
7.650891 83.92264 -9.612346
11.28678 89.08298 -11.05647
4.806997 82.01415 -9.351159
3.092051 85.60506 -10.39391
3.831166 93.59544 -12.80281
7.321932 81.70826 -9.171843
-18.47454 81.93661 -5.380293
13.65467 96.88675 -8.818199
12.93702 93.56059 -10.3169
-22.5763 56.37254 -5.687158
-20.84555 59.71939 -6.10911
-19.97303 59.42295 -6.539742
-21.05946 53.96296 -7.252631
-19.43662 55.68124 -7.480154
-18.28665 51.43483 -8.79969
-17.40278 54.44092 -8.396494
-16.54265 85.99368 -7.21026
-18.56505 74.92422 -5.380401
-19.36091 69.06077 -5.401562
-17.9987 74.75419 -6.073759
-18.85282 71.05464 -5.674169
-16.39408 76.00823 -7.428013
-14.9664 75.98268 -8.168729
-13.05096 77.11224 -8.634272
-14.24196 74.15653 -8.472343
-14.76699 75.91537 -8.249867
-14.91427 72.31049 -8.323284
-13.39648 73.29202 -8.685512
-13.07823 72.06915 -8.807122
-13.42074 80.49431 -8.416611
-14.32326 80.03193 -8.157769
-11.22105 81.06593 -8.686365
-13.00606 76.17483 -8.680929
-12.13583 75.16782 -8.808645
-15.5945 69.712 -8.126563
-11.38604 81.70685 -8.711848
20.15156 49.89686 -8.654064
-4.607958 97.7894 -12.32429
-13.27824 54.58158 -10.28223
-10.34973 57.83165 -11.34716
-12.86696 61.25206 -9.873544
-8.354664 58.37564 -11.67029
-14.21934 56.59314 -9.45799
-2.982254 53.79554 -11.65007
-4.14803 53.58249 -11.97544
4.162107 60.69837 -8.421618
-0.5581603 52.67501 -10.56176
0.02649802 53.0168 -10.11827
0.7535032 53.18663 -9.589358
0.8445296 53.43674 -9.513899
5.34503 93.32635 -12.81906
9.558273 92.5112 -12.16784
9.889605 95.22323 -11.89527
7.500427 93.57017 -12.68968
6.58958 93.24397 -12.78846
9.97082 97.42094 -11.37451
11.46688 95.34005 -11.05575
5.081203 91.99666 -12.70006
4.989305 93.50533 -12.82236
-3.936424 92.32824 -12.73126
2.124315 89.74908 -12.15631
0.6619385 86.89713 -10.95653
-0.8306245 89.26672 -11.98181
5.660381 87.4759 -11.26947
1.34825 84.33893 -9.927791
4.426239 82.85963 -9.513515
4.880149 85.89332 -10.51075
7.92636 101.626 -10.6996
3.942944 99.22232 -11.92386
6.031726 101.4388 -11.11753
5.149415 102.8193 -10.484
-23.98261 50.66855 -5.759686
-22.0518 50.64177 -7.467744
-12.16278 96.95216 -10.12007
-11.09697 82.68891 -8.848235
-16.31955 85.43174 -7.373367
-5.135493 91.8789 -12.68315
-9.767653 84.76917 -9.5542
-7.520576 84.83232 -9.732616
-14.4246 87.40643 -8.966252
-17.43329 91.34408 -5.632764
-16.07592 90.63321 -7.687748
-18.73021 90.45588 -3.255334
-16.71473 87.03333 -7.049254
-16.585 91.89146 -6.815359
-17.57365 87.29154 -6.117272
-13.50636 90.12936 -10.01206
4.507094 63.69744 -8.662184
1.647038 69.28589 -8.678301
5.23029 66.10694 -9.089414
4.421912 63.05294 -8.609488
2.365623 68.81361 -8.602155
0.1048635 64.51106 -9.262444
0.9267451 72.99728 -8.886932
-0.3428852 66.66119 -9.346951
2.554197 73.82838 -8.900928
-2.587387 75.06532 -9.31097
0.3191132 75.5088 -9.093512
11.70845 64.9677 -10.61688
7.406078 59.90637 -9.636172
4.869928 56.59944 -8.349386
9.687631 53.21567 -10.37571
7.228844 55.24417 -9.173388
9.406574 63.12722 -10.61788
9.082649 75.18154 -9.27746
-3.535131 78.97978 -9.098351
-5.04213 79.5315 -9.048251
-8.787837 80.7795 -8.842845
-0.5110474 80.58464 -9.221602
-0.1244729 81.41902 -9.311586
2.087598 81.51278 -9.328762
-4.145215 81.06682 -9.144148
-2.358515 82.09306 -9.332181
-0.09048911 85.04549 -10.13296
11.74659 85.70737 -9.72681
8.371407 88.6207 -11.68567
-21.32166 62.89304 -5.212606
-15.7026 81.11005 -7.614179
-17.23831 80.57112 -6.621094
-9.258679 76.44301 -8.925073
-9.274384 78.92251 -8.805599
-1.968152 72.45445 -9.51287
-4.15106 72.95281 -9.63257
-1.571741 74.66056 -9.276336
-5.351696 78.29581 -9.038159
-8.690983 72.17898 -9.423923
-13.03274 66.25059 -9.520514
-3.832283 97.76954 -12.31242
-3.59222 94.48409 -12.78269
-4.128591 94.16029 -12.80427
-0.646001 94.64955 -12.75548
-3.162929 91.05797 -12.50809
2.126113 94.5532 -12.77142
-4.96066 93.46169 -12.82674
-0.9073651 91.41634 -12.56464
8.198134 97.5342 -12.01431
2.038236 99.16526 -11.92124
4.571089 95.37437 -12.7372
6.625953 98.46732 -12.10199
6.44455 96.32986 -12.57807
-8.8657 59.18026 -11.51383
-4.090278 56.90799 -11.61825
-8.051661 59.40141 -11.54614
-0.1214349 55.69058 -10.0158
0.7723207 86.69794 -10.86561
-16.1673 55.33739 -8.682251
-8.658142 81.6238 -8.898657
-7.51716 80.06424 -8.903983
-5.863978 82.95333 -9.286429
1.786064 64.15417 -8.583268
1.908287 66.47316 -8.582036
4.450291 66.06756 -8.79286
6.473837 51.39553 -8.54112
9.885992 76.42588 -9.007265
9.694628 74.55437 -9.278863
-1.263312 84.61034 -9.950579
-5.370605 85.86292 -10.35579
-6.7577 89.06503 -11.99413
-8.873474 87.32225 -11.10935
-8.704876 88.74378 -11.68259
-3.528568 87.41621 -11.19612
-6.169663 89.07009 -11.98223
-13.61581 58.99884 -9.538151
-21.51074 65.41262 -4.467455
-21.54299 61.4996 -5.282327
-19.3271 60.21313 -6.657447
-19.78902 60.4591 -6.454616
-7.571744 70.49655 -9.835041
-11.62966 69.75471 -9.365464
-12.59046 59.77746 -10.12294
-13.98826 61.39015 -9.146996
-11.05155 59.44047 -10.91322
-10.74441 64.04169 -10.48786
-10.02279 62.98304 -10.78043
-15.10923 61.13037 -8.417955
-13.6195 62.95285 -9.365813
-14.63352 64.25159 -8.73404
-16.34745 65.32368 -7.468996
-15.42778 62.61272 -8.152205
-13.94989 60.4188 -9.215784
-15.6048 62.54633 -8.037479
-17.9019 67.42558 -6.32361
-18.90278 61.34882 -6.608491
-18.26184 65.17178 -6.300563
-19.0398 62.18376 -6.423185
-4.578681 88.10915 -11.54023
-1.03413 87.21989 -11.09831
5.708274 99.59679 -11.82532
6.501665 61.12769 -9.262692
5.968266 56.26692 -8.684593
1.94717 54.14042 -8.810094
-6.629267 60.56643 -11.42542
3.676005 57.52011 -8.258722
3.053675 58.53898 -8.339663
3.240797 53.66779 -8.311478
-21.59204 62.83213 -4.97589
-9.076023 73.31025 -9.214103
-7.982418 71.37926 -9.638526
-7.583992 71.78301 -9.614441
-6.612415 70.63948 -9.892407
-9.737329 69.38108 -9.756811
0.8315987 62.46703 -9.029935
-13.02706 66.86285 -9.462102
0.7192851 57.52987 -9.346523
2.338576 58.3374 -8.484597
-0.3450791 60.15884 -9.818307
-1.00938 64.73602 -9.797199
-0.455715 63.62418 -9.604033
-3.596706 67.06683 -10.43091
-2.482953 65.60427 -10.30766
-5.914654 69.81982 -10.07183
-2.835384 64.26144 -10.54249
-3.033041 69.50328 -10.0478
-1.792348 69.97501 -9.666926
-6.141057 58.85457 -11.63853
-4.714756 63.61984 -10.97357
-5.952599 61.74281 -11.28033
-8.770775 68.68598 -10.01023
-5.639656 60.76966 -11.40145
-3.108786 58.18439 -11.24544
-3.859632 60.84315 -11.16104
-3.778481 56.06323 -11.6444
-7.755254 63.15315 -11.01764
-9.808436 65.33461 -10.44066
-8.720396 63.96379 -10.79835
-11.0289 66.27749 -10.08147
-18.43928 92.70184 -2.501067
-12.63323 111.5072 6.723816
13.15066 113.9325 2.780488
-5.032364 118.5113 11.47214
12.46879 116.7536 3.306739
-12.94965 115.2818 3.111026
-5.516985 117.7968 11.28328
13.15662 113.4757 3.409924
9.504726 117.6377 9.554461
11.70921 112.5902 7.484625
-13.05336 112.454 5.147521
-8.623878 111.8037 9.878766
1.808535 118.0797 12.04493
14.66246 111.8253 2.65979
12.48033 116.7673 3.773021
-12.99055 111.9766 5.763333
13.42464 112.6434 3.651241
-5.806902 111.8716 11.29738
-10.7576 112.0048 8.572358
-3.376887 114.1158 11.81196
-1.922715 112.6936 11.83189
11.50663 116.7058 7.266275
10.90804 116.9386 8.124092
11.94036 113.9781 8.433969
12.41279 115.3064 5.003389
11.43496 114.5988 7.45392
13.8095 112.5404 4.33989
-6.315288 111.3651 11.11263
-10.65645 117.1462 8.438748
-2.499136 117.4235 11.84544
-4.952322 111.9682 11.6416
1.429794 118.046 12.00614
1.506598 112.4704 11.8318
5.668117 118.2395 11.63175
10.3871 112.2145 8.805262
12.06297 116.9092 6.015765
-4.086124 112.8237 11.73152
-11.13796 115.6195 7.974029
-8.309724 115.7633 10.19885
-2.685499 115.2921 11.83463
-5.369685 114.121 11.36597
-2.414623 115.0255 11.8384
7.189512 114.0167 10.47857
1.632885 114.9554 11.85612
3.063202 115.5252 11.8483
10.13424 115.1228 10.11129
9.898808 114.5059 9.739423
7.162673 116.9603 11.59459
-7.952039 113.9112 10.06205
-11.91126 113.1333 7.034992
-1.636559 113.2467 11.81328
3.665201 115.4756 11.76876
-12.81644 114.743 5.783084
-28.08024 34.54224 1.806847
-27.80591 38.31186 0.02653134
-26.73808 45.50704 1.635403
-26.41386 47.42703 1.944822
22.00301 72.25309 -1.235297
-15.20273 106.2123 5.511485
0.3350007 103.2097 12.00423
-16.35132 104.4206 2.694424
-4.535034 36.36328 6.811173
-11.24718 38.26784 7.966261
-23.47637 35.62954 6.988284
-15.0198 108.7708 3.022568
-6.219545 77.14116 9.932915
-20.05704 86.93142 2.386793
-15.772 103.0295 5.785563
-11.54959 105.9235 9.319679
-17.18737 99.70689 2.657491
-12.06827 109.0325 8.548781
-27.77281 34.44602 3.313622
-27.15388 34.05801 4.584424
-27.92152 35.53885 2.080324
-22.51855 68.62264 2.841588
-13.50085 101.4915 8.262301
9.942578 42.08242 11.63848
24.65352 34.58314 6.339233
-22.38731 38.32815 7.253706
16.84229 36.20647 9.618758
25.58698 35.10551 1.036427
23.77523 38.11362 -0.1725921
-15.88751 106.04 3.192096
23.72434 49.14617 -1.619768
23.63681 46.27399 -1.448341
14.70398 109.7321 2.075956
-28.06152 35.93285 0.292615
16.91341 101.442 0.3979973
-27.86618 37.45655 -0.3232474
14.73225 111.6765 1.90798
-2.316285 110.9859 11.97948
19.40306 56.61673 7.569552
20.89557 78.15861 -0.5376774
16.87564 101.7566 0.6198171
15.65628 102.4745 6.099329
18.48461 93.74136 -0.3930633
-18.82388 92.58731 1.900869
17.68604 37.01041 9.195399
25.56499 35.48475 5.268487
26.35904 34.23071 3.499231
23.27824 38.23539 -1.685441
12.98844 110.7707 6.596404
13.89661 110.8207 4.524563
-27.17714 42.80404 -0.2409367
-26.47872 34.65881 5.205876
-15.29988 36.54191 8.407472
-21.52013 58.96156 5.804481
20.67555 80.27199 0.2459087
-18.45909 92.02662 4.663193
20.07775 87.31477 0.9258684
-15.97845 105.0077 4.218628
-6.317454 104.9949 11.22596
-13.764 107.3744 7.374488
-15.6402 102.11 6.213875
-3.716171 39.33899 7.198382
24.72947 43.24936 0.688289
25.74431 35.75572 4.982874
25.02902 34.08495 1.023063
25.132 38.99212 1.702475
16.32799 103.9992 0.5367362
16.78844 102.2786 0.9917983
7.650393 110.2984 10.62503
13.15218 108.1902 7.801875
-27.64096 37.3036 2.375757
-26.74153 45.67558 -0.1750543
-27.23644 40.74699 2.28879
-23.65941 36.56766 6.848727
-21.76354 35.31282 7.562006
-19.23325 78.48021 6.302978
-24.54705 59.29941 1.11334
-10.37372 35.2683 7.442193
-4.910604 36.66061 6.783096
20.3388 84.46249 -0.65795
22.26616 69.96725 0.9066782
-16.68257 80.94531 9.15262
-18.4415 93.10834 3.586939
-6.809916 109.254 11.10794
-16.24889 101.8027 5.100424
-3.115862 109.6069 12.17128
4.085029 110.0024 12.03166
-11.73524 107.0473 9.205895
1.518187 39.20892 10.38713
19.08065 34.77643 8.861606
17.42659 35.65042 9.435233
24.14122 48.2323 -0.4841154
24.26158 52.18161 -0.486165
23.73267 35.8788 6.78217
25.10718 41.63646 1.364432
25.04299 37.53242 1.73037
25.43997 39.07541 4.971801
24.24601 39.89199 6.022856
16.50785 103.5887 1.264042
10.85543 109.1576 9.353585
6.052978 111.2731 11.24587
14.31116 108.8402 5.509126
-26.55777 46.17659 2.07603
-26.95473 42.19844 2.612563
-18.05792 35.73102 8.221498
-19.91688 37.26517 7.949553
-23.28215 35.80894 7.066563
-21.88972 69.69228 3.836345
-24.61953 56.12961 2.994112
-23.64515 63.97517 1.780747
-8.654797 35.42113 6.932488
-2.109957 35.71801 7.82442
21.20318 76.66985 0.6080673
23.00789 65.15057 0.02420807
-20.2607 82.0919 3.879605
-17.27417 95.65842 5.155769
19.46521 90.26013 1.233594
-15.77351 99.37534 6.496897
-7.761754 109.8022 10.69638
-14.5127 106.011 6.962249
-11.10182 106.7842 9.540449
23.72294 58.51852 -0.7372146
24.32829 38.29172 6.138279
18.20082 36.02763 9.088958
17.78589 37.84765 9.072247
16.88483 39.37755 9.278487
17.01827 39.43751 9.217242
23.52982 45.06974 -1.571296
24.406 47.04783 0.1019865
25.82991 37.93355 2.58977
17.60553 97.55204 -0.1643047
15.99171 105.1378 4.112821
16.10894 105.3593 2.838607
16.00252 102.733 5.420581
17.33506 98.91211 2.516365
5.244139 101.9014 10.9186
-26.9553 44.47653 0.7041811
-27.13713 40.27774 2.903495
-26.2969 42.7375 3.888
-22.38066 40.56142 7.124758
-22.63012 67.67051 3.072118
-21.45539 70.89908 4.202774
-21.69409 73.85978 1.587197
-24.0712 56.20731 4.095968
-25.66432 49.04822 3.202142
-15.56015 37.52945 8.447883
-1.703624 37.09648 8.101384
-3.575399 35.60218 7.101987
20.51519 81.39503 2.675282
20.85882 78.21695 1.35974
20.72048 78.17264 2.249401
22.53263 68.45675 0.3923053
22.05707 71.83346 -0.1840563
-20.43569 83.5751 2.668517
-19.29531 84.4334 6.09095
-19.51441 89.62415 2.663832
-17.13114 97.77255 4.235287
-18.14227 94.90393 2.334112
19.40571 90.54427 0.8764504
-7.391015 108.4589 10.95776
-14.54377 101.1446 7.512618
-13.47192 99.87583 8.36025
0.07486116 109.1331 12.2236
-12.84267 105.5416 8.659308
-9.324218 108.654 10.14359
-9.677188 108.7958 9.979602
6.725924 35.23589 12.33085
1.801432 37.43397 10.59891
23.97704 57.23043 0.4380001
12.87142 36.48273 11.17278
18.39807 94.15414 1.408497
6.571529 107.6873 11.34621
8.363018 106.9546 10.6542
-19.60416 75.04113 5.558762
-20.49443 78.62664 2.782726
-9.424375 37.05973 7.310688
-0.202389 36.63306 9.225547
19.92787 88.13786 0.9003417
20.38138 84.13034 2.634683
21.83845 72.01674 1.589173
21.57666 74.69527 -0.1137949
23.30396 62.25805 1.685507
-19.01724 91.36597 3.107133
-12.13441 101.2087 8.955824
-12.33008 105.1655 8.967102
-12.14516 103.7478 9.035307
-1.303134 110.3097 12.08443
3.846219 107.7803 12.22537
3.733966 36.51242 11.55028
3.978455 35.99133 11.66515
17.9917 95.71696 1.811066
8.358418 108.9845 10.57496
-19.10657 77.66071 6.431511
-20.15763 77.83807 4.100237
0.9302465 36.34402 10.05778
19.41348 84.18353 5.922706
20.5567 82.38615 2.223745
22.69126 66.23265 1.884283
4.004573 106.5716 12.15644
2.661188 36.61451 11.06066
-20.96655 73.43425 4.076972
-19.3729 78.29275 6.013408
20.51216 83.22385 2.195727
22.35204 66.29884 3.158535
-18.90446 89.2425 5.416708
13.41583 37.9468 10.85667
2.788908 39.168 11.06454
-20.54416 72.25786 5.159212
-18.9891 77.55262 6.606853
-17.46759 91.62215 6.984921
-0.5546708 104.8955 12.2336
10.39591 36.78121 11.90343
23.38334 61.79285 1.575129
-20.67404 70.19335 5.475536
-21.18303 66.47618 5.321674
-19.36098 67.38962 6.31731
-15.07435 90.80804 9.322156
-19.96808 67.88005 5.904248
-10.73092 87.32465 10.09863
-16.74026 97.02113 5.600029
21.38828 64.43491 5.616554
20.43226 61.48033 6.769751
-13.01841 94.17217 9.29469
23.78248 58.27008 2.473109
-16.29411 89.18745 8.892371
23.51989 59.21386 3.018353
23.98514 57.04771 2.284701
-27.83288 36.84728 1.668313
-27.32446 35.75871 3.972133
24.92582 49.49013 1.559052
24.8845 50.48543 2.38289
24.70806 51.03511 3.056795
24.96261 40.38776 5.353967
22.31365 43.40736 6.865424
13.47724 46.16557 10.05285
20.4605 43.6054 7.604794
15.05485 106.8036 5.548029
-17.88553 36.56746 8.259254
-16.14498 40.17316 8.527373
-16.79699 97.40781 5.334195
15.09472 36.92891 10.2714
24.91498 46.22751 1.071608
25.07713 42.55316 1.273027
25.63187 42.60497 3.168247
24.5269 42.22087 5.533732
15.4061 104.2336 6.141702
14.44739 101.8357 7.590846
14.20326 105.6437 7.438296
13.33394 105.1634 8.369705
13.59348 105.9424 8.075893
-26.2205 42.04108 4.190394
-25.16039 39.93161 5.586281
-25.66728 39.39907 5.258105
-23.01061 58.97641 5.010795
-24.43773 52.88601 4.250797
-22.54875 55.94172 5.686677
-22.4432 63.49381 4.869883
-22.02743 63.39528 5.110263
-5.98592 38.13762 6.802951
-2.682824 40.17346 7.615709
20.53732 80.2646 2.628378
-6.291825 107.1697 11.59183
18.37148 93.42923 3.418458
7.070753 106.7645 11.1403
6.232788 105.2106 11.27848
-1.620691 39.28562 8.187695
-0.3735167 37.87635 9.08121
-1.952769 41.68029 8.033585
19.41071 90.18082 2.486485
18.87024 91.95534 2.966618
19.21688 89.6834 4.136978
15.97809 89.19446 9.126694
22.25003 69.03339 1.836396
20.59012 77.9428 3.012545
21.3852 72.94572 2.989916
-17.3093 89.6635 7.917127
-15.06854 88.78122 9.627549
-15.49968 89.7557 9.30769
-10.8114 88.3608 9.983873
-15.56629 87.60399 9.555133
-18.91952 79.60001 6.837978
-10.48414 89.40143 9.923572
-11.8552 89.58018 9.957796
-15.50066 84.12677 9.787451
-10.44887 88.75503 9.950532
-9.066616 91.3605 10.3158
-14.01472 85.50284 10.13934
-13.83485 80.02381 10.08571
-15.98867 81.92318 9.592929
-15.75652 79.23543 9.549991
-11.72198 82.28816 10.14235
-11.2576 84.35564 10.4333
-9.815902 92.11614 9.824325
-4.65511 93.90221 8.873316
-15.71303 80.78345 9.692796
-16.3 78.52619 9.261155
-11.57698 84.17682 10.40756
-3.499141 89.13937 9.909134
-17.59751 78.2119 8.345228
-12.78757 98.86267 8.734603
-2.518575 86.59824 10.27398
-9.407196 87.82606 9.953454
-14.05086 78.99562 9.987012
-15.33888 75.70502 9.3643
-13.28617 77.60446 9.879659
-6.890275 94.36092 8.945586
-17.56568 73.97979 7.82016
-10.14191 76.06393 9.753957
-8.885837 37.40235 7.184752
17.34389 78.11228 8.536307
19.74956 80.77097 5.409226
22.04582 67.32826 3.673198
4.754454 38.5485 11.82708
5.862352 38.45687 12.08674
9.202554 40.89671 11.86279
9.738039 43.17908 11.60793
11.85004 40.21642 11.24085
13.7996 38.23769 10.68034
11.99005 42.53916 10.99443
11.13254 42.74717 11.27128
4.17081 40.5521 11.55906
6.459406 42.38236 11.94796
3.512605 40.34211 11.34503
15.73693 41.26246 9.565258
9.459042 45.17281 11.53034
14.43933 44.97475 9.744597
10.78379 48.7239 10.91198
8.316707 41.57049 11.93811
12.97533 49.43004 9.941656
14.07463 46.06488 9.797608
15.28962 40.39886 9.847561
-18.94868 72.07458 6.646702
-20.15602 74.08279 5.106483
-21.95452 67.51256 4.522103
-19.20023 66.60477 6.360016
-18.47533 67.92016 7.055427
-9.391821 74.43891 9.600781
-16.56222 74.95889 8.700804
-22.52275 66.32147 3.89998
-14.35211 70.4562 8.855786
-16.1099 76.06172 9.109105
-8.591185 75.49233 9.714619
-8.37737 70.55817 9.41554
-10.35592 79.81207 10.12654
-8.576334 71.80451 9.443006
-10.8778 81.04688 10.11148
-7.548991 81.01795 10.02068
-8.480556 73.85783 9.567571
-7.566904 70.78178 9.428115
-11.30397 91.63246 9.958961
-26.46463 37.31645 4.753559
24.3992 53.82641 0.8826517
22.50476 57.644 5.40616
23.39562 54.31839 4.894658
23.15877 55.2667 5.04092
21.02189 55.04211 6.852296
21.7993 53.98082 6.464089
18.0618 52.34307 8.031678
21.76677 52.59066 6.608878
18.03448 40.42125 8.721477
24.00273 41.78399 5.992227
21.00319 44.50156 7.355752
15.44396 50.27988 8.865053
17.53359 41.72523 8.783028
15.89599 44.29141 9.184985
16.59732 45.84229 8.777818
15.32051 46.92482 9.175937
20.40203 45.24256 7.517701
20.0058 50.41324 7.432399
21.72956 50.87187 6.713236
17.91031 48.56573 8.144112
-25.35253 49.46059 3.707816
-22.22097 45.18881 6.860234
-15.4839 39.12014 8.539218
-19.94687 40.91863 7.891565
-15.50928 95.27895 7.912078
-14.10672 98.32255 8.204038
-11.15376 97.04281 9.245725
-11.91721 97.75245 9.039659
-10.49297 96.03151 9.246058
-9.13156 95.87069 9.195026
-2.171044 93.41412 9.006351
-8.74257 95.25004 9.142907
-7.509608 98.36663 9.570033
-6.837752 96.34119 9.549773
-8.441236 97.532 9.474828
-8.769574 100.6649 9.902455
16.94794 99.58923 3.98632
9.279695 105.4162 10.19002
10.08255 107.9268 9.937778
7.745162 103.9486 10.53733
9.456723 103.7978 9.945941
9.032108 102.6999 9.988649
0.02666496 104.7065 12.21038
2.278061 102.5231 11.747
3.314777 101.9099 11.41963
11.00503 107.6675 9.546625
