# .PCD v0.7 - Point Cloud Data file format
VERSION 0.7
FIELDS x y z
SIZE 4 4 4
TYPE F F F
COUNT 1 1 1
WIDTH 1662
HEIGHT 1
VIEWPOINT 0 0 0 1 0 0 0
POINTS 1662
DATA ascii
22.80256 79.73731 2.488422
24.75082 72.8074 0.5626928
24.15652 74.87085 -2.305242
24.80927 72.87123 -0.8105632
18.42921 93.89989 2.692942
14.12329 105.7889 3.855561
12.49786 108.8451 7.216314
-24.05219 77.63804 3.504618
-24.62514 72.95274 6.252714
-22.00881 73.02699 11.53602
-24.75763 73.66258 5.402143
-24.5724 75.94623 3.464377
-12.14075 79.99644 18.27316
0.6362067 75.02348 21.27127
-3.212093 107.6439 14.36723
-20.09175 89.67757 3.814433
-17.99901 94.4044 6.916565
-20.68401 75.57013 12.57016
-11.71814 108.886 8.107385
-13.00835 107.7965 4.906409
-4.376482 108.0695 14.00518
-13.89627 104.6786 5.995615
-17.25909 98.00074 3.458212
9.946385 74.29355 19.21985
13.04106 77.25602 17.4227
19.91643 87.93026 -0.5569088
19.45863 90.64437 2.514412
22.96913 73.97781 7.167307
21.5711 82.69477 -1.340618
22.51117 80.64264 0.06975847
22.69413 79.39029 -1.473121
21.11789 84.33115 -0.748398
24.46512 73.28088 2.133566
16.56616 99.4829 2.914442
12.36929 109.2971 3.997293
14.27562 104.0344 2.072157
12.40197 108.2369 7.961204
10.43215 109.5778 9.217322
12.19214 106.7779 9.48879
9.982383 108.662 11.15275
9.806941 109.1328 10.70404
-23.42107 79.54195 1.317356
-24.38633 72.66753 7.011197
-22.45767 73.17103 10.78181
-22.01117 81.38934 7.588799
-24.31973 76.80846 3.475539
-23.8642 77.97255 4.223628
-25.09505 74.5331 2.367229
-3.26458 74.74655 21.22912
0.6846632 77.68629 21.23728
0.4889494 108.6496 13.63602
-6.011625 107.745 13.47082
-6.004958 107.2556 14.04639
-20.64296 87.80502 2.675699
-20.36139 88.68954 4.572509
-22.05248 83.57746 2.108053
-17.75914 96.7448 4.617298
-17.94277 74.74496 15.68421
-15.47604 74.93396 17.39178
-13.18095 74.99962 18.60914
-12.17854 107.6462 8.032627
-10.70829 107.0755 11.52996
-9.072575 106.1001 11.96842
-8.874435 107.777 10.94513
-10.74863 106.3631 12.04887
-12.23219 107.0656 8.990018
-6.866093 107.8972 12.79328
-5.775803 107.9659 13.20759
-14.13577 104.2374 6.020821
-13.89421 102.3665 7.730215
-13.71302 102.4624 7.899292
-13.20586 103.8647 7.635627
-14.01466 100.6306 8.80602
-12.02954 98.34195 13.69875
-13.21471 102.4598 8.855647
-13.94491 101.3217 8.420118
-13.3058 103.2412 7.977519
-12.44724 104.9945 9.501271
-12.24935 106.9154 8.023652
-12.70497 106.4757 6.458628
-13.65014 106.4244 4.93294
2.601601 73.862 21.07832
12.17146 75.55242 18.11905
16.05893 75.32214 15.69664
16.56806 76.98507 14.90107
21.86105 73.51925 9.764874
20.15067 87.22108 -0.5938243
19.43356 90.1603 0.7233483
20.05517 87.99532 0.1609571
18.02224 94.20005 0.6448618
17.05759 98.02912 2.624345
23.78715 74.61206 4.297187
23.1375 77.89656 -1.988023
23.27924 78.26611 1.561169
21.29558 84.22386 4.043635
21.39157 84.40929 2.332837
22.04443 82.31595 1.541879
21.85973 82.806 0.8221527
22.85095 79.45238 0.1215879
22.06663 80.94869 4.891538
23.91988 74.22617 4.065448
16.53385 99.38815 2.208592
13.22345 106.7345 4.853913
14.46781 105.0044 3.982291
14.84369 103.7014 4.466117
12.37865 108.7225 4.794283
11.69631 105.4799 10.83587
8.187375 108.9724 11.17431
-22.84725 81.3025 3.576618
-21.92135 73.57246 11.4999
-21.51715 76.70717 11.02517
-24.03757 76.66537 5.412188
-8.459939 74.6396 20.36245
-5.471373 75.77853 20.93418
5.176496 108.1518 12.94436
6.830378 108.7477 12.40467
-0.5184889 107.681 13.76851
2.671485 107.4057 14.29048
-20.76182 87.27574 5.019196
-21.31788 85.69147 4.609594
-20.69279 86.91042 6.26402
-21.81165 84.33363 3.679527
-22.05223 83.54781 4.252655
-18.53722 82.12924 12.81038
-21.58053 83.57258 6.807176
-22.99409 80.71393 4.027594
-20.40346 88.23587 5.488912
-19.14441 92.50636 3.702996
-18.07662 95.80968 4.596508
-20.02714 75.89574 13.25815
-18.35022 74.51202 15.40904
-16.48073 74.96416 16.73878
-13.0931 76.18456 18.45038
-14.79108 78.71191 16.98187
-10.50823 74.03205 19.79662
-11.78053 109.2022 6.771003
-9.387329 106.3691 11.891
-16.09308 101.2587 4.499153
-15.98242 101.6693 4.083626
-17.41671 97.74348 4.32379
4.813958 74.04494 20.73449
0.9664176 75.60641 21.25096
11.53919 74.19569 18.53554
8.855147 75.05997 19.60377
14.97095 75.11125 16.50405
18.65252 77.86567 12.61081
20.84641 74.68183 10.91219
19.95386 88.71432 0.985473
18.90575 92.34612 3.413599
19.52631 89.3686 -0.1185829
18.57012 93.22198 4.068541
18.3035 93.88729 1.360129
16.50122 99.62005 3.235248
22.39495 80.58349 3.740152
23.33893 77.95042 -0.1353619
22.70321 79.52209 3.7502
24.38895 74.31912 0.9472535
23.67933 75.59339 3.831126
20.42147 87.23236 3.881222
22.10326 81.29527 4.288122
21.21592 81.93021 6.728616
21.3345 82.31655 6.101376
15.4807 101.7814 4.851269
13.82982 106.0199 4.499023
11.82365 107.6307 9.113829
5.789222 107.2347 13.13615
10.72267 106.1005 12.42754
11.05233 106.5833 11.61378
12.00126 104.366 11.41807
11.01192 105.5657 12.35159
13.04928 107.3203 7.197872
13.44354 104.8331 8.383674
-22.71531 75.55186 9.488823
-22.41259 81.41549 6.210173
-24.37871 75.75272 5.028439
-4.877698 76.6235 20.9922
-7.661528 74.36908 20.56904
-3.810787 75.34414 21.16957
-1.220735 76.15141 21.30917
3.408391 107.657 14.32767
1.182383 108.9838 13.34369
1.482872 108.2345 14.06706
7.000356 105.2752 14.74052
6.443283 105.942 14.05344
6.383249 109.2613 12.00889
-19.52783 84.8046 10.41096
-20.03773 85.15639 9.386326
-19.39102 86.98822 9.447681
-17.72373 93.19027 8.473234
-19.28537 86.92271 9.657063
-18.26318 86.80876 11.20831
-20.21857 88.04222 6.710874
-19.63192 89.83643 6.668867
-19.73954 88.0822 8.017405
-19.41672 87.79549 8.896515
-17.446 91.98614 9.652154
-18.88826 93.17954 4.87615
-18.59336 94.16014 4.651725
-18.18559 92.10648 8.365028
-17.22499 95.79832 7.475735
-17.62811 76.69516 15.37151
-18.31105 78.64857 14.18418
-16.99239 82.8377 14.14503
-19.9566 77.00723 12.9624
-17.52103 74.82243 16.02294
-15.98942 78.27437 16.25647
-9.109151 106.5626 11.6855
-7.405247 105.8891 13.00683
-10.62636 101.0135 14.71648
-17.49146 95.12144 7.476414
7.588984 75.99077 20.00071
8.079431 76.62303 19.8113
5.478032 77.26671 20.55058
2.236756 74.65999 21.13744
4.795956 78.56579 20.65645
9.08031 74.26208 19.54677
15.43498 76.13673 15.99749
21.86491 77.19098 8.032398
22.45899 77.33004 6.597599
23.17025 78.37666 2.717055
22.61736 80.00539 3.363959
22.41341 76.89794 6.980285
20.21018 88.1214 1.472805
19.43687 90.64012 3.310484
19.75701 88.81673 4.890744
19.09153 91.80849 2.623349
18.53255 92.80553 4.916675
14.20953 100.9748 7.827787
22.80661 76.13219 6.394229
21.4453 83.40077 4.533114
21.24303 83.78272 4.946545
13.08778 106.9607 4.881993
13.50947 104.2115 6.286083
13.69302 103.0894 7.06256
18.05309 91.21228 7.656026
12.40128 103.4375 11.67659
13.29661 103.5266 10.25492
13.6116 103.1951 7.941073
13.76084 102.1922 8.416723
-23.70057 76.98768 6.369941
1.829037 74.02591 21.16868
-0.1519733 75.61161 21.30202
5.061465 105.8883 15.09398
9.49691 105.0876 13.93688
7.73681 106.8237 12.74804
10.6828 103.6002 13.80822
9.006447 105.1676 13.88709
11.29436 102.664 13.35665
-20.55058 83.13257 9.593387
-18.48631 90.37395 8.943134
-15.69856 81.2502 15.70934
-7.003038 105.5787 14.19534
-3.55542 107.2224 14.83731
-2.298046 106.9369 15.35739
-0.8936998 107.8427 14.04173
3.91876 75.92889 20.90223
-5.37759 88.84924 19.84604
5.382425 78.90345 20.50336
23.02013 79.14105 1.165152
20.58216 76.88394 10.43741
20.32814 79.81624 9.647699
21.30559 78.3216 8.60496
20.76198 81.69859 7.924005
19.53495 78.56865 11.29514
21.38744 80.63895 7.170747
21.62071 80.74643 6.514246
20.24509 85.11771 6.857565
20.37023 87.35702 4.006314
20.02245 86.98383 5.964505
20.14722 86.70726 5.828998
19.70402 89.29051 4.475901
18.26766 93.07814 5.653076
23.61389 76.54935 3.066225
15.75844 100.949 5.061836
16.66245 98.34452 5.151587
17.03517 97.4469 4.961342
-23.00035 77.94484 7.590298
-23.29744 78.98093 5.678268
10.13131 107.441 12.09926
5.802507 104.7954 14.8275
4.938514 103.4753 16.16912
7.509742 104.5517 15.00172
10.97795 103.4397 13.49749
12.42502 100.9936 12.89868
-13.63162 98.84877 10.6341
-17.58006 82.8328 13.57059
-15.25249 80.1118 16.33784
-7.437167 105.6562 13.20906
-6.747458 105.1933 14.72782
3.046893 79.96915 20.92765
18.3036 82.19007 11.62548
20.96072 80.87456 7.962825
19.99975 87.75277 5.252227
22.26892 78.8583 6.049451
16.725 98.86187 3.79385
16.00124 92.99249 10.17335
15.07635 101.066 6.285451
-23.6107 78.92182 3.782953
-22.56144 80.841 6.334418
8.583406 103.0802 15.33635
10.94838 101.5197 14.2395
12.06244 98.22918 14.18343
12.78946 100.785 12.52436
-16.85358 92.97218 9.929824
-13.77564 96.60561 11.78535
-14.89628 78.82492 16.88574
-15.97323 79.17782 16.04669
-16.72538 82.84178 14.38893
-15.73881 82.05485 15.4644
6.036058 82.12697 20.14543
19.19646 79.80357 11.29913
18.00204 79.01385 12.99687
18.51977 76.08733 13.30378
18.16362 90.8737 7.65441
22.11926 76.92729 7.628291
8.048601 100.92 16.80954
-15.53788 90.77206 12.61569
-14.20725 97.28284 10.77759
-16.40838 83.01055 14.62059
-17.26055 83.60349 13.62959
-0.8056143 81.49493 21.12139
17.79707 79.68559 13.02072
15.55118 82.02253 14.66406
17.72276 85.63303 11.09084
18.83097 91.45387 5.43857
18.97872 88.89343 7.220213
18.33558 91.062 7.123399
15.25691 92.80202 11.42394
18.09566 92.43372 6.678741
13.85091 101.4318 8.777862
9.31703 102.4287 15.58519
8.132258 100.2201 16.95011
-14.37078 98.67872 9.660053
-8.859403 86.27422 18.87477
-15.64993 83.36091 15.17464
-14.44631 80.04349 16.9019
-13.7853 83.68988 16.50934
-14.52404 81.37524 16.5528
-13.71726 82.13424 16.9226
-16.79611 85.45464 13.43639
-16.4382 84.911 13.97739
-19.42766 83.79426 11.02214
-0.7963848 77.5688 21.2845
-1.363443 77.54091 21.27298
4.05895 80.9548 20.70805
14.92865 82.08575 15.20691
18.27464 83.45007 11.20174
18.50168 87.62279 8.930763
18.63517 88.43169 8.244236
20.48106 84.56688 6.677799
20.21152 85.63326 6.579556
17.18004 93.59532 7.810747
16.5923 97.41488 6.244012
16.91083 94.03161 8.031137
15.21783 94.41036 10.66135
17.40575 89.46799 9.813467
17.16362 89.32772 10.26805
17.56114 90.80725 8.83954
14.65817 87.33492 14.16694
15.55995 90.72142 11.92914
16.33123 90.91863 10.73928
14.1502 99.28568 9.63834
-16.37993 96.46664 8.464459
-9.56377 82.51403 19.1055
-13.3255 81.85106 17.2258
-11.03392 87.43481 17.48393
-17.23969 86.07181 12.7402
2.92095 79.76602 20.9515
19.67299 87.45908 6.568666
19.24939 83.25269 9.866673
18.70662 83.38895 10.62247
5.449004 83.59782 20.21097
14.68709 92.18826 12.50666
17.47717 86.74944 10.97101
-7.158247 83.96798 19.84895
-10.1071 82.03048 18.93905
-9.096058 81.0563 19.49614
-10.88976 81.60818 18.63562
-16.47647 87.53731 12.9668
-17.42142 87.21751 12.06025
-17.56565 89.35561 10.8838
19.40287 84.50247 8.981815
17.84859 87.38943 10.14067
-7.896745 81.61617 19.86722
-12.14983 88.05571 16.59443
-17.60522 89.67314 10.67272
-18.17396 87.97029 10.76771
-6.067792 78.93544 20.63179
18.37214 87.04374 9.479357
-6.22023 77.13591 20.72372
-11.62806 85.96072 17.4269
-17.74135 90.29052 10.16811
-6.70687 75.79254 20.70347
-6.213293 78.02105 20.66194
-9.52747 78.38646 19.66004
16.28313 84.69796 13.21008
18.86235 87.67668 8.246217
-9.130527 78.65472 19.77542
-7.279153 79.59544 20.27349
-3.208462 79.3956 21.07908
-5.991343 80.69679 20.51064
-7.253001 81.61462 20.07512
-11.8478 87.40211 16.96683
-13.29986 87.00339 16.01522
-14.75149 85.6796 15.23056
-14.29685 86.65004 15.31868
-5.161379 83.88884 20.41744
-16.48273 86.42896 13.38857
-6.663364 83.98743 20.00294
-6.833385 85.10043 19.82627
-8.448302 84.20219 19.33881
14.13356 85.49517 15.13856
-4.416661 85.37527 20.44411
-8.671521 87.31572 18.79995
-10.12775 86.12553 18.26047
15.88141 87.59601 12.71428
16.69893 83.81131 13.01307
-6.728835 88.10098 19.50167
-4.156944 88.24514 20.21808
-4.826372 88.74953 20.01384
-6.551053 89.95307 19.3283
-6.8289 88.27367 19.44216
-7.578845 89.04386 19.0415
-11.43092 86.11379 17.51861
-1.4755 85.65444 20.81347
-5.606954 88.32635 19.83549
-4.740564 88.44521 20.07175
-5.557429 91.69689 19.44118
-9.378328 85.15712 18.79698
-4.706075 86.61066 20.26015
-4.648475 86.89095 20.24732
-3.336394 86.47984 20.54469
-1.412105 86.94633 20.71409
-22.38086 82.68571 2.36798
-22.17217 82.6694 5.503117
-12.69623 99.88396 11.94897
-14.60701 99.38409 8.878901
-11.18934 96.88389 15.12615
-13.03391 102.0513 9.540664
-13.13647 101.0909 10.06323
-8.662449 104.4742 13.02674
-14.14034 95.34737 12.00009
-15.41093 97.10802 9.341814
-12.09841 100.3328 12.86968
-8.848613 95.24504 17.41534
-10.98022 103.2607 13.50937
-15.00691 96.884 9.989667
-13.32064 97.41158 12.06646
-11.66571 102.7338 12.65061
20.19685 76.05031 11.31113
-19.84619 82.19663 11.15765
0.4836821 106.8154 15.03324
-18.31973 75.85485 15.01759
11.16209 77.58705 18.43262
11.86275 77.7755 18.03364
7.928224 78.4473 19.75703
9.639058 77.74511 19.13223
16.17314 79.29313 14.73427
24.10131 75.11688 1.993706
-19.48813 84.14285 10.77602
-20.33958 81.04187 10.96447
-18.44632 80.57602 13.44351
-19.51964 79.48939 12.64085
-21.02787 78.33118 11.10348
19.14422 91.5173 3.681197
17.11909 95.70646 6.399424
17.60878 96.27806 3.988626
17.80764 94.69976 5.460059
13.28457 102.9181 10.57653
4.484846 105.9171 15.55185
-4.12559 102.2246 17.60134
-0.3459987 105.7122 14.89195
-6.680861 106.112 14.32423
8.215838 79.66436 19.56995
10.03617 81.54 18.59625
9.194698 78.79163 19.24334
6.560773 84.86391 19.76814
10.72902 79.58365 18.44552
6.041131 84.38956 19.97837
4.528057 88.05905 20.08208
6.179995 83.77609 19.98424
3.951688 87.156 20.29518
3.112957 82.59899 20.78306
-1.317173 82.92999 21.01838
3.956267 85.48672 20.4328
4.545733 82.2755 20.53271
-0.05459297 80.46647 21.16416
-2.456082 80.04516 21.11234
3.199467 84.97321 20.61151
1.477097 80.4524 21.08755
-0.1594451 79.07439 21.22804
-1.711442 79.89657 21.17197
-1.690675 84.74466 20.87124
-1.951553 82.6815 21.00054
-5.135291 82.8828 20.51824
-4.278063 82.27814 20.73522
-1.742785 81.40762 21.09069
-21.00257 83.10012 8.737386
-21.49058 82.62634 7.943449
-19.89797 81.70303 11.29592
-21.72047 80.10233 9.104669
-19.63133 81.9296 11.56172
-18.83319 79.87528 13.28023
-13.7444 77.61255 17.83737
14.97086 99.03214 7.940597
11.93005 100.3764 13.65958
10.95631 97.55305 15.41526
12.9648 99.41866 12.687
12.83792 96.4332 13.67365
13.06328 98.07376 12.90412
11.40322 96.36018 15.29464
10.64435 98.98106 15.31891
13.54442 101.9233 10.39809
17.29982 84.4435 12.08713
16.42255 89.95082 11.05596
16.45361 87.98693 11.84543
-14.93667 93.62856 11.92618
-14.35845 94.25215 12.29977
-14.34693 90.71856 13.87869
14.9395 92.93596 11.82985
-13.60528 78.94254 17.6556
-11.67622 80.56224 18.41484
-11.75599 81.72957 18.16531
-9.741087 79.0485 19.50524
-12.97767 78.2216 18.14239
-14.4271 87.50329 14.94836
-15.43991 89.03039 13.4419
-13.57851 88.62624 15.32443
-12.6575 87.47874 16.36645
-9.517539 89.67377 17.9787
-12.5169 89.57776 15.92392
-14.01221 90.65254 14.23605
-15.05154 89.11129 13.80734
-16.06893 88.68034 12.93052
-10.46946 88.03256 17.71126
-9.728618 88.30268 18.09632
-9.007005 93.96841 17.51968
-7.510132 94.68345 18.24098
-11.20111 92.71239 16.17243
-9.61986 94.33089 17.04674
-12.26156 92.41216 15.32439
-13.40953 90.60548 14.82397
-9.693507 94.54721 16.95007
-12.49065 94.52332 14.40116
-11.95774 92.55811 15.5628
-10.84106 94.50564 16.05029
-10.9778 101.5732 14.09173
-13.46022 94.30051 13.34654
-10.54707 93.1419 16.60419
-13.46579 98.07471 11.42533
-12.77343 97.51231 12.89312
-12.96549 98.14846 12.28406
-12.62898 96.5291 13.51706
-10.77892 99.7026 14.89962
-9.662807 96.47916 16.59693
-11.15861 100.4712 14.18103
-7.241683 103.713 14.18609
-12.60232 99.08026 12.50981
-7.019771 92.55608 18.78122
-8.852378 96.0597 17.2716
-10.50488 98.09631 15.53287
-8.78197 99.77335 16.39489
-10.03408 99.28183 15.75088
-8.829749 103.5002 13.74087
-7.423158 93.03071 18.53441
-0.3288063 98.86677 19.22088
-10.01473 96.51975 16.29369
-9.069586 102.1312 14.78802
13.23662 81.40567 16.67023
12.23303 84.11269 16.93274
17.27601 83.54386 12.43069
-16.32234 97.00565 8.198514
-15.01358 98.19102 9.150752
-11.70204 105.2194 11.40749
-0.09057712 107.1518 14.18676
13.61838 77.21133 17.06653
14.02929 80.65034 16.22101
13.25656 78.46721 17.11693
10.4975 80.15981 18.50708
15.09162 78.04786 15.89125
16.44245 82.05407 13.78444
14.59105 83.74579 15.12559
15.6602 80.33142 14.95787
13.21024 80.4566 16.83559
13.83599 80.92519 16.31866
5.290906 104.112 15.56786
-5.458671 103.6539 16.43629
7.060481 84.18565 19.64579
7.55383 84.92233 19.38618
8.504316 80.26461 19.41471
9.657847 83.87107 18.53196
7.819677 84.24505 19.34053
13.31381 84.64751 16.02403
12.61161 83.0653 16.83281
13.90148 83.41452 15.79434
10.35691 83.62519 18.1764
13.03921 90.68597 14.91962
11.54684 84.29557 17.36691
12.72992 85.25494 16.37105
11.32232 85.52749 17.33114
11.79729 87.7094 16.63781
14.03791 86.63594 14.96318
15.05547 88.98712 13.22046
13.53304 90.06046 14.58323
12.68309 91.7692 15.02614
13.18403 93.20873 14.12028
12.08959 89.36978 16.08106
11.53859 90.04379 16.41146
11.53158 90.81697 16.2689
13.78934 91.82557 13.79296
9.296938 87.5537 18.27682
8.925974 86.55966 18.59362
8.746802 91.83939 18.007
7.525846 89.87238 18.87191
7.577244 87.52814 19.11588
5.662605 88.74819 19.69964
9.169705 89.86035 18.05006
-3.837185 89.99719 20.09241
5.307594 90.84029 19.58176
4.669693 86.83977 20.16042
-2.333942 87.36102 20.595
2.113412 83.74275 20.84484
0.01885445 84.54818 20.92829
-2.359724 86.97655 20.62948
-22.20915 80.00104 8.12083
-21.97286 78.98883 9.253026
-21.73908 77.32491 10.44836
13.78429 99.79942 10.60591
15.49498 95.99265 9.210922
16.42053 95.09518 8.211793
14.57992 97.12312 10.17743
14.11791 93.97752 12.5988
16.39357 95.77765 7.81102
15.06386 96.70061 9.498598
14.34947 95.37458 11.62557
13.18871 97.09884 12.99548
13.01521 95.84908 13.60686
13.73277 94.24548 13.08482
9.987816 92.29607 17.17271
12.99211 94.61558 13.97677
11.67846 94.52888 15.43404
10.07766 97.29126 16.18753
8.853498 99.04974 16.75346
9.558339 95.56679 16.91567
9.28988 94.81164 17.22493
11.17394 95.77003 15.6331
15.24496 90.15617 12.56981
-10.63735 76.97223 19.40935
-12.10512 91.81895 15.64015
-9.604001 98.73889 16.21973
-6.831817 102.251 15.33271
-6.961599 103.23 14.69456
-8.746533 98.50156 16.81504
2.624314 104.1844 17.02544
0.9192673 105.0812 16.12942
5.359924 102.5503 16.65928
6.196823 101.4053 17.23352
0.9381738 105.5211 15.93486
1.811826 101.6897 18.25681
-0.5350831 105.4368 15.22633
4.67222 104.2483 16.15952
2.411136 101.3535 18.36638
-0.219886 102.8884 17.04962
-2.681001 104.3965 16.89088
-0.01273022 103.1638 16.8306
-1.077569 100.9123 18.64021
1.261923 100.4997 18.72374
5.196074 101.4583 17.48028
8.56047 100.4706 16.64762
7.073558 97.78061 17.96578
1.793396 102.0185 18.09005
-3.317394 97.73106 19.03532
-2.908484 103.5843 17.35198
-5.855739 94.69007 18.92178
-4.600874 95.00047 19.22816
-0.9760457 91.086 20.32709
-2.724799 101.2844 18.31309
-2.51338 100.3419 18.63753
-4.780161 91.49814 19.70317
0.2139252 87.78905 20.67601
7.826424 100.0406 17.15229
5.065853 98.73927 18.49778
4.531173 98.45576 18.70263
8.649177 96.12354 17.39789
6.705481 95.60995 18.46041
6.360324 94.31172 18.77839
5.154782 96.6717 18.85879
8.727328 93.67809 17.74693
5.197757 97.6702 18.6666
8.119509 92.86818 18.2034
7.658283 91.95181 18.55665
8.557388 89.91293 18.36292
10.15097 94.53161 16.68172
5.700456 92.83912 19.22127
5.842032 92.37352 19.23675
-5.944809 103.3198 16.12677
-2.516368 95.56648 19.56462
-3.217188 88.57209 20.35651
-1.926638 90.12296 20.3657
-3.898747 102.8456 17.44355
-7.498057 98.38144 17.3822
1.696094 92.44215 20.11212
4.648657 93.85817 19.41293
4.621851 94.82355 19.28271
-2.23527 92.08879 20.09874
-3.288973 99.13795 18.76513
-6.247454 95.94041 18.55318
-5.745209 101.9122 16.65475
-6.371128 99.79726 16.99521
-0.476786 94.73878 19.88009
-4.982687 97.27696 18.61638
-4.808404 101.5439 17.52361
-5.945734 100.8544 16.66271
-0.7126687 91.99235 20.23075
0.2823523 93.4538 20.06235
3.961054 94.85486 19.4431
0.594009 100.4623 18.76406
-2.132904 99.90322 18.823
-0.1978373 100.8549 18.57475
1.663007 100.0716 18.84561
-0.4587061 93.8458 19.99896
2.478193 96.11507 19.51495
-3.540955 95.20229 19.44686
-3.083257 96.35756 19.33478
3.340709 96.30261 19.35311
2.380578 95.95293 19.55601
-0.2123455 89.2262 20.54076
1.315295 90.28364 20.39145
2.145262 86.68864 20.63523
0.8825112 94.98122 19.83924
1.908765 89.37821 20.42233
3.183532 88.07689 20.36251
2.396957 98.6478 19.08279
2.756366 88.48805 20.39895
0.7590668 88.38261 20.60031
1.066488 86.28917 20.75851
10.50837 91.9424 16.87057
6.819444 86.10524 19.56262
10.7846 88.47446 17.23011
4.997338 88.38097 19.92865
1.988513 84.61943 20.80176
13.39897 91.48917 14.34089
-2.340014 103.9841 17.08276
-5.48541 102.5904 16.72667
-3.850322 103.434 17.20899
-6.260895 101.3804 16.17003
0.8330284 95.65694 19.74324
-2.198246 99.41591 18.92583
-2.154521 97.46149 19.30258
-10.26225 116.163 2.056536
10.92466 112.3591 0.9707059
10.62256 113.5399 1.36636
-4.448375 112.6924 -3.699461
-7.857275 119.1364 -2.251596
2.634768 110.4204 -4.403596
9.410629 119.6781 -0.978139
8.884625 113.3532 -1.630325
-7.112746 112.2927 -3.19433
-6.573563 110.4554 -4.069558
10.11037 119.1307 0.9156156
11.63072 111.2962 2.544917
9.747415 111.5203 -1.697321
10.95971 120.874 4.204035
0.7924491 110.0268 -4.572641
9.530572 119.7429 -0.7532852
0.8130012 111.4556 -4.036551
5.091766 119.0648 -3.745262
1.879379 118.0353 -3.724896
-7.105616 111.7761 -3.404005
-7.950155 111.1192 -3.263738
-11.12623 110.792 0.01399398
10.54162 119.8575 1.864897
-11.98822 110.3636 3.022148
-12.28041 109.4217 4.20612
-10.86746 111.6257 0.1571483
-4.758376 109.7906 -4.590005
-8.367476 110.5646 -3.362071
-6.125388 112.3382 -3.482085
0.1665457 119.8404 -4.303818
4.216032 113.3657 -3.588543
-10.49035 115.0794 2.720815
0.2524787 109.6782 -4.752521
-10.37491 118.5228 2.225218
-10.16046 117.8798 1.458048
-5.891636 110.1394 -4.324742
-9.580751 113.4133 -0.7242526
-11.00893 113.518 3.777257
10.30695 117.9401 2.357363
8.339633 118.9367 -1.826391
8.325428 119.625 -2.017787
-7.163133 120.0886 -3.156286
10.09637 115.4119 1.307836
10.72662 111.5512 -0.1997429
4.288228 118.9807 -3.85934
1.242776 116.8752 -3.726236
-10.63284 111.5454 -0.4263458
-9.903465 110.1569 -2.419227
-11.64959 110.8157 1.803845
-10.6425 120.1467 2.275769
-8.565983 117.7505 -1.183202
-2.321064 120.2956 -4.392842
-10.48659 120.3275 1.154724
6.050918 116.0927 -3.005666
1.429521 119.0061 -3.900254
-10.54151 113.5215 1.15058
8.746194 118.7362 -1.319929
4.772698 117.9836 -3.598637
5.29461 120.2503 -3.936426
4.86878 118.574 -3.436919
-8.103852 116.2519 -1.571159
-5.176788 119.8216 -3.922737
-1.711628 119.1857 -4.028392
-9.008238 118.4234 -0.8929281
-9.587187 119.6552 -0.6818267
7.922979 114.0634 -2.178391
8.13264 116.712 -1.535271
0.1677614 118.1626 -3.619402
6.534639 116.6388 -2.797247
-10.26169 115.2578 1.635234
-8.073711 117.4452 -1.666139
-9.619272 116.0642 0.3882372
-9.954539 114.3488 0.3617513
-8.328089 113.1281 -2.227587
-8.144578 112.1421 -2.78362
-5.688457 111.7285 -3.827305
-2.75741 118.2243 -3.735475
-7.778031 117.6936 -1.981093
8.031668 111.5418 -3.103051
8.749413 111.3603 -2.719621
7.809077 110.8577 -3.485828
10.28876 115.3876 1.772242
10.0884 115.757 1.342595
8.017335 117.0954 -1.653056
4.016731 116.5029 -3.547045
2.857264 117.426 -3.602693
1.868853 117.4454 -3.576116
4.9663 117.2519 -3.493389
-8.687864 113.9183 -1.500676
8.563245 115.3192 -1.243216
6.829569 111.2585 -3.697211
3.508482 112.4648 -3.732223
9.22824 115.4864 -0.3430937
7.526937 115.5285 -2.178189
7.725559 114.5256 -2.141211
7.118 115.897 -2.441989
4.437149 116.1564 -3.465203
-3.096051 116.5425 -3.66494
-4.642954 112.7286 -3.676434
-3.380412 111.6015 -4.015186
2.774729 113.2763 -3.5404
6.616554 113.3186 -3.075366
-8.06432 117.0065 -1.609617
-3.017901 118.0119 -3.699895
-6.922234 116.6174 -2.541298
-6.399462 115.1629 -2.845688
-5.622362 115.8545 -3.184722
-2.389034 115.258 -3.563417
-6.225958 114.1561 -3.079131
2.326224 115.7084 -3.571074
1.399338 115.7957 -3.578697
-3.672749 114.984 -3.567627
-2.371157 115.1242 -3.558698
0.3701815 113.7943 -3.510292
-1.131457 114.7586 -3.516255
3.540892 110.1618 -4.516117
1.085347 111.163 -4.136046
2.058686 109.6552 -4.726108
-4.99259 114.6453 -3.366732
4.457394 114.4616 -3.460177
1.230419 111.6155 -4.001046
10.89903 113.7462 2.829906
24.71221 72.33158 -4.613117
13.15013 106.2611 1.43347
10.674 109.8262 -1.736839
21.38834 72.64066 -11.69658
23.95947 74.64601 -3.946195
-12.24411 108.6496 0.3137982
23.62877 75.61709 -3.716201
2.117986 70.06232 -20.02696
-9.646484 70.06884 -18.545
17.6906 71.71152 -15.17875
17.7436 77.47033 -11.85346
20.34124 74.49916 -11.37854
14.54127 72.58208 -16.34617
14.27028 102.3951 0.09873575
-12.04453 87.22399 -11.4685
20.45903 84.69363 -2.661561
20.17147 73.4622 -12.2995
18.85055 89.08754 -2.396846
15.74676 98.68396 -0.3919725
2.376116 101.7967 -11.42133
12.89151 106.8511 0.7651336
-21.04323 86.26324 1.574636
13.00051 106.6831 1.899412
7.665826 103.6153 -8.914776
12.2161 109.1651 0.4670043
10.44322 71.74074 -18.19435
9.965855 109.9285 -2.947331
24.37291 72.27539 -6.564169
24.35777 73.4127 -4.328992
-3.912743 77.16261 -18.32348
4.642395 79.88058 -17.43069
-13.47816 70.16799 -17.11065
15.1578 98.52747 -1.679234
22.7577 72.05389 -10.3937
-20.33158 71.94391 -12.48653
23.54838 75.17377 -4.773815
-23.52007 72.03082 -9.330645
-11.8901 109.1971 -0.6044192
-12.46737 107.705 0.08762496
-26.20881 71.84078 -2.693358
-4.982008 109.7485 -4.668072
16.28558 94.03294 -3.258977
-15.12347 86.18121 -9.119035
13.24039 104.5167 -0.4836461
24.76385 71.64538 -6.121038
18.49865 82.26454 -8.111303
-12.81981 108.2964 4.104093
-18.53477 75.38725 -11.88144
-22.77108 74.89561 -7.665415
-12.46091 108.775 3.69968
7.026549 107.7775 -6.350563
22.54001 72.87839 -9.916596
-16.94944 94.52281 -1.012962
-18.4231 92.09371 -0.07548153
-15.53382 100.5605 1.766693
-14.098 104.0144 2.300015
-16.78056 99.21659 3.376231
-19.68391 86.62659 -2.481597
-22.33151 82.46905 1.054794
-4.292425 70.7897 -19.61232
11.27776 109.0139 -1.355749
-4.184913 72.9809 -19.21968
-21.56602 82.06445 -2.65267
-22.86125 72.50946 -9.730581
-25.20267 73.19051 -4.495404
-25.31056 74.07071 -0.7294123
-15.47612 102.5641 3.501815
0.02484779 103.7372 -10.15225
-11.03422 109.2424 -1.604826
22.2538 72.94611 -10.32143
17.91845 90.17918 -3.406193
20.80859 81.67704 -4.761697
22.71308 76.0067 -6.16851
19.19709 72.02953 -14.03376
14.14422 71.41975 -16.98525
3.277564 69.9673 -19.96645
-5.110026 70.42613 -19.55323
15.31235 97.57089 -2.183827
0.2777191 108.6205 -5.19446
15.0373 100.6465 0.008169762
8.529573 109.857 -3.794827
10.55297 109.789 -2.104968
7.103293 108.8057 -5.391929
-10.78295 70.50856 -18.07876
-20.61835 87.72729 2.115009
-17.99444 95.69775 3.053066
-23.97528 72.19738 -8.570151
-17.64788 71.49576 -14.51742
-21.9482 80.31942 -3.626528
-14.9261 98.53404 -1.30405
-1.486563 109.1997 -5.359583
-12.60922 108.1971 3.548334
-11.18029 108.8485 -2.846165
23.67931 74.30686 -5.638686
22.32048 73.50991 -9.652411
19.95284 85.91867 -2.737297
19.21158 87.92799 -2.620744
20.19356 85.46181 -2.585058
22.41821 78.72646 -3.6788
21.97409 80.5395 -2.836359
20.86482 83.55212 -2.743517
18.40695 73.38157 -13.78696
18.41276 72.88494 -14.06747
14.76888 73.03687 -16.05343
9.683442 71.09769 -18.59539
11.10451 73.04435 -17.58088
-4.420482 69.82934 -19.7595
16.97832 96.31828 0.001585885
17.56266 94.07373 -0.7702512
18.50867 92.26781 -0.09144313
2.664185 109.6297 -4.793085
1.512723 107.1409 -6.344543
13.64867 101.8275 -1.850016
6.162978 109.2719 -5.198115
10.73155 109.4067 -2.060725
10.01474 107.1426 -5.348106
-18.42638 70.76978 -14.38812
-14.49042 71.59097 -16.21941
-10.19578 71.23028 -18.10801
-21.48246 84.91158 1.313104
-23.5833 78.63152 -0.2222144
-23.15215 80.11004 0.6800142
-20.33874 88.54933 2.157483
-18.54378 93.93047 2.702252
-24.45379 72.93427 -6.885233
-20.17159 74.14217 -11.24024
-20.67688 70.98135 -12.82152
-23.91255 77.65385 -0.5439002
-24.49129 75.65406 -2.010622
-15.98985 99.6751 1.824325
-8.614364 109.9061 -3.903144
-4.533511 109.298 -5.626331
-14.14712 104.8756 3.170341
-14.76847 103.5527 3.071056
-15.48812 101.2462 2.308024
22.76439 76.45433 -5.50565
22.80925 73.59204 -8.705546
22.00163 74.33791 -9.373383
19.61648 86.29601 -3.184045
20.39117 83.64427 -3.871048
20.9642 77.15547 -8.438775
22.38805 76.92825 -5.90155
22.53144 77.68665 -4.628118
20.35021 77.38326 -9.133759
22.09917 74.86949 -8.673824
21.14248 75.93029 -9.231112
21.37536 80.36987 -4.729455
19.05773 73.8976 -12.97653
20.90517 73.33523 -11.6736
13.30672 71.54523 -17.27
18.09382 74.04874 -13.6121
16.83953 74.45528 -14.22378
16.53791 73.05871 -15.13279
8.584386 71.13746 -18.87334
2.717033 70.97374 -19.82844
0.9739935 69.64231 -20.12907
-1.990182 70.18394 -19.95978
0.07027824 70.07441 -20.06502
-6.498361 70.47215 -19.28702
16.33598 96.91284 -0.8052508
15.68297 97.69015 -1.396552
14.51834 97.8788 -3.280187
15.40068 96.79649 -2.630857
1.503577 108.4277 -5.317986
14.8752 99.48546 -1.391928
13.07978 103.0843 -2.068655
13.34818 103.5924 -1.056022
12.75974 104.741 -1.656171
13.93486 102.1817 -0.914415
14.314 100.6823 -1.440847
6.656461 108.0112 -6.391099
5.55191 108.5244 -6.496792
11.10911 107.0541 -3.227024
9.505976 106.5326 -6.305145
8.205429 109.4649 -4.983948
10.92417 106.0337 -4.336595
7.752031 106.9622 -7.372207
-18.28039 72.50701 -13.63908
-15.97873 73.71117 -14.55081
-13.96752 70.47272 -16.81358
-13.08178 71.46188 -16.91711
-21.90115 83.11369 -0.06831019
-22.05356 81.97352 -1.28045
-20.0326 88.07157 0.01274072
-18.74108 93.33276 2.600373
-19.22988 91.35542 1.538057
-24.0527 74.42554 -5.764577
-23.75699 74.59279 -6.201764
-21.28441 74.23092 -10.10715
-23.55149 78.34733 -1.040789
-25.08392 74.35762 -1.881941
-24.62337 75.01183 -2.884909
-15.38769 99.78346 0.733428
-18.043 94.94176 2.087867
-7.136486 108.7033 -4.99997
-6.82616 107.404 -6.910698
-6.690409 108.811 -4.965349
-5.753429 108.8372 -5.378886
-12.57097 105.7776 -2.36552
18.65492 85.2937 -5.818371
19.22136 86.52074 -3.860071
13.32585 96.45647 -5.900116
16.93005 90.08145 -5.067613
17.59314 91.07552 -3.279942
17.29414 91.93282 -3.145772
17.14515 93.71291 -1.983209
15.78587 94.50594 -3.711666
16.36296 90.53418 -5.566523
15.50679 92.29539 -5.559287
19.48053 82.32033 -6.687184
17.4329 75.47778 -13.25497
16.6796 78.22353 -12.31279
7.998471 70.77537 -19.08964
5.51381 73.10938 -19.05303
2.985084 73.30161 -19.35181
-1.991238 73.53714 -19.35863
-8.157892 70.637 -18.85073
-2.178979 107.5157 -6.809813
15.91905 99.53199 0.763732
13.29255 105.4777 0.4984474
12.10913 106.5497 -2.556485
13.20601 102.178 -2.534933
8.991882 102.4608 -8.237663
8.955528 105.1629 -7.394024
-20.28469 76.75085 -9.353247
-17.55942 73.37704 -13.68979
-16.69148 74.75118 -13.60406
-16.83517 75.43987 -13.16796
-14.64975 75.29751 -14.70547
-12.70573 69.97063 -17.4816
-14.65444 73.32675 -15.49101
-9.25576 72.54986 -18.11032
-7.043008 69.73766 -19.29541
-21.59343 79.9815 -4.773891
-19.88446 85.21608 -3.351452
-21.77902 82.69018 -1.224385
-17.80689 92.81208 -0.8026912
-19.7051 89.19855 0.3899941
-19.08875 90.87809 0.4557826
-19.16886 90.06601 -0.2714699
-4.222624 106.9928 -7.421078
-6.537625 108.3574 -5.563426
-6.030225 108.0564 -6.333602
-12.18378 106.9398 -2.747889
-12.65717 107.0274 0.7059983
-13.37494 104.7805 1.270209
15.34489 93.34019 -5.116509
20.16095 79.77095 -7.563232
19.39203 74.18663 -12.49717
12.41422 73.23873 -17.00854
14.30763 78.76122 -13.71194
16.23818 75.64346 -13.99352
17.72355 75.64691 -12.94945
16.21766 79.38149 -12.04774
17.94592 78.59306 -11.00654
16.47645 76.52433 -13.36909
16.63399 79.85298 -11.45427
15.98548 78.33577 -12.7633
16.02832 81.54513 -11.06109
14.91638 79.65208 -12.87689
12.79116 78.8228 -14.58591
13.80466 80.32449 -13.3193
12.66704 89.43701 -10.03626
8.842632 72.94968 -18.31946
3.694498 73.02367 -19.33971
-4.800621 71.47932 -19.41569
-4.319298 71.93603 -19.40578
-1.916178 72.83696 -19.50079
-1.481442 74.25571 -19.24869
-3.682325 75.20899 -18.82738
-2.746341 75.45274 -18.88477
1.590382 73.64581 -19.37745
-2.439482 77.61562 -18.40898
2.631388 73.2953 -19.38936
2.404499 107.9485 -6.576019
-3.909675 107.9108 -6.522252
-1.400954 105.734 -9.198786
14.88013 98.26738 -2.389986
11.10332 105.3179 -4.64539
7.34642 107.6166 -6.584733
-16.49041 74.49125 -13.86873
-14.71566 72.86406 -15.63562
-11.95443 72.05515 -17.22778
-7.587806 70.73679 -18.98318
-19.90121 89.69159 1.939671
-17.50081 95.76589 1.428687
-17.3902 91.85494 -2.443566
-17.76862 88.76485 -4.201025
-17.84134 89.88995 -3.232461
-16.86518 96.74594 0.8886731
-17.23587 95.07483 0.1020378
-15.62492 97.1049 -1.232973
-7.4673 107.3797 -7.086416
-9.704506 109.5552 -3.07881
-12.6218 106.715 -1.26377
15.1843 95.06739 -4.209877
14.53055 95.9387 -4.575041
17.88066 81.46922 -9.336908
19.69623 80.13987 -7.968174
15.70245 80.73905 -11.74415
-11.88281 78.96233 -14.8919
3.170698 83.33753 -16.71892
10.74593 105.8373 -4.831651
11.61415 104.8594 -4.354997
12.40407 102.8554 -3.855422
-15.67877 76.17903 -13.63753
-20.37128 84.77788 -2.736627
-19.20802 88.09663 -2.151083
-15.92828 96.41195 -1.275913
-14.89052 98.7056 -1.2216
-5.143748 106.7788 -7.97332
-9.144111 107.4362 -6.397662
20.16218 80.7019 -6.822408
19.91482 84.74744 -3.922252
0.5490995 81.28172 -17.5651
-14.02288 75.89409 -14.84
-18.5801 86.68972 -4.477699
-17.35628 93.15109 -1.420106
-17.94584 91.71916 -1.507269
-16.14853 98.76348 1.278186
-13.72973 99.67735 -2.792228
17.2441 85.6887 -7.471727
-6.149664 76.32735 -18.07989
-8.275688 74.84076 -17.84647
-6.695776 73.94042 -18.51813
-8.15525 76.85386 -17.32269
-15.22364 75.16883 -14.39434
-13.77899 78.27831 -13.99212
-11.44682 74.57292 -16.68608
-9.615731 73.27915 -17.80269
-11.56567 73.7289 -16.90494
-8.920349 74.33637 -17.76685
-12.41095 76.15183 -15.66325
-11.58972 76.66496 -15.90897
-11.98941 76.46846 -15.77145
-17.85257 84.36753 -7.106667
-17.27759 86.03029 -6.7567
-17.10505 94.87254 -0.3672653
-14.92403 100.0525 0.07636359
16.49555 90.01115 -5.723085
16.29526 88.78653 -6.741118
16.10239 88.21783 -7.307174
17.16722 86.72161 -6.933928
16.20061 90.05311 -6.070823
14.80297 91.59426 -6.845412
16.49766 90.18253 -5.613448
12.98514 91.00745 -9.032854
13.85697 94.75722 -6.168322
12.7352 94.55821 -7.586813
10.44448 94.79879 -9.698934
19.10876 85.87051 -4.59302
-5.736238 71.75541 -19.19885
-7.148983 71.50027 -18.93762
-9.303763 75.35941 -17.33555
18.72193 84.01293 -6.612411
16.42339 84.20835 -9.249061
17.10231 81.41913 -10.14803
18.17355 79.22852 -10.41191
13.56321 97.98046 -4.669821
19.32952 82.86477 -6.527329
11.29193 98.38057 -7.482572
12.66705 94.04191 -7.906456
12.82215 96.2368 -6.647337
10.09861 100.5103 -7.945134
12.21078 95.56548 -7.673034
6.764263 84.87246 -15.26551
13.70068 87.14031 -10.22636
13.89786 92.01957 -7.606257
12.37253 91.15722 -9.515008
15.03363 89.23931 -7.899924
12.26287 92.72476 -8.922668
11.38731 87.618 -11.79973
5.278589 80.94702 -16.9577
10.93482 90.54964 -10.96139
10.37771 89.80727 -11.64673
12.54306 98.61411 -5.7917
12.59555 100.5828 -4.70359
12.04165 103.4029 -4.339268
11.22058 103.3807 -5.589845
11.04751 102.1509 -6.320591
11.45825 99.47628 -6.853795
11.21916 99.19248 -7.257261
9.346972 100.4257 -8.653756
11.01298 96.89947 -8.362483
10.60812 98.62534 -8.127402
9.834505 100.2378 -8.296614
4.81095 90.77766 -14.12624
1.520657 104.7549 -8.73452
9.082787 103.6747 -7.745872
9.107243 102.738 -8.038358
12.62831 108.1852 1.969553
12.46105 107.6865 -0.318851
-13.71342 105.4263 2.892249
-13.2671 106.4376 3.08801
-13.08746 104.5713 -0.04655366
-13.60808 102.9193 -0.0984014
-12.92984 103.3226 -2.226538
-12.62362 103.241 -3.386665
-13.20685 102.2197 -2.084526
-13.12466 103.7569 -0.8682036
-14.60148 100.5576 -0.1072876
-12.70337 104.8349 -2.131079
-12.50591 105.2408 -2.817903
-11.06086 106.5214 -4.961546
-11.12958 106.8952 -4.66658
21.46297 80.00403 -4.87691
-22.14284 79.5488 -4.012207
-21.7208 80.65699 -3.797638
-23.448 77.21624 -3.420663
-23.65368 75.83938 -4.838674
-23.38242 76.46091 -4.692245
-22.95091 77.0729 -4.979435
-19.76094 74.83041 -11.17242
-17.43979 75.66901 -12.59466
-19.62973 76.01495 -10.52759
-21.97469 74.47388 -9.146209
-20.50929 78.21649 -8.014612
-21.76611 80.15445 -4.204368
-21.28495 81.68867 -3.721033
-20.50611 78.79893 -7.552042
-22.08056 75.89228 -7.788825
-20.54354 77.40282 -8.574028
-14.27785 79.44381 -13.13523
-18.45142 78.68675 -10.00093
-18.36014 77.2592 -10.93981
-21.39997 81.34778 -3.806907
-19.01127 85.07721 -5.006666
-20.4972 82.6751 -4.407768
-19.69227 85.00516 -3.915928
-21.79267 76.10812 -8.002635
-19.65559 79.21981 -8.346594
-21.14774 79.82121 -5.762264
-21.29664 78.75798 -6.442782
6.04199 73.64311 -18.82473
-10.63496 105.2112 -6.096704
5.26536 73.57726 -18.98679
7.803534 74.00074 -18.31752
5.467267 73.90575 -18.8713
4.624243 79.14309 -17.64339
4.880297 79.40765 -17.51537
8.547848 74.33973 -18.01059
7.563791 76.00661 -17.8093
8.379928 75.8325 -17.60775
10.58139 75.37102 -16.98139
5.249894 76.67643 -18.19963
8.605215 78.23703 -16.76305
4.965436 79.6868 -17.41144
4.125132 75.25232 -18.77321
9.998164 90.50687 -11.6493
10.04078 88.19299 -12.47497
6.111536 80.06231 -16.99902
8.832743 76.48923 -17.25408
8.363216 77.84759 -16.97724
12.46383 83.33379 -12.86497
7.600588 79.77297 -16.61455
3.088086 77.87962 -18.24506
3.66803 76.96938 -18.40705
0.8201264 79.57052 -18.0102
-1.402065 75.1244 -19.06773
2.953366 76.01852 -18.74369
-0.6304365 74.40271 -19.24851
-1.341998 78.26674 -18.33235
-0.09879231 76.42972 -18.80837
3.374375 80.73145 -17.43041
0.3859111 78.51602 -18.29817
2.622339 81.04276 -17.45095
1.191446 80.09208 -17.84528
3.351793 83.0209 -16.77494
4.912417 84.1586 -16.08791
1.115321 80.15793 -17.83214
0.1659773 85.28376 -16.46106
0.9203725 81.54962 -17.47127
0.5880811 81.08118 -17.61928
-0.9058598 81.4367 -17.51866
-2.903008 80.89326 -17.49583
-1.507328 78.50413 -18.26244
-2.092041 80.15786 -17.79393
-2.043113 79.17581 -18.05022
5.444081 88.82539 -14.50403
2.946171 84.39629 -16.4488
19.958 77.116 -9.851099
14.50165 76.84412 -14.47957
13.3283 77.69656 -14.77121
12.24102 86.49557 -11.6625
13.71635 77.01355 -14.85266
11.86061 77.97198 -15.4357
14.23397 80.7354 -12.83
11.48072 78.93077 -15.24753
12.75757 85.65154 -11.65535
7.208466 82.19646 -15.9674
9.096938 80.46087 -15.80172
11.00664 81.94189 -14.31568
7.378969 82.89603 -15.68085
6.006546 84.24309 -15.73211
7.951744 86.80326 -14.12239
8.663336 85.29827 -14.29356
9.163753 83.16319 -14.80498
9.716239 85.48486 -13.67345
5.219361 83.08975 -16.32341
5.287034 86.66563 -15.21471
8.954188 83.82561 -14.66432
8.490479 84.56187 -14.63284
5.350028 86.09619 -15.3635
9.257367 84.92188 -14.1255
6.098448 86.40671 -15.03327
4.634799 86.98199 -15.31114
6.591121 88.82073 -14.0754
2.53104 87.6395 -15.58158
4.415049 88.54509 -14.9049
4.644971 87.67506 -15.09391
7.155046 87.74639 -14.1762
4.864643 87.90885 -14.95964
13.11075 73.85809 -16.47436
13.27509 74.50384 -16.15138
7.523908 103.2136 -9.122951
6.562433 104.9534 -8.98742
4.312224 106.2448 -8.597219
3.715926 102.6566 -10.85609
5.104516 105.6716 -8.962205
7.421229 105.3848 -8.419965
3.335739 101.5495 -11.33093
3.341585 103.6929 -10.38447
7.23423 102.4401 -9.532914
4.722248 104.619 -9.677311
6.730595 101.7366 -10.01019
5.921299 99.96657 -10.93267
3.169238 103.9313 -10.19653
5.782782 101.4566 -10.5681
6.377002 100.4849 -10.55283
6.811282 98.89941 -10.83641
2.335851 103.9939 -9.78823
7.757487 97.34523 -10.798
3.388316 100.8009 -11.55328
1.317416 103.1114 -10.52009
3.747016 106.1332 -8.523849
6.471084 95.75141 -11.98458
5.358244 98.13119 -11.72387
2.963175 101.0666 -11.56252
2.799266 105.7666 -8.47933
9.354893 96.81373 -9.877286
5.835968 96.93191 -11.90491
1.332785 97.40018 -12.90182
4.540965 97.63801 -12.1669
10.25118 97.39724 -8.916071
2.316538 99.85084 -12.05907
3.204171 99.17058 -12.08209
4.140712 98.54321 -12.02451
6.459585 98.22608 -11.22288
11.17418 95.46077 -8.780438
2.266797 96.0626 -13.18215
-1.763088 93.8546 -13.95677
-0.1942066 99.35282 -12.38707
-0.8342083 95.75977 -13.46106
1.103184 97.92416 -12.75928
-1.628828 103.8456 -10.40881
20.33734 82.23618 -5.263429
-17.98158 85.93894 -5.898571
-19.7205 83.43053 -5.14789
-19.24112 84.72063 -4.912494
-19.0118 81.97449 -7.236171
-19.28143 80.87582 -7.645333
-17.98151 84.07932 -7.131185
-16.50283 88.026 -6.475542
-18.36747 80.57677 -8.928137
-17.31557 82.3653 -8.959149
-19.31041 80.8581 -7.62092
-15.56029 83.27336 -10.19829
-18.31816 84.66515 -6.308506
-17.64426 85.65916 -6.534234
-15.66817 86.5853 -8.325576
-15.2766 90.3354 -6.622865
-15.94784 87.01514 -7.768484
-17.07054 93.43135 -1.71283
-14.25528 88.23662 -8.950253
-15.54667 95.18592 -2.942282
-15.76731 87.4572 -7.714309
-15.40265 94.21066 -3.895849
-13.96201 87.59173 -9.57981
-15.21396 93.1097 -4.942502
-15.42014 92.70862 -4.915554
-15.43715 87.41833 -8.116118
-15.98804 90.7783 -5.403683
-15.13404 83.27342 -10.59934
-13.99015 86.97675 -9.852444
-15.02285 88.62103 -7.89963
-16.03516 88.25876 -6.914473
-15.13839 76.29276 -13.95415
-12.74518 77.20366 -15.07561
-14.47719 82.20232 -11.69639
-15.62984 78.8187 -12.40542
-16.9641 78.37426 -11.53861
-17.9238 79.46101 -10.05991
-16.36181 78.39108 -12.0401
-14.18923 83.4369 -11.36158
16.6961 83.20044 -9.539238
17.20121 84.1164 -8.483754
15.33815 82.23391 -11.26974
13.77637 88.10575 -9.703863
14.73458 88.87613 -8.400468
14.82963 91.19176 -7.038005
7.8978 94.97106 -11.47007
11.64732 101.8148 -5.655592
10.19353 103.8231 -6.547843
9.997169 102.7384 -7.194712
-11.37026 103.9631 -5.732473
-10.54213 102.6726 -7.200371
-10.17197 104.1008 -7.038786
-9.941917 104.2221 -7.223619
-9.397388 106.2896 -6.892767
-11.22616 103.0627 -6.217269
-10.14867 107.8263 -5.407954
12.34874 87.66084 -11.08506
14.17029 85.65797 -10.545
13.67514 86.22716 -10.68127
12.51484 85.66156 -11.8282
7.648389 89.57198 -13.35627
9.972571 87.79316 -12.66935
9.996752 84.63093 -13.83464
10.5323 83.88766 -13.82119
10.24584 89.51274 -11.85348
7.393262 89.82963 -13.38678
-2.122878 82.78413 -17.0714
10.33729 79.90897 -15.4362
8.970088 103.2322 -7.998741
1.09666 104.895 -8.660381
-3.624768 106.1628 -8.2469
-0.3756857 106.1972 -8.487006
0.3054417 106.5099 -7.422524
-0.3135561 101.4903 -11.65602
-0.401901 103.6439 -10.36752
9.118291 94.59798 -10.80756
7.965176 93.86723 -11.78388
10.36053 94.97254 -9.705588
11.13297 92.55006 -10.00386
8.311972 90.86085 -12.56847
6.882413 92.90045 -12.65584
-0.4934146 102.7613 -10.97269
-1.358039 103.1765 -10.79331
1.17534 102.748 -10.84309
-8.296797 103.5701 -8.73792
-12.56045 97.65326 -6.302526
-13.96219 94.88867 -5.661677
-12.07245 98.61381 -6.66166
-13.33654 97.04079 -5.377129
-14.59641 96.04903 -3.870932
-15.16581 91.32903 -6.150951
-14.34837 92.56764 -6.490015
-16.30444 88.87814 -6.19572
-13.30453 94.12486 -7.022399
-13.40938 91.41897 -8.260127
-14.48942 89.31184 -8.139436
-12.97422 91.96866 -8.495877
-11.71694 92.80842 -9.468621
-12.52194 90.59377 -9.590136
-12.52117 90.99112 -9.417007
-11.71625 87.11431 -11.7866
-12.68898 88.86294 -10.20455
-12.77193 101.833 -3.733319
-12.99205 99.77181 -4.431023
-11.55969 100.8571 -6.554992
-13.0447 100.9468 -3.605659
-11.74293 102.2896 -5.753603
-10.53171 101.8434 -7.475788
-12.46045 97.38145 -6.595687
-10.85205 99.71854 -7.834049
-10.92621 97.8394 -8.41498
-12.83786 95.82602 -6.797964
-12.35452 94.67499 -7.967844
-11.66741 96.55263 -8.018293
-11.27283 95.22446 -8.954178
-13.77149 92.53873 -7.245363
-12.07762 94.43568 -8.404909
-12.3171 93.43272 -8.573634
-10.64025 94.32522 -9.926242
-12.28905 92.6452 -8.954534
-15.52974 81.05587 -11.37036
13.39002 85.87267 -11.07477
13.35191 83.10455 -12.36478
14.82597 85.93708 -9.840062
-9.642042 105.5407 -6.990887
-5.426164 78.00715 -17.80267
-13.64707 84.67525 -11.24741
-11.6606 78.29823 -15.27352
-9.759176 76.5149 -16.8093
-9.314233 78.98177 -16.21106
-7.607795 77.1283 -17.4306
-2.538816 80.36346 -17.68476
-4.318211 81.34759 -17.13374
-5.752249 83.82018 -16.04795
-4.658442 80.56647 -17.2777
-7.450387 77.70155 -17.3178
-10.86065 79.62395 -15.21796
-6.463715 81.48454 -16.50975
-4.25271 83.92823 -16.41532
-8.222161 81.11747 -15.98426
-13.26857 79.00513 -14.02542
-6.477407 84.96171 -15.45808
-12.36294 80.26759 -14.0993
-9.276834 83.62601 -14.64066
-11.8222 81.66167 -13.8881
-2.809109 83.12435 -16.89349
-8.680258 91.09946 -12.4702
-10.01611 92.79212 -10.99701
-1.813069 85.85722 -16.2442
-11.3863 88.94347 -11.30986
-9.383531 91.61633 -11.85536
-9.449329 89.73985 -12.44963
-10.04658 88.76952 -12.38227
-10.35835 87.26504 -12.70565
-8.383756 85.3818 -14.5261
-10.72327 88.86568 -11.86457
-6.036956 85.88912 -15.33505
-8.256985 86.94614 -14.06853
-5.141999 83.22361 -16.40001
-6.912901 84.24305 -15.50968
-6.894334 83.56467 -15.7291
-9.863933 85.1085 -13.80576
-11.26675 86.52921 -12.35414
-11.25911 83.92671 -13.36342
-11.70999 85.3549 -12.49376
-6.117845 83.58665 -16.0001
-8.190029 83.37709 -15.25753
-0.1262818 88.16259 -15.64762
0.991523 89.2039 -15.31868
13.09665 82.31153 -12.89107
6.096776 89.91596 -13.94262
6.379904 93.81332 -12.61637
4.833395 92.58237 -13.57901
5.054676 93.58315 -13.21186
6.303907 95.1337 -12.25282
-4.631863 91.56001 -14.08972
3.995754 91.6127 -14.10368
1.827579 91.40379 -14.59671
1.610776 96.31062 -13.19483
0.430824 93.92616 -13.98853
0.7037946 95.78337 -13.4404
4.680272 95.88923 -12.63411
3.185197 95.76176 -13.08166
3.350833 92.06847 -14.123
6.036626 96.21033 -12.03745
6.245528 97.21424 -11.63754
-5.194481 104.8888 -9.511602
-7.209689 105.0343 -8.79967
-13.53878 83.48842 -11.87597
-14.32808 81.66586 -12.07874
-13.97771 80.41932 -12.91273
-12.16334 81.98816 -13.53467
-10.96856 82.11835 -14.23979
-10.63969 97.04911 -8.972262
-7.015085 91.1254 -13.35537
-6.714966 93.91216 -12.64466
-9.792457 92.37167 -11.30903
-7.584518 97.38528 -11.14588
-8.407312 94.25768 -11.64279
-7.135373 92.18562 -12.97442
-6.982513 90.7433 -13.49028
-6.365121 92.50676 -13.21969
-3.663751 92.51786 -14.05028
-4.444385 88.54922 -15.0337
-3.653507 91.74957 -14.27993
-1.472899 88.65825 -15.46994
-0.364217 89.00829 -15.41168
-0.1101721 92.74886 -14.3495
-2.211799 91.39912 -14.60923
-1.415393 90.82401 -14.86013
-2.139849 96.83303 -13.02936
-0.7774463 93.79478 -14.03516
-2.27036 95.66534 -13.36415
-6.050497 92.87647 -13.23964
-6.186841 93.23946 -13.0753
-5.356588 85.21751 -15.75257
1.802132 87.38322 -15.75893
-1.26064 86.56773 -16.08235
5.920136 91.45208 -13.53487
-1.684248 105.559 -9.341637
-6.106074 103.2639 -9.943685
-6.714597 104.5656 -9.209633
-4.927436 103.6936 -10.14969
-4.799627 102.7125 -10.55397
-2.415241 102.8007 -10.92495
-2.835829 101.6885 -11.32845
-11.79541 83.40244 -13.21528
-3.044505 88.47159 -15.34176
-10.01174 98.2755 -9.161207
-9.910796 99.3693 -8.894638
-9.411325 99.3137 -9.337909
-9.126796 96.70356 -10.39098
-8.437688 97.26897 -10.67617
-8.678721 102.2779 -8.919117
-1.191574 96.83104 -13.12284
0.4003167 94.9698 -13.68114
