# .PCD v0.7 - Point Cloud Data file format
VERSION 0.7
FIELDS x y z
SIZE 4 4 4
TYPE F F F
COUNT 1 1 1
WIDTH 1661
HEIGHT 1
VIEWPOINT 0 0 0 1 0 0 0
POINTS 1661
DATA ascii
-0.7900323 30.87501 15.24298
1.080843 33.98378 13.18486
8.344654 39.00755 38.07485
-56.714 41.15537 -5.140238
-55.29167 43.27131 11.06603
-51.64269 38.00067 -21.52011
-51.53805 44.43934 20.98933
-46.60086 45.23059 28.51036
-35.66244 41.17246 39.70994
-22.4082 37.57496 42.20287
10.69047 35.68307 15.9976
11.4629 32.3826 25.26132
11.2862 37.24773 23.94782
8.910445 35.31083 39.10168
33.3059 42.80931 43.678
45.97227 45.42395 35.10514
57.93402 39.04817 -7.481294
-12.58458 34.80794 31.4853
-14.61646 110.3171 10.5764
-35.50348 4.208127 -38.19141
-33.92995 9.166503 -22.95519
-29.4719 10.66547 -11.75727
-33.75562 28.21328 -32.16234
-4.077324 0.5157892 -48.33154
-22.24865 0.420234 -53.704
17.97393 1.296927 -31.8442
17.12292 2.460188 -48.97325
26.71349 15.93447 -14.38597
34.87277 10.66082 -25.08688
24.1453 7.988969 -48.56957
4.56179 110.0287 -7.357777
-10.32194 35.25268 19.09234
-5.39967 31.80088 11.86668
0.1475241 39.30239 24.28484
-56.11443 41.87356 -6.274429
-51.2568 38.94742 -21.19125
-40.59531 31.34102 -32.14505
-41.64891 44.00255 34.53097
11.41869 38.53539 22.18356
12.03489 37.69711 28.84806
11.7443 34.03746 37.54166
25.13992 41.76588 44.21416
44.61085 44.74414 36.83513
51.29074 32.80629 -20.37626
-25.62229 0.8514047 -42.89288
-31.98273 5.459036 -42.64387
-35.80105 8.054059 -32.83464
-27.98358 20.8541 -17.39577
-29.77382 19.22386 -22.30986
-2.3386 0.1893906 -52.63156
-11.24446 1.010243 -59.17191
-6.017312 4.407393 -41.6051
-25.4627 0.1595656 -48.95423
-3.160581 5.274877 -23.82927
15.80366 1.077972 -41.09472
30.00093 19.26153 -18.79617
28.23613 8.770617 -46.78829
-10.22212 104.6032 -8.54056
-10.91403 37.4802 21.70205
-0.1617953 33.05509 22.06942
-50.50702 40.29856 -20.98863
-43.97606 45.32419 31.47804
-45.79994 47.47043 27.63928
10.66662 36.58647 15.45033
12.27857 37.88185 31.26023
23.9016 43.53372 43.24958
56.19992 44.6558 18.90818
57.75754 41.5442 -4.229407
-22.88798 3.12398 -42.92991
-35.42597 8.792891 -34.30282
-28.51292 15.89147 -12.95511
-4.928105 1.421104 -45.69044
-22.26295 1.499843 -42.83274
16.44592 1.710598 -32.41685
20.41634 4.06527 -50.23897
35.81361 13.19513 -28.27029
23.93432 8.937245 -48.22956
-11.55481 103.4313 -7.896114
-11.54776 40.53148 26.43162
-0.1347458 39.17378 16.32924
-46.49696 46.93647 27.16472
9.998097 35.16356 14.9329
10.65418 37.43412 37.65976
53.21453 49.52743 18.95975
-25.08403 1.092387 -42.85817
-29.94835 11.58913 -7.423057
-15.31256 5.039977 -57.34789
-23.24386 1.131152 -41.89655
6.560606 5.185693 -26.6634
46.15543 32.95195 -23.05817
23.24053 9.849771 -47.99871
-5.45753 102.2639 -10.76429
-12.46674 39.65829 33.36916
-52.73205 48.03033 11.0609
-47.16867 49.38913 23.7938
-22.28065 46.98238 39.0098
11.1787 40.64722 23.33627
47.87154 49.0014 29.85226
56.51105 46.36883 2.404898
-21.71863 8.422194 -42.6775
-21.79328 2.598923 -38.8356
-27.69892 13.82625 -8.820132
-1.358591 0.2905898 -51.31266
7.673033 3.691597 -28.76043
13.76623 3.206242 -42.5194
33.92293 14.72338 -24.05938
34.44282 14.99251 -25.09966
8.269403 108.6909 -8.88308
-52.21937 49.25908 10.27735
-51.60138 46.92898 17.32594
12.09182 37.01182 32.1414
41.77002 46.90799 37.43774
-21.21724 8.426379 -41.9958
-28.19744 17.84161 -13.09568
-23.99504 1.495111 -36.8429
6.650071 6.079366 -29.82862
15.32491 12.63949 -45.07291
-11.06363 44.25783 22.50098
10.21482 38.94715 10.90363
11.94293 40.89033 31.81027
-26.83175 9.665443 -44.0841
0.9373065 1.429399 -51.6357
-5.611683 1.393641 -29.53365
35.44886 26.44783 -24.78156
35.15236 16.20281 -33.9333
14.19159 11.27638 -44.59981
-11.65239 41.43854 27.41098
8.282749 36.08558 10.70313
52.1885 52.67777 15.89232
-23.07108 2.228215 -35.66307
14.68437 5.121893 -45.98615
40.94201 38.43965 -22.65299
39.02862 30.86159 -24.92555
34.56485 16.3706 -35.72096
10.54656 107.896 -7.276857
-29.53979 30.13939 -27.54471
7.051857 38.69794 38.17121
-25.13012 9.348135 -44.3377
-28.88194 19.50131 -7.080022
2.547759 4.938845 -44.18316
38.33123 39.02715 -22.87391
-17.38545 99.95929 -3.096493
11.37415 103.4612 -9.356395
-30.49918 27.12221 -29.22574
5.599411 40.71923 37.18343
37.7902 45.54934 40.64131
-20.72525 11.96259 -41.23035
45.10622 43.29421 -19.05692
20.64968 15.42835 -45.97609
-14.43303 103.2803 -6.84289
13.3719 102.1468 -10.14807
42.6436 50.78291 33.93748
47.96527 50.0004 28.73753
37.52579 47.30652 39.69669
-29.191 18.0729 -7.768924
-0.5135798 2.722307 -32.90579
34.17075 19.63463 -33.86433
9.784841 102.7979 -10.63718
9.322577 42.58802 36.60527
50.53149 48.35707 26.56658
-25.6661 13.97664 -42.75775
-0.9838629 2.150177 -32.81684
8.684569 103.3287 -11.81803
45.60222 54.23444 27.78259
-0.8470587 1.77497 -35.30587
46.31747 42.77343 -18.53719
5.849506 41.60656 37.00285
34.19495 21.19412 -32.00416
8.31438 44.99207 36.17954
2.06692 5.628204 -38.53425
13.51869 17.6777 -42.35587
33.32925 48.00089 40.92027
14.15163 107.7876 -2.67426
2.42066 8.167112 -33.20411
2.744557 10.01523 -31.93138
34.0609 23.2009 -27.93984
3.485924 12.18343 -33.05133
3.961998 13.38735 -33.90628
13.67062 113.8095 10.174
-1.218208 111.202 12.14124
-1.241021 109.6681 14.09832
7.747995 113.4054 10.17551
9.339098 109.9536 14.06389
2.131593 34.22135 32.28391
2.883969 43.66146 33.66383
-0.05929644 112.5477 -7.343212
-3.875186 104.0484 -10.57833
-2.568383 105.1986 -13.16582
-0.2703061 104.0065 -11.91831
-3.98124 101.1869 -11.28211
-3.90468 101.5073 -11.56551
16.53902 108.4401 -4.040968
-12.52383 40.62059 34.82652
-12.21076 39.60882 37.51698
-11.94499 44.65338 30.43689
2.570712 37.83972 34.85486
-5.321036 109.8107 14.86599
56.46865 46.77887 4.094406
51.78314 37.52873 -17.2657
49.68103 36.2574 -19.66459
-11.92483 38.26849 26.84078
35.74904 25.06221 -25.06515
34.42243 27.58562 -24.14824
-15.26264 109.1724 -2.417173
0.698374 36.48051 27.30354
-0.8293641 37.54311 17.01841
-1.091353 38.75277 15.99156
0.08047692 37.13116 21.92586
4.354198 110.5946 16.41486
4.187509 108.6279 17.07211
-53.25481 43.68811 -12.52538
-27.35785 42.82207 40.77728
-32.91096 45.35375 38.61843
10.90734 37.1207 20.00331
11.13568 40.73513 22.80386
10.89466 38.95482 19.82849
11.17751 43.94187 24.45835
27.96514 43.2878 43.89679
-30.45614 22.32867 -27.30096
28.18468 17.77819 -14.72655
30.39052 13.79922 -43.03067
-8.033344 35.47443 14.88698
-45.29008 35.29782 -28.7376
-40.17781 46.59228 33.99986
22.84603 44.72805 42.5315
25.84365 47.41012 42.00395
19.66425 44.51992 41.36732
55.49203 46.25273 -2.610689
-33.69292 11.78922 -25.54117
-34.67871 11.94816 -33.8503
-35.51335 7.859313 -26.9208
-31.48065 8.741158 -16.68738
-29.31953 16.69592 -19.53036
-27.61834 19.78949 -14.78819
-27.87067 19.15339 -16.42857
-27.79936 18.59341 -14.38491
-27.17373 20.92783 -12.13334
-27.0747 26.82232 -6.239859
-28.26242 14.87178 -12.8283
-27.75441 20.61695 -11.9618
-27.66744 21.92953 -16.68229
-26.81213 22.50527 -11.6508
-27.56979 22.0682 -11.52282
-26.95881 25.27278 -14.68332
-10.52167 3.368447 -56.43325
-6.124178 5.659586 -54.27377
-1.202027 0.6040438 -45.43355
12.16396 1.637337 -30.06107
9.140832 5.71141 -29.69884
9.833607 4.292521 -29.05359
9.25361 7.874849 -27.10764
-1.072666 2.804377 -25.08913
9.886262 6.177735 -25.50971
40.45415 29.19219 -25.38655
-11.93816 37.06413 26.85671
-11.71119 39.89195 25.21885
-44.87957 41.26524 -25.64799
55.23992 48.39381 13.26834
-1.07541 3.49229 -54.92367
-2.21199 6.851739 -53.19027
-5.662488 11.81593 -52.97836
-3.686835 13.74679 -51.79877
11.0108 41.15982 18.00608
-14.61137 7.161745 -57.03922
11.45085 6.416957 -41.05963
10.88186 7.03902 -40.45097
-49.05873 48.66825 21.07862
-21.32568 3.813719 -35.61803
-32.77319 12.46083 -38.50002
-33.01451 18.65921 -33.28519
-15.86186 42.24351 37.75193
-17.91239 3.57742 -58.66019
-14.42018 8.282779 -56.2655
-22.06033 0.9511389 -47.3031
-52.35166 49.90807 6.854632
-48.95392 52.10241 16.70226
10.71142 37.47322 18.30502
31.49666 13.38191 -42.2709
33.7371 21.02467 -33.80284
26.01641 17.17698 -44.20963
32.75973 21.23922 -35.8917
40.90644 32.19354 -24.56837
9.246346 41.15451 13.77259
41.31609 32.98816 -24.29322
33.62103 32.14095 -23.29202
36.14838 44.44118 -21.52785
37.76939 42.84057 -21.84299
31.2171 45.26363 -20.6394
40.96019 41.46939 -21.61326
45.21041 41.91619 -19.65108
47.23022 52.7541 26.97155
-29.63457 20.95511 -38.20219
-20.19508 18.71876 -39.7181
-32.50457 20.03333 -32.52965
35.58024 46.85783 40.80554
39.6386 54.10761 33.90426
38.92628 54.76995 33.96932
38.45122 54.86563 34.24068
34.99067 53.48442 37.13888
47.05738 42.16415 -18.35404
32.87363 28.62093 -28.04619
16.75306 105.9744 -3.099936
17.52651 99.08517 -3.204643
16.05152 99.50327 -4.676966
15.79214 94.10226 -13.70128
3.294774 8.019534 -41.17218
34.42581 19.14437 -26.23526
0.2654227 8.269524 -27.26021
17.38468 111.4213 3.710788
15.61382 110.698 8.047924
15.15116 111.6503 7.24863
2.94242 108.792 13.39478
7.32972 110.3184 10.757
9.049953 108.8027 14.05963
19.14618 107.1799 8.099228
6.417295 106.1122 12.54357
2.159355 38.38142 31.85736
0.7477449 41.36123 25.64818
1.384461 42.78948 28.26389
-53.13079 46.04856 -8.836086
-0.01376203 109.4158 -8.89459
2.380106 104.6504 -12.78333
2.403294 99.40444 -12.33675
2.119185 105.6343 -12.37643
1.246104 105.4764 -10.22545
0.1768117 98.51871 -10.60979
14.68313 111.7284 -2.573714
-11.99237 47.72231 32.95821
-5.141647 111.4307 14.52906
-7.624184 105.6692 15.92659
-5.718341 105.6845 13.21207
-53.75937 39.52584 -16.82299
57.37767 45.32515 4.965046
54.81767 49.91744 7.283465
52.59954 40.28827 -14.53967
49.4098 45.97795 -13.91362
30.64568 26.21848 -20.69904
28.28133 31.84091 -18.09707
33.28594 33.5244 -22.99207
32.23761 35.90702 -22.19037
27.32683 43.54341 -17.72347
28.33931 46.29553 -18.84191
-15.67381 105.4146 -4.252118
-15.52133 104.5755 -5.399235
-0.3181199 41.95968 16.62485
-0.6254994 47.41866 11.37461
-1.74527 43.56834 14.16053
-1.012518 43.56678 16.67909
-1.466716 41.72503 14.9894
-0.8533291 42.26828 17.36182
-0.9340351 41.74708 16.93989
0.2408393 46.46571 14.37515
-0.2036701 44.28697 22.10623
0.2912105 40.78597 25.01212
1.001981 41.77705 28.06864
7.754716 106.6142 14.71544
9.644382 44.52363 14.52328
11.3153 44.56907 26.6674
26.54437 19.68422 -14.07393
31.46048 18.41696 -21.31502
28.79182 17.69726 -18.44543
25.32367 23.00399 -14.61123
27.0323 25.06363 -13.97402
27.64366 25.1935 -18.18315
26.36884 26.75326 -17.18556
30.27958 25.76841 -20.70677
30.46847 20.98164 -20.46088
31.69626 24.32498 -22.19869
28.63234 32.81104 -19.28135
33.72939 24.2183 -26.54326
29.43743 31.81446 -20.13018
26.67641 34.07551 -14.72831
24.0236 31.77636 -13.21123
-46.10949 37.06345 -27.28259
-35.82592 47.35085 36.33262
-37.66488 47.31426 35.299
57.757 42.41489 -2.582572
-30.31586 16.67461 -22.29969
-27.44727 23.27201 -17.09832
-28.55639 26.72207 -24.00974
-26.92322 27.11623 -18.47522
-27.22055 26.02096 -18.84946
-25.81563 31.98332 -12.73518
-25.96811 30.96211 -16.86128
-29.04522 27.84887 -25.82193
-27.17386 27.90009 -9.40659
-25.97191 33.4589 -19.2574
-27.0555 31.84068 -21.8589
-24.58386 39.25886 -17.07611
-28.19725 34.68722 -25.39862
-7.940426 6.819185 -54.86351
-3.970777 4.670876 -24.85741
7.497941 10.58605 -22.4353
8.626058 8.44336 -28.48929
10.62835 5.852448 -29.00426
13.41941 5.970785 -34.71075
-9.607088 34.04822 16.44324
-10.9894 42.30365 20.02943
-49.23001 40.43614 -22.36335
-45.46423 45.44286 -22.48995
-9.209676 10.57095 -55.37134
10.35804 7.83918 -36.38662
8.417051 11.41983 -37.43519
6.878214 12.73693 -31.96592
11.37468 13.45657 -41.28104
-20.18088 4.996766 -35.99729
-32.47771 18.33499 -30.15785
-13.09213 49.3837 33.0005
-19.79668 5.034 -54.64851
-20.09019 5.879265 -48.88019
-20.41561 7.988528 -46.13765
-15.16712 8.722611 -54.32995
-15.1259 9.565296 -52.67545
-43.0065 60.19513 19.67113
-48.38599 55.61911 12.1712
51.70691 51.44498 19.90515
51.68342 52.94087 17.19732
49.3918 55.07032 20.02113
19.49198 20.10276 -44.1269
30.92078 19.81693 -39.37438
19.17351 23.73012 -42.76248
-11.67394 46.92849 28.46882
9.838708 42.20226 10.08264
3.770854 6.262302 -49.71002
4.256143 10.11025 -45.28049
35.26888 45.57219 -21.25867
-42.30894 44.79072 33.43871
-27.56083 23.72585 -38.53722
-29.8737 25.61858 -35.73934
43.8569 58.76927 25.66445
44.19321 61.46502 22.22077
49.56124 38.22844 -18.67933
1.009441 8.844015 -27.33053
17.41072 107.618 10.12811
10.36039 103.3503 16.56149
-53.63048 47.86518 4.138529
4.324265 105.7616 -8.910081
-4.861084 95.95575 -12.96645
16.32172 109.1763 0.18802
16.6652 109.3579 -0.6257483
19.42635 104.8979 -3.727268
19.05345 104.5306 -0.3831002
21.20769 104.3056 2.660633
16.89998 108.8409 2.473357
-11.85591 49.21205 32.67325
-11.3753 51.44983 26.66958
-9.521256 54.25762 35.43952
-0.3808624 56.11289 35.42342
-8.136785 44.01411 40.39397
-9.266927 43.67118 39.84451
-7.204975 104.0505 16.25532
-7.6813 108.7943 10.81283
-7.551433 103.5632 10.85174
-11.93126 109.1062 14.23757
54.34148 49.68581 0.9676085
54.61463 50.05017 10.51186
56.24648 43.8249 -4.671347
24.9343 44.01363 -15.6162
-17.07098 102.2053 -7.598971
-20.08289 104.8077 -4.246815
-19.38709 98.39513 -9.264344
-0.02262243 39.79383 21.33803
-0.3901891 48.75282 16.30883
0.3208424 48.61935 11.63371
1.49985 41.70813 30.11469
2.065915 42.37168 32.30826
1.959774 46.25071 31.52714
1.26105 51.60545 28.13581
2.057729 49.397 33.99142
1.240974 49.85894 35.89891
1.613306 46.36105 36.626
-4.756731 57.19692 36.39707
-0.242669 46.79428 38.56376
-0.4026453 64.77106 32.34969
1.587067 40.78274 38.72736
1.076412 40.82091 39.41571
1.707226 58.69314 30.10874
-0.8360505 57.51301 35.25647
-4.895857 40.71259 42.30413
-4.866656 42.27039 41.73569
-0.5134259 61.20153 33.72041
1.398869 63.06462 29.96149
-4.158392 62.23416 34.61241
15.01318 43.02287 38.12211
27.1203 27.3026 -14.40286
23.17379 38.72742 -12.30195
23.81196 33.75377 -14.54966
28.02568 38.75821 -18.80661
27.47537 41.99117 -18.33311
32.37204 31.03696 -26.17939
27.02065 45.32875 -17.40175
26.94328 44.89537 -17.2659
26.87329 51.72667 -17.30403
29.34301 46.57318 -19.57244
29.5076 54.41293 -18.59654
-5.329177 45.40886 11.43172
-39.09253 36.94442 -30.20372
-34.96044 10.38661 -28.48067
-28.11162 22.21932 -20.56834
-27.56241 27.50119 -22.33587
-24.30967 39.88402 -15.26032
-27.08881 28.34403 -6.62288
-26.00408 27.26262 -11.5784
-26.60484 25.52275 -15.96201
-25.19984 31.34553 -11.36456
-24.68506 43.38961 -19.3667
-25.35935 46.18548 -21.29763
4.635715 7.848576 -26.44092
-7.152417 38.55268 11.06204
-10.13723 38.33053 17.33201
-10.19227 37.53136 17.5358
-5.721844 44.14688 10.90609
-11.28058 41.1049 21.93774
54.14557 50.95277 9.787602
-11.47687 12.57027 -54.2842
7.438924 12.28918 -34.77768
9.169612 13.79652 -38.3322
-27.34615 46.77692 39.18847
-29.20799 20.25397 -22.57813
-29.35814 22.06207 -24.69031
-31.33571 20.17991 -29.04503
-16.7565 46.88186 37.12609
24.64435 18.91335 -44.01103
-20.41023 5.607082 -34.31257
-19.69979 9.951488 -42.31071
10.7328 42.35439 15.52122
4.562706 12.95622 -47.42877
34.15025 49.03966 -20.39114
38.48672 49.71253 -19.44333
31.96708 54.90854 -18.91653
45.38063 48.49136 -16.11322
40.5254 51.43543 -17.87119
-40.55039 51.14975 30.60412
-23.75061 23.3401 -39.58833
-31.08637 24.6795 -34.30996
48.11521 57.76837 18.97509
40.00779 62.61476 26.8989
37.00267 61.94766 30.27254
34.39333 57.27605 35.11768
30.62164 56.9448 36.83539
22.75626 50.82965 40.17678
26.59032 59.3824 36.48742
46.7555 46.55624 -16.10893
-2.355345 4.043151 -27.0359
20.58798 106.4328 7.544727
15.2904 107.6747 13.73708
10.18369 104.8938 15.96957
-54.2091 46.77211 4.400732
-17.74015 41.67845 -33.08004
-3.636045 97.8306 -14.01077
18.96927 96.64117 -5.545681
-3.326457 105.8028 18.86794
-0.9834958 107.2885 17.5113
-5.686726 98.12352 11.04927
55.28614 48.6364 11.94983
50.56881 57.21717 8.684865
53.36443 42.88322 -11.39894
-19.54579 104.7676 -2.057976
-16.68911 110.9647 5.272155
-18.07714 109.8444 8.844567
-18.40885 103.9924 1.815983
-14.50756 107.4946 11.6515
-22.24278 98.23672 -0.1109631
-20.70139 103.6703 4.973308
-16.57388 101.8446 -4.386194
-0.03942652 48.48237 20.95292
-0.3180698 53.58602 20.57997
0.4717864 49.83954 11.95869
0.3029184 53.08104 11.91171
-8.448876 59.09996 34.44547
-0.4761594 68.12681 31.20973
10.13548 46.88972 15.72762
32.93939 27.85283 -29.12402
28.60095 47.59367 -22.01745
25.08066 36.50842 -12.54579
24.27031 41.62228 -11.91125
25.34073 50.22832 -15.26839
-26.61504 34.58398 -7.164679
-25.27661 39.04531 -9.230067
-23.85435 41.80714 -16.93232
-25.44257 31.69729 -13.15225
-24.6805 36.55963 -17.12433
-25.50797 32.3861 -17.83217
-27.23084 32.11066 -23.30797
-28.72129 29.80322 -26.32219
-24.17651 49.72386 -19.48137
4.234043 7.895326 -25.77824
-6.893841 45.09288 13.61888
-10.168 50.23973 17.66504
-9.155462 12.62535 -54.70612
-9.701027 15.99544 -52.61032
-4.392176 18.32949 -51.29809
11.37459 16.49331 -40.67838
-13.83549 48.10388 34.32222
-17.41987 15.42316 -47.90456
-11.96605 16.57961 -52.78495
28.68183 20.36108 -41.17273
22.13512 25.04512 -42.12194
26.55497 24.64517 -40.58366
-19.64886 9.240351 -42.18118
-10.8978 41.45132 21.39223
-10.32621 40.01777 18.69827
9.961414 47.84063 10.08575
40.90634 53.59777 -16.65165
36.22908 54.93262 -18.30485
-38.41532 51.30263 32.28568
-23.13037 20.12554 -40.60766
-26.2958 25.18801 -38.57864
-29.41315 27.34772 -35.38283
31.89734 57.89669 35.85575
25.884 63.21032 34.69466
32.92281 58.75221 34.92295
-3.358863 7.3575 -24.97597
-0.1754612 5.72562 -26.3558
4.145994 9.292229 -20.567
0.481488 13.03855 -21.72735
24.45837 100.5195 9.249651
8.52738 99.56699 15.84027
13.06602 98.54977 18.51922
-53.62349 47.93031 3.045474
-50.04034 54.29836 6.19581
-49.86979 54.36295 7.587979
-44.58799 64.26593 6.966217
-48.4882 57.32819 4.919545
-47.11075 59.8735 2.024187
-45.91217 62.11744 3.873686
1.476869 79.12086 -15.18793
-4.130228 93.92078 -14.36753
-8.775312 95.68545 -13.75989
-6.733336 95.51646 -12.69728
-11.57812 97.3829 -15.01366
-9.885771 103.915 -12.47697
-0.1011929 102.1575 17.34243
-0.1775977 101.9665 16.71656
-12.27994 105.2059 15.53109
-16.0965 101.6849 14.56811
50.49073 55.00516 16.99511
46.92687 61.50795 15.6283
-17.71667 105.0819 1.494773
-22.06635 103.2155 10.22017
-16.75351 97.36373 -4.131185
-18.23921 95.57585 -3.746247
-0.2083406 48.55264 19.85219
-1.761219 64.97656 11.66049
0.261367 54.33487 21.90014
-0.2643355 53.03189 19.11839
0.8901976 60.42972 25.61867
0.1578722 54.97311 22.85789
-0.06436702 58.17982 21.28924
-8.140365 58.21601 35.00163
-9.224137 59.3954 33.65742
1.490559 62.27795 28.28088
11.09867 50.69968 27.57859
32.77242 29.16749 -26.41506
28.05466 43.85713 -19.24236
29.13146 43.60426 -21.27638
26.05 72.57208 -14.34883
21.83383 46.46848 -11.96363
-36.96905 42.11239 -28.52641
-36.0732 32.19347 -31.87121
-30.56762 34.82641 -28.80769
-28.03754 34.84751 -25.07891
-24.22872 36.92468 -11.40475
-29.90652 24.57055 -27.95591
-29.81034 27.55515 -28.48684
-23.35909 38.10771 -8.63479
-24.20983 38.15777 -12.2398
-24.68574 38.1625 -18.30494
-26.66835 47.38869 -23.52628
-22.47611 51.60132 -15.09521
7.484643 10.29581 -28.70348
5.083827 16.81476 -25.13031
-10.90494 45.16887 21.22654
-8.80648 45.08415 13.4529
-5.214552 51.16666 11.62906
-7.534999 59.67311 11.60754
-50.64423 47.29234 -13.60719
-2.106245 15.47235 -51.51985
-3.356928 17.56708 -51.28746
7.009406 14.90794 -33.54964
9.582022 18.15805 -38.14465
11.62172 20.86283 -39.95725
15.89279 25.37122 -41.43748
-21.72182 48.03838 38.55426
-19.9216 13.12884 -44.96343
-18.09115 16.82028 -46.36163
-9.00911 16.56513 -52.23174
-11.01314 22.34 -49.98779
-7.644588 23.10602 -50.51129
30.75207 26.99721 -35.38577
-20.75594 6.843429 -36.63691
-17.59189 9.419699 -35.35314
1.390643 10.28745 -51.61814
36.53893 64.31923 -14.23003
37.0977 65.06786 -13.3954
43.27561 53.234 -15.09122
-38.10838 55.52678 29.73299
-36.95027 54.9272 31.06753
-18.50867 20.18792 -37.90841
-26.59873 29.29715 -36.82323
-24.84858 27.86638 -38.01753
39.93862 64.55843 25.21451
20.37601 55.65705 37.78349
34.13812 63.84299 31.02104
30.67813 67.60503 30.61194
-3.830929 6.02968 -25.00583
1.664703 17.48402 -21.70821
4.139982 19.51977 -21.68129
16.09503 101.2754 17.35598
2.292295 106.9209 16.00167
9.831417 103.4121 11.80332
10.44285 100.1249 -11.74109
11.0178 91.71216 -16.42377
7.198674 98.992 -14.75582
5.614877 95.72768 -14.91711
5.827106 101.2428 -11.84927
4.177815 92.79425 -12.93181
-0.5688993 97.24486 -16.24328
-4.182299 93.49352 -15.77804
-10.15528 88.91225 -16.59111
-1.714724 103.6592 12.77517
-0.9971954 98.01958 11.97197
-1.849094 101.0671 12.93197
-15.15728 102.1469 14.58415
-8.824085 102.8904 12.56499
-21.94348 98.94707 14.10027
-51.17771 52.35187 0.7373373
45.07235 63.55076 17.44849
54.30194 47.89325 -3.325666
50.63636 52.18309 -6.130118
-24.55611 99.81641 8.362413
-22.35694 103.2596 9.443659
1.367918 53.49 27.07597
-0.05009575 58.53565 21.30943
-10.73847 61.17011 21.49167
11.08178 50.19169 31.49586
31.24051 32.34358 -30.70373
28.96772 42.72031 -27.71855
23.31299 46.94467 -11.11707
22.32198 52.05803 -13.31037
-35.07273 40.07808 -29.32135
-22.50806 52.86354 -15.99221
-23.55774 54.37151 -18.86119
-23.58232 45.78345 -16.78235
-28.74816 35.20797 -28.18144
-22.99965 41.55825 -6.566277
-27.81718 38.90087 -29.35222
-24.28622 42.30779 -18.84884
-34.72607 54.97712 -23.72969
4.673646 19.09207 -22.18029
4.835861 16.04361 -21.6906
5.458855 17.58107 -27.25011
-9.389036 51.81322 16.10494
-8.406921 53.70958 12.94297
10.9676 42.80086 17.6705
11.40681 45.49086 24.07736
10.94084 46.47169 17.85621
10.82072 48.26348 16.86421
10.64073 48.01976 12.25872
7.530414 18.37494 -34.54002
14.64484 31.67186 -38.92858
-26.9463 51.88184 37.08693
-32.50958 52.22503 35.28659
-24.38305 50.9113 37.71677
-35.8789 56.51172 30.8643
-16.1121 51.0737 35.56349
-13.2613 50.95507 32.97483
-11.78867 45.93108 26.48532
-11.59609 44.63385 24.49098
-19.73831 12.78839 -42.82877
-16.41311 22.6023 -45.22064
-15.50907 24.71368 -45.21956
25.75671 31.33717 -37.97316
4.540442 15.63237 -46.91726
28.30846 54.7417 -18.07432
32.27791 61.30512 -17.20135
-19.01148 21.49378 -38.2865
-19.68899 29.57056 -37.02621
-27.89475 35.29255 -32.56447
-17.76081 36.32726 -34.23166
38.27734 65.96523 25.88875
44.60679 65.75148 14.73625
41.13822 67.90404 19.89141
46.8622 63.1623 11.31836
43.07938 68.93296 13.14745
44.21352 68.18888 7.807365
41.58849 69.38411 16.92426
38.97691 68.3065 22.88351
35.40587 64.05764 29.9861
3.20948 19.17899 -20.64823
22.51114 100.4575 0.8986628
19.78506 99.10274 17.44182
22.0909 101.2632 11.56643
16.63894 105.3465 14.93015
22.01538 102.5855 9.963205
23.79695 99.81552 11.09353
9.816186 96.22532 19.88151
8.598364 101.7957 10.19387
8.824 95.48422 15.4258
-49.01648 56.41118 2.368426
-45.24505 62.58966 -2.002904
-51.1448 52.49407 3.076163
18.01741 93.60925 -12.28434
2.253181 93.418 -18.0111
4.065015 95.03132 -16.00699
2.115215 89.03331 -14.38198
3.539972 86.46581 -15.86392
1.1249 75.99607 -15.08207
-6.933693 92.2412 -13.58314
-12.15143 99.16108 -11.76406
-1.444049 100.9591 20.31762
1.026028 91.1806 12.04958
2.468537 103.102 13.36346
-47.99441 49.92891 -15.5418
-48.9944 52.31076 -10.35203
-46.75292 52.76169 -14.65303
-49.30854 47.50109 -15.91041
46.75411 52.16983 -12.29521
-15.34508 101.3427 -6.243484
1.137162 51.40807 26.31934
2.754001 51.01937 31.98316
4.114169 50.25996 33.8016
-8.073007 65.79897 32.11802
10.89375 46.20409 20.84629
31.77823 33.78852 -26.38837
29.37838 43.29918 -25.89908
25.76967 50.04896 -16.56286
-34.17665 43.26332 -28.21403
-33.97276 40.97656 -28.92227
-40.11899 44.20123 -26.74595
-33.55378 47.02361 -26.95817
-24.97093 52.01368 -21.14655
-25.40718 42.14083 -31.73525
-19.16089 39.65475 -34.22727
-17.52453 36.53966 -34.01896
-25.83752 35.94109 -20.95185
-24.09303 52.71912 -19.68067
4.419651 21.87631 -20.16103
4.550816 14.58206 -18.29917
1.208808 18.46056 -16.89061
4.716461 23.79451 -21.29392
6.688827 21.1973 -31.98973
-9.731306 47.32893 15.82398
-6.089405 53.15494 13.23877
10.84331 52.94054 18.13218
11.13794 51.19502 22.79253
11.2276 54.7928 28.17773
11.50278 50.88489 29.0661
13.79832 44.01747 36.34741
12.28127 40.58607 32.04664
11.97404 39.79387 28.80426
6.172886 24.00789 -29.80288
11.83565 25.5553 -38.98157
9.678444 24.43514 -37.06637
-30.19436 55.87973 34.34514
-35.75214 62.98196 26.64892
-13.00074 45.32808 33.54173
-11.85543 48.04247 27.55942
-11.67964 51.29962 26.62537
-11.08647 49.4789 20.37027
-15.40215 26.96853 -43.90607
2.308096 25.86679 -18.49425
27.07207 29.06751 -38.16911
27.49593 29.99026 -37.36451
19.19634 26.40229 -41.79181
26.0849 26.65243 -39.94964
8.809026 52.1095 9.948278
3.895114 12.53686 -49.81715
-18.83871 18.42557 -38.56925
-19.86638 11.27687 -40.11811
-18.71144 15.00646 -35.79878
41.71379 72.24737 9.672758
50.21011 57.847 6.15592
22.86731 61.82448 35.59545
28.47941 66.82873 32.05358
4.239268 18.6832 -22.6142
25.83467 96.99381 11.49034
7.094285 98.08292 10.63712
10.53722 85.48282 23.53246
10.37167 89.59751 -17.91762
0.06710852 96.77711 -16.36737
0.1343622 86.99574 -13.29516
1.024826 82.11485 -14.57845
0.7077348 80.3662 -11.9414
1.633033 92.56649 -18.60899
-4.674883 89.20419 -15.51028
-15.35692 98.49178 -7.408904
-0.7678978 93.90132 15.953
0.1350794 89.65987 11.4117
0.8629316 87.51046 16.57146
-0.465162 87.41914 11.26903
0.7928798 85.30506 15.66688
0.7954345 82.91454 12.63914
0.4914809 81.06902 17.25398
-45.8573 53.43791 -15.43446
53.34691 49.99025 -2.397097
-23.70567 98.39374 12.75184
-15.51408 98.27889 -7.232267
-22.06562 95.14975 -10.02856
1.207858 44.06564 27.39982
0.7482228 47.5549 25.04611
1.265997 60.08706 25.95416
-8.042063 66.32557 31.90936
11.16513 51.48754 29.72105
27.91419 50.50187 -21.44314
24.30198 55.65846 -13.90057
-43.46663 42.92057 -25.6237
-42.63237 51.27188 -21.09993
-44.03526 47.98953 -22.06299
-29.76138 45.12385 -26.46755
-27.91424 37.5854 -30.59347
-23.66957 42.67565 -16.63043
-9.749936 59.03999 15.8879
7.449133 69.19182 10.78748
6.734525 23.80818 -31.88643
10.69132 28.7254 -37.191
6.669448 28.54521 -31.14797
5.472323 32.81504 -24.42917
9.166119 27.11388 -35.83635
-32.69476 59.75033 31.0129
-36.41492 62.76411 26.18972
-34.46542 63.51187 27.39944
-35.23496 66.76378 24.43221
-39.56582 59.12669 25.62769
-38.41761 57.04501 28.38948
-17.95335 61.19774 33.35772
-11.61162 50.57042 25.59146
-11.01128 53.27597 19.94323
-10.33585 52.14128 17.20477
4.222659 17.99528 -46.84441
10.15044 50.20282 10.45332
10.61919 52.72408 19.08724
10.04294 48.0243 15.54158
34.77415 64.66718 -15.14295
43.32701 61.8951 -8.589932
44.13833 59.17619 -9.890946
-17.30053 27.02663 -35.15945
20.83879 57.20411 37.29873
17.70571 63.35336 34.20353
26.44575 70.64741 30.64978
39.14961 70.51711 20.26586
39.84274 74.26654 13.10455
38.55259 69.5733 22.16605
37.91259 75.17496 16.71836
17.2313 91.0993 22.54936
10.20361 91.11156 21.68098
22.82417 94.62624 18.01636
9.135331 90.20786 20.78524
16.77263 84.97339 25.3977
9.486817 92.44686 13.39743
6.688973 96.15337 11.82976
11.38876 87.17329 23.5765
9.2636 83.74987 18.0378
9.132335 83.7324 20.79496
9.807263 78.68984 15.17981
9.619097 78.00782 19.61911
25.16517 100.7465 7.473994
22.23768 97.51118 -7.32714
7.609145 103.9776 14.06212
8.072329 102.388 15.31332
3.753725 103.3351 18.61716
6.754226 93.93214 11.78462
10.83549 49.95668 32.31478
7.822822 57.67992 32.18859
5.756779 53.41906 33.59465
8.444113 57.74369 31.89326
16.6917 91.52357 -14.65856
4.17644 88.68443 -12.67072
4.180583 82.66481 -14.6079
3.382381 81.62326 -12.76978
0.1090774 85.87885 -12.77944
4.026069 80.43163 -17.26189
3.65016 85.45562 -20.83325
-6.331268 87.13737 -14.78584
-5.646072 83.61806 -16.41787
-6.417779 78.69542 -17.1904
-12.33298 94.56522 -10.76681
-4.844996 99.26236 20.65673
0.03737622 90.52548 17.43921
-0.4791319 95.11255 21.37051
-0.8365779 91.06832 15.92278
-1.148429 92.06281 15.40726
-4.454283 91.35111 24.22753
-9.109697 92.6921 19.35322
-5.229208 97.11205 21.5198
-9.401711 94.17075 16.63867
-7.284199 96.76228 13.7255
-9.207827 81.22116 24.40962
-7.812562 89.21699 14.20586
-9.699265 86.72318 17.5875
1.727302 99.96552 16.69306
0.1792179 86.22567 17.91696
-0.4860991 84.37717 16.34709
0.5856651 83.73092 23.44067
-1.256322 83.12489 26.44471
-5.642147 86.70593 25.49905
-0.4674083 79.0914 27.29689
-0.3556796 81.71748 16.59055
-0.07778507 80.26867 17.40057
-0.8558072 74.40369 15.56721
0.0799981 66.61497 20.57599
-0.03749901 68.75586 19.43455
-46.73761 56.50576 -9.778696
-20.62744 100.6492 -7.918011
-18.39801 92.12205 -10.70841
-18.60956 88.41412 -7.140949
-21.74334 89.72163 -12.34133
0.1747923 41.89849 22.64314
-11.31804 55.65018 27.43349
26.61723 59.85923 -16.53396
29.27723 63.74989 -16.68622
35.51314 67.35985 -13.36359
-33.01858 51.06411 -25.55199
-31.54159 43.22149 -27.71516
-28.08771 44.31236 -25.36943
-22.40203 45.76335 -6.238762
-25.96931 47.08107 -26.8888
3.103776 25.71194 -15.66896
3.198087 20.6657 -19.378
11.94245 44.73917 30.51262
11.51513 53.3382 30.0336
14.08112 55.05573 34.54484
18.01875 55.14467 37.15014
13.8593 53.40204 34.6342
16.31799 54.50166 36.42912
15.89189 46.08135 38.35575
11.2405 55.57029 28.86866
12.3488 35.44886 -36.68242
16.15223 32.22604 -39.26052
-27.91094 56.89805 34.61939
-29.5467 68.11815 28.00852
-35.95853 67.28201 23.28746
-44.74193 57.87327 18.9604
-46.44296 55.07062 18.7673
-44.47792 61.50309 14.50907
-17.73852 56.27376 34.84412
-22.26121 54.10375 36.47992
-13.20571 61.72388 30.5664
2.360857 23.01384 -46.95033
5.39355 22.26807 -41.89133
5.986388 24.74312 -37.17484
26.07352 32.40482 -37.26439
25.42823 33.80777 -37.00821
10.66924 56.07167 24.11853
10.85798 54.44518 26.80335
10.5968 54.54158 19.84784
-17.77919 17.41649 -31.97943
36.25528 81.11359 10.78246
44.31833 67.85538 4.846131
43.87988 67.92847 1.924982
50.81134 56.41652 3.276548
20.67977 64.50639 34.34898
20.01729 67.34011 33.08727
15.69907 65.50312 32.70411
36.35084 71.98012 22.75079
32.47859 71.28674 27.04478
16.61875 84.45993 25.62283
14.50345 84.45367 25.47398
22.17644 86.24069 23.6973
26.95999 88.62552 18.66792
23.43715 83.17376 24.85668
15.71616 86.60494 24.67501
23.32387 97.97239 -1.489613
8.283625 96.43164 15.78257
3.712453 106.6873 17.59981
4.608245 57.00101 32.26032
13.85379 87.5838 -17.34022
14.69546 93.24575 -14.27773
8.406739 86.90688 -19.46105
4.684922 84.62491 -16.09247
20.21714 84.76591 -13.89161
18.31666 81.98093 -18.52657
18.17306 88.21974 -9.501578
14.50353 82.62725 -19.74748
3.507252 77.96492 -13.71004
4.400279 74.67846 -17.09013
0.6095268 72.8737 -14.10858
-9.061947 80.37405 -17.19112
-1.054016 97.61815 21.15525
-9.585654 83.66464 22.12143
-9.479321 87.48231 16.28236
-9.208961 86.24184 15.59755
-10.04652 79.54398 21.8939
-4.953803 79.17186 12.01506
-6.254534 79.62221 13.47716
-5.349409 88.61597 12.82048
1.342007 93.96629 16.02976
0.04523595 75.60753 27.98907
0.2119583 73.53171 20.06254
0.670673 70.50491 23.2829
-0.936061 67.85141 15.69483
-0.04498369 63.56615 20.4106
0.9675517 65.97105 25.36589
-0.5840628 64.47697 17.10689
-0.4594717 79.48425 11.28466
-20.82167 90.1629 -12.1374
-43.1787 60.17147 -12.79763
-46.53011 58.39723 -7.057446
-16.75344 88.00871 -7.416397
-11.53572 51.94634 28.61481
-11.05041 52.22573 23.1359
-10.86942 62.16045 24.57413
-10.82981 60.95122 23.02738
-10.53772 63.63873 19.55976
-10.42087 67.42434 19.39034
-10.46807 67.74903 20.11358
29.26888 34.54122 -32.83814
-40.58371 52.90564 -21.73318
-39.32977 53.08108 -22.50763
-38.74503 61.08051 -17.98277
-34.54521 57.7155 -22.56278
-31.30928 54.71796 -24.28653
-23.02842 46.99062 -5.248058
-22.01994 48.45868 -9.850714
-22.38091 47.76922 -11.90059
-22.11282 49.25335 -12.63942
-22.95007 47.2572 -16.407
-20.82822 52.84517 -7.344324
-21.74656 57.29529 -16.15994
-23.3186 51.92198 -7.097577
-16.7126 35.67456 -33.26113
-25.98476 47.63229 -25.4109
-23.28305 51.05558 -29.12742
4.239164 28.14275 -19.04463
11.71796 55.97666 30.7708
15.26682 35.32441 -37.99284
21.98306 38.34266 -36.64092
4.985522 34.24474 -21.90589
4.129502 28.99783 -18.44588
8.828113 38.68721 -33.01398
1.913539 28.3089 -15.3195
5.895724 36.84525 -26.31601
-20.07317 57.43618 35.06366
-29.39776 64.98017 29.87075
-24.17994 66.54057 31.12059
-23.18377 58.30151 34.85231
-19.14278 66.29149 31.77878
-21.68699 68.61113 30.74367
-31.19523 69.85941 25.83528
-44.51282 61.65991 14.16051
-11.3148 54.62933 23.24606
-11.153 55.65538 21.60064
-11.15395 60.30975 23.09926
-9.308812 53.94556 14.8784
-8.419072 61.89981 13.1386
-12.77952 30.51801 -44.75589
-15.05856 31.01498 -41.58488
-16.7136 26.74712 -40.44057
5.560217 19.94386 -38.944
26.91141 34.20267 -35.7423
28.818 34.62637 -33.44274
10.55658 59.61518 26.65755
10.39358 60.82156 22.97071
45.68579 58.04019 -8.637677
49.41581 58.37624 1.722033
-17.4128 23.6562 -34.64662
-15.90718 17.20152 -32.3242
41.96409 64.54913 -8.180088
40.09824 75.00142 3.924227
11.3528 61.44043 29.46921
34.66579 74.92339 22.05491
31.8798 78.1492 22.33236
29.83477 76.08372 25.62761
27.11917 82.41745 23.22503
25.50322 79.28309 26.14889
23.01649 76.11446 28.76923
27.72724 73.81046 28.31783
25.34627 73.59372 29.41241
23.33088 77.0499 28.20093
30.98801 83.82463 18.20706
32.62548 68.69669 28.7441
14.77597 67.44401 31.65064
12.10166 69.06787 29.26303
12.21267 69.72424 29.2386
6.698998 95.64473 11.73944
7.049529 92.98076 12.60364
9.613306 82.50088 14.9349
9.154992 86.38935 10.21764
7.157626 85.33974 12.22766
21.42809 84.14366 25.07721
7.972244 99.17236 14.61782
7.606604 99.31171 18.02405
7.214991 95.37225 20.21877
8.507506 59.46811 31.27497
9.634195 80.64426 -21.769
12.02112 81.67509 -21.04703
27.56463 64.86678 -16.21021
23.97372 55.48703 -14.76166
21.78489 52.43543 -10.23212
20.78543 61.65393 -8.905622
22.7262 57.53119 -13.64776
3.416152 76.62486 -17.08962
4.375764 81.10053 -21.90531
-0.05261447 86.90992 -21.97788
-2.546816 81.87228 -24.60511
-5.290155 88.63148 -19.06902
-4.581858 84.15835 -23.01926
-11.66209 80.52663 -19.61193
-12.94937 81.58318 -20.03592
-15.48228 84.67372 -18.86018
-12.36078 86.51771 -18.42394
-13.9492 92.40614 -13.03209
-10.42893 94.68613 -15.40657
-15.06892 93.43201 -8.729003
-13.2282 88.78764 -17.91142
-16.20102 83.91853 -13.89242
-9.954876 81.2923 21.59029
-9.748 86.72092 19.40792
1.139038 71.59982 26.45718
0.9185434 69.3442 24.70508
0.6036873 76.67006 21.99559
-2.099889 55.15313 12.87358
0.007298067 60.66133 11.60192
0.5057816 58.51208 12.332
-43.22009 62.91523 -9.096808
-40.30077 60.78703 -16.51964
49.80783 53.29854 -6.462352
-10.24633 74.77628 21.60439
-9.353809 56.89192 15.95834
-6.485835 59.05758 13.78534
-36.73847 59.53429 -20.54339
-22.10798 47.76844 -5.965956
-20.5868 54.58707 -6.709498
-24.42943 50.11197 -20.66554
-22.08465 50.48434 -14.19739
-24.5565 44.88105 -20.17992
-24.51284 52.90048 -21.4257
-26.52921 44.36283 -27.81912
-20.74146 49.56403 -31.11793
-15.64181 25.28992 -33.96362
-21.71393 54.26082 -28.77411
-21.39174 59.4254 -26.53475
4.15892 25.29918 -17.90267
4.789145 27.44639 -22.8022
2.711224 26.4112 -15.47341
10.2028 42.55317 -33.32891
8.290298 39.86382 -32.15652
-17.32412 68.33439 30.84525
-15.00958 65.50221 30.92044
-22.92084 74.19242 27.85286
-43.67173 63.24428 14.06722
-9.23618 52.2569 14.71699
-8.271152 53.06721 12.61023
-6.014192 60.14087 10.77571
-5.226374 63.37753 11.63481
-8.615743 65.65932 13.41327
-17.74144 13.4688 -37.0888
-18.23396 16.48674 -38.44183
-7.968805 27.70654 -48.37226
5.681143 20.72397 -36.02859
4.04941 14.95389 -32.51376
25.10905 37.95676 -35.25278
10.17863 64.15842 20.28907
10.10847 65.25672 25.63052
9.918465 67.95226 24.75143
6.267498 64.18758 30.52438
8.282709 56.11618 12.97511
10.40398 58.7476 18.93345
43.23355 67.84969 -0.9427218
45.79387 63.98734 0.0962287
-16.15372 17.81306 -34.50169
-14.05323 28.63337 -31.55908
-16.80496 26.9795 -37.52887
-16.8361 21.75817 -35.81226
-15.0475 25.57763 -33.00922
-16.53151 29.14249 -32.88438
-13.86735 28.34604 -30.03196
-14.00038 29.42548 -31.62
39.07118 76.92941 4.662048
38.80494 70.53436 -7.328764
10.66189 61.72502 24.49475
10.83444 58.90929 24.3771
10.82434 56.34353 19.58083
11.28371 63.90254 28.99771
11.00988 58.24983 27.63343
15.44126 81.36814 26.84401
13.73343 78.6043 27.45809
32.8526 83.10345 16.12764
34.00501 85.52026 8.833307
10.53792 77.94201 25.40211
35.59031 81.75391 11.8521
34.96301 83.98405 8.459433
33.79489 79.64381 18.55919
7.657043 83.89577 10.13577
7.381667 82.84305 12.74307
7.222225 77.20796 10.92149
1.369338 92.29254 19.43674
6.640356 93.37951 21.2997
27.79976 95.09473 10.05835
28.28661 92.81743 12.22645
27.73441 91.14676 15.16488
31.47182 88.63708 11.23003
7.606654 100.8913 17.47167
6.987012 59.51112 31.84867
5.835109 75.15841 -20.81778
4.545599 68.8918 -18.13791
22.58355 69.40904 -13.76552
20.3278 81.86642 -12.03948
25.99205 65.70023 -15.4571
28.38329 67.34164 -15.81149
32.32903 70.22728 -14.02694
32.13886 73.77753 -12.5149
28.41793 75.63933 -13.48416
25.43331 76.75626 -13.37535
23.07164 61.42086 -11.56327
26.30962 53.21783 -17.56929
23.49288 56.34723 -14.3233
-4.139685 87.99501 -21.42322
-6.441031 76.17856 -18.94378
-13.3323 79.20251 -20.85957
-13.61294 74.7582 -22.22849
-12.67743 91.41625 -11.6996
-18.46981 93.92647 -3.933546
-10.14093 77.1627 19.53735
-7.521809 76.9913 28.07798
-8.146097 73.69192 28.95412
-10.02246 74.43326 25.65934
-8.167872 74.40067 28.61848
-10.21813 74.3942 24.50898
-0.9102178 73.783 15.46887
-0.168788 57.58149 20.80804
-1.37357 57.56112 15.60059
0.4008245 61.17657 14.04519
0.3617059 64.61808 13.97436
0.6085594 64.0584 22.24316
0.1781261 68.18888 18.92585
-1.474885 69.96094 11.31015
-44.2808 61.30783 -8.806011
51.71867 50.43686 -6.087316
-22.34849 80.87473 -15.07848
-19.44861 59.90675 -7.614217
-23.0368 55.84367 -18.69945
-21.75201 59.53488 -15.83017
-26.35132 43.00072 -29.7814
-19.54373 41.83678 -33.75343
-23.13848 57.68565 -19.26674
-22.77913 61.73384 -20.84249
-19.48975 61.20062 -26.9215
-21.33615 56.15416 -28.13837
2.547906 32.19319 -15.00483
13.86568 40.88592 -35.75293
18.5871 42.24441 -35.83525
15.51328 46.55883 -34.22361
4.519192 36.14421 -20.2724
-18.80288 70.55097 30.19098
-37.83657 68.17621 20.14375
-4.342722 30.90678 -46.8396
-9.769692 33.48277 -45.0745
4.072231 15.79248 -24.89158
5.12642 18.99341 -26.67082
5.017011 18.23289 -31.25177
5.761177 23.01691 -29.47406
28.45926 42.85468 -28.757
28.60317 46.7063 -24.96593
28.58577 45.15737 -26.67645
22.76336 39.55891 -35.81844
26.59669 56.16263 -21.39979
25.06718 48.72461 -29.85309
24.92219 50.74399 -28.90297
25.45412 55.53606 -25.42579
25.69735 51.12087 -27.80261
20.62972 54.33214 -30.22687
8.92429 65.66934 28.81832
8.679493 85.71868 20.33152
8.653208 85.75629 20.55749
9.526651 73.2673 23.2275
8.278475 81.81145 23.56664
8.136832 83.27345 23.2408
8.785352 82.2975 15.88988
8.863467 78.96378 15.75273
5.074431 82.99982 24.97492
10.15684 57.01408 10.9128
7.822075 60.19184 12.2402
41.98249 70.2651 -0.352423
-17.87969 21.68778 -41.60279
-15.49572 33.33446 -37.63459
-15.73423 32.49758 -37.21169
-15.26385 33.83692 -34.9153
-13.88365 33.48812 -32.0863
-13.16531 39.19415 -31.16587
-14.27646 36.21859 -27.28208
-12.88026 38.52375 -26.73729
-13.53238 40.5915 -26.31124
-17.30068 43.76783 -32.33277
-13.33118 44.51285 -25.72206
37.85903 71.59167 -7.813752
35.93436 70.54648 -11.11331
11.0711 77.34261 26.17686
9.808085 74.10884 23.74376
24.56842 96.29032 14.41509
29.65897 93.591 6.046825
32.85727 87.78828 4.318237
30.49748 91.38527 2.086793
30.9789 89.77074 0.5740637
30.48333 88.83688 -2.159226
1.317084 60.5809 26.12655
4.178923 66.70251 29.36758
0.7951921 65.95184 22.94129
0.6338121 66.69727 21.96351
4.079996 65.06045 29.75132
7.710434 71.74416 -23.80159
8.946129 67.83361 -25.60478
21.01801 73.08463 -7.944202
21.72093 68.13284 -8.92936
20.11935 61.58709 -10.21812
-7.043908 71.50226 -20.06643
-7.663661 68.62224 -21.98665
3.139688 75.25511 -16.9874
-18.78253 77.91902 -18.08253
-11.58443 73.98801 -20.96804
-17.71988 97.23019 -3.410594
-14.74067 82.71088 -11.41375
-15.23754 79.72868 -10.38883
-9.390445 73.95303 16.10435
-6.975019 69.99792 14.00014
-5.039051 70.78097 12.1471
-9.501904 76.559 15.20508
-6.694728 64.02341 13.93351
-9.155412 74.62041 14.37853
-10.09712 74.75774 16.74
-8.786322 65.21182 13.76919
-2.613693 69.37952 31.87976
0.2691916 71.71083 18.81861
-1.939187 71.93401 12.31267
50.2588 53.71918 -4.876701
50.51606 55.09557 -1.836535
-19.35027 85.09296 -12.5733
-20.55923 63.98965 -11.20005
-13.35624 47.48769 -25.6501
-17.15355 50.42103 -30.59925
-16.04163 55.04276 -28.89718
5.995283 23.73545 -34.82825
4.992569 43.47498 -22.77904
-37.96686 67.0908 20.95233
-10.29465 66.73619 17.19782
-11.08214 63.55241 23.74037
-1.130446 29.99308 -46.21335
4.590319 30.3555 -41.34225
25.71436 53.67735 -26.22436
22.76895 48.86837 -31.57539
7.541859 81.35805 13.13982
7.327802 72.69544 12.25646
7.755822 74.54491 13.28948
3.421084 91.62691 21.96498
7.041937 81.68841 24.90405
8.592107 74.97237 25.65491
4.28656 73.26082 27.54198
1.336212 76.76696 23.65104
1.411441 66.80497 25.8459
2.399456 68.54134 27.49749
0.1971269 71.39341 16.64804
9.907979 65.65856 17.24303
8.737188 68.71525 14.55077
7.71202 59.97124 11.99679
9.569949 63.88577 10.22631
8.63535 67.94382 10.01492
10.38103 65.55202 13.38511
10.24445 67.74839 11.96458
10.25866 66.83076 14.87113
10.25308 66.59091 16.56154
10.10645 70.25766 17.49664
38.63225 72.90987 -5.038239
-11.06084 37.3035 -42.48502
-13.42969 36.23182 -40.75517
-13.88034 40.91742 -33.62618
-13.12178 40.99157 -31.2545
35.89837 82.61221 6.092257
10.05225 74.90565 11.29264
31.90036 87.78439 -0.1178028
14.09723 74.10583 -23.7949
21.26066 76.40783 -18.49302
22.07275 75.87893 -17.10872
19.52333 85.59073 -5.390147
20.08968 84.19928 -6.10564
21.18158 83.76524 -9.212409
33.77966 73.52289 -11.32493
20.6875 61.13607 -11.58544
23.06936 66.92375 -14.22453
23.83701 68.54231 -16.75706
15.35927 70.18731 -25.15406
23.17743 69.03168 -20.05847
21.17028 70.12752 -12.0253
22.97216 62.44919 -24.53826
20.67663 74.93867 -11.63748
22.31145 75.74363 -15.8856
19.16077 71.8392 -8.226878
22.61335 76.17552 -11.76568
22.34243 78.5596 -11.37644
20.58678 86.06348 -7.710932
19.97454 88.88105 -6.130838
20.16927 93.82392 -8.249188
21.33726 95.86643 -8.328072
-5.206785 81.84538 -23.67121
-8.297753 64.09715 -23.14775
5.386773 75.61897 -21.41126
2.039646 77.83294 -25.11867
2.401324 73.9723 -12.27192
5.224211 67.0318 -20.14988
-13.95632 72.77961 -22.93254
-17.13825 72.32414 -23.27466
-17.22906 66.88541 -25.29318
-18.40139 59.56459 -27.86169
-13.69234 69.57395 -23.70559
-19.1572 76.73935 -17.97432
-20.32874 69.48158 -22.06513
-9.573195 66.81007 -19.83662
-8.004009 79.17238 14.57012
-9.664106 88.83896 15.51416
-2.066564 67.31905 12.78903
0.6296061 76.91616 20.0666
-43.46004 66.59083 3.111902
-42.14265 66.33408 -6.410223
-19.65942 83.58773 -7.004915
-18.40592 81.82184 -11.1478
-21.78635 90.69587 -11.97811
-24.87313 88.78445 -11.83765
-23.67464 90.44236 -11.61173
-28.34329 62.71976 -21.48449
-20.60947 64.38126 -10.7044
-11.44843 44.77664 -28.24257
-12.36284 47.06696 -24.77691
-11.61883 51.39029 -29.90689
5.099495 41.22869 -22.0256
-19.93014 74.35439 28.54923
-44.05213 61.36479 15.92008
-41.83 67.45462 12.49899
5.394207 25.65737 -41.11461
21.32031 53.57061 -30.23665
19.80532 55.55904 -30.03514
1.592153 80.79372 23.24034
9.986763 72.89581 15.51449
10.00716 72.08118 19.52942
10.22052 67.95892 24.02915
-11.30565 35.5452 -43.21324
-8.827138 35.36495 -44.57083
-12.15258 46.40615 -29.99422
9.662608 78.13975 18.158
25.99563 92.34087 -6.632886
26.69678 79.75294 -12.54898
28.82362 82.65867 -10.33316
30.11623 86.99172 -5.258162
35.16117 79.3363 -4.238878
33.10004 82.80993 -4.227211
29.77842 81.33347 -10.28123
34.37991 75.89214 -9.020822
35.04261 83.79248 3.617304
9.301693 65.24706 -26.54411
4.629617 63.97218 -18.77318
4.163416 61.76796 -17.52878
15.13555 60.20228 -29.21804
20.23956 77.27287 -6.909476
25.80739 59.2878 -18.58945
18.29619 74.37418 -22.15793
21.08898 73.63741 -20.41702
23.72049 64.58606 -22.2602
21.27237 67.36599 -23.60925
21.08949 69.41869 -22.70051
15.50286 72.29366 -24.22022
21.58591 70.25924 -8.900069
25.51872 87.1283 -10.33472
26.85925 91.83573 -5.297572
26.13462 92.99073 -5.061699
21.2765 93.20081 -9.015441
20.62182 66.09605 -11.50092
-8.110748 70.93198 -25.39802
-8.380949 66.67574 -28.44211
2.55442 73.82094 -26.53845
-0.486 77.69713 -26.16599
3.72424 69.90328 -15.04993
0.5935313 67.44814 -13.63151
-20.63134 69.05736 -17.03299
-17.9819 78.13011 -6.01718
0.2150408 73.42809 17.00741
-16.0803 85.71304 -8.098411
-20.47108 82.40807 -4.961988
-26.42549 87.32574 -11.67852
-28.77502 86.47668 -9.986545
-29.06564 88.72282 -5.65625
-22.44361 98.98349 -2.751004
-20.47161 61.63886 -5.104419
-20.71541 61.57436 -14.61249
-21.02034 67.88419 -17.57345
-19.30624 71.02509 -14.77465
-22.33907 56.46362 -16.61088
-19.4306 66.74126 -24.56865
6.002448 26.85051 -29.95692
1.329523 40.69567 -16.27509
4.05987 41.81847 -17.62358
5.881537 44.93823 -25.33632
6.100898 41.45002 -26.81385
-39.6599 67.14195 18.21586
-42.57121 67.26424 9.77623
-42.08717 68.46333 8.817275
-30.88405 75.20414 22.54653
-36.27354 72.0765 18.80417
-11.00832 65.96101 24.00788
-2.118919 33.12445 -45.35482
5.327031 28.38525 -25.73128
6.081039 24.68962 -33.63658
4.556689 31.33022 -21.72859
19.45275 59.52809 -28.44595
1.124663 79.26231 22.35505
9.802336 75.89085 17.37025
37.30606 78.29285 -0.2406953
38.43206 77.80991 3.512089
3.850081 64.60065 -16.13148
17.9242 57.29633 -29.9422
15.01916 64.33468 -27.61889
9.717792 63.39174 -27.30743
11.51942 54.45414 -30.69588
13.54733 50.66251 -32.49389
9.379663 47.39814 -31.47701
5.84473 42.52546 -25.44847
8.564139 55.51192 -28.69563
25.79662 90.24537 -8.662853
-1.883627 73.60794 -28.17554
-1.983059 72.94836 -28.4837
-5.24591 68.02322 -30.417
3.79894 67.6833 -18.29183
4.839199 64.33762 -20.44357
4.379974 67.82877 -19.2221
-19.0017 73.63271 -15.12074
-18.21392 71.15442 -12.79126
-17.76374 69.37782 -7.434342
-18.47004 69.51305 -6.105668
-17.30212 73.2738 -7.161738
-19.7276 79.24759 -8.057027
-20.83639 79.44411 -5.912793
-19.12888 78.20463 -12.55691
-9.956396 86.86312 17.15635
-8.937321 81.22933 13.92955
-26.89918 92.21588 -5.037306
-25.28539 94.47283 -3.246326
-21.67702 66.8747 -7.459005
-18.36532 68.49531 -11.94982
-18.21208 66.70206 -10.33339
1.731279 43.84906 -16.77095
2.645994 41.75124 -14.48549
-24.65375 75.68004 26.3726
-20.27572 78.7189 26.51477
2.583625 28.03243 -44.77909
4.511444 35.8794 -21.30909
4.50166 32.47711 -21.45862
5.307782 33.35221 -25.15479
-11.25923 39.09207 -41.42508
-1.992103 32.85457 -45.41972
-6.895048 43.94605 -41.09645
-5.312063 42.68354 -41.83755
3.148029 64.34384 -13.84716
1.818489 58.80224 -12.92338
6.295402 46.00742 -27.14887
6.373508 48.14581 -27.04325
5.294011 57.44771 -21.34326
5.486803 59.84803 -21.83442
14.84064 66.88792 -26.60547
-4.991959 63.64848 -32.45624
1.005397 61.95206 -13.42617
-8.619017 61.07092 -21.75692
-10.52028 65.79718 -20.79879
-10.93143 56.06071 -22.47874
-10.75463 54.08205 -22.92134
