# .PCD v0.7 - Point Cloud Data file format
VERSION 0.7
FIELDS x y z
SIZE 4 4 4
TYPE F F F
COUNT 1 1 1
WIDTH 1659
HEIGHT 1
VIEWPOINT 0 0 0 1 0 0 0
POINTS 1659
DATA ascii
22.99117 52.75148 -1.265277
20.81599 45.57077 -1.457963
20.57306 59.31462 -0.0294115
1.66884 43.55985 -15.34219
0.6092759 48.58197 -15.52931
1.827545 44.99922 -15.43628
23.29701 68.52704 0.6361049
22.64869 61.63787 -0.4868799
23.12823 69.64178 1.793359
1.960803 62.93269 -14.97591
1.666773 58.25617 -15.35568
2.65823 67.65412 -14.40626
0.4912694 76.61034 -14.24397
23.85144 22.00233 -4.464712
23.19943 28.62038 -2.489774
16.9696 13.48337 -10.54624
3.233525 24.17255 -13.13426
3.666654 29.52975 -13.86576
2.472418 110.2076 -7.603447
14.08654 111.3951 -0.428476
8.109014 121.5741 -6.259314
1.761751 14.24579 -11.55866
2.125189 90.84697 -12.95947
1.756473 95.52708 -12.02644
2.978485 78.21307 -13.49121
2.951768 80.47809 -13.35858
5.205799 126.653 -8.532619
15.82829 106.3936 -0.9704271
8.297035 128.8367 -8.785084
23.51157 47.81267 -4.622722
21.02668 56.55836 -1.23497
23.13758 41.16906 -3.524806
1.404528 39.58651 -15.04022
5.90169 37.69781 -14.65157
2.344471 51.83825 -15.57056
2.925069 56.8295 -15.16571
5.792338 53.66362 -14.08642
23.14207 66.87813 -2.276817
22.52891 70.70575 1.140169
20.69856 74.0384 0.6302513
3.177828 71.84469 -13.82812
23.26123 23.54926 -2.913616
24.10535 28.53163 -4.579034
24.02007 30.09903 -3.925309
23.47247 12.53044 -7.520959
17.98852 13.72893 -10.43673
3.637939 23.30048 -12.98566
14.31277 110.7095 -0.04541718
2.297269 116.904 -6.718369
9.324347 14.53695 -11.35212
15.57062 11.08452 -10.41932
1.010797 84.08809 -13.54428
6.932257 96.23444 -12.54043
5.359449 101.8452 -10.97061
7.181 102.2585 -10.9613
9.19212 103.9069 -9.89207
6.303738 77.29625 -11.49213
21.27147 91.08025 -0.4267397
5.106482 125.862 -8.411275
13.41768 114.5476 2.222672
22.17377 43.54766 -4.618748
21.93514 58.96352 -1.727169
22.70437 40.80915 -6.353449
23.6438 38.24685 -6.268547
4.304759 30.34458 -13.93408
23.17926 69.35687 0.8271577
2.927011 71.9672 -13.94415
23.68343 22.79398 -3.912669
22.89721 14.21837 -4.52262
23.29389 32.0742 -2.163719
19.95544 14.3639 -10.16033
17.9727 19.19613 -11.10571
5.355678 24.9971 -13.13622
15.17976 108.6292 0.2212203
12.80948 114.1357 -1.278594
12.49835 13.29872 -10.97414
6.669965 17.74102 -11.98457
5.272946 99.47082 -11.9243
9.291852 102.1505 -10.53376
3.627461 75.75408 -13.2618
5.309198 126.2178 -8.379291
7.166143 127.895 -8.736682
21.98936 58.50729 -2.278455
22.92896 63.16227 -5.775609
23.25019 57.67663 -4.768955
24.08321 31.62431 -5.991111
22.78415 33.13947 -8.826117
2.091104 33.09278 -14.37131
22.31869 68.52439 -2.134477
21.88012 76.77841 0.2105634
23.65636 23.63902 -7.382854
22.75714 15.21817 -8.096315
15.51091 15.17833 -10.97746
10.14114 15.87206 -11.51053
18.34679 20.64555 -11.12335
6.647428 25.71275 -13.12629
11.62143 117.2305 -0.1256324
7.017778 96.02332 -12.56382
3.281189 83.21337 -13.05467
17.69002 102.0711 1.082428
22.61329 54.67619 -3.350516
23.86655 31.56649 -6.82863
8.024508 40.70134 -14.7195
20.89816 75.55247 -1.013853
22.25062 26.68277 -9.224811
23.88328 24.62946 -5.473876
15.65749 16.94355 -11.21887
17.95585 23.30481 -11.48454
16.45102 20.21659 -11.53434
17.49887 23.36326 -11.61726
6.30165 16.36817 -11.78515
12.04118 17.18733 -11.58063
13.09375 113.5218 -0.03594838
4.965867 16.94359 -11.93172
7.016875 77.74917 -11.30878
18.361 90.6376 -4.738392
20.99335 85.79123 -4.711418
9.62939 124.9029 -5.755229
6.400079 125.2395 -7.648566
7.260285 122.3403 -6.180801
22.91989 65.1608 -4.660622
19.71297 64.08909 -8.254615
5.219039 49.60028 -15.02935
23.84665 25.4513 -7.144312
23.09806 21.76061 -8.052187
22.37926 22.83978 -8.953884
22.77571 27.51302 -8.704214
23.09086 18.60381 -6.803054
18.38472 22.46351 -11.27332
22.59932 18.32124 -7.801156
5.97829 18.2834 -12.10349
9.81397 79.26317 -11.5892
21.73615 87.15897 -2.954493
13.10901 126.7454 -1.242198
4.709521 36.45962 -14.62173
21.63345 85.39307 -3.559558
17.70424 26.08894 -11.78547
20.37505 21.47124 -10.32844
22.32934 22.7251 -9.001287
6.466134 92.12437 -12.76733
21.0349 86.95531 -4.485308
22.25944 84.92768 -1.001294
8.858188 123.9822 -5.945114
12.77125 126.2984 -1.855305
12.06121 127.9076 -5.141306
5.899739 38.43661 -14.73496
5.947765 52.14022 -14.21366
22.87947 20.97815 -8.282066
8.502993 19.63226 -12.1549
18.66499 90.76092 -4.388085
5.057292 123.3915 -7.292203
13.59822 128.4523 -1.064657
9.776479 39.34625 -14.22723
21.04663 29.89987 -10.49358
4.388493 91.68546 -12.68929
9.896842 86.79923 -12.48052
9.187965 121.8837 -5.485209
22.91704 59.2383 -5.477469
7.405978 38.96582 -14.61592
7.523614 58.32043 -12.20413
5.560968 92.31024 -12.75587
23.76124 54.7011 -6.025026
21.09432 62.57297 -7.347804
7.938253 50.65807 -13.05086
19.6052 31.58234 -11.50842
5.236092 74.02515 -12.1903
18.38507 86.27573 -8.072063
18.69288 65.67757 -9.026657
5.576977 49.18308 -14.91101
10.06351 78.03635 -11.4337
20.35932 66.19643 -8.103004
22.15937 66.32916 -5.433742
5.761931 62.51447 -12.97179
10.43169 77.31383 -11.38084
17.90638 61.59143 -7.798716
3.811402 49.98434 -15.44108
11.36053 78.11302 -11.6713
15.34731 63.79403 -9.005079
7.234834 83.58876 -11.82103
12.24203 82.45897 -12.12216
16.63296 64.21487 -8.997987
3.742881 66.55678 -13.94112
5.490232 84.99116 -12.06711
5.616532 91.6159 -12.67113
5.208355 86.96245 -12.2323
8.894093 87.05177 -12.49234
10.66507 84.95951 -12.35564
5.85569 131.069 -10.52454
17.7111 97.28417 0.2950718
17.5903 96.90846 -2.386884
19.00337 95.73161 -3.145145
20.64796 92.26315 -0.3873993
10.99714 116.6954 -1.565927
10.8544 117.6617 -1.574976
10.6308 117.0361 -2.018682
9.636476 121.1492 -3.724395
8.434762 121.3972 -5.886125
6.665843 119.4853 -5.990827
6.587631 118.1763 -5.015771
10.3771 123.6899 -4.211308
5.695539 121.4526 -6.693097
5.17517 118.7946 -6.205764
4.470212 121.5203 -6.991826
3.310841 107.3952 -8.424666
22.10716 86.75037 -1.068071
12.2451 128.7524 -5.560375
13.52564 131.7516 -5.903945
22.44756 48.36909 -6.193599
21.66351 45.86212 -8.445879
23.07097 44.8804 -5.99543
20.66153 46.05645 -10.71617
19.48277 48.17676 -11.0672
20.45239 43.61625 -11.38036
19.76702 41.28208 -11.65926
3.947681 45.88163 -15.50334
3.824157 68.20145 -13.74238
3.407012 105.6444 -9.070929
4.328066 108.9474 -8.323246
4.534903 36.24986 -14.61284
3.859101 46.87315 -15.5249
12.46636 12.06562 -10.79817
4.149713 87.23126 -12.56414
20.91704 70.29984 -2.15393
19.66744 72.69112 -3.097835
19.8071 70.76574 -4.245686
19.73211 71.87288 -3.131862
21.95477 78.30757 -2.125884
20.68044 72.43832 0.09226733
20.03787 74.49512 -2.431401
20.57597 76.72201 -4.079155
19.25963 74.78257 -5.408
19.9344 82.68294 -6.624565
21.77381 78.65118 -2.990424
20.51103 81.13264 -5.964847
20.55831 81.83876 -5.833722
12.91436 15.46813 -11.26872
7.677665 107.8973 -7.326368
6.996052 106.6498 -8.111952
7.728483 105.6416 -9.409441
7.064179 109.3301 -6.86835
8.405714 108.4123 -7.379162
9.169631 108.8609 -7.343247
11.36045 104.0172 -7.906042
11.15236 106.1056 -7.823066
9.736808 104.4223 -9.183004
8.918093 115.736 -3.813856
8.122649 114.7976 -5.288757
9.903163 114.3402 -4.430761
8.536501 112.2942 -5.608392
19.76705 91.66847 -2.187506
5.504878 28.25293 -13.56868
6.916072 19.92096 -12.3016
12.53503 108.0075 -5.42304
14.93494 107.8764 -1.973805
9.455023 51.86053 -12.04303
9.156029 57.57328 -11.19975
6.39534 62.77296 -12.45632
6.822955 62.78435 -12.1235
7.299106 66.34624 -11.27423
11.4607 59.71313 -9.479407
14.45351 24.37932 -12.15806
10.92668 122.3678 -3.503626
11.68229 122.4641 -2.22441
7.376177 94.80872 -12.67034
22.53139 51.07917 -7.557824
18.50827 58.59864 -6.839108
17.42386 55.7106 -7.991121
20.35098 50.24269 -10.20375
18.58731 47.29484 -11.52645
22.33741 50.53889 -7.726899
22.55176 50.05952 -6.33558
15.71456 54.89981 -8.834579
19.87048 54.52158 -8.288337
23.73232 54.09239 -5.779045
18.21461 49.07141 -11.00285
23.67801 52.41953 -3.905364
14.21895 54.02235 -9.663048
12.77774 53.94785 -10.18342
17.71106 60.62799 -7.457191
10.45741 56.96689 -10.53407
14.93358 52.3903 -10.07289
10.95435 55.77216 -10.4875
14.15713 57.08625 -8.727791
4.938082 72.2875 -12.54657
8.408429 74.6901 -10.86279
8.347811 72.92013 -10.70853
9.673305 69.23564 -10.16596
11.67914 68.19292 -9.932554
17.79661 69.06345 -10.09132
15.57472 62.34035 -8.511228
12.8037 61.02707 -8.679406
14.7724 67.67286 -10.00059
15.27511 65.68583 -9.521413
12.25787 83.85898 -12.12175
18.88371 94.79917 -3.121765
16.53736 95.69009 -7.376674
16.72714 95.99436 -7.12837
14.44289 94.22264 -9.515266
16.12331 98.42262 -7.323459
15.7143 99.6692 -7.199649
18.29254 93.72343 -3.495595
16.81721 101.1412 -2.147872
12.72559 113.0692 -2.357232
11.50903 113.836 -3.038365
10.95762 111.3186 -4.477573
5.100405 114.125 -6.716702
22.77917 40.8533 -5.908635
21.01858 42.66489 -11.05148
23.18821 39.01751 -7.818279
22.36065 40.04295 -10.08613
16.03952 44.22028 -12.68817
19.78656 38.62027 -11.62207
17.58988 38.58294 -12.29547
16.69566 37.86453 -12.46848
11.15954 39.63254 -13.93156
13.04865 41.00864 -13.54342
9.912645 37.71725 -14.02102
9.691211 36.18895 -13.89835
9.893338 40.42545 -14.31477
8.998958 38.26725 -14.26717
17.87908 35.30751 -12.16089
9.874196 26.42278 -12.83165
7.058087 40.73046 -14.85845
17.52988 36.25724 -12.2507
17.58117 43.48028 -12.33504
10.93136 42.58621 -14.16171
15.53819 42.19773 -12.89667
17.10002 45.70539 -12.22649
14.21523 31.55995 -12.61716
11.76465 41.63424 -13.91835
6.091952 43.13039 -15.20769
15.00035 30.565 -12.46786
11.28319 45.06022 -13.73022
7.939419 46.92574 -13.97312
11.23117 46.7756 -13.25238
4.147132 68.61346 -13.48977
3.314444 88.86492 -12.87358
19.38132 67.06399 -8.942936
20.03285 68.51331 -8.144376
18.10834 72.313 -8.042923
18.37207 67.42548 -9.549627
16.92376 71.53373 -10.82225
13.96929 70.02937 -10.47122
9.860868 66.78605 -9.912771
7.086524 68.96378 -11.1704
13.02594 68.77801 -10.13762
9.273757 65.26749 -10.08346
12.53973 65.52935 -9.466554
10.34384 65.93957 -9.734072
13.30622 73.62644 -11.13273
18.34296 82.5358 -8.519699
18.2458 80.673 -8.859776
18.4938 86.87541 -7.89668
17.14294 78.63079 -10.15351
14.21132 77.13344 -11.6374
17.80995 76.37618 -10.01847
15.87834 74.6912 -11.28831
18.98801 78.29739 -8.40783
14.34802 85.71444 -11.15091
19.79408 87.41908 -6.208421
15.62931 80.73499 -10.93534
16.42437 83.6841 -10.02507
14.97613 87.62677 -10.70822
10.09673 87.07288 -12.4741
10.68167 74.36878 -10.90782
14.63028 75.8788 -11.50415
12.38598 74.47112 -11.17386
13.73586 89.85433 -11.3458
7.762325 89.7358 -12.65493
15.12261 93.95462 -8.905245
14.24257 90.75447 -10.61856
12.32089 94.51986 -11.14549
17.10916 91.57307 -6.12187
14.475 92.21547 -9.298047
9.033384 96.51805 -11.99794
17.19844 89.39482 -8.29585
9.475183 100.3395 -10.85614
16.71727 90.03952 -7.425626
11.3027 96.27374 -10.99447
10.99925 98.22923 -10.5752
11.81358 98.85117 -9.898074
13.16148 99.79474 -8.965145
11.95508 103.0914 -7.792906
13.28052 101.6202 -7.766782
14.01516 101.5608 -6.348038
17.27861 100.2787 -3.341603
15.04831 21.74741 -11.87305
12.72972 26.05838 -12.45458
7.908134 22.14244 -12.53992
11.20708 24.7717 -12.50855
10.94904 22.66301 -12.32419
9.034266 19.44535 -12.09166
7.4751 22.17845 -12.58093
11.91147 28.54992 -12.7404
12.21232 29.491 -12.76879
11.83613 32.80331 -13.09753
6.699046 28.97125 -13.54405
14.54663 27.12659 -12.33742
8.280371 31.99531 -13.68797
11.60961 28.88336 -12.80898
14.08025 106.1615 -4.946434
12.64236 53.05804 -10.52856
22.13256 33.64757 -9.729849
23.85831 35.72515 -6.638084
16.48697 47.92395 -11.77675
13.32805 48.39778 -12.29265
14.33654 46.28799 -12.76193
23.3488 37.33715 -8.099454
19.83089 38.19159 -11.60236
17.71389 35.46095 -12.19476
5.89777 33.24488 -14.14867
17.57214 34.15005 -12.20082
11.35882 49.16974 -12.39445
8.220666 49.76934 -13.10021
4.651412 33.12564 -14.24676
20.16749 85.67624 -5.946535
10.27317 51.55158 -11.80327
7.236162 92.73846 -12.77253
0.06996282 13.48865 -11.44795
-14.61893 133.0007 1.542746
-13.31513 124.5015 1.412547
-0.3463207 50.48885 -15.37916
-8.610797 133.9847 -11.00934
-19.05079 99.99809 0.7762344
-0.2026999 84.6566 -12.34567
0.05994786 76.84418 -14.18269
0.7465429 111.3594 -7.907275
-14.87394 135.4341 1.680539
0.6091815 119.4604 -7.664296
-7.502084 133.7986 -11.25037
-1.75897 21.33617 -12.73215
-22.4277 11.32915 -2.635721
-24.37749 20.36755 -4.107624
-12.97778 123.6819 -0.02316562
-13.70238 127.1387 1.376107
-23.43676 76.35176 -1.125495
-1.742347 130.8758 -10.43899
-12.7483 122.6687 1.168072
-14.17545 130.3279 1.582973
-14.89675 135.7961 0.5337671
-20.62356 95.09087 -0.1530812
-14.78178 134.0736 -2.84851
-19.26769 97.06907 1.048193
-14.44137 132.6838 -1.164544
-18.50537 100.3486 -2.19916
-16.56532 101.6722 -1.705842
-16.95469 103.5539 -0.2693796
-8.710567 34.73798 -13.49529
-14.0608 105.2401 -4.244225
-13.63389 133.8118 -7.581079
-14.36611 132.7561 -4.40241
-13.30629 130.1438 -4.614157
-21.78446 88.54039 -3.580834
-14.19301 134.2167 -6.999029
-12.25832 123.1116 -1.292689
-17.70608 96.53423 -2.210273
-18.14532 95.38449 -1.412741
-8.071844 129.7324 -9.320608
-10.5363 127.8971 -6.91316
-17.34626 102.5646 0.1398815
-2.192893 7.9697 -10.72042
-6.903703 53.92892 -13.04664
-15.57295 106.6628 -0.1495931
0.9083675 127.1436 -9.238568
-14.37418 131.5355 -1.309769
-13.63579 133.3724 -7.211226
-18.04596 98.10159 -2.687815
-9.205232 128.3111 -8.055656
-16.92359 102.1983 -1.210792
-1.981544 10.14554 -10.9496
-0.1942038 29.52846 -13.94759
-24.3505 39.23803 -1.792368
-24.87688 58.58031 -3.854057
-15.04405 109.1569 0.765281
-23.84106 13.99827 -3.920815
0.135266 128.7977 -9.575126
-0.08561704 94.08495 -11.0358
-11.7791 130.7343 -7.614532
-11.73537 117.9687 -1.982535
-14.09869 133.5139 -6.517393
-17.77202 98.86217 -4.453003
-8.014175 126.2738 -7.506192
-16.57821 105.0078 -0.5808268
-16.1549 103.3348 -2.976175
-1.273339 24.21238 -13.18093
-10.12685 9.229239 -10.60512
-15.70651 9.851866 -10.31244
-2.022629 31.62262 -14.07751
-23.33273 66.74515 -4.689178
-24.17764 79.68052 -2.11029
-0.1209691 115.0881 -7.462193
-1.491519 118.512 -7.827974
-23.70672 19.93969 -2.804316
-22.89641 11.83359 -8.043662
-21.33169 10.46599 -9.047602
-24.06891 14.99155 -4.407329
-2.704253 128.1874 -9.367803
-1.367231 124.9204 -8.577291
0.4899534 90.22289 -12.44448
-12.83174 126.1164 -1.507468
-12.66963 126.5373 -2.385622
-11.21312 120.1167 -1.050691
-18.21044 93.16161 -3.867309
-14.27258 106.8557 -2.977938
-14.13445 106.0436 -3.65133
-6.623377 10.97282 -10.95034
-0.3222312 18.15915 -12.23436
-7.162631 9.076553 -10.7122
-11.91095 10.26093 -10.61743
-24.66912 29.11006 -4.276509
-24.37344 24.67626 -4.548604
-24.22986 37.98503 -1.949875
-0.6340023 48.01476 -15.23902
-24.28657 48.37515 -2.46723
-23.70864 43.48273 -6.722932
-24.53882 58.22491 -1.727714
-21.22852 69.18195 -2.383279
-0.5583094 62.21233 -15.04187
-24.19601 79.74672 -1.554737
-21.68752 70.96468 -2.508127
-13.94026 111.1869 0.8785737
-2.271366 106.3584 -8.723962
0.6840912 114.6253 -7.3668
-19.9075 10.81842 -9.685461
-21.30349 14.80923 -9.379628
-2.37452 126.5974 -8.834161
-1.226805 96.49249 -11.76102
0.240059 99.18073 -10.97168
-22.68378 87.60674 -1.544211
-12.08136 125.5247 -2.850713
-2.851545 126.6099 -8.823086
-12.20432 126.2958 -3.31571
-7.159593 9.378105 -10.74432
-2.289009 26.3405 -13.44191
-2.986274 27.28013 -13.51858
-8.078724 12.60796 -11.12597
-14.02827 10.35101 -10.48691
-24.54797 24.20903 -5.664842
-24.54981 40.87857 -2.052573
-3.235985 32.46119 -13.98933
-0.972634 52.32925 -15.19853
-24.41763 37.29303 -5.985854
-24.59496 46.05875 -6.059479
-24.63725 59.98953 -2.183904
-22.00965 68.0773 -3.51441
-1.103227 77.3652 -12.83965
-0.2473445 60.94277 -15.26523
-23.74083 80.94101 -2.921945
-23.05141 77.82938 -3.862748
0.02023854 87.09637 -12.06625
-0.4911537 80.6087 -12.95665
-0.03436516 113.1388 -7.037956
-1.715706 109.2319 -8.168549
-4.276033 119.7543 -6.160574
-2.701782 119.7267 -6.696304
-12.47052 112.9431 -2.276289
-21.60352 14.06213 -9.182326
-2.033929 124.2509 -7.901317
-1.894572 100.3241 -11.75948
-1.995275 94.21271 -12.11197
-21.64206 88.71585 -0.4868322
-6.879871 130.9687 -10.28167
-20.88638 92.61772 -3.848577
-9.235928 124.8618 -6.032103
-3.983259 22.70198 -12.85071
-5.423498 21.43151 -12.58919
-6.655354 10.68688 -10.91164
-24.65409 29.63426 -4.401772
-24.52009 35.0725 -5.98673
-24.42168 35.23451 -4.240318
-3.915699 33.81531 -13.93423
-1.978005 52.98902 -14.81702
-24.42353 47.13859 -5.789192
-24.39275 45.09058 -6.502283
-24.538 54.93568 -2.632307
-1.070896 75.01563 -13.27789
-2.871106 58.13619 -14.23253
-22.79723 72.77319 -3.196736
-0.9017689 81.9305 -12.1924
-3.610605 113.8943 -6.255996
-13.11603 112.6571 -0.133004
-24.31018 17.37142 -5.455166
-21.96591 15.55505 -9.066983
-4.757606 125.3859 -8.083459
-2.82654 87.18716 -11.28749
-22.54282 84.20792 -4.575598
-21.4313 89.31641 -5.954034
-17.67498 91.60716 -6.371736
-0.04268065 30.73823 -14.10305
-15.42344 14.3283 -10.7616
-24.26656 36.97053 -5.200606
-23.66446 41.04169 -6.492497
-2.02897 46.21034 -14.72444
-3.92672 52.92544 -14.18166
-23.98737 49.38848 -3.014813
-1.960049 71.8112 -12.93978
-1.470868 75.91754 -12.70029
-2.721057 56.6853 -14.40977
-21.64197 76.69653 -6.334479
-0.9057899 80.87787 -12.39282
-2.975278 111.575 -7.459039
-23.23809 19.30209 -8.21229
-17.68006 93.33047 -4.495199
-2.320205 13.84708 -11.49029
-19.01328 11.74427 -9.947486
-18.8374 14.87313 -10.18513
-16.25503 11.62264 -10.39287
-3.579411 40.4856 -14.16802
-5.227434 39.48109 -13.82303
-5.468955 42.70663 -13.89291
-1.934949 46.02514 -14.75368
-4.688077 45.27235 -14.03234
-3.675811 46.65569 -14.248
-6.995665 53.52892 -13.07374
-2.55231 75.28507 -11.83581
-23.12511 82.03421 -3.686293
-14.04449 109.6534 -2.738916
-1.803215 90.62328 -11.45909
-17.43838 92.85168 -5.168893
-6.146675 15.56033 -11.67107
-16.67319 15.92855 -10.71445
-19.72322 13.69478 -9.86708
-7.408826 38.99561 -13.72267
-9.819186 40.6139 -13.58563
-3.638537 36.6656 -14.07241
-9.503412 41.50823 -13.58835
-7.429389 51.62973 -13.18908
-23.08739 44.75884 -9.180813
-1.589385 74.88916 -12.76022
-3.019643 77.92396 -11.19299
-2.729332 83.27684 -10.98029
-6.457676 85.26006 -12.49948
-1.506322 82.13101 -11.56961
-12.40319 97.03674 -9.924429
-24.53484 25.47994 -6.212032
-4.462865 32.86357 -13.79527
-4.69217 33.20634 -13.76393
-5.799927 43.8163 -13.89954
-4.079912 51.55812 -14.17383
-22.85312 37.67445 -9.378839
-22.72577 45.85409 -10.26606
-22.70839 74.98726 -6.736023
-4.770949 82.93385 -11.32051
-12.11042 111.8818 -3.338264
-7.820349 26.89737 -13.02032
-7.181518 32.08944 -13.40108
-6.121841 14.51071 -11.50316
-7.070189 42.0162 -13.82287
-24.84037 59.5059 -4.290493
-5.000719 78.98483 -10.92895
-21.33927 80.77202 -5.286007
-3.155182 82.6572 -10.94634
-24.46758 23.17031 -6.266689
-21.96644 46.92455 -10.40386
-3.174098 74.25294 -11.57808
-21.08558 77.42979 -6.354212
-12.22579 45.17015 -11.80156
-13.11483 46.33809 -11.24242
-23.64441 57.44898 -6.46091
-23.02284 76.71342 -4.510985
-23.78286 74.90032 -4.704702
-11.67358 43.41725 -12.4435
-24.82057 59.7976 -4.283413
-3.672014 73.14953 -11.45911
-9.004099 50.74256 -12.45646
-19.82805 50.01982 -9.74396
-23.48265 60.14185 -6.755892
-21.65405 76.10833 -6.880466
-19.13952 77.32928 -8.693719
-8.379821 54.63584 -11.99311
-19.95426 80.41055 -6.723845
-23.80563 65.4776 -3.790678
-24.20253 65.14771 -5.273674
-22.42947 73.1265 -8.404779
-16.38223 82.62762 -10.69957
-19.08494 83.45374 -7.849508
-17.90138 84.71279 -9.138075
-21.98057 87.87587 -5.49223
-20.83902 88.0351 -6.652424
-17.64402 87.98102 -9.629569
-16.55213 83.099 -10.5149
-2.094838 12.4582 -11.27023
-1.199876 105.6927 -10.39772
-3.762312 108.5934 -7.500659
-9.946758 121.9165 -3.836143
-8.769681 120.5021 -4.206929
-7.681343 122.8344 -5.947424
-8.756885 123.0641 -5.448529
-7.052566 122.5427 -6.491432
-5.462747 120.2508 -5.94423
-10.01547 118.7612 -2.826543
-11.06352 118.353 -2.849159
-10.59944 118.4798 -3.049133
-3.755897 118.2591 -7.649476
-3.797255 117.3081 -7.104443
-5.589814 117.3029 -5.561687
-6.408026 117.5655 -5.948083
-9.594378 117.4844 -3.110265
-8.059129 117.0265 -4.191385
-11.55127 114.7331 -2.74234
-10.27354 116.9087 -2.49267
-7.80071 115.4926 -5.476659
-4.332112 113.4648 -5.676308
-6.705181 112.5747 -5.938898
-5.640596 111.6446 -6.974106
-12.33343 110.0537 -3.838474
-7.548992 109.5475 -6.889429
-10.27212 110.8823 -5.040895
-8.840751 110.4874 -5.691656
-9.125924 107.5923 -8.033509
-2.166899 108.5388 -7.955717
-1.785689 107.9696 -7.924147
-2.754236 63.94159 -13.58199
-3.44773 100.3482 -11.65414
-3.589725 102.5782 -10.3874
-4.788491 100.4637 -11.58117
-6.921679 100.4401 -11.43257
-6.656804 98.85773 -12.00539
-7.582484 92.18967 -13.03158
-4.521397 98.42466 -12.26849
-16.17085 91.62507 -7.497737
-4.746817 95.86766 -12.70046
-7.158279 90.31798 -12.99963
-5.832183 24.4262 -12.9533
-8.255152 24.64599 -12.76108
-7.494647 19.82679 -12.22995
-12.03337 21.07999 -11.97458
-24.60889 30.32656 -5.957599
-24.07362 35.66893 -7.57264
-22.69214 35.21178 -9.610662
-24.29597 53.33375 -6.044502
-24.38764 53.88943 -3.805684
-2.806501 68.93079 -12.761
-5.022168 68.68494 -11.36756
-6.831776 68.77628 -10.67436
-9.707773 65.90762 -10.40555
-8.177475 69.83173 -10.55828
-8.629159 74.24226 -11.18879
-6.651144 73.66785 -10.70791
-9.001893 69.8595 -10.65153
-8.692986 75.75684 -11.49407
-7.321947 76.71278 -11.14164
-10.66544 74.07683 -11.97013
-5.789663 81.02811 -11.34382
-4.559561 80.29952 -10.96473
-12.65287 77.50857 -12.97333
-11.99574 85.47375 -12.93033
-13.19389 81.18208 -13.09581
-13.92529 80.20393 -13.01402
-15.51424 75.7289 -12.71082
-16.29469 80.2743 -10.88363
-15.50577 78.37077 -12.5645
-12.70969 72.59838 -12.39095
-17.25447 77.95287 -10.65131
-13.72293 69.39666 -12.17121
-13.42067 71.71876 -12.43761
-14.03672 71.529 -12.51162
-17.25101 72.43506 -12.12348
-15.10077 70.11526 -12.44366
-15.94644 70.60017 -12.40508
-19.58844 73.78468 -10.5956
-22.89731 71.85914 -8.535702
-23.1531 72.31053 -7.48289
-18.06462 68.69209 -11.84446
-22.37658 71.50112 -5.648833
-23.65542 19.66911 -7.658906
-24.1328 21.4189 -6.890535
-22.19107 19.90708 -9.203791
-20.98 18.62993 -9.830816
-11.08671 14.30007 -11.19447
-8.343131 13.58797 -11.25987
-11.17092 16.61512 -11.50505
-14.58485 16.20135 -11.08555
-5.466677 50.25475 -13.93908
-6.743846 47.1778 -13.83217
-9.462723 56.27407 -11.07456
-5.254324 59.09909 -12.96767
-8.773419 55.14902 -11.64909
-6.971934 67.19559 -10.7275
-8.558966 59.19008 -11.02084
-7.772923 64.27477 -10.71538
-5.446436 85.78536 -12.1727
-24.25679 25.95726 -7.006944
-22.78619 26.14343 -9.106422
-23.18924 24.15959 -8.592482
-19.04705 47.73902 -10.322
-15.21473 49.3763 -10.35455
-18.69287 44.9128 -11.06237
-16.16064 45.29503 -10.95377
-12.79931 50.38882 -10.71282
-12.68183 51.77837 -10.55696
-15.96687 52.67914 -9.880652
-19.13199 52.24065 -9.89163
-10.19902 57.59359 -10.59157
-15.0649 52.54744 -9.986406
-14.30234 54.63226 -9.960373
-12.89508 58.92065 -10.11152
-11.39076 60.77235 -10.18295
-11.12169 63.53351 -10.35504
-9.303211 63.78098 -10.36294
-12.78797 52.34768 -10.45659
-11.62986 66.69904 -10.90381
-13.77281 58.77033 -10.19422
-15.17657 64.79594 -11.81112
-14.19992 58.52417 -10.22031
-15.00602 57.3579 -10.19672
-14.39997 59.96027 -10.50395
-20.98477 56.93605 -10.39379
-17.94027 57.22518 -10.95504
-18.83914 56.70335 -11.0694
-17.09145 57.26413 -10.70295
-16.58574 62.51735 -11.76511
-17.5816 66.37131 -11.97535
-16.05861 67.72982 -12.2496
-19.25123 67.22166 -11.39277
-20.54557 68.5481 -10.59066
-23.31014 67.59913 -8.0852
-18.898 60.56186 -11.64738
-18.54897 57.12148 -11.10271
-18.87447 70.26575 -11.45598
-17.8734 59.11268 -11.41586
-20.4363 61.4848 -10.67211
-23.60494 65.38405 -7.358943
-22.08898 61.34968 -8.764791
-22.31304 57.70333 -8.131383
-11.18644 39.27496 -13.32613
-21.49793 85.19268 -5.769249
-2.819028 11.28149 -11.08472
-10.67428 115.4401 -2.489096
-3.751992 109.1739 -7.626755
-11.16593 107.4964 -7.053996
-10.71963 105.9903 -7.319649
-11.95103 106.052 -6.214211
-15.01155 104.1204 -5.707054
-12.58598 105.9558 -5.731064
-17.39668 97.96642 -5.48003
-13.75722 101.595 -8.461594
-13.89768 99.12625 -8.18388
-12.445 107.4766 -5.73256
-14.64318 95.29537 -8.753643
-7.997456 96.50121 -12.4262
-15.90662 96.61177 -7.349
-10.69451 95.63844 -11.45731
-9.809002 93.23236 -12.61592
-15.78073 94.16628 -7.955558
-9.119735 90.91592 -13.02565
-10.9489 94.83024 -11.46087
-17.42179 90.35056 -9.520441
-17.84878 88.12229 -9.440745
-10.57944 93.00989 -11.91933
-15.12614 91.02511 -9.936385
-13.04617 90.7715 -12.3281
-11.45319 87.44854 -12.86458
-15.83167 85.9265 -11.34087
-9.935744 89.34807 -12.93892
-7.552256 89.37321 -13.01957
-8.201582 87.02259 -13.05529
-15.10419 83.55726 -12.09822
-11.16366 83.68404 -13.11923
-10.08854 85.75557 -13.09562
-8.472558 82.23441 -12.67614
-7.610336 83.48689 -12.60329
-8.153917 84.05709 -12.85572
-6.159887 106.119 -10.0857
-9.410837 106.0254 -8.166739
-12.05248 103.445 -9.134522
-8.906184 104.7903 -9.84902
-9.777713 100.452 -10.87845
-8.088994 30.00973 -13.22291
-9.967033 28.49443 -12.97419
-10.85182 29.15138 -12.9658
-14.54503 26.04633 -12.20845
-12.52743 26.02978 -12.4757
-11.13559 29.89187 -13.01376
-12.1431 25.03524 -12.41172
-12.12601 32.2038 -13.14875
-10.0824 36.01265 -13.56689
-11.07045 35.37064 -13.47766
-15.47722 30.47175 -12.51166
-13.42038 33.54659 -13.11122
-22.19828 37.0304 -10.20557
-17.15396 30.80447 -12.19417
-23.64627 30.65936 -8.233636
-23.43982 31.50574 -8.571582
-21.13865 27.00316 -10.33953
-18.48539 31.1545 -11.85583
-18.56846 29.98842 -11.72069
-17.64142 26.03256 -11.61384
-17.56537 24.08992 -11.43725
-20.6391 20.8546 -10.14014
-16.64631 23.75771 -11.5994
-15.53209 27.99191 -12.25021
-21.86828 20.55461 -9.476935
-22.13011 21.82632 -9.369611
-17.91986 19.50152 -10.8647
-14.36532 23.02247 -11.89827
-11.05983 18.22248 -11.72486
-12.54371 22.22429 -12.04899
-13.61651 17.39639 -11.35195
-22.98094 57.14775 -7.41834
-24.28476 53.34435 -7.223512
-23.23644 53.50303 -9.138442
-22.00964 51.77709 -10.12305
-4.484288 81.63354 -11.08174
-5.438116 66.55529 -11.45544
-23.75309 67.58428 -6.814654
-20.40253 43.62862 -11.30586
-21.58345 41.19389 -10.81399
-14.35688 44.14396 -11.27699
-17.11394 41.17274 -11.64393
-11.49765 115.7173 -1.011712
-12.43878 100.2936 -9.283076
-9.897011 102.293 -9.965378
-17.71963 33.0971 -12.24282
-20.91339 33.68601 -11.00311
-19.98808 35.58083 -11.65843
-23.95103 37.76413 -7.597688
-23.50871 37.88841 -8.300966
-16.37967 37.74934 -12.15436
-11.27595 39.8181 -13.23476
-13.38503 40.19075 -12.26316
-14.44737 36.92685 -12.55496
-16.8405 36.48673 -12.28936
-20.45605 35.88675 -11.47376
-19.42487 37.44017 -11.88492
-20.40748 35.5997 -11.47013
-21.05134 32.54451 -10.82045
-3.523708 23.33808 -12.96535
12.03459 150.5272 -1.678477
9.07145 144.5809 4.346697
8.558144 148.9268 0.6468081
9.873429 143.8932 4.761777
10.94562 147.077 1.607903
9.26064 142.9597 5.793884
7.668436 145.0979 4.306674
10.90891 147.6339 1.098421
9.754215 148.8543 0.1781761
11.99837 141.4331 -11.62299
12.45817 151.6976 -4.432894
8.515157 136.9456 -12.09942
12.00952 151.535 -6.891531
10.00255 150.3402 -9.257595
9.473266 147.5278 -11.17742
9.723668 144.2188 -12.07315
9.288253 141.6524 -12.40211
12.12823 151.2265 -7.610846
10.45711 149.6359 -9.858274
11.34445 146.3442 -11.22541
10.39881 151.3275 -7.916541
-5.178648 134.353 -11.71275
-8.760692 145.2465 -12.05601
-8.233519 143.553 -12.41441
-6.416066 134.9615 -11.80781
-10.06102 137.632 -11.83087
-9.277715 151.8727 -4.454411
-11.16793 151.4864 -7.189669
-10.39914 143.2367 -12.04319
-10.02763 146.826 -11.35084
-10.96443 150.7964 -8.583288
-7.328547 139.8371 -12.75543
-9.942745 144.8389 -11.91791
-10.76576 151.1106 -8.16116
-12.01238 145.245 2.888959
-10.63009 142.4997 5.801241
-11.39031 149.5024 -0.6992294
-10.80075 143.1287 5.163752
-9.40433 145.6718 3.301246
-10.73686 150.974 -2.566101
-9.946848 147.0431 1.809992
-9.989623 141.867 6.662362
-11.59186 148.0103 0.6291597
14.24809 136.3961 6.542728
11.77152 136.2005 11.13878
-0.6481543 49.11505 15.23807
14.94306 133.8651 5.378782
2.280649 12.08389 15.00038
17.30882 100.5191 4.121157
-0.7839879 85.12304 13.66728
14.58136 134.0533 8.12991
13.80024 128.0175 4.149171
-0.2531823 134.4987 12.49248
17.44769 97.90895 4.302848
8.356204 139.5367 9.280914
5.198685 138.6097 10.40579
18.00675 11.82276 1.41236
17.67307 101.1935 4.565998
21.21336 32.47319 -0.5097896
20.58213 47.34455 -0.7264815
14.55636 131.1146 6.278443
13.09801 123.3148 5.025324
11.38842 138.0274 9.359774
13.13976 124.2022 5.871965
13.62287 136.049 8.607994
19.84871 85.9162 4.929724
7.573723 102.0937 11.52471
16.18942 103.8923 5.56828
20.48444 95.29993 4.251555
14.55066 102.8724 7.477596
15.60327 16.93546 3.208034
9.77797 134.9986 13.15829
12.28169 116.1188 5.43193
12.85538 121.3464 4.264824
13.3802 133.4047 10.9123
17.19505 103.6933 4.489364
-0.8459806 30.41392 16.2554
18.96344 70.14893 5.534999
3.265057 137.6805 10.93737
18.82427 11.98942 0.7883674
9.011226 136.937 12.02977
4.694471 102.1692 12.42645
13.99807 129.9646 8.19518
13.63554 132.2042 10.62384
13.71883 132.5225 10.50951
-0.2376817 18.03596 16.67375
0.6102971 24.13246 15.86799
1.569693 71.80901 12.11814
1.32108 80.24023 11.18853
1.522408 136.3433 11.91073
21.14921 18.62214 -1.819781
20.60432 13.7513 -1.466274
0.4381576 124.4163 12.56489
-0.1842406 103.134 12.07629
12.48367 115.6645 4.843588
11.9443 133.2003 12.43638
18.45235 95.92102 6.886333
-0.3580697 16.692 16.77856
3.988717 13.60617 12.9233
8.930221 12.56898 7.897735
0.521383 47.74667 14.69546
1.81973 63.60374 12.64571
22.00209 75.23558 4.634608
0.9349498 72.79784 12.83852
0.795958 114.1039 12.85045
1.905713 136.9254 11.36606
14.07894 12.95575 4.145385
18.32532 14.6888 1.037365
18.92892 17.44078 -0.8317799
17.77839 18.22667 0.6443641
0.7372884 127.1586 12.45368
0.6180949 102.2207 11.86811
-0.139921 103.4668 12.1226
20.69296 88.94451 4.192791
12.64224 126.4426 8.31798
20.34835 93.52789 5.007449
20.33016 89.35984 4.135423
3.668998 18.56425 13.0774
4.867635 14.75814 11.82489
-0.3133235 29.2649 16.13331
8.98884 14.49099 7.815093
7.424356 14.99281 9.163567
0.1020316 36.68047 15.57961
22.59504 40.0654 -0.8071539
0.1562372 61.82269 14.17798
20.2258 58.56319 0.399856
22.19518 76.90652 3.466943
-0.8243768 80.50159 13.84867
-0.7452394 68.09657 14.31896
13.00926 110.4096 7.198526
-0.4208997 116.2723 12.61901
-0.6947446 130.5359 13.33301
1.185318 135.1319 12.37927
22.06694 19.72261 -1.975546
13.16523 14.22071 4.778631
0.8036156 127.4663 13.19917
0.612615 118.9664 13.09381
-0.5653313 108.7807 12.38875
0.4528265 98.91688 11.41777
21.10636 87.43232 3.936407
11.68695 118.5299 7.361503
18.19236 92.72231 7.521112
1.221478 21.48765 15.50904
-0.1279049 31.85983 15.89318
0.6206615 27.6621 15.66128
1.199581 38.21878 14.62589
21.93978 32.25523 -0.9629223
21.59755 39.62168 0.07456279
20.45317 39.83304 0.8294336
21.7859 42.26585 0.3737005
0.4603055 66.81528 13.71697
20.41705 47.38804 1.179226
20.72788 60.21914 0.3448546
21.82999 76.34068 5.87951
21.67726 66.95027 2.668445
20.28026 69.393 4.487626
0.4744893 83.09104 12.30567
0.8706896 75.41293 12.67075
-0.5953886 74.32934 14.01991
1.608811 71.01439 12.15805
-0.8147992 109.1691 12.53227
20.74724 23.74873 -1.240948
13.61662 16.73236 4.528111
0.3641117 128.0491 13.50344
1.682615 97.67257 10.89402
-0.06660247 91.85838 12.23057
1.00157 92.68887 10.57967
20.19601 81.69027 5.325415
12.83935 113.9175 4.815358
10.33389 115.4449 8.981232
1.076695 18.37307 15.80571
4.407984 16.82608 12.2692
0.2992726 42.96001 15.13593
2.182555 41.36216 13.45223
-0.2326954 44.4281 15.39808
20.98337 27.42184 -0.8803789
19.80458 26.64958 -0.6887571
0.4811826 54.69225 14.3258
0.1618639 63.06177 14.12206
21.1206 55.39898 2.153844
22.64037 72.23259 3.000609
21.55644 65.21865 2.004213
2.239571 72.21556 10.90735
1.070839 70.84777 12.8559
2.469062 71.884 10.51941
12.87361 110.21 7.817352
0.7598571 114.3674 12.178
19.66316 24.21951 -1.009332
15.46704 15.06281 3.277304
2.281747 121.0805 12.72545
1.813953 97.48634 10.85615
19.88555 85.80482 4.748491
3.763283 117.7083 12.69661
16.39405 100.0561 7.344004
2.243594 18.68311 14.68874
0.8037535 30.27671 15.38001
2.555134 44.04486 12.89669
2.777047 39.87246 12.85269
21.69019 33.76834 -0.6346078
20.43245 41.11013 0.9394651
1.394228 52.41724 13.75042
19.58594 53.2886 3.303073
21.84976 71.76485 4.777635
21.78374 76.05802 5.951639
2.632615 72.46673 10.02446
13.30641 110.3691 6.936252
2.011128 110.9938 12.46961
1.995866 112.8324 13.13734
11.93341 21.50402 5.643931
18.08368 16.13383 0.9841493
2.674602 117.3764 12.54695
1.580222 105.6616 13.02645
1.00128 88.79711 10.5994
18.7429 85.26036 7.558248
18.33288 91.26471 6.171122
14.13736 102.0117 8.049194
3.589621 18.88111 13.15837
2.392171 29.01332 13.95232
0.4448901 46.96525 14.80313
1.812878 49.09691 13.48089
17.64055 31.67871 -0.002541218
18.87985 34.99109 0.6395633
19.65764 45.11632 2.044607
19.66351 59.94457 2.746184
20.64686 66.80008 3.144352
13.19722 107.7155 8.011758
1.786203 113.2353 12.89914
14.71336 17.67605 3.82393
3.1593 117.0434 12.32611
6.637581 119.7049 11.7104
0.5017493 96.52335 11.21657
19.20359 86.9944 7.494167
19.01247 88.66692 8.054364
13.30307 103.5701 8.455681
5.153608 22.18623 11.1363
10.70177 18.99445 6.445006
14.0533 19.31507 4.254469
16.80915 32.28677 -0.0341298
3.850893 65.4347 9.196824
20.42601 75.46844 7.207433
1.815774 78.51041 10.46846
2.488994 107.9852 13.72938
17.08046 22.44089 -0.157429
7.073186 119.0987 11.55202
2.576305 96.34373 10.89548
14.68588 103.7347 7.386271
16.31655 99.87569 8.99828
3.919949 25.16395 12.39128
8.265674 19.68006 8.246718
2.85838 46.69343 12.42578
18.39565 32.95201 0.2969085
19.45103 60.20597 4.692336
6.823016 77.84325 8.027929
4.897053 108.8836 12.06289
6.522366 128.4422 13.20096
9.380992 130.6568 13.31006
9.967681 128.2011 11.56998
19.27167 23.94676 -0.9969656
8.182512 116.7723 10.93034
18.05236 84.36162 9.522007
15.67459 85.5435 10.90391
10.30691 121.529 9.555215
12.21865 106.1971 9.336573
15.03709 100.8479 10.03825
13.51012 20.07364 4.619561
2.198237 59.98711 12.5267
6.923414 105.7921 12.97396
7.119809 131.5386 13.9881
7.83237 124.9565 11.06684
18.81118 28.93364 -0.3080281
16.11997 20.20997 2.382881
6.088774 91.89428 11.52564
3.74267 97.93536 12.20649
5.40066 98.10362 12.98234
18.55586 80.10229 9.299552
11.9696 102.891 10.43487
2.049316 32.34077 14.12201
17.33249 26.48116 -0.6416019
3.915541 51.86914 11.12756
18.74294 72.83267 6.928264
3.718744 133.3869 13.68027
16.02166 30.8139 -0.1873801
15.3958 27.41244 0.3219417
4.987443 103.5053 11.81534
6.400452 88.70615 10.80141
15.27047 84.02843 10.83449
7.092845 100.7356 10.98027
7.848724 19.3394 8.61772
4.428581 53.91185 10.48311
16.22224 72.10557 9.180741
8.481572 102.8864 12.24469
6.014004 101.1612 11.79405
6.534204 100.4859 11.86234
8.520003 122.8415 11.05063
7.158318 89.61644 11.38781
6.808217 92.90588 12.0748
15.50887 84.25499 10.81536
19.27179 80.32095 8.728636
16.00086 71.16101 9.32572
2.048856 100.5895 12.08115
5.973304 135.119 13.38702
9.490377 123.5841 10.2711
15.71619 89.84548 10.98452
16.16353 81.70486 10.40501
17.16032 78.3467 9.751237
8.115466 17.96302 8.430971
15.14134 71.61439 9.658921
8.27471 97.69247 12.62845
6.787523 122.6199 11.97844
8.430762 93.04474 12.38408
14.95428 78.90829 10.4448
13.61694 79.12825 10.61614
19.00245 76.72963 8.542341
5.505704 22.73684 10.71908
5.157577 24.15649 11.01817
5.853161 17.58783 10.61324
5.423382 18.68662 11.01993
14.73823 71.85626 9.711027
11.98281 98.60111 9.308884
8.198382 99.27036 10.96464
11.9728 126.1508 8.408306
2.887855 88.56835 9.227036
4.050794 30.65436 11.91085
5.831037 25.74992 10.21881
10.00173 101.5375 11.4393
13.75484 102.0305 9.962695
7.684772 131.7069 13.92165
1.546445 87.94987 9.932239
4.56212 85.15678 8.829922
3.957255 84.39462 8.484106
1.970048 25.49243 14.59571
5.520329 27.27632 10.45556
9.195908 96.47822 12.55287
9.50297 135.8643 12.76546
8.843864 127.4548 11.15784
5.007852 83.83474 8.675109
3.402302 29.75159 12.73621
1.190899 85.98048 10.55668
7.245548 84.21193 10.04463
8.403961 84.05779 10.57805
4.734257 29.71291 11.18069
0.09726042 85.33304 12.65656
7.056657 76.22932 7.72557
10.66674 81.68523 10.75606
8.811077 82.28324 10.33362
5.229184 78.49429 7.566417
14.06645 80.92681 10.73598
5.025572 81.20186 8.094877
5.593815 79.73651 7.962162
3.375412 75.83656 7.962468
10.34061 75.92735 9.497143
3.401866 76.62218 7.904314
4.153436 79.51643 7.62194
1.949492 75.5331 10.79375
1.981772 80.71632 9.768856
0.6904141 136.0808 11.95981
16.026 98.36013 8.880738
15.1904 98.81984 9.354485
10.16702 97.93833 10.13983
11.41271 96.88078 9.860045
12.07118 94.17135 11.9228
13.39037 96.52278 8.855062
2.588338 115.138 12.95581
4.944528 114.693 12.31244
2.244368 127.248 12.28052
4.777125 122.4638 12.45017
4.623898 126.0733 12.0467
2.272429 22.96701 14.4343
18.81076 43.49441 1.824299
18.89216 47.09321 3.139027
19.98986 48.35221 1.788436
18.65779 51.25219 2.993119
0.9005725 82.48198 11.64654
20.56003 55.61473 3.284274
18.25823 53.49156 4.634072
19.10039 41.28627 1.604842
17.34672 44.54813 2.617346
17.91591 45.42907 2.487344
7.327008 73.04836 7.086357
12.12209 109.8259 8.78765
11.17202 109.4951 9.729455
17.54244 92.07507 8.06748
16.97605 39.16993 1.420495
14.59486 36.1053 0.3726849
14.6869 38.19959 0.6508588
19.71918 70.45704 5.237209
18.87543 68.30247 5.113391
18.40452 72.02061 6.770127
17.34527 70.0687 7.965312
9.289805 118.7433 10.03381
17.44092 89.25811 9.940114
15.42793 91.85603 10.92699
17.43227 86.66412 10.22358
17.87449 88.10461 9.676012
10.96389 90.87025 12.0409
11.63113 91.30596 12.02525
15.47567 86.43061 10.99681
13.81439 89.3772 11.52384
13.35344 87.5787 11.47253
11.92197 86.09274 11.43335
11.13834 88.78759 11.78488
8.111667 85.35059 10.75646
2.497813 61.56525 12.06396
13.00964 130.7149 11.02504
8.317144 115.4793 10.0387
6.924706 107.0232 11.24268
7.562004 110.646 10.83655
4.912789 111.3139 12.12835
3.477884 113.0822 11.8642
11.24381 22.46225 6.08159
8.290982 105.4632 10.86144
15.58557 24.15922 1.662282
14.6884 22.34145 3.569974
15.03682 26.26166 1.692773
13.6368 21.17867 4.518895
12.26746 24.19309 5.39919
12.77593 27.70107 4.717506
14.97704 28.62342 0.6777658
14.04125 30.41504 1.700337
15.7505 28.90744 -0.08820464
15.95312 29.20996 -0.1877024
12.96063 28.23166 4.416254
10.98922 25.68453 6.213587
8.02089 25.77947 8.256393
13.23231 31.95055 2.685678
12.31302 31.26466 4.529288
12.46796 34.15337 3.246959
11.65318 34.7032 4.559783
12.71115 34.78264 2.409931
9.632751 31.6322 6.982651
10.98451 38.50901 4.330679
4.684504 56.35435 9.878898
19.28878 78.61065 8.613895
7.199198 133.1243 13.88926
0.4460979 86.26353 11.96006
9.46909 74.24732 8.646346
7.887612 72.06896 7.152775
8.983625 72.02784 7.793615
9.056261 72.24989 7.893415
5.349634 67.26176 6.104444
5.659348 65.80732 5.832197
10.03235 67.62791 7.33638
3.497644 68.00429 9.23646
2.906766 67.80225 10.53945
3.924561 64.58958 9.299533
3.741757 63.21346 10.01712
4.993631 63.02747 7.293931
4.861018 71.8354 6.57714
5.556832 72.13236 6.387272
8.764462 75.20378 8.487882
2.624063 126.724 12.16778
19.63256 59.58497 4.28651
3.485374 45.84619 11.76338
3.600875 38.26975 11.98396
16.97703 67.58031 8.310531
16.3398 65.13712 8.22581
18.61816 60.83329 6.191496
5.364817 110.5733 12.85697
5.957057 109.5702 12.66608
8.667018 106.2145 10.70337
12.55187 24.54049 5.184402
6.229564 37.07642 9.360818
7.635245 31.08299 8.407783
9.733113 27.59786 7.006024
12.47575 37.44133 1.776411
12.9882 42.59991 1.232308
14.30462 38.98922 0.7607142
12.62604 44.87881 1.68473
3.256127 48.88128 11.90825
6.999965 50.58411 7.566352
5.846508 46.69354 9.468972
7.502099 42.88689 8.171201
10.16926 67.56787 7.395762
9.980467 65.88937 6.902009
6.229498 60.78925 5.48525
8.602286 63.87975 5.486561
9.535709 60.9936 5.238468
5.619736 57.51453 7.919827
10.87141 63.55709 6.7918
6.814433 54.78545 6.231782
6.843255 53.80209 6.608644
4.643724 61.28943 8.744107
4.499578 58.92155 9.659511
15.65502 44.65045 3.077847
17.09218 48.676 4.141097
18.27692 49.1679 4.27899
11.37687 48.22161 2.206713
18.74914 57.59835 5.657662
19.49147 56.86213 4.821432
14.56417 53.67408 5.619842
16.15363 52.21246 5.577898
14.53216 55.67688 6.148169
11.66813 51.60234 3.312747
10.08272 50.14448 2.61096
10.84156 56.015 4.310387
8.619291 49.00528 4.558221
5.936989 34.34122 9.715831
6.058761 36.88757 9.517647
5.165952 38.49073 10.285
6.358368 38.19427 9.237305
10.01728 39.06634 5.844466
10.93376 42.00292 2.825398
8.48292 41.65942 7.305707
10.06286 42.64828 4.354836
7.929681 44.23893 7.586346
6.844468 46.67243 8.498793
9.676749 41.14523 5.798532
3.610954 43.48928 11.72111
3.314837 40.12929 12.21472
9.30372 42.97372 5.839157
8.830709 50.97868 3.631318
11.16856 47.56742 2.036599
8.63626 46.2927 5.822444
11.0312 37.02756 4.821666
10.93767 69.26558 8.174237
9.744384 65.41142 6.64178
14.50716 58.11397 6.724945
14.60536 56.53786 6.380682
15.18033 59.58078 7.103528
16.72562 60.50595 7.125435
13.40002 61.25513 7.182251
8.635427 60.16977 4.47523
7.275814 56.2564 4.770987
7.252959 59.19395 4.452566
7.347275 53.04885 5.693195
8.003196 53.623 4.230986
7.526084 50.8453 6.300897
15.80025 67.83897 8.85878
13.94403 68.65678 8.977048
11.91071 64.28839 7.415779
15.02493 61.64386 7.535959
16.89267 61.5075 7.282496
6.979225 47.50618 8.247076
7.579079 49.00353 6.987123
17.54948 59.27369 6.579181
0.7616353 43.95195 14.7141
-12.59751 137.3069 8.784616
-24.20308 59.0691 -1.200148
-16.46225 103.4936 4.261205
-19.02789 99.62476 4.381512
-17.59885 100.3729 3.023975
-23.035 19.25569 -2.235675
-17.43262 100.3921 3.109248
-14.78396 131.9531 4.57514
-14.8262 135.0482 5.701422
-12.80065 133.8124 11.52888
-12.57628 118.5157 2.338085
-14.3628 135.9718 6.71174
-14.59643 131.2405 6.806968
-13.19171 123.4279 2.503169
-13.66014 126.0924 3.677817
-1.582935 87.20129 13.0241
-1.326573 13.63026 16.9892
-1.047657 52.26198 15.16046
-14.12272 136.0477 7.395518
-19.82742 97.23351 2.525091
-13.65608 127.1155 3.90088
-13.98071 125.7949 3.90269
-14.92917 133.1319 5.761283
-1.338427 101.6307 12.81066
-2.865384 112.435 12.67265
-1.44922 72.29877 13.88128
-11.94226 121.5595 7.650636
-1.423171 98.00996 12.73569
-14.67985 107.1537 6.694573
-13.12975 123.2016 3.898083
-15.96739 102.8518 5.815296
-2.195415 61.03009 13.33513
-21.36121 12.46964 -1.873879
-3.435332 115.5393 11.83734
-7.187623 15.34772 6.728445
-2.130134 95.43681 11.50924
-11.4434 137.564 9.931623
-9.003012 138.3062 10.57222
-12.58809 119.4835 4.184816
-16.53458 103.5131 4.009277
-23.12108 58.49706 0.03718599
-3.528557 71.71729 9.406778
-22.01841 16.00573 -2.180056
-13.69875 11.18995 2.404353
-1.49829 116.7511 12.14029
-2.567054 17.24668 15.70496
-4.05945 137.2212 11.58351
-2.204884 93.0923 11.36557
-2.279113 124.4177 12.98923
-11.40925 135.3131 12.15064
-12.78606 121.5535 3.011709
-9.701309 118.8249 9.620622
-14.20526 129.6137 6.80078
-18.64983 93.24329 2.699332
-23.29769 51.62498 0.6278841
-3.505643 41.54946 12.27728
-2.458784 73.38761 11.74985
-21.59456 19.07076 -1.695782
-15.46725 11.2426 1.464239
-13.19271 12.8003 2.579785
-1.552916 119.4896 12.77273
-1.802293 114.239 13.23746
-8.612389 12.55826 5.542083
-2.343323 15.43772 16.05871
-1.600483 93.32266 12.58791
-1.84613 87.80709 12.3702
-20.71897 89.28741 0.08928801
-1.290432 130.3166 13.45786
-15.07695 108.6433 4.898136
-9.033773 126.9101 11.3013
-23.61747 51.01251 -1.082423
-23.614 44.76397 -1.405121
-23.57239 40.74848 -0.4596065
-24.23861 33.67067 -1.861535
-2.080256 50.38165 14.14109
-1.207044 61.30013 14.5917
-1.75884 74.23046 13.37916
-22.27771 75.96955 0.5050511
-21.99134 66.58836 -0.6959633
-20.79034 14.98781 -1.768783
-22.93831 26.84354 -1.250335
-1.466569 108.6264 12.8278
-1.544257 119.6497 12.75346
-12.5432 117.0443 4.60136
-1.13075 115.6075 12.96323
-1.434927 27.52686 16.13172
-1.088617 38.8185 15.8026
-3.991385 13.30619 13.05606
-4.561369 15.82258 11.15141
-3.759607 135.1651 13.14277
-1.723908 90.60152 12.47952
-3.9841 97.50529 10.96206
-20.23631 89.67435 0.002368608
-2.107213 128.4544 12.94421
-3.883579 129.8644 13.45713
-14.90814 108.0542 5.758327
-13.39954 127.9825 6.575471
-23.9281 50.08585 -0.6917638
-23.23964 46.78175 -0.2531178
-23.62501 54.27624 -1.255326
-23.8807 60.73656 -0.6572409
-22.20602 36.75597 0.8343716
-1.39012 47.22978 15.1105
-1.101876 50.5661 15.19096
-1.884341 71.53029 13.29474
-2.30843 77.33886 11.84236
-23.25076 78.66421 0.01869176
-20.85757 69.03941 0.08101173
-22.58373 64.86721 0.3198534
-24.06448 32.33456 -1.778792
-12.01042 12.65222 3.293841
-2.284987 112.2341 13.05391
-1.230419 121.451 12.88506
-2.15743 114.0522 12.87548
-1.595376 30.23846 15.88049
-1.271721 39.15407 15.64616
-7.998574 14.07954 6.01217
-3.524281 17.11628 14.03522
-7.37597 134.9149 13.46883
-1.227167 87.87377 13.62057
-18.93323 91.57632 3.416005
-3.497835 124.9435 12.49417
-15.38106 106.8267 5.154443
-13.29293 124.8103 5.010173
-23.41758 54.7317 -0.5539861
-22.84535 63.13622 1.261566
-21.84491 35.24461 0.8674701
-2.654 51.87276 13.11307
-3.013251 49.45554 12.6343
-2.695972 52.53508 12.98322
-2.203611 67.48646 12.86257
-2.774537 72.09656 11.01912
-22.95504 81.93291 1.260431
-21.28012 73.43095 0.7054444
-20.80934 27.42439 -0.06925412
-1.878873 112.6762 12.66105
-3.149178 122.9356 12.19302
-3.469032 26.66917 13.53697
-11.97853 14.79703 3.189764
-9.084945 137.0779 11.88768
-6.357893 134.1228 13.62315
-4.938779 99.27703 11.45684
-2.13959 83.63091 11.88398
-8.84014 127.3832 12.1649
-13.58992 110.5808 5.884514
-11.83464 113.3812 7.368696
-15.5752 103.6393 6.32118
-18.32389 92.77007 6.34467
-18.3335 50.16594 5.198293
-22.31886 54.70937 1.110132
-5.535235 32.33144 8.581087
-2.277732 56.144 13.46511
-1.337422 67.76811 14.19559
-3.00944 77.2833 10.20559
-21.29141 73.38792 0.6482365
-19.92882 19.24682 -1.252281
-20.2269 27.52487 0.08618746
-3.483876 110.3501 13.02127
-3.29978 27.6765 13.82623
-7.011024 17.24812 6.875547
-3.168934 18.49265 14.70474
-7.278569 134.5856 13.60187
-3.056472 89.49024 10.24565
-5.630459 104.4292 12.74666
-21.8136 86.85657 3.379528
-4.357595 127.3547 13.08484
-14.46861 108.4781 6.61997
-18.06068 93.33649 7.094118
-2.032848 49.37048 14.27194
-3.046525 63.07093 11.27087
-2.089889 83.12793 12.04441
-15.78426 14.69524 0.9675171
-14.26006 17.90294 1.548059
-18.90334 15.10432 -0.8137591
-2.548343 110.979 13.16146
-3.217454 23.89923 14.26329
-5.912234 17.59735 8.30423
-6.032722 133.5467 13.84934
-4.141085 85.9564 9.377774
-4.076629 87.14333 9.5498
-3.836013 95.69006 10.6243
-20.05091 86.55331 6.354106
-8.886957 126.9045 11.48957
-5.605788 128.5381 12.51937
-7.539966 128.6894 12.49129
-13.94894 106.2748 7.977695
-22.51582 53.57889 1.263633
-3.177105 45.96931 12.59257
-2.556217 65.93951 12.20684
-15.83209 16.57366 0.7403684
-21.91766 22.99732 -1.243281
-4.198071 28.79353 11.63686
-5.180482 19.73277 9.535936
-5.289699 17.48878 9.376649
-3.803593 19.26241 13.19861
