# .PCD v0.7 - Point Cloud Data file format
VERSION 0.7
FIELDS x y z
SIZE 4 4 4
TYPE F F F
COUNT 1 1 1
WIDTH 1667
HEIGHT 1
VIEWPOINT 0 0 0 1 0 0 0
POINTS 1667
DATA ascii
-15.18824 108.2526 2.796811
-9.148295 145.465 3.443881
-12.32879 117.1181 3.13888
-2.847301 141.6653 7.734837
13.26843 136.0667 9.211742
8.665338 141.9393 6.992604
14.71773 21.48998 2.726383
-9.970657 151.1361 -2.995101
-14.6865 135.8348 5.341844
10.15047 14.5274 12.07522
17.66558 41.24291 5.25617
16.24842 22.38519 5.174751
14.06672 15.95812 3.406628
23.99651 72.23476 0.6362867
24.56812 16.91473 3.300936
28.68344 32.06335 0.3494523
9.345188 144.9647 3.947344
-14.4444 106.3607 6.888915
1.096992 140.7093 8.595454
22.77402 20.97161 2.331703
9.954226 141.1103 7.510604
-19.63142 23.51797 0.8151751
-25.25907 41.4735 5.331416
5.373496 144.4527 5.396563
6.209379 145.0595 4.669452
9.614376 150.8822 -2.262341
19.57653 89.08503 2.938387
17.77153 96.52454 2.122682
18.81845 91.91637 3.297576
-11.2301 142.6645 5.534069
-9.23345 148.4265 0.6772101
29.89272 20.72231 1.151845
25.61337 61.78356 0.3357902
10.24939 23.99151 11.65437
27.46235 33.34895 2.710592
14.68069 131.7548 6.539218
4.216798 142.1728 7.276274
14.09621 129.8596 2.95124
14.87216 133.6876 4.675135
-18.67601 26.95173 1.112638
-16.60214 22.18217 4.793963
-20.38017 70.49979 2.519688
-27.32563 16.60241 5.928615
22.74608 57.84727 1.421729
20.07999 82.88423 4.297222
-13.68843 138.1239 6.945017
-13.68207 128.0735 4.56576
11.85003 119.875 7.369043
-13.14138 123.8558 4.870993
-9.816722 144.0078 4.682297
28.02798 42.37409 1.02101
29.00407 30.11553 0.736569
25.39442 18.59835 3.459984
12.13575 137.7662 9.045775
11.42087 140.4563 8.152728
10.73721 124.2154 9.245379
-17.58611 25.30228 1.94893
-16.29556 18.75058 4.474132
-17.69829 45.20491 2.413953
-25.37774 16.68324 5.889884
-16.12255 17.34303 7.859797
-20.48916 83.7997 2.299133
18.29711 91.10143 5.684889
-14.73571 100.2269 7.447713
-12.04591 139.3395 8.451126
-13.32881 124.6856 3.611722
14.89355 108.9421 3.355894
12.53521 119.3878 4.079852
-16.59669 103.2036 1.564995
12.28034 120.2943 6.519758
-8.604881 140.2908 8.556108
13.72526 16.15191 8.133256
27.36455 39.6459 2.193792
20.92218 17.20249 1.584839
29.82276 23.64311 1.961677
25.75088 20.81107 3.46197
7.772685 140.9601 8.084965
13.25401 128.2838 6.729266
13.53441 132.381 10.73708
14.81139 132.3843 6.391334
-19.92523 27.23666 0.6373855
-19.62669 43.78054 0.4406614
-18.75661 36.2032 0.9962913
-27.24023 15.83114 8.07818
-16.39963 14.39266 7.665211
25.39337 58.97241 1.346806
-20.26937 70.84113 -0.5197293
-20.24378 66.92155 -0.7661135
19.1291 91.48491 0.0453986
21.54217 83.29691 0.2213211
-19.51143 89.18864 3.195322
-11.16887 139.5778 8.554
-14.82344 132.6926 7.194148
-14.82246 134.5013 3.649801
15.86151 106.0121 3.472075
12.35454 116.1727 4.772357
-13.1168 112.9368 4.202166
14.69151 17.02464 9.60964
4.085253 17.57473 10.78768
25.91227 47.18633 2.014468
17.77482 18.20647 0.8164856
26.16647 30.30037 3.02283
25.52552 30.0166 2.983951
28.78528 28.23236 2.457626
26.78053 22.56767 3.521914
11.3757 137.9617 9.57691
5.728056 139.9928 9.192039
-18.24986 30.21264 1.251208
-19.01899 58.4474 1.338461
-19.69854 46.59245 0.1079137
-17.65288 34.91805 1.953552
-17.88783 38.34342 1.678208
-24.84166 18.33055 5.737556
-24.77041 15.47112 8.659492
-20.34037 15.66079 7.594619
25.72893 57.9043 1.215049
23.9663 73.26675 -0.1663757
-20.5979 77.62103 1.714825
-0.6832273 15.8756 10.43326
19.05195 91.81741 1.514721
20.08845 81.37474 4.458769
21.69296 81.65849 0.8344643
21.09504 80.9157 1.507879
-18.68812 91.48111 4.364726
-17.02271 101.2407 1.773714
-17.35437 99.21833 1.757336
-16.73823 102.4442 1.872264
-14.17814 132.8338 9.509007
-6.291819 133.0287 13.81707
-13.07963 125.0525 5.867493
15.91553 105.312 4.126582
-13.12541 113.2671 3.579268
-11.20304 122.0996 8.665883
-14.49529 109.7499 3.754917
-16.28611 104.7062 2.348924
12.40104 121.1482 6.394378
15.20909 20.57731 8.856694
16.38658 18.95266 9.749031
27.83832 44.91785 1.066959
26.28638 41.18861 2.389977
20.56877 40.7798 1.038061
28.35129 37.46061 1.255419
28.88247 32.1782 0.8244448
25.56981 20.29732 3.441514
3.203639 139.6438 9.566298
12.68767 127.9275 7.929011
-16.94145 18.80073 6.098242
-18.04982 48.72208 2.439589
-19.97496 44.90652 0.1169648
-27.15089 17.93977 5.828018
-14.36761 16.85962 8.312687
-7.230367 16.76667 9.919264
21.69246 64.75569 1.220914
24.20339 71.71124 -0.093669
-20.64607 81.0117 1.022083
0.3267765 15.25926 10.51148
8.596486 13.4256 11.77308
20.26212 85.18321 2.719892
18.76019 92.35755 2.820538
20.62685 79.40284 2.141089
-16.61667 100.1576 4.697768
-20.00763 85.42647 4.064822
-18.91495 92.1058 2.249221
-20.56414 82.71646 1.929055
16.20825 104.383 3.7534
-12.57184 114.445 4.70984
14.24305 17.29865 6.791768
16.92666 16.98949 11.90321
24.32083 43.99413 2.075897
21.5256 43.14655 1.160531
26.23605 50.12218 1.721752
26.92584 45.57219 1.864455
26.86053 50.06617 1.502395
14.3909 19.76027 2.865914
2.266777 139.2389 9.94833
-20.6555 20.4847 6.670437
-18.96944 55.79958 3.152624
-18.59737 51.20232 3.113883
-18.20407 44.9095 1.527652
-18.05685 16.04019 7.419943
-7.120767 17.67345 9.977524
22.05315 69.19993 1.214209
22.1251 73.14441 1.126852
20.73924 72.02009 1.489652
23.14671 59.58584 1.454395
-20.9892 79.69087 2.629523
7.874194 15.59949 11.50122
17.45287 98.23301 2.284352
20.58799 78.34536 2.296402
20.21479 83.30959 3.828875
-8.988989 137.3589 11.58172
16.75994 98.7337 4.806858
15.13088 19.37895 6.934692
12.11599 15.01603 12.5421
16.09846 33.45184 2.806683
7.293241 139.8438 9.251943
-18.45395 53.22535 2.110659
-19.01992 58.78195 2.19353
-18.59577 52.80799 1.15729
-24.63771 22.98977 5.322373
20.96581 65.79034 1.259273
19.41648 67.03432 5.924564
20.21072 72.04512 2.49571
22.09116 58.85587 1.302684
2.31204 17.39312 10.62295
19.86459 81.76057 5.097462
-18.38976 92.12146 4.766105
-7.68836 139.9887 9.019917
17.62109 96.16418 3.569746
27.12211 25.62552 3.282501
-19.54772 63.53107 2.445015
-20.08653 49.28788 4.223512
-27.76564 21.34128 7.142407
-7.892532 17.77006 9.867752
22.32263 73.99815 1.04607
20.14615 74.66507 3.339838
-2.220137 18.9052 10.3591
-0.123076 22.29247 10.4071
20.23024 84.61301 3.27749
16.62852 81.83215 9.258675
-6.663166 138.1418 11.04126
14.74547 101.6648 7.292726
21.46535 33.89732 1.361923
-19.30012 61.99843 1.780579
-20.25333 71.99402 1.274323
-20.70839 71.18317 2.750743
-23.04083 22.7814 8.317721
-24.11627 20.75972 5.601294
-4.186275 17.8617 10.26354
19.45801 68.64352 5.440385
2.554738 23.16172 10.49904
9.193625 15.77043 11.7781
-7.694214 134.9999 13.42935
15.32247 102.6218 6.560731
14.85865 23.18668 2.856385
-17.32015 21.79274 6.046657
-20.64838 73.92741 2.394229
-21.24758 17.29106 7.882648
-25.36349 23.63362 8.483695
-10.03404 18.57013 9.498545
19.53415 70.48631 6.367825
19.46327 68.3059 5.781925
7.64149 20.9452 11.19732
12.75559 18.64902 12.5738
10.342 23.31845 11.70797
8.839128 22.53506 11.37601
15.89438 98.11974 6.590592
14.03676 95.8637 8.692317
-21.2871 74.84834 3.145845
-21.25153 24.79409 8.0125
-22.79924 22.15508 8.269217
-16.80326 26.95332 4.079374
19.87336 79.77825 5.143527
19.57149 77.57408 6.204379
19.27701 67.19224 7.63062
19.31077 60.95528 2.117532
0.1144276 23.68383 10.40296
-5.236144 139.808 9.359735
14.63545 105.0148 7.083889
15.80694 25.51547 4.680709
-22.17374 73.69062 4.647
-21.39005 18.44657 7.9061
-20.84524 18.3138 7.7532
19.56313 71.78056 6.069892
19.45249 66.89283 6.510335
11.27968 23.73391 11.94264
17.85409 94.77332 4.054276
16.85624 22.49314 5.950788
15.53758 26.16354 4.055256
-20.65624 73.16935 6.995448
-19.91641 52.50744 3.881448
19.06291 64.41023 4.33932
19.59424 62.60535 1.946691
19.51542 59.44402 1.754977
16.08305 93.30404 7.983227
-22.53285 72.03951 5.170594
19.40834 65.47878 6.690415
18.89013 62.63341 4.278212
14.51712 94.27949 8.80914
19.28317 64.49557 7.589049
12.74387 23.75474 12.34838
17.73855 89.80772 7.338917
19.76251 87.33936 3.755396
14.857 90.63686 9.401874
17.64529 22.50709 9.96497
17.88947 25.70281 12.12407
18.89151 68.45264 8.475201
13.6471 95.2573 8.966892
17.69437 31.12248 6.344086
17.5216 26.71679 12.27027
18.65641 59.53735 4.409537
14.74297 89.1272 9.703401
15.56791 87.8823 9.505518
10.33419 70.65641 10.39159
11.8369 90.98205 9.811988
17.6173 26.17459 12.22655
19.29633 68.56674 7.586257
14.69327 64.73272 10.73609
18.58469 58.6717 3.056739
9.478982 81.19901 10.23043
13.90088 24.0969 12.62541
15.42807 66.63036 10.59235
-1.960772 78.00861 10.1862
13.33559 67.24882 10.62168
11.64294 70.57116 10.45822
13.53407 65.15044 10.70337
12.74834 92.93606 9.530715
13.78643 19.96477 12.76043
15.35302 70.14173 10.42047
12.60506 70.27248 10.49851
9.80068 69.85857 10.37804
13.29956 21.1427 12.59073
15.65609 22.38275 12.93426
16.48763 20.76886 13.05244
-6.868599 143.4259 5.805351
-8.893749 143.2806 5.591681
28.89671 23.16355 2.920473
28.46198 24.63896 2.986277
25.26336 24.40851 3.194109
-21.48213 17.99126 6.771481
-12.19955 123.2177 7.496236
-10.91785 120.605 8.730391
11.29523 140.444 8.14312
12.22386 115.0333 5.657771
-12.06088 113.7545 6.518556
-10.75551 112.7336 8.369381
-14.67209 106.8685 6.24777
21.64443 21.37121 1.756916
21.79629 23.78586 1.75951
22.11273 25.12044 1.866691
23.27511 20.53783 2.592789
-16.61753 94.09199 7.082125
-16.17841 98.51888 6.057547
-14.58251 99.30644 7.692894
-13.39593 100.5407 8.339159
-13.89234 106.2386 7.628872
-13.0773 102.7767 8.508284
-11.7269 103.7615 9.18574
-21.20224 79.75191 3.481433
11.49216 116.5675 7.116652
8.590117 116.8324 9.879672
7.579384 115.9133 10.28266
10.14664 112.5349 8.871436
24.74747 51.09409 1.871753
9.05929 125.2659 10.32873
12.66786 124.717 6.867318
-21.75293 76.89934 4.928833
-21.04453 80.52907 4.507175
-20.00311 82.78358 5.559684
-16.16259 101.7713 5.305267
-11.89777 126.1066 7.954104
-7.328334 125.743 11.15851
-4.713073 124.3319 12.1263
-7.086927 126.2698 11.24848
-5.1806 125.8644 11.88645
-5.506985 126.2527 11.74189
0.09178733 126.4211 12.18123
-7.597496 122.6592 11.30553
-8.058716 123.4847 11.08941
-9.03065 120.4884 10.31827
-9.208154 123.3597 10.4213
-10.75246 117.2879 8.363013
-10.58408 116.8915 8.46388
-7.203685 113.6353 10.44572
-8.655793 112.046 9.807958
6.533755 102.1113 10.58734
-5.744459 112.207 11.27479
-4.697486 116.9001 11.50342
-10.04702 112.1089 9.019586
-13.08529 106.9772 8.223215
-5.253503 111.6988 11.54241
-10.33623 111.0169 9.097465
-6.624213 105.3602 11.1375
-5.994565 107.7437 11.55671
-3.007673 115.8593 11.82465
-3.607635 109.488 12.14647
-12.33693 127.7306 8.627275
-12.68726 132.7626 11.75549
8.679038 123.5803 10.75563
10.02864 126.4042 9.752759
9.344503 127.098 10.54781
6.99826 128.4845 12.27589
9.047623 128.3621 11.98075
7.495175 124.0343 11.30872
8.458439 126.043 10.54864
3.429703 129.8573 13.08773
8.125814 128.9056 12.52651
7.446673 130.6592 13.5126
5.421849 131.8744 13.74316
13.18005 130.9233 10.82841
13.06416 129.864 10.38035
4.406377 131.7626 13.70286
11.39347 131.7203 12.66069
11.38223 131.8204 12.69176
10.29471 135.0236 12.90107
7.380215 135.4173 13.22167
3.560185 136.8097 12.17816
6.787158 120.0311 11.1588
7.24879 123.1233 11.45222
2.929947 124.4438 12.22759
5.390196 120.8467 11.64368
0.7784349 120.9001 11.95531
3.014816 120.7927 11.94494
6.531803 118.1206 10.9273
27.09672 33.85641 2.747075
25.52223 40.88287 2.420568
24.90905 37.51972 2.462332
23.39105 36.95775 2.017072
20.7926 32.49764 1.183192
21.91862 36.39662 1.481418
16.15328 34.12158 3.446483
19.9434 34.26234 0.9857713
19.93618 30.78156 0.968149
19.99257 36.84566 0.9941974
21.14135 42.44118 1.111294
16.59275 38.76409 3.233156
15.6146 28.94326 3.373297
17.61589 32.83109 1.02256
17.89147 39.06594 1.254379
17.665 40.73383 1.493782
16.79218 33.22568 4.97133
16.48566 34.92946 2.047231
16.56023 30.76514 4.863344
18.12091 41.51165 1.35371
-0.5009918 138.839 10.31781
20.46678 76.59086 2.462598
-21.36852 46.48943 4.50681
-20.61072 47.68085 4.381971
-10.91261 136.1794 11.78088
-9.450789 134.1268 13.47987
-14.21046 132.4761 9.390201
-11.01436 131.1576 12.78758
-10.30211 134.6617 13.03471
-6.206274 132.1667 13.79403
-4.437752 129.8651 13.09777
-14.01105 135.244 8.629699
-4.065273 128.991 12.65561
-3.794547 129.6162 12.97026
-2.497174 131.5175 13.59859
-1.287017 21.81758 10.38778
2.209101 21.75036 10.50935
1.356504 24.34558 10.42855
3.572828 26.94254 10.49526
16.08367 72.57005 10.11194
13.57659 73.39835 10.41369
10.61494 73.94684 10.34688
17.44683 74.99538 9.391065
10.67815 77.26241 10.29594
12.34264 74.14218 10.38824
-21.39914 64.7804 3.645012
-21.41688 66.55727 3.654738
-22.18973 24.09047 5.772959
-1.613252 17.50884 10.37463
-21.05422 19.15241 7.813011
-16.57961 21.79377 7.892488
-17.50809 24.47038 7.83403
-12.90976 21.24087 8.878489
-9.884305 19.35419 9.573689
-5.934386 22.93192 10.2863
-5.226441 21.37244 10.28817
-7.143245 22.98565 10.18095
-8.21561 19.61257 9.896536
-11.66353 22.9236 9.303286
-16.02143 25.17407 8.12873
-20.37028 22.9256 7.801657
-22.13423 22.19316 8.128599
-22.40481 27.22736 8.277203
7.003672 30.21224 10.7675
10.51121 27.1375 11.59384
7.701481 26.4211 10.98847
1.944371 25.50467 10.43264
-1.693529 22.89514 10.38604
-2.070536 29.12202 10.39585
-5.764148 24.69099 10.33865
-3.331509 27.6593 10.40887
-9.177945 24.93913 9.959752
-11.21717 25.83834 9.542334
14.94662 104.0355 6.821512
-16.36669 84.61427 9.331317
-19.95537 77.3085 6.905791
-22.56349 51.61309 4.319986
-24.06139 52.84292 5.229216
19.10313 57.28857 6.590629
15.48465 26.6517 12.74158
15.469 84.62867 9.784871
18.57351 84.65403 7.269843
5.291891 66.08633 10.24228
8.326076 68.87618 10.31314
15.83197 58.76969 10.96585
15.728 61.33385 10.85365
15.0362 59.27809 11.00017
19.0343 56.36965 8.969806
9.971472 96.45052 9.31323
8.324026 96.1843 9.447656
15.3076 22.86748 12.88908
-19.33397 25.73592 6.178927
-13.73325 108.5783 6.776048
17.13584 25.73805 0.9785299
-16.94442 95.8163 5.794626
-16.57471 92.2179 7.863891
-18.1194 90.14951 6.620604
-15.42389 91.85529 8.885514
-15.20852 88.57542 9.588383
-18.22357 87.17856 7.382866
-14.18185 94.51208 8.8762
-13.30747 91.55635 9.690125
-14.87743 90.36596 9.442901
-9.825389 94.74353 9.396092
-8.926817 95.85985 9.3886
-12.43561 88.01069 10.10542
-9.477586 92.98005 9.574331
-16.83303 86.45876 8.891548
-7.588241 96.95778 9.494024
-12.27978 84.40208 10.24164
-11.14225 100.0714 9.141046
-2.869401 105.1607 12.15399
-10.04569 102.9304 9.657729
-11.81212 106.0685 9.19103
13.49317 110.5435 5.836991
11.76957 107.4496 9.098841
22.43388 55.3466 1.411873
22.86674 54.13119 1.514223
19.48894 53.43269 1.384935
19.33364 50.0556 1.276109
21.13167 47.31067 1.100551
-20.64188 76.81156 1.886619
-6.517313 128.5983 12.39593
-5.670727 106.4276 11.62516
-6.983727 106.047 11.08162
-4.700273 103.3499 11.4214
-5.23892 99.93978 10.37811
-0.913551 131.7472 13.66957
-2.354915 130.8356 13.44211
0.8769535 133.2601 13.73579
-0.1193973 134.6285 13.37109
6.508169 134.2743 13.59908
0.6671715 135.2814 13.10617
0.4321319 137.052 11.94472
-4.028608 132.3793 13.74895
-3.004073 137.5516 11.51005
-3.333761 139.2992 9.872972
11.61364 133.8077 12.55103
-2.691961 119.472 11.85757
-2.07666 122.7431 12.10027
-1.746784 118.0995 11.84085
1.329311 120.1943 11.91231
23.11262 27.01602 2.2799
23.48035 28.98177 2.352895
23.21841 41.22261 1.80881
17.79043 47.18825 4.683919
17.8857 42.87931 5.403661
15.71537 25.18813 1.794879
18.07243 29.04667 0.8684923
18.37015 25.08836 0.8254009
-19.765 45.08684 4.432062
-23.28414 43.52518 4.775847
-22.36005 40.60236 4.797396
-11.09259 129.9781 12.26196
14.61474 77.70827 10.16368
17.14663 79.00996 9.165764
12.12974 76.15558 10.34128
8.79202 75.93951 10.2648
9.758298 80.56795 10.23955
13.30942 85.66083 10.23239
6.938557 79.4412 10.20786
7.753818 77.02643 10.23395
9.117574 92.42926 9.643373
9.69645 73.81861 10.31542
7.839114 73.59252 10.25835
-22.42479 24.97082 5.625887
-19.50013 28.16212 5.930746
-17.58875 27.23451 5.680921
-18.00037 27.95126 5.764503
9.901401 105.734 9.939817
11.18604 104.5417 9.410569
7.507298 103.2108 10.48932
9.834111 102.6667 9.697048
3.834737 104.6959 11.93369
6.392227 98.42659 9.866826
3.951772 98.35387 10.20209
-11.95418 18.16389 9.014637
-10.95856 20.94618 9.401793
-23.94001 26.9651 8.467645
12.95585 26.32586 12.31253
16.93973 30.13427 12.32126
14.65426 31.0374 12.48259
17.32922 32.67247 12.0201
18.51277 33.55677 10.56156
18.50806 33.33554 10.56885
18.78022 32.51307 8.632267
18.00341 34.07513 6.507073
18.67414 33.691 9.800838
18.36378 33.06556 7.159369
11.92454 33.47496 11.7525
12.61005 32.05966 12.00094
-3.345308 31.69581 10.42306
18.96107 40.89483 8.79144
14.54599 37.11279 12.18519
11.3146 36.51687 11.46592
18.63857 35.56636 7.541563
17.86451 37.45938 6.074418
11.03088 30.16616 11.62559
13.83718 37.77734 12.04525
17.91346 51.74555 3.994781
9.159085 39.40511 10.8893
-10.02312 29.63378 9.980795
-9.601697 27.78835 9.997434
-13.90577 31.50232 8.955929
-9.984159 32.51559 10.07231
-16.16959 30.26664 8.272987
-12.89568 35.35284 9.417921
-7.289111 32.41248 10.40108
-11.64844 36.52681 9.818227
-10.70391 36.86755 10.05942
-14.74612 40.24654 8.988263
-6.810969 35.34052 10.45985
-13.13942 39.10166 9.466579
-9.061025 40.01312 10.38672
-11.04987 41.14997 10.08631
-17.10997 46.60315 8.517584
-9.244798 43.24752 10.41561
-12.59527 44.21177 9.789001
15.08477 19.70763 7.629769
16.25394 81.79522 9.463617
18.99051 87.31563 6.016332
10.82854 64.54708 10.54098
19.0924 58.7702 6.333326
19.23786 59.68639 7.42019
-18.25776 29.49386 1.283856
-19.70629 86.43579 4.507182
-17.46123 82.27553 8.590426
-18.53969 79.38033 7.715219
-9.675354 86.71037 10.14088
8.094796 107.6097 10.70446
8.675591 109.97 10.18606
4.750267 117.6638 11.49324
7.739464 110.491 10.5242
2.602914 137.0052 11.98931
3.697673 137.3983 11.66533
19.36365 31.13147 0.8724484
10.91793 85.89542 10.18947
8.561568 89.8521 9.91057
8.007781 85.79223 10.1417
11.10381 88.20208 10.07074
5.24016 79.17029 10.19172
-17.84659 30.47405 5.334995
12.46772 100.8947 8.765074
2.327871 107.1926 12.31698
3.833338 105.747 12.0995
-1.901388 109.9742 12.10101
1.636018 99.61954 10.92303
7.011026 97.16276 9.611379
-16.40833 26.38325 8.08557
-18.95595 26.74547 7.851343
3.016561 32.09746 10.39257
3.700413 29.20325 10.46585
18.66742 40.77476 10.0455
18.77018 38.50465 9.807363
16.76916 42.80769 11.71401
13.67252 42.59642 11.78019
12.1403 42.48424 11.43804
13.17256 45.5111 11.54528
16.51863 56.31537 11.02251
18.74679 57.48515 9.498534
18.80413 41.59792 9.718708
10.32824 46.68406 10.90114
16.31667 44.5811 11.76169
18.86353 55.56942 9.359556
13.15734 48.20921 11.41352
17.87925 43.28252 10.98777
10.75889 59.59383 10.63799
15.81389 46.07433 11.73146
18.6111 41.94679 6.897416
-6.929339 26.13176 10.29806
-14.79297 36.26861 8.838116
-14.54302 38.50222 8.996267
-25.66079 30.19077 5.10722
-20.69818 30.33592 5.608621
-21.79368 30.90193 5.318073
-22.99612 26.94628 5.300498
-19.67056 79.97607 6.697124
12.17374 63.2478 10.68737
11.00935 59.97953 10.65692
7.228433 58.08286 10.35157
11.7221 55.14974 10.88591
9.7061 59.85196 10.52642
9.520934 60.68155 10.49658
8.214896 53.29781 10.47646
12.48801 55.81319 10.97456
9.792574 52.55365 10.67113
-16.29314 78.48077 9.345113
-15.62605 80.89836 9.71631
-11.56127 83.93851 10.23427
-6.806808 82.84508 10.18773
-6.89974 83.99039 10.17247
-5.416442 85.96347 10.11212
7.110236 94.67654 9.517691
-5.22212 88.35555 9.995417
-7.723473 86.7302 10.10899
-16.96151 78.85008 8.952084
-8.203589 95.4725 9.43449
-1.514825 103.5041 12.0177
-24.70367 44.30761 7.841031
12.64555 89.97263 9.939925
5.973842 80.8237 10.19003
3.905565 81.17888 10.17111
12.24736 98.30662 8.914692
9.688482 102.1745 9.682584
0.1563496 90.96671 9.786985
-16.42964 35.70092 8.388533
-20.30471 29.75219 8.046321
18.5414 52.87181 2.116724
18.48662 58.19864 3.961138
18.74163 45.21402 6.956842
17.95797 53.59984 10.63926
19.05873 51.98295 7.181843
16.47274 49.80042 11.41941
18.4346 44.25414 10.47218
19.03795 47.74144 8.861073
16.6371 51.77699 11.23897
19.10546 45.23901 8.428696
18.90917 46.88582 9.420902
8.908329 46.60975 10.6785
-2.606035 30.8931 10.40609
-16.42526 34.08043 8.33377
-10.69145 46.37484 10.28708
-11.3596 56.87558 10.37876
-20.6493 58.52722 8.019045
-7.320121 45.11464 10.52345
-15.07376 47.75233 9.089273
-14.04306 46.06019 9.383735
-9.106966 49.66378 10.49872
-11.27448 52.59549 10.31295
-8.29841 48.19592 10.52645
-7.929511 53.526 10.53023
-10.38804 54.04379 10.45635
-14.27849 55.97086 9.587793
-14.44523 53.08287 9.448514
-14.95116 57.2611 9.392959
-20.15852 53.9908 8.162103
-18.79664 56.36 8.284854
-22.84861 33.95132 4.967511
4.945798 61.06128 10.25443
8.945251 52.64225 10.55966
11.46953 49.70853 11.02776
-7.13426 83.22276 10.18666
-10.39389 81.68399 10.24215
-11.02883 80.09905 10.27037
-4.322634 80.79799 10.18486
-4.681685 83.21331 10.16265
-0.7166336 80.08379 10.17012
-6.927612 80.84615 10.21081
-7.286575 79.31435 10.23149
2.376164 89.96034 9.868004
5.576524 88.676 9.975557
7.459903 93.19151 9.590751
4.817013 97.40098 9.886158
1.483099 81.18031 10.16153
5.636642 95.36408 9.586852
3.538297 95.74953 9.713549
5.230038 87.0077 10.06427
4.632748 85.32201 10.11804
1.873472 90.87766 9.795887
0.6055651 98.29393 10.56386
-7.759291 90.09367 9.878139
-5.83568 92.6049 9.640541
-19.51263 74.33828 7.47657
-11.01009 73.92909 10.40276
-15.80237 77.40555 9.571739
-16.0825 76.15327 9.422966
-7.124762 102.1926 10.42247
-1.685653 101.6381 11.55366
2.270069 104.0147 12.03931
-24.79468 46.20782 5.259284
-24.26393 46.35879 7.894913
-24.51221 48.29563 7.620788
-21.48478 45.44889 8.240557
-20.6762 47.96733 8.205298
-0.9151234 73.84438 10.20093
0.002354143 80.33613 10.16702
-1.67544 80.12882 10.17289
-2.222561 77.18645 10.19227
4.230466 98.06598 10.0987
-20.94595 34.5836 8.228804
-22.0765 33.66774 8.345037
18.95465 53.77401 6.685257
17.98717 46.54513 5.216738
18.8608 48.313 1.475605
17.52024 46.12028 4.07038
17.36812 46.19138 3.138843
7.577637 41.96404 10.59784
9.844377 39.11267 11.03033
17.91514 44.30276 5.294191
18.77997 50.79055 6.497999
6.842035 47.55934 10.42927
7.324447 41.70311 10.56939
-4.254096 31.38785 10.43624
-3.924047 33.4024 10.43899
-4.753384 36.27819 10.46433
0.8993766 34.77095 10.33098
-6.306164 36.28517 10.48439
-6.686259 27.55979 10.3467
-1.675372 38.25338 10.36367
-5.810921 38.53838 10.4894
-0.8315841 40.06324 10.33311
-4.409034 41.13841 10.45496
-2.814626 43.4475 10.38574
-2.73024 44.34551 10.37954
-0.6308023 47.25068 10.30092
0.3288374 46.5323 10.28464
3.302795 45.92501 10.28525
6.286051 48.69908 10.37605
2.972719 42.90464 10.29661
1.783287 46.68495 10.27037
-0.2248208 43.09608 10.30751
-15.49732 51.84198 9.069502
-21.02527 54.12357 8.097681
-19.93785 50.96455 8.20448
-16.95978 45.90596 8.524554
-21.01657 50.34174 8.162557
-15.05055 43.36551 8.979675
-18.98508 39.19576 8.167924
-26.56393 30.10988 6.281612
-20.36694 31.72957 5.570263
5.975483 63.72546 10.26703
6.944499 61.07479 10.31259
4.217389 58.79023 10.24947
-0.5858511 96.40144 9.951947
-2.277922 97.7784 10.24234
-5.021051 98.37343 10.01933
0.2959596 91.96631 9.714538
2.472443 94.57913 9.64314
-1.95141 90.81168 9.798721
-1.791357 96.5823 9.920123
-0.6468746 90.17136 9.848819
-3.8227 90.91122 9.791514
-3.008961 92.66896 9.653985
-1.452402 99.36089 10.88102
-3.276325 102.9607 11.69285
-21.0793 51.0479 8.149373
-22.23775 55.46801 7.931766
-24.26333 55.69535 6.622673
-24.87181 48.57119 7.217108
-20.63767 62.46917 3.49641
-24.63507 50.97989 7.264703
-20.6813 57.21948 3.711353
-23.86894 56.18191 7.210703
-20.40559 60.12201 3.500884
-20.98326 59.19222 7.950851
-22.78185 57.22997 7.698491
-19.1305 60.47936 8.185082
-18.56359 59.25338 8.30272
-22.52689 61.55701 4.173006
-16.26484 63.8407 9.062798
-22.92057 63.3432 6.90979
-22.00143 67.79044 6.919527
-18.98086 65.58422 8.094213
-23.12833 66.29641 5.204228
-22.36054 68.93903 6.517854
-22.79996 60.40491 7.420031
-21.13834 60.12265 7.887208
-23.37441 60.91299 6.935154
-12.78471 73.69232 10.33948
-20.03077 61.26102 8.015842
-10.45972 73.50252 10.40517
-14.21667 73.42159 10.05832
-10.36357 71.52358 10.44386
-18.67494 71.91539 8.015542
-16.30848 71.57535 9.191805
-17.73408 73.68138 8.453994
2.773792 77.47425 10.18308
-4.442044 70.70531 10.2602
-24.32895 30.00564 8.454606
-25.96004 33.72748 7.904462
-26.26588 34.67691 6.218158
-22.00743 35.53951 8.343863
-20.92914 38.47383 8.253146
-25.02069 42.23065 7.798763
-17.72612 42.94312 8.346634
-22.9279 39.48719 8.371602
-19.54041 39.92377 8.178637
-20.78303 39.75444 8.247511
-21.23443 30.83244 8.189725
6.480583 42.51688 10.46629
5.649661 41.70914 10.41475
6.596117 33.936 10.62226
1.252788 32.12106 10.34635
0.01101976 38.5848 10.3205
5.253104 48.31292 10.32143
1.525824 48.78568 10.26466
3.235924 51.05159 10.26312
0.2630357 52.98019 10.26752
3.940306 51.56809 10.26914
5.477983 59.11253 10.27225
2.602007 59.59639 10.23761
1.79289 54.3512 10.2503
-0.1269132 62.41587 10.24497
0.6608082 57.86945 10.25078
3.315451 63.95958 10.22819
1.878437 60.57599 10.23687
3.774015 42.3305 10.31886
3.232226 41.1355 10.31325
-21.88405 33.35163 5.131121
-22.0529 42.81477 4.716579
-19.2516 41.99384 4.584381
-20.62062 40.63941 4.79205
-21.86203 37.71874 4.91562
-20.33009 41.03889 4.763941
-19.75769 32.59398 5.505036
-22.28343 37.184 4.896667
-25.37427 38.8335 5.352852
2.888973 84.1329 10.13292
-17.18938 68.71024 8.728927
-7.506135 71.85336 10.32793
-6.027528 73.08046 10.27187
-4.889472 70.70766 10.26954
-0.07945403 73.83247 10.19763
-3.249846 74.46043 10.2174
-0.6531431 72.41147 10.20625
-10.92119 58.91165 10.4548
-2.382227 71.1598 10.22731
2.712808 74.9221 10.1917
-2.75888 67.45715 10.25351
-0.7953814 70.29384 10.2174
-12.47563 66.42544 10.33531
-9.042755 63.41119 10.51026
-22.68355 30.1852 8.363707
-24.86271 39.63352 4.970091
-0.6433465 36.81364 10.34136
-2.379521 49.44487 10.34479
-0.05214843 63.46376 10.23972
-2.321614 61.00196 10.28324
-3.138994 62.12548 10.2961
-5.721912 65.05284 10.35008
-2.772216 67.8881 10.25081
1.098581 66.64165 10.22159
5.422266 68.05302 10.2351
-0.6503502 57.42921 10.26919
-2.721646 53.9291 10.33501
0.7783362 67.31074 10.22036
-10.96338 55.96977 10.42159
-7.518659 56.32873 10.51015
-7.793243 58.5843 10.50597
-3.818951 59.08046 10.33994
-6.573734 62.0746 10.42008
-7.592703 65.20603 10.42849
-11.31814 64.76771 10.46849
-4.998324 58.10439 10.39329
-6.413549 59.68978 10.4385
-4.315625 55.72246 10.38391
-4.704983 53.45596 10.41572
-14.75646 60.7067 9.556686
-10.4379 63.59969 10.52164
-11.75989 70.02051 10.44362
4.869944 71.22985 10.21598
-26.37851 29.95039 7.970969
1.478934 38.06577 10.30804
-4.039152 52.20171 10.39462
-13.55443 64.08279 10.04035
4.051468 36.60596 10.38319
3.207501 33.51954 10.38169
5.785623 34.99176 10.52373
-5.515602 51.12755 10.46398
-5.969751 47.92475 10.49535
0.4334014 116.7968 11.83103
5.502583 114.2682 11.28257
5.809275 115.4345 11.12793
2.95295 112.7599 11.81113
2.789567 114.6359 11.79813
-1.005287 112.6423 11.8429
2.951056 109.8319 12.11242
-1.005323 107.0158 12.32608
-2.014319 106.6964 12.32381
5.747104 40.12747 10.4413
-22.51777 29.35515 0.6646634
23.2682 18.1201 2.184484
-7.653408 141.4572 -12.64986
-26.66166 18.12572 1.031126
6.079917 140.4761 -12.77182
14.31709 131.9042 -0.8499936
12.11526 126.7138 -3.849856
13.53776 130.7105 -4.523076
8.732038 5.481596 -15.39465
25.37693 57.94627 -0.2397104
14.18866 110.5148 0.6888247
-17.24951 55.85544 -11.11113
21.96723 75.647 -0.7030038
19.76039 87.12947 -1.851224
19.22889 90.13438 -1.726442
9.813717 151.7219 -7.288938
13.41627 125.1112 2.879642
10.74415 150.2073 -9.196439
25.27125 62.52107 -0.3043932
15.65501 83.43082 -8.761584
24.87917 12.84147 -10.77958
0.7401354 141.3367 -12.69418
8.865271 145.1555 -12.04305
18.88299 88.02899 -3.874028
13.76659 131.4074 -4.664891
-21.35205 59.04826 -0.5506342
-14.3374 10.31933 -15.68382
21.06186 47.97849 -0.7680424
-30.18267 15.44935 -3.547133
12.58632 121.9937 1.623686
-24.41714 17.43558 1.110229
-21.09617 18.20221 0.8657275
20.66139 59.76026 -4.540637
14.43032 132.5743 -1.656607
8.797324 143.0816 -12.37705
-30.11691 15.77035 -2.002491
-1.247341 141.076 -12.69605
-12.41685 119.2001 3.005337
19.72725 12.31445 -11.64059
-14.48148 132.9277 -3.721042
29.66022 20.24756 0.5452997
-8.25339 144.0945 -12.30918
-11.09011 148.9187 -10.17376
-20.68842 83.38005 -1.972423
26.78803 26.08384 0.928462
-14.08582 129.8114 1.564125
-14.43869 110.2099 1.673819
-22.45753 17.48474 0.9440424
14.30211 131.3692 0.6850761
-22.03642 25.46185 0.6669543
-21.23356 20.41383 0.7734225
-27.24264 17.16336 0.9752616
-11.82495 137.3078 -10.91547
-13.52416 127.9508 -0.7637979
-14.54388 133.1958 -3.887452
26.55653 29.49193 0.8458412
28.59374 18.02404 0.7490193
25.44436 55.76965 -0.2021191
19.61756 8.455671 -11.62256
23.63992 74.77622 -0.2791933
16.53155 102.4046 -0.466063
13.67159 127.1441 1.334058
10.84118 137.2565 -11.38673
12.75967 128.442 -4.142719
12.27595 117.1094 2.582228
10.45401 140.4479 -12.09124
-20.44176 49.5691 -0.3407279
-23.02498 35.31031 0.5512816
-30.09234 16.83451 -3.116311
-24.33877 22.75621 1.012385
3.780608 137.9987 -12.54671
-13.8311 128.3946 0.653311
28.52661 30.11573 0.269777
26.94701 19.60534 1.218223
22.50864 16.74889 -2.781571
23.50885 30.10127 1.812867
23.6316 11.65935 -11.15879
-22.16039 71.84325 -3.292813
-17.74073 92.83385 -4.355001
17.30092 95.57114 -3.705626
13.73889 127.5755 1.21002
-12.57593 120.2121 3.181172
9.639057 135.1168 -11.05182
-12.85185 114.1212 2.178398
12.5954 115.1524 2.949388
6.947343 140.9584 -12.74385
-21.104 51.29462 -0.3467675
-21.40067 30.49572 0.4945897
-21.24654 34.12289 0.3301055
-22.26469 11.83316 -9.857675
-28.85252 19.74218 0.006032519
-25.91666 19.06702 1.115723
2.325505 140.348 -12.71576
-13.26971 125.3588 1.139254
26.42486 27.29238 1.015568
26.68389 27.02815 0.9161163
22.40155 28.53855 1.491953
21.52974 26.7019 0.4632638
23.17309 31.66788 1.687831
26.35437 52.90744 -0.1587561
25.63298 49.07666 0.05653693
25.35175 41.973 0.5643018
25.98592 12.92367 -7.925112
21.12998 9.010897 -11.35635
13.77135 7.793318 -15.21653
-22.23046 66.0647 -0.3927244
-21.57005 54.83312 -0.3631677
-18.99569 91.55464 -1.107957
-20.71796 84.83957 -1.009061
16.26049 102.5636 -1.339391
17.74316 96.85348 0.1828332
12.92735 124.9035 0.181757
-11.58598 117.0813 -0.2201422
12.92276 127.1195 -2.097294
10.91972 133.5955 -9.778079
-15.97648 104.1132 -0.8317133
12.62799 114.4894 1.223934
6.852903 140.0425 -12.78031
-21.48865 46.617 -0.2025733
-8.19959 3.542244 -11.91402
-21.27931 31.00726 0.4669634
-21.80194 12.27568 -10.71444
-24.70155 14.48833 -7.165596
-22.97094 26.09917 0.7834604
-29.53097 19.8546 -1.33702
-0.3310992 140.6994 -12.70721
-13.34882 127.2092 -0.7612973
27.51654 23.922 0.7986999
24.43507 51.06511 0.2863418
26.43881 50.97038 -0.136762
26.26645 38.03849 0.4811254
23.29314 39.2043 1.35344
24.46258 39.48253 1.062589
25.83379 16.13775 -8.578276
10.64299 4.376494 -16.21728
7.169703 3.27912 -14.18298
-22.6575 72.64148 -0.8676222
-20.82881 74.79549 -0.5499046
-22.06428 59.12823 -0.3697565
-17.13881 94.21941 -4.957753
-17.99225 94.98878 -1.517769
-17.35295 98.82545 -0.1367037
15.63394 100.2154 -4.474725
15.77909 106.3899 1.472353
18.87442 90.53298 -2.735154
18.84328 84.3534 -4.817331
13.37053 126.3896 0.275491
-11.83169 122.2806 -0.7383745
9.453065 131.3349 -9.449808
-11.80786 114.5183 -1.243791
-11.68177 116.9656 0.02043176
-24.65236 42.89238 0.4582382
-13.33967 5.087256 -15.44633
-15.13805 6.791739 -16.09543
-0.8006347 4.952635 -8.532399
-24.81582 29.81324 0.9432723
-23.15158 26.24221 0.8052941
-20.44338 9.258829 -14.09381
-21.88827 13.43445 -10.42374
-21.77344 15.39105 -10.51571
-29.46058 16.40707 -0.2384587
-10.56876 136.366 -11.17915
26.13391 34.90871 0.7337923
25.07007 24.4667 1.756503
25.09886 15.27783 -6.217426
22.70875 53.52456 0.3279211
24.50758 64.12071 -0.3540496
24.11133 67.74824 -0.3873028
24.42329 45.19544 0.6942717
24.62503 46.87782 0.4985257
20.59789 13.27314 -11.50638
14.63958 7.828557 -14.66203
8.17087 3.534666 -15.0732
4.697306 3.208559 -11.405
-21.98299 59.18834 -0.3848606
-21.51201 53.08624 -0.3221295
-17.43577 94.69333 -3.965869
-16.16887 99.04364 -4.074411
-16.41804 94.47028 -6.151548
-17.86443 96.21869 -0.05025902
-15.18381 101.2774 -4.717986
18.46939 89.22447 -4.341372
18.31232 87.42947 -5.088431
11.12138 131.4458 -8.526925
-14.2264 108.9904 -1.437385
-14.95305 108.4095 0.3000532
11.97807 114.4122 -1.005445
13.45516 111.2588 -0.8953987
-23.05588 39.33869 0.3692896
-11.21864 9.456928 -14.17465
-18.7269 9.909669 -15.75937
-5.372195 6.508753 -9.978948
1.257474 5.061461 -8.849957
-22.41721 13.93335 -9.439957
-12.93273 122.9335 2.44165
25.09343 14.35554 -6.090764
23.66616 58.32333 -0.02578416
22.25727 62.42535 -0.3186507
20.90694 69.19078 -1.152438
20.97129 73.75546 -1.125411
23.76942 13.27871 -11.11436
11.16078 6.032381 -16.12925
16.82355 10.09541 -12.88146
4.176144 4.813943 -10.82088
-22.74335 71.34816 -0.7061908
-22.1497 65.40347 -0.34901
-23.09068 62.37946 -0.3289307
-19.64032 84.04145 -3.602338
19.8227 82.53764 -3.038753
-15.03979 100.1241 -5.590423
-16.96409 92.36922 -6.084744
-20.66278 85.07835 -0.1769259
16.53915 98.65726 -3.467476
9.419576 134.3618 -10.84592
-15.22213 105.123 -2.074693
10.30112 118.7484 -2.266742
9.824334 115.7572 -3.104046
11.56993 115.4994 -1.040681
9.159433 101.9108 -10.06432
-23.44195 40.39035 0.4118196
-10.91286 7.282471 -13.96789
-14.42475 8.232579 -15.81053
-3.039319 4.120039 -8.852889
1.950575 4.918448 -9.150254
-26.06969 32.91606 0.589546
-27.87574 34.09882 -2.671413
-20.70156 11.44471 -13.32147
-23.20483 17.13819 -8.328702
-12.67261 123.6497 0.4860436
22.06339 16.1834 -1.961756
22.05773 62.21332 -0.374243
18.97008 14.90381 -11.81746
16.74996 13.9823 -12.7811
13.10851 10.82683 -15.35975
9.589867 7.678031 -15.77227
6.87951 8.130677 -13.83156
2.384124 6.994128 -9.430199
3.015499 8.625074 -9.82916
-24.14715 62.72492 -2.008063
-20.70461 78.71066 -3.561034
-20.20667 79.07618 -4.131876
-13.56741 103.8451 -5.672281
-16.53597 88.5616 -7.236009
16.16968 97.78625 -4.879969
10.50055 121.6102 -2.797898
-14.68266 108.6101 -0.4356067
8.544822 125.6642 -6.882226
-22.63708 52.23766 -0.07496744
-13.59209 11.33005 -15.36351
-19.29789 16.61634 -14.6181
20.44645 55.76994 -1.419142
20.76564 59.6086 -1.097143
21.88669 19.07046 -11.39818
11.33006 11.70733 -15.75824
1.743161 9.844291 -9.10146
-21.45782 73.88225 -3.751524
-19.17658 77.57368 -5.739554
-16.57191 87.65907 -7.227727
-13.75003 101.1742 -6.845779
-15.12753 88.81824 -8.614372
18.38409 85.71955 -5.37307
10.41514 123.0681 -3.706244
8.098425 133.5529 -10.98987
12.01656 120.0307 0.9788487
9.272191 122.4799 -4.612141
-7.762674 11.56432 -11.70594
-20.20273 20.38315 -13.18581
20.63839 58.71236 -4.11783
20.59869 56.84555 -3.384559
20.20897 66.85641 -2.163522
4.710611 8.999007 -11.37796
-17.43762 78.27916 -7.669534
-14.44709 94.76042 -8.659415
-19.00362 89.19728 -3.11186
16.41054 87.66619 -7.456265
-24.09693 56.78744 -3.976936
-23.03965 60.10757 -4.5891
-24.15317 42.67497 -5.966268
-25.04191 53.87706 -3.258256
-22.3096 59.81121 -5.348584
-24.09723 62.69893 -2.557976
-7.062335 9.868038 -11.17902
21.69058 53.00961 -6.176821
20.83005 54.71532 -3.653843
20.30168 61.34874 -1.9594
17.13757 16.30329 -12.49384
-21.8345 71.4623 -3.876173
-19.59438 65.13953 -7.328219
-19.71741 74.22241 -5.682861
-12.93725 96.1956 -9.702421
-14.24786 92.38133 -9.354489
9.250027 129.8058 -8.809662
-21.07334 63.23306 -6.049291
-20.58584 61.25069 -6.873583
-24.26835 61.89909 -2.34713
-23.58581 51.18149 0.06736813
20.86732 60.96081 -6.587795
12.08652 15.79492 -15.42019
17.16079 19.28637 -12.43042
-21.99813 73.83013 -2.98149
-17.53081 74.63067 -8.125456
16.44106 86.54413 -7.600021
17.02988 85.62785 -7.215362
-22.57791 66.56657 -3.970999
-25.25473 48.47391 -0.1536167
19.35152 19.4738 -11.74008
14.66929 19.45401 -13.95775
-20.70671 71.62631 -5.05365
17.67365 81.13058 -7.558908
15.45834 84.83402 -8.713369
12.13928 128.1096 -5.141155
-21.27398 66.73156 -5.297812
-26.06985 49.01206 -2.633046
-22.34139 47.5321 -0.02154404
-10.32242 11.69618 -13.576
17.30695 17.7518 -12.39401
-17.43011 71.58045 -8.695211
18.20043 84.69801 -5.994895
14.3978 84.7533 -9.480108
7.114987 84.3552 -11.95927
-12.72949 7.637195 -15.07822
-18.86636 72.70778 -6.913472
19.05218 83.60672 -4.515148
19.03107 80.86272 -5.235423
18.93147 79.21365 -6.28982
14.98377 79.42875 -9.649496
13.75575 85.71459 -9.815642
-25.02316 49.17768 -4.184565
19.59913 83.66497 -3.427855
-16.35969 67.75618 -10.20084
-14.59009 78.7387 -10.14254
-4.074449 139.281 -12.69497
-6.105442 137.327 -12.49033
-6.35729 139.0343 -12.75982
-1.118991 137.3119 -12.44597
-6.555789 135.9297 -12.07268
1.022883 137.4566 -12.46483
0.07520588 136.5022 -12.27529
-1.763494 132.105 -10.98063
3.481998 136.8276 -12.33362
6.252159 135.2039 -11.88526
7.580723 137.4226 -12.41231
21.68343 31.85868 0.9460008
-25.634 47.61678 -0.4675606
-20.35916 15.72338 -13.44025
-20.73693 18.61945 -12.4057
-19.68136 9.973959 -15.06323
-18.95468 13.63089 -15.25574
-19.59225 17.16322 -14.29282
-19.98456 18.80688 -13.67177
-16.03579 19.26649 -15.4268
-16.72239 17.21603 -15.56617
-16.04307 15.20504 -15.75116
-14.38731 15.06396 -15.47526
-11.61974 17.31191 -14.28636
-12.29664 18.1634 -14.59191
-20.9476 25.54666 -11.54502
-11.53987 18.72906 -14.22492
-29.09402 19.64209 -4.17526
-29.47071 18.62371 -3.891708
-27.88651 18.30875 -5.259433
-25.06729 18.18579 -6.827232
-12.97937 129.186 -4.334041
-13.18611 129.828 -4.557405
-13.8594 131.3062 -4.210186
-8.924883 128.612 -8.339828
-8.694397 127.584 -7.875992
22.54841 35.39805 1.421651
24.30442 18.61337 -5.148747
25.6798 18.15233 -9.142913
25.40503 15.34981 -10.22384
25.6592 17.5584 -9.385123
10.86716 127.8354 -6.547886
-26.01392 33.92346 0.5422069
-25.00911 37.70941 0.5860294
-27.36543 35.6189 -0.6700382
-10.44954 122.4488 -3.254944
-10.62217 122.423 -3.016546
26.08843 31.80511 0.930923
22.78435 47.77779 0.8634188
20.46654 79.93677 -1.394785
16.82511 90.7731 -6.69777
9.368028 100.6196 -10.55964
-12.38466 110.4921 -3.338373
10.77212 110.5281 -4.692784
6.052025 109.2697 -6.63978
10.93976 108.8159 -5.449748
8.741624 105.765 -8.148211
5.611745 107.6247 -7.549424
11.53503 110.2123 -4.356618
6.360111 108.6071 -6.898095
6.651108 105.8562 -8.596274
5.789925 102.9352 -10.39569
9.611144 96.18069 -11.79475
11.20409 104.4594 -7.581152
11.92445 101.1809 -8.656705
-25.56966 43.89874 -0.02299615
-1.680857 5.053312 -8.531709
22.10156 30.35473 -1.764498
11.50744 116.0174 -0.8675414
-5.643307 7.003632 -10.16909
22.49196 18.81948 2.008786
22.46082 20.36055 1.904578
21.52814 19.93778 0.7490909
20.14814 66.01754 -4.540288
20.01234 66.85026 -2.67109
15.31387 13.00066 -13.8083
15.45622 98.12695 -5.968114
15.81587 96.59572 -6.151475
15.0957 96.24481 -7.382288
14.25001 100.5762 -6.510709
13.32355 93.94441 -9.942487
6.970782 94.02657 -12.75229
11.35849 97.26662 -10.58125
11.19063 96.79625 -10.85225
-26.09247 21.08154 -6.19332
-15.41694 87.89535 -8.336475
-15.79089 86.43466 -8.128029
7.233453 118.0082 -4.666537
-13.36596 14.06478 -15.18452
-9.603293 15.83495 -13.07548
3.975338 11.13915 -10.62269
22.14836 52.02298 0.3031206
-13.02941 90.05537 -10.30293
-9.605728 96.82771 -11.64593
-12.52871 98.08029 -9.424235
-24.63407 49.38063 -4.575279
-14.41309 53.93183 -12.72301
-6.897893 12.02192 -11.07009
-4.629489 9.542946 -9.623524
-5.433509 13.13959 -10.1281
-2.662194 13.06815 -8.902228
0.1013692 9.789268 -8.645716
-4.300379 12.54992 -9.499532
19.06937 62.83091 -9.307059
11.5912 73.89112 -12.01151
-2.149515 66.95931 -10.43675
20.41728 61.44371 -8.212546
20.13844 64.5647 -3.881511
18.64546 64.06807 -9.405504
17.61268 66.67592 -9.655522
-20.93303 67.54787 -5.509325
20.40436 20.16905 -11.60856
-16.15239 69.95205 -10.08821
-15.3348 69.6013 -10.74335
-8.262153 66.85912 -11.91501
-13.69977 68.16093 -11.7451
-11.88989 70.75401 -12.03866
-7.373464 75.18272 -11.70417
-14.58116 77.06791 -10.3539
-18.4785 59.92454 -9.413854
-14.23538 80.74804 -10.10226
-11.70302 65.76259 -12.38499
-15.91265 84.1386 -8.338309
-17.94507 85.0197 -5.973073
-14.11463 81.80139 -10.03859
16.08393 79.34509 -9.012976
14.72028 73.4778 -10.34894
11.68503 80.01791 -11.45557
11.77368 77.36964 -11.63704
0.1762039 77.51407 -11.16672
10.27569 82.291 -11.75003
14.55483 69.34911 -10.79228
19.92942 74.0624 -2.734334
6.894093 85.25631 -11.92202
16.82422 71.32296 -9.518991
18.31409 69.83868 -8.851446
11.33936 72.30747 -12.2268
17.63567 66.23175 -9.693012
16.53612 74.04932 -9.371353
8.657107 84.29778 -11.86861
6.418751 87.34229 -11.94251
14.71441 67.16961 -10.88657
4.606337 83.78902 -11.88034
-8.696944 78.70145 -11.83823
0.6873967 84.45817 -11.78761
-0.2199147 84.72221 -11.80697
-0.1003587 86.51934 -11.96942
18.44401 62.22344 -9.747085
10.70341 92.36874 -11.71679
10.03413 89.88692 -11.68518
9.061803 89.30993 -11.81471
7.501992 92.87244 -12.66465
9.488448 90.96204 -12.02753
11.29669 91.54852 -11.40068
11.55181 89.3866 -11.01627
14.20777 88.25151 -9.354288
10.38133 91.36389 -11.77736
5.823407 93.70457 -12.80332
1.480828 93.83978 -12.78216
3.625748 94.72881 -12.7772
3.727925 95.99239 -12.66216
-9.312772 133.009 -10.30688
-7.98502 131.3551 -10.09419
-12.87295 131.8599 -7.068851
-9.839888 130.0703 -8.625593
4.314716 135.9715 -12.14161
8.608938 130.3415 -9.378579
-0.4325929 130.748 -10.43626
-4.541566 131.6728 -10.79044
-1.700249 129.7952 -9.979992
-6.059071 128.1414 -9.065945
-6.135991 131.163 -10.49182
6.591782 113.6132 -5.212851
-9.168399 114.4161 -3.93932
-11.34289 112.5644 -3.096573
-11.50087 110.7249 -4.092291
-8.825361 113.2575 -4.560918
2.788971 112.8636 -6.889745
-4.639118 114.7456 -5.45261
-4.645694 109.8428 -6.593278
-4.417803 109.4208 -6.799442
-2.393093 110.1616 -6.581306
-6.059726 109.2152 -6.661998
-8.984618 108.9223 -6.29422
-13.33676 107.1644 -4.107394
-9.077626 105.523 -8.172306
-10.55721 103.7331 -8.412723
0.5254885 109.1586 -7.000458
-10.87555 109.7003 -5.098838
-3.262868 105.3515 -9.035425
0.1526738 103.7071 -10.01166
-4.359455 105.3589 -9.040488
-6.861925 107.333 -7.561923
0.1260648 106.4809 -8.462437
5.879819 105.2592 -9.061131
3.413251 108.1748 -7.463162
2.7578 110.6398 -6.428993
-25.66123 44.83339 -0.1938796
-14.02132 21.78877 -15.01633
-13.68326 23.64676 -14.82455
-27.9968 21.44019 -4.961453
-8.864806 137.25 -12.0944
-10.79221 124.5068 -4.202479
22.02234 38.05066 1.019321
22.33214 35.38969 -1.913227
21.8642 37.75471 0.9048016
24.23651 20.95776 -10.39791
11.64496 128.9553 -6.5227
6.017642 130.0943 -10.02221
4.988515 130.9763 -10.50908
6.078994 127.6604 -8.806765
2.417022 128.2373 -9.309322
7.886203 122.3373 -5.534021
0.2070657 126.9765 -8.856829
2.142919 130.7191 -10.41762
-27.47792 36.12928 -0.9312792
-9.540629 118.3216 -3.051393
-9.462233 118.8671 -3.216588
-6.778343 118.6877 -4.988908
-6.311977 118.8712 -5.221986
-7.531118 113.9649 -4.796186
-6.82649 114.5827 -4.902946
21.60295 45.84399 0.3020097
-20.28833 80.76363 -3.578527
11.29632 114.443 -2.100277
8.317011 111.4548 -5.406277
7.9397 110.0461 -6.057755
7.85427 114.3648 -4.561666
-1.376598 114.4532 -5.680293
-3.529806 119.9724 -6.351897
-2.892556 118.0759 -6.011472
1.171911 110.751 -6.264095
5.864013 114.2751 -5.219989
-4.241981 116.2947 -5.570372
-1.457608 116.7893 -5.806954
-0.3272287 116.5197 -5.750622
1.835399 115.232 -5.704973
7.664234 119.3088 -4.656878
2.401114 116.8904 -5.785254
4.095196 119.6302 -6.146247
8.286893 122.1619 -5.219083
21.89078 24.23746 1.221588
21.83459 28.18522 1.096007
21.65307 29.7762 -0.9887751
20.4357 69.3735 -1.610354
12.44488 107.372 -4.991904
22.94383 18.45455 -3.403667
20.00913 68.02271 -4.622912
-0.5131816 7.484842 -8.563664
6.737596 12.62312 -13.59324
7.53827 11.77479 -14.36986
5.012799 16.36775 -11.68232
12.79436 15.24154 -15.28198
8.363024 16.47478 -14.77995
11.68945 98.09523 -10.07805
-23.66527 20.93838 -7.75588
-10.76374 82.85226 -11.3683
-12.56644 86.42113 -10.37218
-10.52208 85.25972 -11.22437
-8.845304 85.71054 -11.53816
-9.916943 18.64751 -13.27057
-10.67592 22.43401 -13.70022
0.06311294 20.3151 -8.844923
-6.272286 15.8585 -10.70552
-11.06176 94.25312 -11.44159
-10.97836 90.58473 -11.4359
-12.81552 90.41367 -10.46733
-8.934111 89.08797 -11.77556
-3.123558 86.12833 -11.89533
-6.811965 90.15845 -12.30961
21.49396 42.88371 -1.891544
-18.44979 52.07259 -10.65182
-21.07517 54.87918 -7.38082
-18.99455 60.58067 -8.758968
-20.8953 53.32097 -7.842804
-20.59472 59.51133 -7.145745
-18.46848 60.68757 -9.304399
-16.24534 56.86301 -11.64917
-15.96475 56.35 -11.86067
-16.48444 53.82737 -11.87739
-15.20305 61.1974 -11.74586
-16.11675 62.97729 -11.00491
-20.55191 55.82813 -7.804207
-18.54594 54.65577 -10.16612
4.708704 15.71335 -11.37447
6.739472 17.83129 -13.47616
-3.10204 15.09729 -9.050314
0.9303477 18.97044 -8.967692
-5.270864 15.15391 -10.07343
0.1142036 21.15438 -8.873837
-5.277737 23.8312 -10.20016
-4.436156 23.88869 -9.743294
2.18318 20.32501 -9.45583
-5.575772 28.90721 -10.43822
21.17304 56.06124 -8.131516
20.46106 21.87798 -11.6124
-15.05375 72.34437 -10.61666
-8.501734 67.59011 -11.96237
-18.20917 81.31503 -6.282995
-18.35146 84.84962 -5.459027
-9.971223 78.51124 -11.80632
16.99383 76.82209 -8.795964
5.289448 81.50647 -11.89809
8.912905 77.38684 -12.36451
4.008236 66.59436 -11.14805
8.749245 74.11639 -12.5738
10.75171 93.9479 -11.64713
6.83724 96.92712 -12.42264
4.16439 98.72621 -12.06077
3.167601 101.078 -11.28778
3.622914 97.15186 -12.45149
0.7320916 93.93505 -12.77574
-6.172014 92.06626 -12.70297
0.175996 98.59199 -12.09721
-6.81141 103.9934 -9.733003
2.827464 102.7301 -10.52544
-0.9007469 101.589 -11.07339
-2.205254 103.5481 -10.09184
-1.996112 102.7799 -10.48933
-3.673251 98.64902 -12.0902
-19.09131 25.20463 -13.80394
-17.01517 25.12765 -14.78717
-26.34623 21.43403 -6.033697
-28.06784 31.27084 -1.008979
-27.00368 25.83929 0.6406724
-28.11165 25.05597 -4.508342
-28.14885 28.02556 -3.959343
-26.86977 29.00878 -5.211854
-28.49291 30.4317 -2.103422
-22.19732 27.82708 -9.321624
-28.50805 27.69976 -0.9783891
-28.6011 29.35715 -1.837581
-25.88655 25.71325 -6.094059
-27.10569 31.14321 -4.747781
-28.2801 24.5392 -0.05479629
21.7895 41.77369 0.6904729
22.83964 44.88744 0.9630565
24.1658 30.04103 -5.886534
15.12914 104.1021 -3.079671
1.261698 126.9418 -8.854787
-1.555202 127.6966 -9.119826
-1.241422 127.1878 -8.935398
-2.544047 123.6641 -7.632362
-1.197354 123.6046 -7.641571
-0.1689513 124.4886 -7.872492
-6.059239 125.5794 -7.830525
-7.924919 125.0343 -6.879899
-8.557934 124.546 -6.274837
-0.2937254 121.6563 -6.868851
1.10889 120.9728 -6.687308
-0.7883412 117.9695 -6.015006
19.79757 72.04267 -3.438433
20.00933 68.57642 -6.535585
17.48051 75.16493 -8.719632
18.52334 76.19707 -7.691879
19.14932 77.74737 -6.019317
6.571598 122.3847 -6.277448
-24.81607 45.05774 -5.017279
-26.0549 46.90546 -3.303409
-27.48959 38.53107 -2.285933
-27.0481 39.07978 -3.29865
22.75775 32.87783 -2.804283
