# .PCD v0.7 - Point Cloud Data file format
VERSION 0.7
FIELDS x y z
SIZE 4 4 4
TYPE F F F
COUNT 1 1 1
WIDTH 1660
HEIGHT 1
VIEWPOINT 0 0 0 1 0 0 0
POINTS 1660
DATA ascii
-19.25947 47.51633 4.879455
-20.56759 30.50813 3.718219
-3.513018 17.49643 8.236643
7.210354 21.48175 8.440851
-16.46009 21.44921 5.473448
-13.31462 18.6165 6.433027
-20.78757 64.76443 3.600778
-20.70775 67.15717 3.665728
-14.61096 69.12171 9.391807
-18.62439 61.6003 6.017929
-19.25275 58.65382 5.231051
-19.19399 69.81652 5.774348
17.90122 61.73748 6.936214
16.5022 62.46917 8.089511
17.22015 53.75455 7.030478
20.79906 62.68083 4.210404
19.3765 66.047 5.687726
17.29145 63.95757 7.587379
18.04832 64.64754 6.966955
16.08122 67.00958 8.661421
-19.39223 82.62954 6.069834
-18.81071 88.60561 5.932534
-18.75899 79.17836 7.056049
18.4809 83.49772 7.485108
18.16585 88.71579 7.062529
16.94298 89.54899 8.300134
17.90503 81.89252 8.163619
19.61311 78.22197 5.642545
17.33807 93.33338 6.328506
15.45625 92.76449 8.618426
-16.51998 102.8177 3.848155
-15.99369 104.8592 4.221059
-6.477262 112.9274 11.21869
19.54476 35.77636 4.959881
13.13147 34.47311 8.008913
17.56719 37.52288 6.041541
13.62228 104.1525 8.191668
0.4104764 116.598 12.07089
-5.268915 16.8782 7.961882
19.07188 49.94982 5.526524
-13.81849 21.03012 6.458685
-14.44341 25.88297 6.586349
-19.36632 64.3755 5.308627
-16.65522 66.51016 8.156039
-20.35436 62.57287 4.121682
-19.7209 67.65195 4.984339
-18.34148 69.03538 6.778914
15.03892 60.75783 8.886702
16.33257 68.44481 8.584548
-17.95549 95.54427 2.567773
-17.67086 87.32272 8.040697
-13.12537 79.36542 10.10084
16.95228 88.5495 8.477577
16.86478 92.90945 7.246991
-16.4687 102.7814 4.067364
-9.874344 115.5582 8.957911
16.40477 30.95815 6.336698
13.45499 105.434 8.21953
10.80122 104.7877 9.526514
-16.15884 20.81318 5.556957
-14.51817 23.92089 6.41794
-13.83449 25.88737 6.837141
-14.71965 20.75731 6.112653
-12.40812 21.45344 6.972462
-17.91251 67.41771 7.129361
-17.3724 66.33164 7.546832
-15.46794 65.60273 8.830076
-14.57157 65.93872 9.25748
14.35378 59.45647 9.127673
12.63046 62.54973 9.790839
17.66818 72.38995 7.826101
16.97941 74.57105 8.543971
-17.50064 79.94791 8.483487
12.89474 86.09926 10.23642
16.23606 77.63303 9.209999
-14.92604 105.4205 6.502106
-14.44252 107.5788 6.53062
-10.82757 116.208 8.104186
-11.0302 115.7019 7.831655
16.65237 38.87453 6.596434
19.31517 43.1734 5.215653
15.70999 40.88209 7.223159
11.7345 99.66679 8.997543
4.404699 18.85874 8.453159
6.484751 19.17081 8.271435
-14.8881 27.11507 6.482668
-17.35352 27.44483 5.348026
-18.46956 28.44139 4.819609
-14.91518 68.99127 9.289906
-14.62706 71.16695 9.478845
-13.77177 70.0921 9.663529
-18.66568 77.32414 7.029996
-18.90522 75.47892 6.547937
17.33084 75.55938 8.333706
18.28167 79.20542 7.678698
17.91099 77.31698 7.966886
15.57068 74.53291 9.361087
17.48192 78.34822 8.396656
15.28334 75.01743 9.493045
13.74337 72.72227 9.856226
14.56982 72.16599 9.621044
14.47327 74.80506 9.766576
-16.20255 98.24001 6.094872
-16.54862 90.25909 8.477712
-17.72177 93.31704 5.631262
-15.36165 96.78176 7.558663
-17.72679 92.7502 5.972785
-18.98728 91.60769 2.784355
14.67622 95.95134 8.30915
-14.12017 108.201 6.44915
-3.049203 118.0377 11.83895
-11.30507 112.9439 8.272388
18.8136 46.93992 5.622982
12.6354 102.8363 8.765723
-17.33184 45.45749 6.239399
1.768052 21.40654 8.883772
9.122312 22.45808 8.189799
18.66403 78.79949 7.179677
-7.758047 112.1533 10.35473
-11.78673 111.729 7.983799
14.32362 38.89134 7.799858
-19.63931 51.33683 4.663865
8.758497 22.1263 8.23119
9.307671 24.50375 8.356356
-6.211328 113.7882 11.29538
5.2164 112.1888 11.76914
-13.55939 111.6281 5.923424
-13.67469 111.4474 6.035784
-10.15366 110.8193 9.335126
-12.1406 109.0401 8.48463
-8.692364 113.0508 10.43977
15.05035 40.54158 7.5507
-16.27799 48.67175 7.172928
-19.02099 51.92169 5.211209
5.191825 23.73987 8.929634
9.606087 17.83085 7.589901
13.84968 20.26684 6.729227
15.94844 23.72816 6.206418
-6.030093 112.6676 11.33484
-2.022451 105.8354 12.27706
-11.42442 108.4709 9.197743
-16.96093 52.09398 6.909797
7.210907 25.16413 8.817696
0.6722993 110.8161 12.21788
-13.35337 105.4519 8.304811
-17.65068 52.97028 6.419358
-1.395023 32.16267 9.551942
12.73979 91.52075 9.726455
12.63506 89.4519 9.984384
-6.503854 110.4847 11.07817
-10.96552 106.1806 9.562678
-15.68195 55.56096 8.04431
-12.08782 50.77143 9.272509
7.876362 24.83988 8.678791
-13.39312 51.42165 8.888233
12.6047 26.7458 7.608078
9.879221 28.72469 8.606801
13.47141 34.47256 7.864212
8.259329 28.32314 8.917252
12.25927 35.10468 8.399244
8.007483 27.0092 8.851879
-15.21635 53.61476 8.186969
10.87163 36.46649 8.946811
12.44907 36.22839 8.416707
14.04997 39.17569 7.94518
10.00709 36.48298 9.171913
8.112265 31.31363 9.185633
12.14369 39.31153 8.749755
5.856018 29.49881 9.335196
2.655746 28.89674 9.440127
3.01168 25.74091 9.228351
13.41898 21.20313 6.921171
14.81978 17.72516 6.307088
10.85918 115.3855 8.748926
9.072268 114.6964 10.3872
10.97234 114.4054 7.956498
11.95144 117.0467 6.374897
5.512129 115.3627 11.25385
5.639131 114.6806 11.38385
3.944466 114.8395 11.87175
6.613029 112.933 11.11215
18.70289 26.87417 5.207223
16.85348 25.85191 5.942292
19.37389 24.95843 4.899235
16.98271 24.77754 5.854354
17.26512 29.25649 5.886627
12.8512 26.16794 7.473632
12.41697 25.84202 7.597302
13.88964 26.18061 7.101499
18.73721 17.02009 5.064534
12.59913 29.58279 7.836576
11.87872 22.86132 7.517206
14.57951 24.8427 6.758969
17.35888 19.92132 5.582251
16.59952 21.85664 5.902007
11.5057 17.09304 7.109558
13.20586 111.9329 6.085862
-4.060269 115.7881 11.83341
-16.93742 46.72615 6.596934
-16.00265 46.06988 7.17206
-14.2082 47.48749 8.279719
-6.529681 21.4991 8.393651
-7.413754 20.2355 8.103587
-11.19114 22.87057 7.488934
-5.086038 22.31741 8.671763
-5.91252 21.21021 8.447697
-4.150282 23.54831 8.879675
-2.416768 20.18699 8.670095
-3.35759 21.82273 8.78012
-2.242363 23.01747 8.96132
-2.80395 25.94584 9.165364
-0.2131828 20.2285 8.759758
-0.5539899 28.59218 9.406456
-0.9491287 26.41314 9.267624
-5.048602 28.81784 9.201592
2.312408 23.30372 9.050426
1.442964 20.63767 8.806458
2.636776 28.11642 9.393571
0.003864131 28.674 9.421053
3.727195 29.21394 9.430884
4.154211 30.83667 9.507308
6.597492 33.50488 9.511224
0.6635646 31.83449 9.577012
-2.209831 34.10604 9.603086
3.866405 33.46442 9.636574
5.319613 32.84091 9.557463
1.517814 37.01325 9.758185
-2.759131 38.85374 9.740108
3.137644 40.07613 9.842807
2.101662 39.30156 9.819736
-1.349985 36.29518 9.698707
-13.57001 49.77153 8.713085
0.561251 30.29801 9.508152
4.114673 33.78364 9.644845
-2.546354 39.33088 9.757876
1.756647 40.33921 9.840054
-0.5927437 41.65221 9.841667
-9.689443 50.40392 9.705219
5.568798 32.36424 9.51954
6.346603 36.20374 9.655764
-10.86849 49.23447 9.482572
-2.122891 39.42691 9.768884
-10.32639 47.33226 9.49309
-9.789001 56.86963 9.862921
-1.923553 41.74066 9.825541
-7.872991 52.00383 9.880349
-6.217815 49.10895 9.885468
-8.190597 56.12745 9.939456
-4.137615 39.98885 9.7344
-5.25984 52.96859 9.965308
-4.834368 51.61952 9.95286
-8.914536 54.84933 9.880839
-4.290566 43.83517 9.827682
-7.013747 43.81332 9.719892
-8.526349 43.18416 9.565536
-6.770899 41.02821 9.642821
-7.207353 49.43465 9.854586
-5.377022 37.48315 9.602675
-3.137934 52.08194 9.9769
-7.229679 45.29995 9.743332
-8.273359 46.53431 9.712541
-9.701898 49.99115 9.689538
-5.68343 46.6342 9.850982
-4.071731 46.21812 9.879169
7.7426 47.91981 9.947492
1.723242 46.98989 9.949418
19.58249 48.84054 5.143627
16.24758 44.57602 7.140452
17.53737 47.43053 6.484373
-18.33049 90.92242 5.77384
13.63436 108.2485 7.123801
13.20765 97.63005 8.711741
14.99118 101.215 7.064836
-12.47123 25.03679 7.276731
14.28951 62.96265 9.328065
11.71604 62.1028 9.92372
12.43857 60.30132 9.749661
13.67168 88.74669 9.982667
13.17731 103.0814 8.4807
-12.86971 70.23044 9.826107
-13.6419 72.05541 9.761705
-17.43875 72.62827 7.965079
-15.14889 74.31953 9.457314
-12.56238 73.843 9.969173
-12.49798 78.06143 10.08908
10.86494 79.01357 10.17331
-12.59776 93.8028 9.414505
-15.46314 97.1163 7.386381
-13.3614 91.30767 9.712729
13.11816 99.63528 8.534586
14.15217 99.83878 7.93762
13.13148 98.91055 8.590961
-16.34757 58.07198 7.77298
-12.04478 54.68177 9.476274
-13.39198 56.41935 9.170617
-14.59161 59.5473 8.869295
-11.50143 67.56049 9.925599
-13.04732 59.94458 9.456477
-12.14711 60.50531 9.672652
-12.50913 61.22594 9.630904
-9.353988 58.57653 9.926158
-10.92545 65.74446 9.944181
-13.41579 66.10532 9.595347
-11.47082 62.08769 9.822118
-8.51856 56.00202 9.924711
-10.95087 59.31503 9.819949
-12.6209 56.8657 9.440598
10.86446 92.40857 9.593416
10.19041 88.13164 10.00698
10.42198 91.92012 9.641116
9.584804 94.75108 9.362181
7.871457 90.6076 9.742689
10.73241 87.24925 10.08981
3.411803 80.14667 10.1292
7.778186 85.63368 10.08594
7.790539 85.89333 10.07474
8.137757 89.73065 9.824336
5.610713 86.76441 9.993255
10.46437 85.75912 10.15331
10.8467 83.24387 10.20723
5.799718 84.05241 10.0997
8.509235 76.58423 10.15974
7.01472 83.48048 10.13022
9.837586 32.8721 8.946461
10.03527 33.79885 8.969324
12.66003 40.25705 8.624817
10.53633 45.93121 9.573561
11.12342 39.57465 9.09276
17.05618 43.63468 6.603977
10.62523 41.48351 9.337167
15.98854 47.73031 7.486381
9.998837 40.30061 9.405966
9.655544 42.07976 9.56925
13.89637 44.33087 8.384872
10.58923 45.81844 9.560404
9.542734 37.47184 9.320071
8.778533 45.29306 9.801472
6.801972 44.7482 9.914907
12.40001 46.72297 9.151433
7.183794 42.30828 9.830002
4.849247 40.99216 9.861672
3.338057 41.86036 9.881343
13.58136 49.39062 8.866035
10.28321 49.6736 9.78381
13.19005 51.23968 9.120359
14.13825 50.6053 8.69764
10.11457 48.56807 9.770142
13.43855 50.08338 8.958551
13.22665 54.05592 9.252808
8.181612 46.05876 9.873081
17.14767 51.5602 6.963058
3.140199 49.14137 9.985682
6.66737 51.39403 10.02155
9.331308 48.98372 9.856073
6.083175 54.2933 10.0509
8.632378 56.90579 10.05526
5.581504 50.9775 10.0196
10.88244 114.17 8.017506
10.65795 112.044 8.856599
10.22508 112.9175 8.759554
2.279061 118.7695 11.87675
4.394829 108.9722 12.07112
-1.635696 112.8765 12.03997
5.723407 111.2221 11.39585
6.172456 113.6459 11.78056
11.82496 108.8224 8.799627
7.014754 111.5381 10.6877
12.17711 109.6947 8.161198
11.67496 107.0002 9.217739
6.996095 104.4595 10.82862
11.68368 105.6158 9.224306
9.541266 104.5036 9.942557
10.89309 103.4391 9.469745
8.114227 108.4028 11.15646
8.804949 109.4045 10.85429
9.019933 103.7389 10.0854
6.575531 109.8168 11.18355
4.191719 107.7373 12.18477
6.64313 102.9469 10.73166
4.899634 102.6552 11.19585
6.177224 100.6583 10.26192
5.479151 110.4168 11.58352
2.96447 101.7472 11.43382
3.108959 108.4287 12.25839
-18.2268 33.01894 5.103492
-2.3128 116.6754 11.93574
-2.924169 117.2432 11.86669
-2.310817 114.9202 11.9323
-5.326474 18.51815 8.191729
4.901631 23.9256 8.973462
-0.2603725 30.93635 9.525189
7.633664 36.7457 9.582824
-4.354664 58.23313 10.03255
-6.622854 57.74686 10.00381
-7.210203 58.49653 10.00239
-1.190605 62.06213 10.07329
-6.206756 62.35836 10.05588
-10.42804 60.30936 9.888696
-7.940222 60.67962 10.01163
-15.89037 33.84166 6.439451
-1.620544 32.7369 9.568774
-4.423033 34.58239 9.540827
-5.068212 31.83001 9.373426
-5.180532 27.54176 9.104185
-3.144036 28.26711 9.296335
-11.55123 45.82794 9.175072
-17.7187 90.59875 7.03231
-16.07774 90.53317 8.771868
-13.23569 89.746 9.931108
-15.72153 100.1634 6.361767
-11.441 96.919 9.126163
14.08044 98.414 8.198219
16.15602 100.3641 5.630491
-10.96703 25.05495 7.776995
12.20937 62.56282 9.86207
-13.13041 72.05602 9.83369
-10.45023 70.28519 10.05474
-10.40595 70.92653 10.06335
-10.05621 66.73044 10.01776
-7.579186 66.78799 10.0811
-9.957173 69.97874 10.06707
-10.59094 73.51218 10.08628
-6.274078 65.62833 10.08178
-8.789552 61.89612 10.00049
-8.249903 61.53164 10.01475
-5.953756 66.85318 10.09172
-6.028456 69.54751 10.10772
0.8692777 62.60498 10.08148
-12.92877 78.52812 10.08018
-14.48092 80.59567 10.03038
11.69597 76.71067 10.12696
-13.9052 92.72202 9.37039
-13.89303 88.65043 9.96915
-16.87874 86.11428 8.868054
-9.858932 89.25388 9.901666
-11.40983 91.76657 9.685503
-12.34603 94.90955 9.272156
-10.4856 92.59818 9.5918
-10.26056 91.70776 9.68223
-8.075623 97.56909 9.576109
-12.51494 96.34541 9.03231
-3.119277 105.3539 12.17094
-9.421979 96.49275 9.37999
10.97972 95.53721 9.273804
12.4123 96.46771 9.029499
-10.3073 54.97468 9.76577
7.168148 85.11018 10.09097
8.174911 38.50027 9.603951
3.026573 39.56485 9.830439
15.32745 54.95155 8.360354
9.648211 54.959 9.97574
13.86621 55.45292 9.091337
11.20596 58.83735 9.914689
8.932027 46.02571 9.808799
6.079967 49.18272 9.998367
4.418165 49.34584 9.996774
2.038553 50.91779 9.99652
5.120919 44.03424 9.92357
0.008951941 50.33732 9.97801
3.101509 45.48753 9.939686
4.518072 52.09973 10.02473
2.523431 43.17971 9.899769
1.570031 42.90895 9.887186
-1.836705 46.6372 9.914896
4.285563 44.98919 9.938999
-2.002917 53.80851 10.0034
4.924772 54.33632 10.04571
0.2617371 46.9067 9.937009
-2.562224 55.34546 10.01549
0.3859655 55.89805 10.03288
5.915647 55.80851 10.06222
-1.12391 57.13366 10.03739
2.702906 57.71576 10.05654
9.53047 47.33505 9.787205
9.668996 59.2948 10.04867
5.719152 56.57125 10.06612
1.407196 117.7122 11.99148
2.05276 116.8886 11.95069
7.396358 101.798 10.21172
0.4949233 110.3738 12.21235
-18.83738 29.42787 4.652431
-18.00887 29.42384 5.093056
-19.12859 36.10216 4.660654
-18.64227 40.76809 5.119167
1.291453 114.0052 12.15866
-3.738726 60.93311 10.05852
-14.19282 45.49965 8.13839
-8.661696 40.22804 9.426599
-8.130639 39.66411 9.46613
-10.5122 44.72567 9.343659
-11.02267 41.62356 9.065646
-12.27235 34.4875 8.158438
-12.2112 44.58697 8.90059
-12.37781 101.7305 8.81323
-16.17476 80.49416 9.425021
-16.07681 81.89716 9.517858
-18.35401 84.44128 7.57941
-16.93154 87.20458 8.706078
-15.38163 82.69006 9.849869
-15.08968 82.85413 9.936709
-9.909201 78.76389 10.15671
-11.69778 82.02383 10.2041
13.28051 64.28587 9.706586
12.04234 65.31031 9.939298
11.78068 66.92043 10.00187
14.08589 66.0173 9.553532
-12.77654 73.63834 9.937085
-4.810754 70.08821 10.11238
-7.797266 67.7736 10.08792
-5.358222 66.70007 10.09297
-0.5039606 69.76298 10.11404
-1.365015 65.73087 10.09458
-2.160648 68.57896 10.10753
-1.930215 63.46688 10.08063
-1.161734 59.99969 10.05927
-2.36011 59.52285 10.05223
11.08472 75.0089 10.12326
-5.515503 91.52934 9.714324
-10.39682 87.14412 10.07469
-9.597904 84.50095 10.15565
-8.644234 85.39514 10.10635
-13.20009 98.742 8.574495
-14.62585 96.53473 8.232761
-9.448543 98.01472 9.367142
8.887334 98.52428 9.383988
4.314974 85.6229 10.02667
10.49438 61.31852 10.03446
4.835835 45.70644 9.951111
-3.379788 54.82786 10.00565
9.167525 59.23453 10.06524
5.405415 58.10567 10.07341
4.177662 58.03637 10.06571
2.261495 58.94715 10.06291
6.330995 59.00956 10.08363
7.301006 58.74687 10.08593
5.288052 61.00249 10.08781
3.541961 60.03974 10.0746
7.372894 60.37799 10.09337
7.539602 63.70034 10.11008
2.309075 66.18991 10.10374
3.247696 68.69312 10.11695
5.562868 68.41116 10.12182
5.754526 68.02688 10.12078
5.550721 70.34446 10.12946
0.8586896 109.2274 12.22824
-1.068212 108.071 12.27446
2.594304 106.2396 12.29001
2.014515 106.363 12.31751
-0.6460238 113.5718 12.0808
-4.537755 111.7481 11.70565
-4.650955 107.1379 12.02899
1.551088 106.8298 12.31327
-5.917857 109.9453 11.44749
-6.810099 109.6537 11.21149
-4.215086 102.1567 11.25931
-6.599678 107.2829 11.32061
-4.706264 103.8342 11.52066
-10.20356 107.0115 9.906971
-5.551353 105.6334 11.58589
-2.743877 105.8861 12.25197
-3.820441 96.7343 10.0245
-1.076006 103.6938 12.06396
-1.562635 100.7964 11.31249
2.949976 99.63604 10.74199
1.187822 105.3508 12.24917
4.029737 100.6135 10.83799
0.3283866 98.30887 10.5911
-19.89956 33.14323 4.136129
-16.56034 33.62108 6.066265
-16.24946 35.08558 6.323451
-15.39283 34.67635 6.754456
-14.4541 33.98977 7.177352
-17.08799 37.48028 5.967358
-14.1662 31.59912 7.135837
-13.95242 28.02259 6.955707
-11.91858 27.70566 7.712993
-12.38469 26.88762 7.470083
-8.668095 28.52634 8.677773
-7.897156 26.45288 8.655176
-8.632996 29.82223 8.797765
-8.022245 27.65857 8.733777
-9.712495 34.52105 8.913837
-13.39356 41.49949 8.226846
-13.87548 41.01023 7.97709
-13.4323 40.74185 8.156211
-13.29248 38.59604 8.062443
-16.99471 40.67081 6.200408
-8.781663 38.94998 9.354639
-9.421576 35.15306 9.01151
-4.581866 35.12265 9.553771
-12.35773 102.9373 8.884732
-9.231234 104.9914 10.13932
-11.2323 101.7235 9.190701
-13.40465 85.73362 10.23402
7.992555 66.16726 10.11882
13.88056 68.04568 9.685766
13.19429 71.02876 9.901573
10.5917 70.16026 10.10621
6.452402 73.0368 10.14153
13.103 72.00388 9.938503
6.134161 73.86158 10.14338
7.365459 67.86487 10.12353
5.810348 65.41106 10.11015
-1.311604 67.81566 10.10496
-9.363229 101.4745 9.670744
-7.87311 98.67818 9.71055
-4.84072 99.90486 10.52021
-8.581557 104.0401 10.25829
-2.411136 101.0523 11.30053
-10.4327 101.2131 9.362515
-4.773685 100.279 10.62664
-3.847764 99.50479 10.61031
-5.44872 93.8157 9.669905
-6.817919 90.56625 9.765914
-8.397972 91.92886 9.662739
-4.100753 92.35558 9.709734
-2.71794 93.84179 9.752653
-4.738409 96.98043 9.980517
-4.790184 88.43683 9.889961
-4.324924 89.02121 9.852547
-5.037651 87.2765 9.954458
-3.471269 92.08821 9.718859
-9.023363 79.13275 10.15965
-4.382578 94.31857 9.72599
-0.6362019 95.12725 9.881643
-0.3023738 92.84545 9.717519
1.580125 87.81506 9.903691
-5.706511 91.33999 9.721743
-0.5645912 96.21249 10.05129
1.794164 98.64984 10.59646
-1.444997 87.64523 9.913171
-1.99895 83.79005 10.0623
7.084503 97.73177 9.537881
-0.2590533 85.29285 10.01364
-0.548499 87.04147 9.940542
3.377258 98.39062 10.26751
3.806008 95.76614 9.700629
8.833776 96.35067 9.302093
1.463341 86.42432 9.972959
7.227351 96.14012 9.415716
6.372113 95.71193 9.485023
4.061512 92.68663 9.619782
6.701769 92.97596 9.545429
4.278808 88.98119 9.844211
-0.02118174 90.766 9.754867
0.5775834 88.63391 9.859136
6.130455 79.98233 10.15193
6.24039 81.76733 10.14261
5.730586 76.36549 10.1488
9.118339 77.44761 10.1643
6.774387 78.67561 10.15762
10.70436 78.33993 10.16722
9.482471 74.86764 10.14854
9.285438 74.69361 10.14913
11.79915 77.98493 10.14236
12.51831 78.73626 10.12941
14.55433 81.33983 10.04094
1.891506 79.2446 10.12683
3.048056 80.86798 10.12123
9.234396 74.86301 10.15067
12.95582 82.12485 10.21614
3.523334 77.41215 10.1385
4.142533 76.39481 10.14122
16.54562 81.91631 9.262222
4.775287 74.18109 10.13976
4.726255 74.10555 10.13939
5.490769 75.4836 10.14581
5.319852 72.42419 10.13627
9.395691 63.08107 10.08915
1.575809 68.42342 10.11206
1.732666 69.11304 10.11519
-0.7371041 69.35159 10.11211
-0.419003 110.8347 12.18258
-12.95877 33.49759 7.806539
-9.700407 30.61463 8.620806
-9.604453 31.07337 8.681392
-6.714844 30.09482 9.115804
-7.871519 31.43379 9.043262
-11.66178 35.71275 8.463484
-10.73416 40.13353 9.044744
-11.24104 37.64097 8.741256
-10.95154 40.6673 9.025483
-8.567095 76.46597 10.14114
-11.96287 77.20159 10.09948
-8.631397 80.11445 10.16205
-8.671738 80.69577 10.16417
-5.247509 97.42715 9.979967
-7.557545 83.46411 10.13107
1.899954 95.32005 9.803233
3.307899 93.37048 9.629224
3.269943 90.96652 9.719443
4.419133 90.91065 9.715041
-2.804925 77.00084 10.1293
-5.596863 72.31846 10.12175
-1.04684 73.83584 10.12564
1.664864 76.25317 10.13184
0.7343287 72.10646 10.12346
0.1420276 71.08949 10.11944
-0.8447039 75.32527 10.12775
-0.9728017 73.54146 10.12496
-6.005104 78.70645 10.14167
-7.216798 80.93352 10.14923
-3.389657 79.2253 10.12708
-2.339205 81.52654 10.10496
-5.864631 82.1512 10.12486
-2.71388 81.14056 10.11117
-6.567689 76.7298 10.14022
-9.547116 75.74737 10.13147
-5.348302 74.0454 10.12856
-3.922012 73.78661 10.12627
-0.144508 65.165 10.09357
2.078906 64.30909 10.09385
-6.077108 30.37966 9.206032
-9.506614 83.36882 10.1703
1.615409 79.91821 10.12177
17.91999 95.98177 0.5439296
15.06678 105.7078 -2.000729
16.31105 103.6309 0.02632314
17.63276 97.52782 0.8309526
13.42331 116.2093 3.757158
20.82354 44.34455 -9.256142
13.9263 13.84501 -13.60639
6.572518 11.73524 -13.23248
-17.61896 96.8427 -1.020099
-17.35206 98.6111 -0.4483397
20.67112 54.25391 -7.132156
12.84818 117.8651 2.924513
17.88306 95.39909 -1.582222
13.86257 112.0161 0.7351955
16.27782 91.84044 -7.226411
19.66587 82.61402 -3.52594
19.64225 90.35723 -2.065759
14.94682 108.4954 0.4344944
17.21979 99.78594 0.2907144
-13.30319 109.8597 -2.542287
16.18516 104.4597 0.6138662
16.59768 102.7491 0.3819064
-14.68792 109.6124 0.9242793
12.19188 116.83 0.2968037
7.15753 20.1733 -13.55475
-20.78956 25.13805 -11.10543
17.00444 100.7041 -0.007874127
-8.477199 13.20507 -13.99951
11.53502 118.9298 -0.2488469
-14.46366 15.10353 -12.93968
17.38978 98.74422 0.04930182
-22.26411 24.11851 -10.53079
-21.89345 26.90844 -10.61259
-20.88206 36.27152 -10.87358
-21.41959 47.35432 -8.055713
-16.92425 99.2015 -1.900268
-13.98776 42.14238 -12.6041
14.91744 108.2996 -0.02968482
12.97694 117.2392 2.801746
14.22621 111.9204 2.381463
-12.99528 116.0704 1.602749
-16.85646 99.79591 -1.676461
16.90973 101.7744 1.885845
-0.6368275 119.5249 -6.772771
-11.55774 117.6356 -0.6703222
-12.74079 117.0142 1.61649
-19.52184 74.99786 -5.02724
-19.48633 80.3491 -4.241601
-5.36648 119.5516 -6.275667
-17.34662 99.21177 0.8673902
17.17598 100.3333 0.9352487
-17.66144 97.19028 0.05720855
17.9386 95.07109 -1.750063
19.92011 68.62086 -5.342587
-13.12428 111.1772 -1.846006
-15.36048 105.8095 -1.155107
-11.73353 114.6199 -1.851178
-14.44669 106.4142 -2.825129
-15.10814 105.7151 -1.903391
-15.28225 107.3619 0.2352125
18.07676 94.93797 -1.042285
16.76173 95.52818 -4.997921
16.87515 100.0351 -1.359758
14.523 109.0106 -0.5415703
14.51981 107.0596 -2.233709
6.848676 28.44654 -13.39206
-16.78511 28.55463 -12.33388
-19.70428 15.55173 -11.46008
20.37848 63.8884 -5.528503
-11.14116 118.2085 -1.231676
-10.91094 72.20416 -12.52613
-12.84863 116.9337 1.838015
14.10632 110.7332 0.1628993
12.63741 113.4507 -0.9737093
-15.07185 108.0865 0.4094629
-17.83926 94.44057 -2.883177
-14.54546 105.6372 -3.157141
17.56325 95.89511 -2.514004
15.02809 106.4413 -1.521944
14.43762 105.8243 -3.231775
12.09002 106.5286 -5.764612
12.01355 108.154 -4.983367
8.618402 108.162 -7.067432
12.79231 106.9657 -4.84506
12.94971 104.8722 -5.824319
19.46657 20.56171 -11.53606
16.37204 41.41041 -12.11061
11.93172 17.89339 -14.07749
-19.7858 56.97522 -7.848961
-22.37637 30.17618 -10.25104
-13.54413 13.73338 -13.20655
9.653827 120.2045 -3.310472
9.988351 118.4164 -3.141005
-10.68192 118.2655 -1.984035
-6.285379 118.8032 -6.067716
-20.18534 67.88062 -5.289304
15.07041 92.14815 -8.591866
13.03093 114.8822 0.9500059
-17.87719 92.72305 -4.116601
-15.91902 101.2015 -3.235215
16.71863 99.60827 -2.29435
15.46547 105.2322 -1.38038
22.86289 20.28283 -10.05966
17.90863 14.67588 -12.10147
21.87418 33.71231 -10.2085
-1.839633 12.1502 -11.34064
-16.60727 27.47543 -12.36737
-12.79642 12.65804 -13.41637
-20.64717 23.94998 -11.16846
-21.72302 22.36834 -10.77455
-11.57847 11.71213 -13.71807
6.548568 117.4822 -6.168673
9.062214 117.9118 -4.451
-3.290103 117.5439 -6.881823
-11.76225 116.7061 -0.7187856
-19.19498 76.28473 -5.326834
-19.49632 90.02513 -2.875212
-19.18703 85.84512 -3.933119
19.86495 82.96159 -3.100219
11.24247 113.8502 -3.000665
11.74703 115.2681 -1.463889
-17.70933 91.70415 -4.995564
17.4427 92.67529 -5.106799
18.79362 86.5524 -4.419652
16.35515 98.16225 -4.227133
21.57527 29.2982 -10.57372
21.55869 19.28612 -10.66761
20.80967 16.2142 -10.97709
18.89684 51.64967 -9.749325
22.73999 29.86391 -9.810979
11.25662 12.71797 -14.31766
7.377074 14.41314 -13.66048
19.7616 51.7748 -8.795386
-16.98181 39.83915 -12.04045
-20.32188 52.4811 -8.094788
-6.835619 12.48658 -13.76949
-20.11685 25.68972 -11.36444
-19.69447 16.37215 -11.4639
-17.09932 16.37792 -12.2122
-12.68942 13.15188 -13.43805
19.11959 80.24551 -4.77905
20.36428 72.52023 -3.921464
19.54508 68.93784 -5.887482
4.585083 118.874 -6.53211
5.255866 118.3526 -6.466691
8.607605 117.3733 -5.012101
-1.712312 120.0348 -6.701352
9.660499 114.3215 -4.709424
-9.922552 114.9327 -4.238275
0.549201 117.5153 -7.016158
-3.274226 120.391 -6.58726
-18.90027 82.90582 -4.805258
-19.59148 69.1842 -5.919684
-18.93545 91.18165 -2.803789
18.54686 89.39017 -4.129894
19.27378 87.04647 -3.339574
8.753685 115.5405 -5.254348
-16.55648 101.2008 -1.514905
16.52585 97.55021 -4.25763
22.84729 27.77024 -9.850576
22.82786 25.94243 -9.931386
21.26975 43.08202 -9.098895
21.43255 40.61509 -9.608522
21.77764 38.69301 -9.722554
16.91033 17.95022 -12.44204
-4.059282 10.96148 -12.59436
20.38775 54.25763 -7.508892
-19.79528 40.81536 -10.92316
-20.45425 51.06557 -8.237822
-19.9814 55.12258 -7.96252
-20.77145 59.03909 -6.243118
-8.791978 14.16754 -13.99991
-21.97964 26.15205 -10.59847
-18.396 27.74317 -11.95242
-21.4927 18.636 -10.90018
-11.40906 14.66192 -13.7179
19.37533 85.86235 -3.46665
20.05554 68.81914 -5.08702
20.78694 62.25729 -5.2356
7.412165 116.9995 -5.850422
0.7890677 117.2045 -7.051676
-12.8152 102.1432 -7.381022
-8.599288 115.0619 -5.448905
-19.70278 79.18266 -4.072733
-18.64075 68.52091 -7.373716
-17.46848 91.32906 -5.546439
9.922448 112.2765 -5.044652
-17.25154 95.50512 -3.811162
-16.54952 95.19459 -5.59485
11.78467 88.34375 -11.27575
15.63967 102.281 -3.216819
22.34299 25.33944 -10.22552
16.81022 15.24649 -12.50553
20.98081 41.63765 -9.812813
19.5871 43.28373 -10.63796
4.827465 13.29805 -12.14071
6.541084 13.80419 -13.22102
0.04043845 12.08238 -10.61825
-5.250271 14.67797 -13.2138
21.28633 49.57356 -7.397855
17.63936 51.2581 -10.76666
14.90412 53.89267 -11.9073
19.81675 55.39324 -8.032123
-20.17151 41.44414 -10.54364
-20.92033 44.36032 -9.246977
-19.52033 50.63063 -9.251956
-20.33807 57.19806 -7.148654
-7.803607 11.06834 -13.94063
-17.43905 20.16352 -12.13964
-21.01571 31.45099 -10.93717
18.84216 81.1043 -5.10723
17.85 72.96082 -7.795097
18.40385 74.13844 -6.807446
19.05491 66.75799 -7.046445
18.67491 67.57903 -7.475028
3.950402 119.9795 -6.522049
-0.3883606 116.8194 -7.106661
0.9797595 117.1035 -7.058224
-5.343562 113.4565 -7.169711
-10.56392 114.4941 -3.590752
-18.80204 81.30416 -5.177568
-17.53795 79.79516 -7.221622
-19.52085 71.30089 -5.65442
-19.47049 60.71855 -7.568098
-17.37029 94.62392 -4.15822
-16.34377 96.11304 -5.49538
-13.60851 97.71107 -8.53555
-16.65057 97.93501 -3.683457
14.31708 14.66178 -13.43686
13.52673 16.29011 -13.65915
18.7287 46.73614 -10.649
19.34648 45.23654 -10.43937
20.50031 35.95357 -11.12046
10.96246 15.73416 -14.29977
-0.2092168 11.00179 -10.6482
20.78549 55.30812 -6.743768
-19.57788 42.53595 -10.7289
-20.54314 38.00861 -10.98053
-19.97432 48.34488 -9.248853
-5.810807 13.28771 -13.45744
-18.22737 24.93268 -11.96606
-20.33558 33.87523 -11.24884
-11.78757 18.82507 -13.58633
-10.45046 19.44208 -13.84052
-10.81201 17.89147 -13.79974
-15.48221 17.4068 -12.64853
-16.59325 19.50888 -12.35793
-15.18293 24.06276 -12.68807
18.9916 79.54868 -5.08013
17.77295 74.08201 -7.729021
16.62095 64.78691 -10.02434
19.82891 62.59197 -6.634011
3.888352 116.5236 -6.943094
-8.907396 113.6529 -5.532187
-9.522971 113.2744 -5.108691
-18.03666 80.85444 -6.381989
-17.24568 73.85223 -8.390425
-18.19595 73.16865 -7.273712
-19.15078 64.47665 -7.34207
-15.94275 92.27705 -7.572172
-18.02198 91.02071 -4.621713
-17.44784 92.06877 -5.345687
15.42178 91.0557 -8.361932
12.60265 18.51591 -13.88622
12.19681 18.53974 -14.00196
13.9964 19.35488 -13.4223
16.69357 19.53953 -12.50309
17.72856 21.12646 -12.15701
19.25629 47.51918 -10.1302
6.42628 15.14889 -13.17529
-8.406836 18.80387 -13.97023
21.11789 55.32576 -6.279926
-19.49096 43.11335 -10.67079
-17.85453 48.84629 -10.87087
-15.20938 31.69539 -12.60738
-16.24125 29.63557 -12.43726
-16.05626 18.79342 -12.49617
18.36262 72.05791 -7.211557
16.89123 66.03979 -9.665312
-6.375432 115.5925 -6.551735
-16.88979 81.2462 -7.843208
-13.60107 70.3426 -11.47963
-19.61752 64.87124 -6.643384
-17.27179 87.98921 -6.467141
-16.41026 87.58116 -7.604063
-15.10463 99.36404 -5.889393
-12.53687 104.362 -6.527986
-14.02216 102.0989 -6.041857
-12.9171 100.4319 -8.088249
-12.67458 103.6929 -6.748505
-15.00096 96.9631 -7.202251
6.964217 19.47822 -13.46492
17.73652 19.92096 -12.15342
19.32367 44.29987 -10.64233
14.77592 49.65338 -12.18857
3.70758 16.67456 -11.5588
4.089345 18.52574 -11.7795
-6.54949 16.28331 -13.68182
-3.851177 14.0023 -12.47708
-15.63545 47.894 -11.92921
-19.84715 36.72035 -11.44602
-17.61552 25.92093 -12.12973
-16.4647 18.24647 -12.39007
14.80551 70.46043 -10.78552
-8.526937 112.5007 -6.037456
-16.38289 83.48422 -8.139849
-16.66282 69.31516 -9.548984
-19.21803 65.746 -7.044086
-17.75142 64.7887 -8.998614
-18.67558 61.66058 -8.382302
-18.18271 58.34031 -9.406417
-14.93711 97.40237 -7.095737
9.984932 16.15111 -14.33154
16.07493 43.66766 -12.06251
17.575 42.93954 -11.67008
-0.5555299 17.30586 -10.91656
0.4621201 14.72004 -10.62942
-14.94337 42.62902 -12.35852
-14.92717 34.54035 -12.61488
-17.60396 19.13246 -12.08526
-6.102625 111.1859 -7.356173
-16.59633 75.90808 -8.858941
-14.62456 76.94211 -10.40242
-15.57677 76.03198 -9.804708
-16.94171 68.44666 -9.390244
-16.1371 69.84212 -9.942089
-13.90367 88.65521 -9.897827
-13.06452 95.90497 -9.673224
18.30585 30.68152 -12.02351
13.5265 33.3658 -13.19231
-1.294256 20.84714 -11.21741
-16.70314 47.41605 -11.5963
-14.65242 33.40916 -12.68843
-14.27122 32.75827 -12.77435
18.83268 58.86037 -8.663083
-16.90515 71.61318 -9.074112
-12.88459 63.86366 -12.13923
-16.03336 61.7087 -10.74693
-15.52829 90.56591 -8.282616
-3.156462 17.06983 -12.08535
-15.65165 40.19716 -12.29928
-16.57814 45.68253 -11.77689
-17.39087 34.51144 -12.21312
-16.50407 35.54724 -12.32128
16.65228 56.79756 -10.782
-15.72482 70.28209 -10.21144
-15.17671 66.55244 -10.87915
-16.24736 65.88803 -10.25671
-1.252838 17.89278 -11.16995
-16.61916 40.6628 -12.07716
-17.55175 21.58942 -12.11531
-17.48505 22.09142 -12.13641
-7.238122 107.035 -8.072029
-12.97995 70.81603 -11.73832
-13.17197 68.47989 -11.78636
-15.68318 58.87928 -11.18863
-15.26825 54.89121 -11.65084
-17.36115 59.97961 -9.972287
-3.503906 18.79698 -12.29746
-4.545181 20.92724 -12.85752
-16.22778 34.71423 -12.38568
-6.340856 109.9591 -7.531006
-16.36792 73.70202 -9.339016
3.180701 22.13422 -11.38032
-1.448103 22.59082 -11.32439
-15.26845 76.6586 -9.981823
-7.68253 16.71966 -13.89076
-11.81913 34.59366 -13.29016
-13.74317 33.70323 -12.87037
-12.06159 30.71778 -13.31678
-14.56245 79.79086 -10.20337
-13.91309 81.53279 -10.5061
-15.18498 36.33118 -12.52013
-13.81216 31.24085 -12.89845
-12.92324 29.90804 -13.12969
-13.19893 113.1671 -0.1678195
18.10318 88.80844 -5.103215
18.06899 85.07352 -5.747804
14.83378 87.51384 -9.215665
16.90431 85.50482 -7.258313
16.34113 91.20804 -7.259799
16.3456 86.33061 -7.830751
15.32311 88.9806 -8.609834
13.46703 89.67791 -10.14318
13.30937 91.71738 -10.18256
12.3655 92.70907 -10.79714
16.9282 92.0492 -6.245502
5.931349 113.1855 -7.035669
-19.15779 58.09812 -8.382188
6.171969 113.7447 -6.861305
5.670559 113.8846 -6.995934
4.284949 115.258 -7.076642
-13.00531 110.9243 -2.211046
13.49452 101.9318 -6.752082
12.1969 102.0773 -7.992526
12.48021 103.9451 -6.802494
13.51038 99.68688 -7.792653
13.39311 99.12164 -8.198956
11.04412 101.1964 -9.333678
10.93297 93.5878 -11.56042
21.44152 35.39978 -10.44378
19.90588 38.38134 -11.30378
20.05025 37.1725 -11.32971
17.24845 41.02311 -11.90861
18.7326 52.52272 -9.748368
-17.2925 53.52111 -10.71577
-14.9167 56.14914 -11.71651
-13.78687 55.35794 -12.18069
-16.67028 53.86856 -11.07229
-15.87949 54.76143 -11.3934
-15.70854 52.11753 -11.64212
17.86078 81.28549 -6.543128
18.42996 77.32256 -6.268174
17.67089 81.31364 -6.810771
18.13223 77.92716 -6.624427
16.77613 79.92944 -8.169199
15.9177 79.41804 -9.124447
15.26832 82.76075 -9.328796
15.49982 86.4171 -8.705257
14.69339 84.39006 -9.642309
-10.09865 22.61011 -13.8549
19.09818 22.81637 -11.69155
12.62179 69.85172 -12.04439
17.7591 69.61144 -8.379471
16.28172 72.40988 -9.532052
16.19807 63.33182 -10.46425
13.27209 59.89098 -12.29977
16.29302 62.77711 -10.457
13.33274 62.73362 -12.11991
-7.675395 69.70535 -13.17412
-16.30582 87.0361 -7.796652
10.44145 21.16302 -14.21414
15.57711 23.44818 -12.81279
14.73917 20.95923 -13.13269
-17.30154 43.25897 -11.72664
-14.89975 84.14529 -9.51427
-17.24725 85.87948 -6.78055
-16.21299 84.75957 -8.192335
7.549174 16.81998 -13.72606
4.579178 17.4418 -12.05981
1.651285 20.40773 -10.88437
-6.839235 31.88558 -13.64206
6.294612 20.12291 -13.11287
4.060833 20.35801 -11.78991
4.600394 20.84882 -12.10498
2.611222 25.00345 -11.25485
0.3356523 13.78466 -10.60459
-14.4378 44.00069 -12.43074
-13.31992 39.21937 -12.84917
-19.3838 20.70735 -11.58039
16.68111 51.62822 -11.26307
-15.91806 49.5545 -11.74007
-14.73781 48.02334 -12.19268
-13.65451 102.7697 -6.145931
-12.20111 102.0584 -8.000327
-13.84318 105.3961 -4.424351
-11.22771 103.9581 -7.829862
-2.284445 102.2758 -10.63884
-10.25509 109.3178 -5.730547
-7.856761 106.9824 -7.875601
-7.93673 108.8932 -7.200141
-11.96607 109.6853 -4.265198
-5.986136 105.7689 -8.870403
-12.01492 102.2783 -8.064198
-11.46922 111.0117 -4.050737
-16.99162 38.87943 -12.09322
-16.13739 24.50854 -12.47088
-5.317165 109.1916 -7.945106
-1.78477 111.8092 -7.847951
-14.59109 73.46178 -10.69799
-12.48205 75.25524 -11.73048
-11.81077 71.4134 -12.22584
-10.52136 80.3791 -12.25171
-5.618083 72.03287 -12.93419
-7.303729 69.71156 -13.18144
-8.013059 72.4763 -13.09171
-14.25774 60.39603 -11.75081
-15.68567 62.28341 -10.90986
-11.96403 63.45602 -12.52284
-11.58086 61.38093 -12.73364
-9.965043 61.8071 -13.17643
-14.6726 61.515 -11.4952
-11.10369 59.01425 -12.95872
-12.57726 65.14099 -12.20664
-12.01853 65.51658 -12.40927
-7.985245 64.35381 -13.33289
-8.624385 65.65394 -13.28046
-5.098809 67.36349 -12.91531
-9.797418 67.63885 -13.02379
-11.57459 68.16444 -12.45754
-6.698283 66.31534 -13.18741
-3.89046 61.33624 -12.65424
-7.019639 62.1191 -13.3154
-3.597022 68.62682 -12.60763
-7.021914 63.09673 -13.29411
-6.418616 60.54031 -13.2674
-10.26134 57.23175 -13.24383
-3.790658 52.63379 -12.60604
-11.41268 57.36504 -12.92143
-7.170505 52.43927 -13.52384
-5.891183 67.1158 -13.05672
-1.929531 68.31586 -12.29853
-3.328902 71.63296 -12.57505
2.286244 65.71181 -12.01509
-10.19025 51.52705 -13.36514
-12.01904 51.41224 -12.90934
-0.5487193 71.38468 -12.20805
-1.709742 64.77818 -12.20187
-9.952798 49.97409 -13.44277
-4.53794 63.63757 -12.8202
-5.797433 52.66484 -13.24267
-8.689285 52.02726 -13.5912
-6.912488 57.02192 -13.41675
-7.443429 59.13717 -13.42776
-6.294931 59.89125 -13.26989
-5.797387 60.06802 -13.16042
-2.978301 60.34726 -12.40758
-6.026481 61.48213 -13.17486
-3.109195 59.15411 -12.42779
0.4912372 59.47157 -11.81229
0.4164774 59.00086 -11.80475
-0.6036891 61.40082 -11.96014
3.2197 61.5322 -12.05794
0.2086685 61.89019 -11.89229
0.08374758 64.81609 -11.99105
-10.06178 19.07335 -13.90282
-8.879533 18.36618 -13.97882
-11.05824 21.70333 -13.69748
-3.324342 24.29342 -12.23577
-3.600184 23.05276 -12.37027
-2.213762 22.78953 -11.65406
-8.146583 15.69343 -13.96598
-11.14423 34.91092 -13.42763
-9.389853 33.56007 -13.70915
-11.20063 30.94287 -13.50102
-14.24753 79.43915 -10.44686
-10.0436 38.42581 -13.56727
-8.234253 34.99598 -13.71515
-9.673267 36.88654 -13.63451
18.65304 83.56239 -5.108079
6.772451 110.4627 -7.213951
3.504402 111.9131 -7.686172
5.391261 111.3687 -7.451713
5.649213 113.3766 -7.076862
5.513663 108.8322 -7.918908
5.2848 109.942 -7.727884
1.961468 103.8826 -9.934868
5.005182 110.5397 -7.677917
8.089232 110.8408 -6.597454
5.775427 106.4126 -8.604629
12.02222 104.7325 -6.78438
10.23992 103.1796 -8.892159
5.12756 107.9098 -8.232111
10.11971 106.0645 -7.376148
-11.01439 112.3668 -3.922348
14.27694 94.13796 -9.01037
12.89799 97.68175 -9.228978
14.10167 96.91012 -8.315722
17.35362 94.16801 -4.485057
16.75577 93.40386 -6.050776
15.63415 94.91951 -7.167047
11.22854 97.90104 -10.48695
10.93865 96.24593 -11.14434
18.77688 34.34603 -11.93558
17.44888 34.63119 -12.21192
15.62938 85.12164 -8.739534
12.82912 82.861 -11.05947
18.48051 21.38554 -11.89905
16.66014 70.65838 -9.38668
15.55776 67.40586 -10.53371
14.16471 62.89313 -11.70118
12.84194 60.52515 -12.45327
17.20184 23.82821 -12.32167
7.435935 22.30784 -13.69467
8.191937 20.95784 -13.94771
6.395058 22.72252 -13.177
-16.96498 45.92904 -11.62287
-15.04285 26.47104 -12.7048
-12.63352 25.84457 -13.27369
-14.46981 24.96512 -12.84677
-13.87589 43.33205 -12.5912
19.00936 53.73422 -9.264229
15.97508 53.28191 -11.47424
16.36891 56.00982 -11.04386
16.35734 52.55938 -11.34797
15.34212 42.94321 -12.31667
15.15007 44.77836 -12.28958
-15.64569 24.92503 -12.58007
-8.82813 74.55866 -12.93996
-8.081363 70.81824 -13.13861
-7.946093 75.0118 -13.00754
-11.23112 75.11336 -12.27333
-11.35279 75.57407 -12.20131
-8.268724 77.41281 -12.89209
-5.611816 64.42559 -13.04685
-1.475324 68.24494 -12.226
2.52744 65.78883 -12.03675
6.762702 82.47612 -12.71165
1.106195 69.63274 -12.07841
4.357301 74.06738 -12.46552
4.097708 72.61632 -12.40864
1.482805 76.55321 -12.27994
4.714454 70.20187 -12.49796
4.305028 70.46487 -12.40747
3.970122 67.91634 -12.31292
6.576899 68.54093 -12.95168
9.325314 71.16895 -13.06672
10.68188 65.61108 -13.00862
12.37612 69.52095 -12.1744
-10.42545 49.87101 -13.34761
-13.69546 48.71804 -12.47297
-3.089089 56.47868 -12.40467
-0.976931 57.52871 -11.91979
-2.526197 56.02871 -12.23703
-0.6881312 51.96329 -11.72571
1.222996 55.89991 -11.7034
-3.605294 51.7776 -12.53922
-2.529995 53.0947 -12.20414
-1.757747 51.62685 -11.95786
4.141063 63.30656 -12.31577
5.459605 65.30238 -12.68912
0.8780331 30.35856 -11.06326
-10.13269 28.9777 -13.73818
-10.94931 81.51484 -12.04448
-10.41846 39.9468 -13.49771
10.91288 90.06605 -11.61584
7.889781 97.23933 -12.14423
8.470225 93.45195 -12.48616
6.526216 97.25671 -12.38499
6.245207 98.94002 -11.96652
5.52711 99.98373 -11.68161
10.03182 98.99406 -10.83717
8.530025 100.6503 -10.89473
1.606186 99.15918 -11.76793
4.858993 101.1604 -11.20461
5.109816 105.3173 -9.167551
7.061518 104.1386 -9.592743
8.701358 103.3321 -9.569431
7.598632 102.5961 -10.32395
0.6812928 101.3207 -11.00928
2.682349 99.90268 -11.56601
1.121637 103.5119 -10.09585
0.7555999 104.8327 -9.579877
-2.347998 99.72935 -11.61213
-2.972044 102.0184 -10.76357
-2.505786 98.67906 -11.93104
-1.733513 101.8768 -10.7979
-4.04325 102.3731 -10.64513
-5.692269 102.1226 -10.80687
11.92181 94.38569 -10.92191
9.571182 92.28786 -12.12525
17.96336 37.94069 -11.98674
17.83377 35.8196 -12.11618
17.37959 37.36156 -12.12044
14.53881 81.64455 -10.02499
11.51724 82.61185 -11.77028
10.5877 83.61898 -12.07425
19.52193 24.06787 -11.5511
15.05822 23.19692 -12.98236
16.09727 26.63073 -12.60753
14.6564 29.31203 -12.95795
19.50184 29.41182 -11.62495
13.88731 32.62575 -13.10259
13.11053 30.67321 -13.39885
12.18811 26.78289 -13.79129
14.40695 24.81308 -13.15133
15.4478 28.64632 -12.747
15.24198 59.76062 -11.33617
9.711287 63.9202 -13.28629
9.069254 62.22092 -13.38661
10.67562 23.71244 -14.15263
9.423284 25.37396 -14.11922
10.78317 26.10762 -14.08022
13.72801 25.78098 -13.34239
10.19534 27.49183 -14.0842
11.56194 28.13957 -13.89597
10.27353 27.84242 -14.07316
8.194387 28.79632 -13.85756
4.967599 31.31794 -12.41165
7.210709 24.39898 -13.59072
2.678499 34.23209 -11.46133
12.75838 29.78692 -13.53071
6.87449 29.18329 -13.38782
4.557513 28.70378 -12.16292
8.300913 31.33721 -13.88117
12.31636 28.18674 -13.70678
1.605785 30.01445 -11.087
5.7147 30.0657 -12.80757
4.61624 33.89292 -12.24071
4.444971 32.51361 -12.15272
2.047556 31.43509 -11.22307
2.578285 30.7594 -11.35021
3.961398 36.17932 -11.95096
-3.050444 32.9836 -12.17919
-0.6200984 28.14995 -11.19341
-3.974988 27.95908 -12.587
1.371705 27.04833 -11.00471
17.14201 46.33809 -11.52138
-11.49737 24.98959 -13.55349
12.76461 53.18198 -12.80574
11.05324 51.68181 -13.40716
13.39432 48.49346 -12.74748
15.65566 55.91356 -11.41033
15.82718 59.41932 -11.04741
4.316374 76.15996 -12.48403
10.59934 67.86212 -12.93509
12.77836 71.9946 -11.82998
11.08501 72.03849 -12.57444
12.30009 74.19637 -11.92448
11.35776 75.44805 -12.2915
15.08871 75.0818 -10.23305
15.32726 78.80892 -9.680244
13.67717 74.96568 -11.13173
11.72941 77.38338 -12.00141
14.21726 77.87038 -10.57391
13.43817 79.31911 -10.95648
9.636074 75.49008 -12.84612
10.79703 77.79845 -12.36832
8.785674 75.90239 -12.91128
7.336225 81.86856 -12.74346
9.782028 74.4183 -12.88027
8.967218 79.76505 -12.73825
10.35307 74.57097 -12.69709
12.70734 68.03714 -12.12015
4.060349 55.93632 -12.20454
3.293945 57.71675 -12.0118
-8.761711 48.30782 -13.63243
-1.801916 47.38231 -11.89266
-7.0561 47.3462 -13.55919
-8.091497 50.46223 -13.62037
-8.064321 46.33244 -13.66811
-11.41658 46.33176 -13.18534
-11.03281 46.77812 -13.27638
-10.77153 44.28398 -13.3755
-12.81726 43.62991 -12.86609
-9.936717 42.01209 -13.54859
-8.868349 44.3767 -13.64217
-7.300928 42.8432 -13.59641
6.639414 63.17864 -13.04847
-7.404845 29.65865 -13.73078
10.60514 89.91782 -11.7557
11.19141 88.95854 -11.53289
-0.6048123 77.82529 -12.37921
10.83829 84.31249 -11.9518
3.912554 82.77504 -12.53701
6.636668 86.22587 -12.64622
6.276847 82.85185 -12.68312
6.833754 88.83789 -12.61765
7.923323 81.96835 -12.73437
10.55405 80.43322 -12.30159
8.655666 81.14967 -12.71865
4.224747 88.16942 -12.63654
5.699302 90.8985 -12.69216
6.92017 91.09966 -12.63765
7.025344 92.51134 -12.69673
7.405262 94.15701 -12.67496
2.994031 89.69633 -12.6473
3.245817 83.77312 -12.52595
-1.334619 78.82139 -12.44518
1.26036 85.10424 -12.53048
3.796665 93.77751 -12.71272
5.080987 95.01733 -12.75482
2.845868 94.69895 -12.61722
1.622096 79.85971 -12.37618
5.07526 94.45529 -12.80138
-1.39257 97.06068 -12.26373
1.32006 97.19796 -12.23895
3.963518 79.38379 -12.48828
0.8204233 81.04124 -12.42231
3.061691 86.64876 -12.58808
-0.4152974 93.4641 -12.61254
0.2228413 92.17426 -12.638
1.217438 77.99229 -12.32313
-4.518735 107.2145 -8.595468
-2.150885 106.023 -9.145337
0.4402381 106.1575 -9.12852
-10.8882 99.06419 -10.29369
-0.9712862 110.296 -8.13914
14.94143 55.64067 -11.78356
9.831409 30.78709 -14.02841
6.978098 32.11506 -13.40966
8.461453 32.45227 -13.90252
7.056987 34.67242 -13.43626
4.590272 36.61878 -12.25283
4.493457 35.77314 -12.19847
3.672746 37.57719 -11.8564
3.906505 35.44472 -11.91805
-0.8800417 23.99694 -11.14531
10.96261 53.14596 -13.38267
6.742723 79.48263 -12.77241
6.875223 63.96872 -13.10188
6.41908 61.76213 -13.00994
-6.669581 33.41557 -13.57977
-8.564569 33.58427 -13.74294
-7.145902 34.91634 -13.64613
-5.152276 33.47238 -13.09982
-6.781026 38.08731 -13.55039
-3.136137 36.01866 -12.24661
-4.707347 39.67326 -12.92082
-0.6723586 39.92807 -11.49148
-2.951507 34.70607 -12.15681
-0.5740134 37.02668 -11.42299
-1.189571 28.98974 -11.37342
-7.96664 29.69522 -13.78442
-3.84646 28.73991 -12.5252
-5.783805 29.19342 -13.37335
-4.277843 25.15474 -12.72603
-8.504263 26.95122 -13.8667
-6.335331 25.56881 -13.56512
-9.008972 26.43805 -13.87708
4.794516 78.90378 -12.57236
0.5284866 80.18942 -12.39938
0.2015847 82.85969 -12.48108
-0.1225214 83.41391 -12.50125
0.5930519 86.23579 -12.56196
-0.16787 89.00628 -12.6195
-0.1233917 92.96353 -12.62356
-2.469601 87.6526 -12.64117
-2.312059 94.17891 -12.61821
-1.196112 86.88269 -12.59866
-0.725866 87.42756 -12.59934
-11.14042 102.2332 -8.758694
-8.678669 102.2355 -10.13725
-10.41763 100.3728 -10.1075
-6.425899 97.5855 -12.3187
-8.65088 99.02287 -11.42757
-1.995578 97.27313 -12.23529
-5.970553 94.14438 -12.82668
-10.69603 97.31583 -10.98878
-5.760365 101.4241 -11.13557
-1.508808 94.30342 -12.5853
-6.68255 96.84604 -12.44941
-4.740315 95.06792 -12.72389
-8.082041 93.32053 -12.57012
-8.110361 97.82256 -11.94811
-3.760924 91.66164 -12.70878
-11.0707 90.17219 -11.53069
-7.314155 92.54862 -12.66684
13.7571 56.75237 -12.24386
11.89637 57.5981 -12.93441
8.559266 67.9593 -13.24312
9.556294 67.81697 -13.18007
7.114468 37.56969 -13.43927
11.51496 37.2865 -13.63315
0.3277623 46.11294 -11.48446
3.083507 51.68873 -11.85695
2.843015 50.61251 -11.79385
1.91309 37.68881 -11.36265
2.106457 34.28866 -11.31623
-1.381396 34.27375 -11.5581
0.9793608 35.59196 -11.20934
1.633474 40.63259 -11.38606
2.537337 38.61922 -11.50432
3.888316 39.48003 -11.95933
4.184123 39.43073 -12.08621
1.664836 44.11113 -11.47508
3.245956 43.72812 -11.77934
12.47089 44.15517 -13.2206
8.641114 42.67986 -13.80682
5.344029 43.48925 -12.65436
-0.4669191 44.05577 -11.53433
-3.9528 42.51117 -12.63064
4.437569 44.55278 -12.24362
-1.562732 44.68264 -11.76989
-1.476629 48.42631 -11.82735
-2.85756 47.16555 -12.23136
-6.939422 45.97534 -13.55851
-0.7152522 47.15919 -11.63517
6.1428 45.99002 -13.03182
-7.319052 43.76746 -13.60788
-2.447727 45.51169 -12.06533
0.3271094 49.82279 -11.55898
2.426272 46.11551 -11.62744
-2.813161 44.54663 -12.19263
1.984929 49.49038 -11.60603
3.488416 46.92391 -11.90293
4.479216 58.58729 -12.35687
5.709105 59.47746 -12.78923
-4.297107 30.94975 -12.73122
-3.357899 32.3117 -12.31205
-8.533028 24.9726 -13.89551
-6.006282 24.01608 -13.46582
-7.599305 23.06173 -13.84114
-6.332498 19.37969 -13.61228
-3.568778 20.51248 -12.3428
0.5971487 74.76674 -12.24123
-1.652428 82.72413 -12.54266
10.18788 65.60878 -13.14249
10.56648 35.45076 -13.85669
12.2357 36.66255 -13.47084
9.629665 37.99341 -13.9065
12.74659 36.58173 -13.33015
13.88453 36.49038 -12.99397
12.12417 41.77392 -13.38554
12.20545 41.53973 -13.36862
12.19992 45.38479 -13.27362
13.19832 44.98122 -12.94522
12.18 47.70307 -13.20614
8.708693 44.86912 -13.78182
10.48807 53.79889 -13.46305
9.894268 54.94367 -13.51749
9.681274 55.78202 -13.51079
4.52114 54.47584 -12.34997
5.074135 57.57303 -12.56446
6.879601 56.5012 -13.22315
4.378491 59.76673 -12.34092
7.656323 55.58513 -13.45492
7.936524 52.88084 -13.56349
11.20938 58.55564 -13.11849
7.691487 51.57547 -13.51716
5.176554 41.05281 -12.56629
9.71146 38.73793 -13.88969
9.304696 42.11524 -13.87468
10.02562 42.25628 -13.8103
8.870225 49.60894 -13.72635
7.214148 48.66882 -13.41109
-6.115244 18.92022 -13.54414
1.495799 74.13518 -12.20434
-2.248667 73.0392 -12.42584
-4.349286 74.1842 -12.72869
-5.095436 75.89647 -12.82086
-1.901794 77.47567 -12.46487
-6.12196 75.93848 -12.92442
-8.790452 78.98132 -12.76601
-0.6580663 78.86523 -12.4063
-2.375223 81.94906 -12.56705
-3.746086 84.91648 -12.66376
-5.368773 80.97095 -12.77898
-4.812022 81.39405 -12.73818
-6.225843 83.73661 -12.75485
-3.512294 86.68363 -12.66187
-3.324937 85.61745 -12.64964
-3.998882 89.47364 -12.69078
8.922175 44.35226 -13.81302
8.141627 45.83001 -13.70264
5.31229 50.82254 -12.64846
-13.31853 84.76772 -10.62308
-12.27369 82.64588 -11.368
-13.48874 83.03605 -10.64627
-9.953551 87.34357 -12.08148
-14.29986 87.40258 -9.696329
8.220181 50.60507 -13.64279
-7.383452 87.42873 -12.61572
-6.871337 84.76048 -12.71114
-10.55687 94.82374 -11.62954
