# .PCD v0.7 - Point Cloud Data file format
VERSION 0.7
FIELDS x y z
SIZE 4 4 4
TYPE F F F
COUNT 1 1 1
WIDTH 1665
HEIGHT 1
VIEWPOINT 0 0 0 1 0 0 0
POINTS 1665
DATA ascii
-17.30985 99.01727 2.618817
-16.31864 98.71697 5.790732
-16.334 104.4739 1.581539
-15.31649 107.6603 3.693821
-12.62247 94.87835 9.276444
-11.18658 95.4581 9.419109
-9.590809 95.75806 9.467298
-7.3441 95.62575 9.648019
-5.050331 95.49513 9.714411
-2.71683 94.78263 9.383478
12.71957 114.8602 2.678084
7.384862 95.30395 9.196225
4.202321 95.55721 9.445784
13.22519 96.2226 8.935386
17.04764 101.1649 1.518951
16.25321 104.7039 3.01723
15.7435 106.7609 1.971737
17.08785 100.594 0.3314419
17.29257 99.43635 2.301111
14.72105 97.52671 7.956253
17.50973 95.72508 4.474959
17.36503 99.09798 1.996675
-3.313521 138.1546 10.97268
1.578959 139.3563 9.688754
0.7212688 138.6192 10.48554
4.064707 137.4688 11.62468
-7.957424 137.9691 11.15572
-7.90695 139.0568 9.920964
-12.22066 137.9603 8.416244
-9.497386 139.8634 8.288687
-13.37614 126.4612 5.202837
-13.08181 122.9356 3.820404
-11.33425 137.5347 10.0403
-12.93096 138.5677 6.500272
12.43837 117.4688 3.296995
12.70245 120.2967 4.368217
12.75716 122.3559 5.998972
13.30273 124.3012 3.463545
13.00786 126.6289 6.487046
12.63925 127.796 8.4101
14.20049 130.6307 8.570607
14.20963 130.4707 8.285482
10.32681 137.7876 10.55716
12.14114 130.3888 11.77839
11.86074 131.0116 12.25308
-16.12303 96.60823 6.827668
-13.74818 111.8053 2.934904
-12.91436 113.9332 3.646226
-16.78783 102.4162 1.515325
-16.10569 103.8654 4.722323
-16.58995 103.1564 3.091908
-15.66282 104.7564 5.405203
-15.00959 105.3875 6.460746
-14.67512 103.6632 7.248979
-14.06331 107.2389 7.066816
-15.02218 106.2804 5.989757
-16.59124 100.824 4.60266
-16.57387 99.93635 4.903501
-16.67918 98.36496 5.164885
-13.56593 96.92723 8.708875
-10.83544 97.54449 9.22939
-9.119678 97.99597 9.502781
-10.97547 99.24422 9.186185
-7.634264 96.99279 9.572771
-4.844941 96.81967 9.804503
0.05474592 94.60032 9.334248
-12.64711 115.9778 3.568896
13.96263 111.2891 3.034351
7.318994 97.616 9.446006
1.74862 96.08324 9.742131
-0.2130403 96.56842 10.00487
-2.678014 97.03551 10.02149
9.40735 95.8262 9.267865
11.37446 96.29037 9.213213
4.865857 97.7577 9.822539
11.97718 97.41979 9.054534
17.11852 100.7506 1.971988
15.97248 104.9573 4.391315
15.07552 106.9725 5.369544
14.69295 105.6622 6.856877
15.55836 105.6157 5.195262
15.08891 108.1601 3.920908
14.71523 108.5921 4.664975
13.6769 108.5398 6.930276
12.80261 108.0732 8.222863
14.01745 106.2782 7.526763
13.67836 104.5134 8.156415
15.19043 108.2475 3.131791
14.5699 108.754 4.915671
15.21397 107.4677 4.468265
6.337196 138.8013 10.35235
3.228761 139.2153 9.850875
0.1996913 138.1538 10.96048
-1.24906 137.3496 11.69153
0.5614809 136.7876 12.11861
8.958218 136.7256 12.23849
-7.491348 137.576 11.63937
-13.13086 136.806 8.530909
-11.33 137.8504 9.631742
-12.85433 121.4599 3.807653
-14.42502 134.4898 8.278871
-12.43466 137.4995 8.763121
12.50852 117.5558 3.977211
12.72304 115.1245 3.035535
12.39163 120.0023 6.211314
12.29099 124.042 7.49708
11.84075 126.0121 8.286497
11.72966 126.2651 8.51491
13.00411 130.2141 10.76275
11.84869 138.0275 8.815763
9.492851 139.2113 9.12692
11.10549 131.9334 12.95697
9.405446 134.9383 13.2709
9.898667 133.9831 13.40216
9.895022 132.748 13.53418
13.81987 131.896 10.24181
-14.60366 109.3828 4.043338
-13.42968 112.418 3.594619
-15.05795 108.7712 2.323969
-14.79055 108.9831 3.913965
-16.55556 103.478 2.748351
-13.17443 106.5275 8.307269
-17.04333 101.1891 1.950747
-15.77274 100.0899 6.328643
-15.19258 99.55548 7.112439
-17.72254 96.99054 1.778052
-16.9754 98.72767 4.242793
-13.58929 98.6525 8.425634
-11.53449 99.60168 9.061811
-14.32355 97.62455 8.216025
-6.0892 100.3238 10.37909
-13.57587 97.55107 8.603542
-11.77077 97.02652 9.117532
-4.397026 97.72231 10.05413
-5.043669 97.45229 9.919475
-13.30679 117.7397 4.123394
-12.41627 119.1012 5.678501
13.67974 113.6778 2.370922
13.25223 114.1588 3.764627
12.25995 112.1012 6.962677
12.71416 111.5521 6.58017
14.54637 109.3273 4.331926
10.31193 96.0878 9.262166
16.42745 102.8839 4.23743
16.23629 104.3372 3.832964
14.40527 107.9318 6.02817
13.30755 110.2217 6.467579
3.974817 136.9175 12.05793
6.24856 137.5095 11.66484
-8.774693 138.1704 10.76066
-7.670544 138.233 10.94738
-8.142481 137.2869 11.84414
-12.60895 120.0773 5.262289
-13.68283 135.5623 9.044267
-12.15501 136.9041 9.880727
-13.49263 135.0802 9.843623
-8.366687 136.4285 12.56283
12.59899 123.6164 6.836418
12.68944 124.1255 6.769066
12.07586 123.015 7.685005
12.22191 128.7278 10.38964
12.436 129.3474 10.78197
13.03589 131.073 11.13
12.29643 130.3812 11.65406
10.14919 131.3528 13.27081
9.060725 132.0651 13.71302
2.363595 134.5774 13.28763
8.487926 128.3502 12.12286
8.597582 131.4845 13.70083
-12.82726 111.5566 6.395945
-12.92587 115.5678 3.136094
-14.44829 109.7587 4.0775
-14.3292 107.7664 6.312621
-16.53436 101.041 4.671288
-15.13629 100.3587 7.054979
-15.90406 101.8161 5.827725
-15.21624 97.63177 7.509222
-15.48633 97.52483 7.308302
-13.12471 117.2438 4.803642
14.51467 110.1194 2.393474
12.24841 97.64548 8.983536
15.5777 99.6606 6.632712
12.17119 99.84947 8.875405
15.17495 103.3547 6.662727
15.61304 100.9571 6.382091
16.71517 99.83732 4.586258
14.26736 109.276 5.207303
7.797059 136.7294 12.36127
-6.851303 136.4427 12.57439
-4.257447 136.1563 12.59402
-11.17102 121.4682 8.679033
-12.41597 134.7758 11.52458
-13.55817 132.9865 10.70613
-12.95898 133.4496 11.40093
-10.55504 135.6506 12.44693
12.96353 116.6213 5.376248
12.23712 120.5331 6.813763
11.49727 128.3727 10.74697
-0.6647323 130.3303 13.22444
-13.29507 110.4534 6.326157
-12.1115 114.7489 6.108146
-11.57384 117.4453 7.250685
-14.99469 102.0592 7.040445
-16.26994 101.6624 5.082138
-15.94554 103.9022 5.164356
-12.85704 100.1755 8.630994
-11.68976 118.398 7.498317
7.023636 98.51566 9.676385
-4.437696 98.1069 10.1588
-1.162663 97.86263 10.40979
14.5067 99.3827 7.762539
16.58162 98.58769 5.307788
14.72377 99.45603 7.593115
12.13162 98.72038 8.920391
16.75199 101.0881 4.026522
8.45517 135.789 12.98231
10.1429 137.1319 11.40424
8.542213 137.1978 11.87549
-5.015874 136.6185 12.31803
-4.285807 137.0791 11.93685
-12.56512 121.6823 6.350549
-13.34041 130.4993 10.42751
-13.62656 131.7516 10.51698
12.79679 115.2738 5.811069
10.60895 122.5068 9.378228
11.80769 122.1452 7.964793
10.82247 126.5551 9.571553
9.113066 126.8628 10.78384
5.414402 135.3265 13.10798
-12.80494 113.0118 5.375778
-12.26102 116.4625 5.380507
-12.33428 99.10542 8.847897
-12.16281 119.7249 6.767886
3.698334 95.73591 9.509661
3.293844 95.93793 9.585286
-6.456496 99.90544 10.21498
-2.942531 99.55152 10.75874
-3.701407 98.28674 10.29274
14.52197 103.5131 7.442969
12.58453 102.1418 8.739327
14.79447 101.8955 7.250981
3.698616 133.2747 13.5999
5.565453 136.2831 12.57799
10.16499 137.7793 10.66602
-5.69026 133.12 13.73065
-3.394444 135.7483 12.8033
-1.574693 136.3191 12.45246
12.19764 123.2892 7.551912
10.38453 127.0892 10.23532
11.75126 125.7318 8.310536
8.553388 125.5445 10.67998
10.36198 125.4865 9.543899
9.22862 124.1563 10.38985
7.257041 133.9007 13.76794
-12.45182 114.565 5.265935
-10.89796 114.9628 7.99929
-11.39402 116.6056 7.424578
-10.92753 116.9634 8.132571
-11.62728 117.7642 7.493158
-12.24411 102.3699 8.898736
-8.835977 102.0454 9.978898
-7.664687 101.009 10.15316
6.011 98.91549 9.877838
-2.300617 99.03686 10.6838
4.468381 136.5577 12.33449
2.297443 135.5452 12.88441
0.6040171 135.1128 13.07855
5.034775 135.8698 12.80286
0.3626244 134.4717 13.30332
-1.346294 135.0907 13.09265
-3.487731 135.3517 13.00568
2.877142 132.1217 13.57964
1.479715 132.6139 13.57984
1.240084 133.0613 13.56604
2.796782 134.1573 13.41197
-2.041625 136.2912 12.4714
8.934294 124.8176 10.49304
-12.41767 112.4993 6.517689
-10.76617 118.2863 9.193343
-8.598083 117.4642 9.997834
-9.865601 117.6544 9.477359
-2.100865 101.2972 11.43391
-2.950956 100.7802 11.14186
-11.67536 119.9942 8.167535
6.574566 99.15923 9.81816
-3.94032 135.0367 13.14552
-5.805655 134.6689 13.41474
-3.126467 134.7668 13.23308
1.312515 131.4378 13.47576
5.293827 131.9673 13.69009
2.509797 133.8545 13.47262
3.49232 133.8568 13.49362
-7.248129 134.5516 13.60252
-12.88108 111.6696 6.227273
-11.1098 111.1997 8.551066
-13.55228 110.1103 6.091037
-12.00849 113.6101 6.695136
-7.846364 122.3434 11.21813
-9.642575 132.7736 13.60997
-5.147386 133.2979 13.66707
-1.484341 132.0342 13.55774
4.007858 131.697 13.56783
6.630464 133.1663 13.84121
-10.60196 136.0827 12.12142
-12.24153 131.2478 12.00218
-9.767575 134.6047 13.30201
-8.246172 135.2369 13.33584
-6.42032 135.1812 13.28
-10.89649 113.6143 8.113356
-2.514223 101.3686 11.40296
-5.170224 101.9039 10.97286
-4.428535 131.6757 13.58904
-0.1967596 132.6736 13.57426
3.745685 129.3783 12.92705
5.728218 133.1748 13.73524
7.053327 134.9226 13.46411
7.108769 135.1798 13.33432
-11.20838 115.8188 7.58818
-3.623051 102.4372 11.50473
-4.414815 102.2251 11.26097
-5.159512 103.0842 11.25163
-6.67742 99.46159 10.08232
-9.110649 99.60637 9.608491
-5.762424 101.5508 10.73899
-4.653375 129.4876 12.99036
-1.506924 130.4055 13.24828
-3.120936 130.6167 13.32446
-2.883732 129.3586 12.95012
4.404691 129.8996 13.12324
0.7096144 130.8508 13.35043
4.911624 126.2928 11.9811
6.138099 129.1265 12.7915
4.086844 128.4378 12.57853
4.420198 126.9662 12.13952
4.443905 127.5283 12.25968
6.658182 126.143 11.52355
-11.01842 113.7869 7.960718
-3.908325 103.8309 11.76972
-4.699082 103.5734 11.49939
-1.918486 104.2915 12.13706
-1.875889 115.7639 11.851
-14.29711 105.1877 7.490106
-9.830466 101.027 9.585425
-10.42301 102.3739 9.528488
-7.617562 132.6427 13.93146
-7.735509 133.1213 13.89376
-2.924865 130.9945 13.40534
-8.295013 129.9173 13.19348
-10.90383 128.1094 10.91002
-7.409614 130.993 13.67553
-9.928446 128.5993 11.93895
1.93353 128.8354 12.78089
2.554505 127.5825 12.4202
0.1636599 128.2128 12.63784
1.584345 127.5646 12.46485
1.842713 127.1581 12.38029
4.636198 130.3775 13.29598
7.988916 129.9005 13.20375
3.635268 128.4267 12.59932
-9.314613 116.4978 9.449663
-8.944916 129.765 12.99815
-1.740942 128.3633 12.67027
7.617126 130.7468 13.59828
7.331053 129.9966 13.27195
8.983748 129.7379 12.97925
6.998626 124.7843 11.46257
-9.109863 113.0659 9.464034
-12.92562 128.8448 9.385993
-11.98331 129.596 11.43197
-11.17479 129.9014 12.21707
-10.65087 128.7598 11.72204
-10.57552 131.6394 13.15654
-8.839192 131.0297 13.54041
-10.18647 129.2813 12.33132
-10.78239 129.0971 11.9305
-8.507249 119.9425 10.56044
-5.65765 128.1167 12.41108
-4.823218 129.4038 12.95828
-6.201155 129.4354 12.97031
-8.395058 127.6451 11.66875
-5.379883 127.6313 12.27688
-4.526823 125.3586 12.12576
-1.618686 127.24 12.43363
-4.910436 126.7895 12.13228
-3.253264 126.6208 12.27674
-8.842324 120.142 10.41213
-3.684874 126.9928 12.29554
-10.07028 126.6221 10.24395
-11.72969 127.5487 9.500467
-11.55763 126.2341 8.755753
-11.4442 127.3335 9.616859
-9.709643 126.856 10.62588
-8.560638 122.7111 10.84848
-10.56781 127.235 10.30626
-10.35896 126.4797 9.963001
-11.05128 120.8105 8.746436
-10.84804 122.1486 9.110553
-11.27783 123.1732 8.739013
-12.15607 121.4711 7.255497
-12.71781 122.6044 6.198197
-12.85697 123.5625 6.162015
-11.55536 125.8809 8.609036
-12.53776 121.6484 6.418331
-10.89727 124.4695 9.118815
-11.23042 120.3919 8.678041
-6.721176 121.799 11.53495
-6.55996 124.3538 11.68866
-11.08055 124.9484 8.96231
-6.901432 120.7439 11.29421
-5.496225 117.9201 11.28794
-4.761703 119.8108 11.64556
-8.41151 117.3423 10.07292
-9.502117 117.3794 9.489098
-7.800178 123.6949 11.23886
-6.611974 122.1429 11.61894
-5.644586 124.2602 11.96408
-7.39707 126.0215 11.38509
-9.050832 124.8273 10.46275
-8.027144 117.1153 10.21554
-6.505311 118.9822 11.0768
-6.729181 116.1799 10.71787
-7.540278 115.4216 10.28156
-7.527527 116.4468 10.34698
-4.082971 118.0277 11.68433
-3.571319 118.1951 11.76582
-2.550714 119.1781 11.86592
-2.147396 118.7317 11.87026
0.1273154 118.7817 11.89444
-5.020213 121.3646 11.79076
-2.966288 123.1895 12.15117
-3.639477 123.3589 12.17099
-5.04425 124.0471 12.112
-1.67106 122.7355 12.11119
-3.317212 123.4086 12.17348
-0.1451828 126.3614 12.33792
-5.316085 124.7292 12.00899
-7.239002 117.223 10.56379
-2.709302 117.1344 11.83521
-1.223157 122.0009 12.05937
-0.8162909 126.2967 12.33164
-8.148197 116.2823 10.03887
-0.4344895 125.9835 12.30495
-0.7470933 116.8635 11.85777
-2.06862 117.2048 11.84748
-1.968801 115.4735 11.84754
-3.521045 114.3216 11.78339
-4.873606 114.4291 11.52145
-4.610444 115.7023 11.57828
-1.614417 114.8206 11.8448
-1.98705 113.2631 11.8557
11.3806 121.1914 8.385588
11.76173 120.1007 8.025465
12.77243 118.6304 5.529013
11.96368 117.4068 7.830357
12.0788 116.3688 6.319445
12.31094 120.2097 6.531665
11.08541 117.3786 8.270478
10.94354 118.7136 8.503838
11.47211 116.9223 7.600916
10.7871 120.2389 9.01762
9.718949 119.0171 9.974178
10.66328 117.1696 8.456496
9.418714 120.9326 10.17002
8.014925 121.1735 11.02529
10.69371 115.7923 8.404408
9.248181 116.9763 9.567628
7.505405 117.531 10.49826
7.899664 118.9668 10.60009
9.056808 116.4341 9.677829
11.19446 115.0074 8.480762
11.82391 115.201 7.905435
12.5765 115.2581 6.286948
10.43322 120.1653 9.293797
10.61787 121.8798 9.308575
6.741748 119.1647 11.03215
9.585417 114.2945 9.119561
10.22085 113.387 8.715652
12.20084 114.5393 6.533116
13.19491 112.0818 5.168812
12.99206 112.7463 5.060492
7.063851 121.0905 11.32065
7.020112 121.5165 11.41947
8.444264 115.6764 10.49209
5.28707 121.0456 11.69596
4.796578 117.1531 11.53653
3.131888 115.3312 11.82639
5.773041 116.298 11.3411
-0.3868198 114.2011 11.85629
2.957078 115.4435 11.83898
4.071242 116.9396 11.72219
7.630354 116.0455 10.89073
9.09855 114.2304 9.414791
9.75374 111.8497 9.256537
12.01843 111.5956 7.510757
12.92349 110.8779 6.676855
13.14824 110.4042 6.600067
6.938995 120.3679 11.2107
3.967453 115.5252 11.72742
10.8035 107.0278 9.672018
6.288802 112.6114 11.0135
7.20732 114.7021 10.46519
5.923518 114.221 11.11906
1.742986 113.1728 11.85896
1.000668 112.1172 11.92166
-7.007906 113.1731 10.60162
-3.696091 112.6428 11.80999
-0.8825968 112.2548 11.91959
2.975217 117.3429 11.82682
4.088364 117.4765 11.67014
3.713362 118.5387 11.7533
1.806684 117.0264 11.85276
0.527459 119.2843 11.91045
0.1973436 119.8096 11.9343
11.19624 111.2568 8.455481
9.214581 112.8561 9.424278
10.67279 112.1902 8.575852
9.255554 110.5505 9.8244
9.389331 110.2663 9.828097
10.77033 108.233 9.607213
5.701943 121.2738 11.65754
4.078928 119.9726 11.77898
4.061367 120.6587 11.85358
5.986648 112.7747 11.1474
6.596811 112.6536 10.84106
8.31686 112.9613 9.896013
7.120879 111.6413 10.6732
1.436478 115.349 11.84962
12.22991 109.6616 8.156896
12.03455 108.1994 8.834425
14.04075 106.6281 7.370121
5.102616 115.5586 11.42464
8.437266 108.5231 10.55766
7.318891 111.4532 10.59221
5.029118 113.4776 11.49799
1.02206 111.8359 11.94049
11.55273 107.9361 9.209557
7.420801 105.9663 10.94169
6.784354 108.2053 11.25903
7.507141 110.3442 10.68847
7.708349 109.4684 10.74862
3.03895 122.4578 12.08126
4.164078 110.9724 11.89738
3.788933 111.5082 11.91305
3.096859 122.2353 12.05968
0.3695204 111.4181 11.98154
0.4036889 110.076 12.10834
3.741664 110.487 12.03532
5.099862 109.402 11.8523
4.34328 107.7676 12.15146
6.625031 109.1712 11.24791
7.746954 99.73668 9.703487
6.045541 108.4973 11.54133
4.168969 105.6478 12.03216
8.032986 107.5364 10.79169
10.15618 105.6704 9.865253
11.84868 106.148 9.193233
7.597011 105.5949 10.82244
4.867763 106 11.89237
4.413195 105.2621 11.91395
10.95675 103.5267 9.554161
5.150789 124.775 12.0593
5.477402 126.714 11.91248
2.666371 121.6992 12.02877
1.526927 123.2331 12.14767
12.46949 105.3609 8.91056
4.896707 106.9252 11.97623
5.465294 107.538 11.7982
6.388205 106.0424 11.32974
13.45133 103.0348 8.320467
3.86904 122.6147 12.07579
3.809678 126.3242 12.16676
0.6252858 125.1777 12.25823
2.632149 121.4713 12.01323
11.91513 103.3598 9.291177
3.960463 125.2651 12.20665
-1.041226 125.3849 12.26904
-1.247135 124.7749 12.24167
-0.3140484 121.0449 12.00047
-0.7129157 122.1453 12.07095
-12.71553 136.7912 9.282216
-14.96639 98.3643 7.587345
0.3857915 96.94502 10.12488
12.14297 101.2134 8.892662
8.320005 99.34198 9.546494
11.49646 100.1327 9.077193
10.61128 98.70859 9.211987
3.137491 98.56405 10.3603
3.919267 99.18032 10.40335
-0.9686219 100.3229 11.23365
-0.2645895 99.3018 10.93668
-10.94192 112.784 8.215856
-6.102836 105.2372 11.34112
-8.78042 103.884 10.233
-11.30954 105.3604 9.411298
-12.99191 126.8946 6.720866
-8.127247 112.1701 10.10499
-4.641611 113.5417 11.60858
-7.30862 111.83 10.58495
-9.380968 112.0561 9.443214
-4.024752 111.7612 11.86234
-8.9052 112.2156 9.677143
-9.291046 110.5398 9.822682
-5.253711 113.3901 11.42256
-9.666035 110.1956 9.718928
-5.571023 111.561 11.44754
-10.9218 111.1245 8.714375
-11.8047 109.5968 8.589442
-9.81724 109.1745 9.874124
-8.512609 109.0233 10.46633
-3.052342 109.9865 12.12308
-13.16035 108.3162 7.691058
-8.04161 107.0476 10.75792
-7.089973 106.5338 11.10618
-7.299835 107.5638 11.05818
-5.354465 107.1185 11.82252
-4.528337 106.1377 12.01225
-5.156013 106.8685 11.88282
-3.485194 106.8604 12.28485
-3.883821 107.6293 12.23705
-3.374571 104.9099 12.07861
-3.598706 108.5947 12.22967
-4.474397 108.6625 12.09458
-2.284606 104.5816 12.15382
-6.720657 112.0468 10.84982
-6.98216 110.5105 10.92957
-9.514102 107.8565 10.17602
-3.903498 108.9932 12.17678
-3.157571 103.0748 11.76435
-1.776119 109.3699 12.18752
-5.872481 110.0939 11.4806
-6.862367 109.5531 11.10388
-6.965846 110.7667 10.90252
-8.781627 105.7322 10.40248
-0.598002 109.3188 12.18705
-1.738408 111.4898 11.9711
-1.788949 122.9336 12.1256
4.407011 100.6943 10.78594
1.171977 107.6068 12.3121
1.615823 101.2828 11.47742
5.248116 103.5848 11.31546
-1.489655 102.5663 11.82736
4.933206 101.6549 10.9396
1.294854 102.4062 11.80329
-1.033895 101.5732 11.59531
2.285594 105.7391 12.2896
1.007689 100.3595 11.24268
-0.4668786 102.2332 11.7866
1.92952 101.879 11.61517
2.612214 100.2667 11.03604
3.534914 101.8109 11.3518
1.827561 98.88238 10.6941
2.044584 102.6354 11.80173
0.3113728 103.3497 12.03345
8.878506 103.2945 10.2556
7.854836 103.3352 10.50583
9.584416 100.8595 9.591172
8.200314 102.4919 10.21807
7.08669 100.3643 10.05096
8.763162 103.6034 10.18366
6.647509 100.6931 10.2009
-13.83832 102.6715 8.057753
-13.66479 100.93 8.174811
-13.05068 104.5395 8.612177
-14.62007 103.9671 7.281392
-12.53515 104.1766 8.891758
-10.90932 103.9944 9.513602
-10.20704 104.0781 9.764302
-15.01871 103.16 6.907143
-15.0294 103.6009 6.843767
-12.44466 106.5022 8.842999
-11.52839 106.9885 9.3285
5.554695 100.6034 10.45171
1.962747 103.7172 12.04416
-11.2676 106.0511 9.451843
-14.21216 105.0267 7.606522
3.797431 105.3038 12.07569
5.701824 104.8537 11.39719
5.420035 102.8353 11.1134
2.901378 101.5787 11.40616
-20.0859 87.14603 0.2520525
-19.30479 90.86207 0.05856103
12.44775 88.14606 10.14087
-15.06029 86.2727 9.841749
-11.4936 87.17776 10.20983
1.221962 85.97718 10.2613
-13.61993 86.71532 10.17645
-19.61023 89.57819 1.797287
-19.90411 87.70087 2.658039
-18.73808 92.99616 0.3852197
19.11233 91.47978 -0.4544328
-19.15888 91.47747 1.343106
-19.38763 90.17252 2.649674
-19.9327 86.40057 3.7182
-3.837794 93.63533 9.253927
19.61523 89.67684 0.8951944
-0.2968286 87.66797 10.17721
19.39547 90.35601 -0.3868084
18.7058 87.19926 6.641304
-20.17892 86.62528 1.683247
20.13665 86.80123 0.2504906
-19.49323 90.19952 0.8088541
-18.59852 91.65046 4.595636
4.379981 90.11868 9.865177
18.62424 93.37799 0.2353801
19.00853 91.97639 0.06598849
16.5415 95.33086 6.730234
18.15152 94.40254 3.246592
18.76624 92.82569 -0.1610938
19.23189 91.23006 1.277011
17.77936 95.39432 3.769802
18.12095 94.9574 2.442378
-20.01044 87.0299 2.68815
-13.8562 91.39525 9.616035
-20.36909 85.14213 1.81777
-19.42909 87.2126 5.071467
-18.43591 89.80049 6.225474
-13.48887 89.40688 9.97016
-7.302229 88.2998 10.11162
-6.134658 86.87015 10.22679
5.969074 90.31617 9.845781
18.09962 87.21553 7.569793
-19.70854 86.42431 4.582741
-18.45189 93.20308 3.407272
-15.81817 93.07259 8.309296
15.53533 88.02316 9.544697
19.24596 88.61463 4.824755
19.70473 88.21362 3.303425
18.48805 93.6069 2.414325
-19.10314 91.54834 2.005819
-19.46857 88.99715 3.739765
19.0341 91.98459 1.05017
-15.62381 94.30958 8.088405
-3.689068 93.45426 9.329492
0.05701699 93.30054 9.472211
-1.71783 86.29997 10.25156
6.074283 87.30174 10.20161
16.95123 94.2869 6.578909
11.61795 87.52562 10.18944
-17.16545 87.76368 8.48263
-15.12954 90.5487 9.340905
-15.97813 86.92085 9.400079
-19.01561 90.87621 3.770963
-17.37178 93.57885 6.18696
18.48289 88.4957 6.634629
19.95575 87.31034 2.760679
19.41547 90.46757 1.512862
17.80152 95.04079 4.073994
18.52674 93.30311 2.829112
-18.80569 91.28152 4.205962
-19.03745 89.85378 4.65694
-15.9736 85.76115 9.522199
-10.51444 92.96884 9.552212
-12.29404 92.81172 9.587852
-5.35134 85.5835 10.27178
-2.770961 85.65582 10.27075
-5.403268 92.11585 9.829569
-0.4518135 93.66323 9.257906
0.6216838 86.46272 10.24608
1.220514 86.88029 10.22507
4.444505 94.58465 9.109733
7.004814 86.47697 10.24018
11.32237 95.42533 9.291075
12.1411 87.17915 10.21235
14.59999 87.82851 9.893684
-17.25119 92.37771 6.875255
17.17439 94.12201 6.280025
18.16741 94.04298 3.685364
15.94738 89.64777 9.05653
16.89219 92.83241 7.286112
-18.3912 91.89721 5.010821
-14.29651 87.59641 10.01351
-14.49836 87.82273 9.934675
-11.6696 85.99718 10.25684
-13.91809 93.58853 9.214608
-7.841384 93.81523 9.298775
-18.29709 91.57602 5.480105
-5.764936 87.25861 10.20448
-7.569588 87.09199 10.2133
-4.736946 87.80642 10.15884
-9.446825 87.45992 10.19079
-9.122723 86.09335 10.25773
-5.584902 92.94528 9.585605
-3.439903 93.16422 9.488429
1.866637 91.28246 9.769588
2.014157 94.13244 9.15232
4.578607 87.31107 10.20108
-0.8177869 88.4437 10.09418
5.068518 87.73492 10.17406
4.188871 88.26839 10.12192
4.756742 86.79005 10.22834
1.379727 92.10012 9.872205
5.020033 93.07806 9.786637
3.554094 90.5546 9.803698
4.365448 91.57014 9.755965
8.013652 94.53913 9.216711
9.573491 88.45061 10.11352
7.310832 89.10573 10.04104
10.45373 93.4418 9.677741
11.66844 94.38813 9.391759
13.21497 93.80347 9.354136
7.774466 92.3274 9.701533
14.78832 91.19397 9.364325
14.72336 92.65004 9.101167
16.73645 91.79478 7.860611
9.869768 89.04852 10.05623
14.69722 88.58328 9.801511
18.8244 92.34721 2.538836
17.92935 93.99201 4.620639
16.90911 90.53667 8.079275
19.11909 89.4586 4.633877
-16.1334 87.23734 9.316718
-12.26144 88.49659 10.10225
-8.700901 91.78168 9.80747
-5.680062 89.2226 9.990644
-4.847797 88.85873 10.03903
-4.246951 89.3651 9.966608
-4.877981 89.63884 9.93235
-4.260785 92.90806 9.609707
-4.221782 92.01003 9.866988
-3.776175 90.29187 9.848923
-7.179681 91.65168 9.845297
-1.062929 92.09983 9.89975
-4.862339 91.97672 9.861598
-1.271444 88.78236 10.04871
-2.721193 89.68497 9.91813
2.614664 91.16958 9.75386
5.479215 89.7486 9.931675
11.63109 92.38886 9.640238
8.566466 93.17445 9.765048
8.486073 87.41975 10.1933
15.07093 94.95042 8.338128
13.17251 88.23724 10.07227
8.884578 90.54305 9.843386
18.28387 93.23234 4.133558
15.43241 90.64206 9.154406
19.13019 90.56162 3.599663
-12.97115 88.74553 10.07977
-13.24692 92.49689 9.530076
-8.696019 92.04223 9.771444
-1.049769 90.24495 9.837089
13.15885 92.77918 9.535878
10.0688 92.63754 9.634105
11.40228 92.12182 9.662624
17.63291 88.98098 7.742353
17.6722 90.7723 7.085324
17.39149 92.15807 6.897475
17.28251 92.69927 6.807554
19.07889 88.45971 5.416846
-14.15676 92.18909 9.417893
10.21556 91.98353 9.674787
11.07032 90.41772 9.883337
18.48744 92.23605 4.393645
-13.69042 91.01842 9.724801
-16.73979 92.36289 7.570694
-16.06228 88.62546 9.160508
-15.97454 92.13701 8.454654
9.05372 91.00438 9.778038
-12.34683 92.04051 9.677333
-13.56411 88.65098 10.04616
-18.46121 87.99207 6.855878
-18.28823 88.94786 6.812625
-17.48778 90.64459 7.35098
-17.72555 90.51714 7.009413
-15.2359 88.71915 9.574114
-16.47965 89.59032 8.706732
1.553414 88.86329 10.04123
1.64168 89.80878 9.903963
2.590248 89.26601 9.988038
18.33197 92.95461 4.234476
1.049394 90.28915 9.835919
9.134971 90.1172 9.907984
-9.345901 91.56353 9.820094
-10.26904 91.55445 9.804312
-8.647153 89.15427 10.01498
-10.06577 91.00008 9.852386
-10.31978 89.688 9.964994
4.996649 133.9835 -11.61543
17.35275 98.91326 -0.1659318
16.94839 100.7971 -0.3432584
16.1218 103.9424 -0.5413523
14.0373 129.929 0.01045682
14.37673 131.6684 0.8149614
-8.065489 134.3386 -11.29382
-8.023828 133.1759 -10.87125
8.386309 97.1153 -12.07076
13.70513 111.6932 0.6503572
13.88036 128.7002 0.4300437
15.58035 95.09966 -7.204683
-10.24283 133.6446 -10.17662
-14.76007 135.0291 1.081991
12.82968 121.9657 2.855446
-14.41055 131.1883 2.563497
14.44792 132.5678 -0.8961899
14.31921 131.2626 0.9632847
5.181522 126.9082 -8.647425
14.31496 131.6359 -0.1478926
14.77334 135.2285 0.2894382
14.74257 134.8014 1.156053
14.24859 130.3466 2.319289
14.00444 129.0845 1.413525
-5.849566 132.0444 -10.89848
-1.450217 133.4855 -11.45931
-3.307565 94.02195 -12.75491
-14.10358 93.72464 -9.282595
-5.725955 133.9563 -11.56647
-17.24495 93.99877 -4.885281
-6.668705 132.6425 -10.97463
1.470328 134.1817 -11.68096
-5.421347 95.19558 -12.78112
-2.517102 131.7292 -10.8435
-0.2602428 134.311 -11.72221
-17.36471 98.90461 -0.07396725
14.11268 129.7944 1.544595
-15.26906 106.4212 -0.9184701
-14.81717 109.3786 1.866819
17.75981 95.18173 -2.5391
-14.81489 135.6579 0.1957356
-14.83464 135.1369 -1.159661
-6.120152 131.8796 -10.79637
14.22594 130.274 2.146722
5.106631 133.9361 -11.59573
-3.073785 133.4993 -11.45839
14.40305 131.0878 2.715923
3.166264 134.1196 -11.66074
-14.11731 130.0262 0.8933604
3.948611 133.7952 -11.55338
-13.57872 126.4717 1.441557
7.475715 128.4363 -8.870883
-4.835048 133.1989 -11.36323
-2.054812 132.7113 -11.2069
-0.01073891 132.1432 -11.00771
-9.151747 96.2527 -11.99988
14.67373 133.7593 -2.432587
-14.86657 134.3192 -3.969633
13.31525 127.8645 -1.608503
14.67569 133.9484 -1.586057
-14.46151 132.3725 0.4581646
-14.04346 129.3022 1.565737
6.004333 133.0431 -11.2575
4.633833 129.5832 -9.899584
2.345856 131.4372 -10.73294
3.6089 131.3553 -10.70202
5.593597 128.9359 -9.542478
2.259506 129.1978 -9.742555
4.847982 129.2953 -9.772613
14.57922 133.2663 0.06699385
14.27702 131.524 -0.4954079
14.03304 131.5945 -3.939212
12.1065 132.6167 -8.427987
13.11253 132.506 -7.274267
14.02557 131.3284 -3.396764
-6.967168 132.2099 -10.77649
-9.027177 132.2015 -10.07438
-3.711736 131.0537 -10.56634
-2.699271 130.5844 -10.36692
-5.35493 131.1189 -10.5801
0.8980051 131.9728 -10.94497
17.79579 96.33454 -0.672173
17.08191 100.1284 -0.3493094
-11.45696 111.1851 -3.900386
-8.548176 111.7067 -5.312566
-18.17245 93.77697 -2.349533
12.66913 115.0012 2.006384
14.67754 133.6806 -3.054296
-14.63498 133.5447 -4.023893
-14.5831 133.3297 -2.220638
-14.76468 134.8639 -0.3276832
13.50984 127.2465 -0.1134154
-12.99702 124.5772 0.6284793
-13.32014 127.0104 -0.7181283
-13.2698 126.4521 -0.3175408
-14.2391 131.5302 -1.217956
-14.21802 131.0765 -0.1664378
-13.86002 129.0687 -0.1903763
-14.0006 129.4236 0.5229168
-0.5382361 129.4897 -9.870959
-1.93052 131.4199 -10.72101
7.94641 133.5373 -11.02091
13.65569 132.4603 -6.291489
8.519323 128.3507 -8.425041
13.76487 129.3667 -1.291896
-8.655477 131.1121 -9.739663
-4.833046 130.3053 -10.24162
-7.368394 130.9734 -10.14657
-8.311146 130.3873 -9.55462
-8.804844 130.4661 -9.371994
17.59527 97.45721 -0.4024139
17.30111 94.44108 -4.502361
17.28818 96.6874 -2.880393
15.6684 94.78474 -7.193619
15.74207 104.8059 -0.9850679
5.01772 95.04953 -12.76665
-8.004289 95.47268 -12.4651
-16.88114 94.66784 -5.24496
-15.6596 102.0883 -3.351541
-17.9133 94.40776 -2.695399
-17.97839 95.44942 -0.9382153
12.64357 114.2291 0.7367026
-11.90634 132.8302 -8.725278
-13.29271 131.7622 -6.348605
-14.33889 132.0866 -1.55174
-14.18844 131.518 -2.168653
-12.7671 130.6382 -6.266056
-9.037636 128.4451 -8.221665
-7.364645 127.6718 -8.503607
-10.23164 130.2075 -8.481288
-9.790907 130.6425 -8.970701
13.92984 128.5279 2.188854
13.58953 127.9512 -0.4713747
-12.97857 123.8409 1.450643
-14.14831 130.9944 -1.043646
-13.55352 128.8701 -1.79469
6.845396 129.1226 -9.41091
5.956733 129.4376 -9.728799
11.48957 132.3138 -8.773052
5.807018 132.4453 -11.0694
13.23795 131.9968 -6.629231
11.17608 131.4657 -8.55048
11.54983 130.5027 -7.682733
7.968587 132.0835 -10.43745
11.00471 130.374 -8.06132
12.62285 130.4411 -6.328849
7.984612 129.0685 -9.022635
8.853523 131.6039 -9.895942
7.958749 126.6542 -7.739988
9.873815 129.5101 -8.324045
13.92585 130.5323 -2.223537
6.982736 130.2185 -9.909754
14.06916 131.1048 -2.419627
9.550283 126.8591 -7.013169
12.85012 128.5261 -4.015645
13.60532 129.6585 -2.709321
-9.777982 131.4738 -9.397549
-6.00453 129.9117 -9.967259
16.40339 101.4097 -1.887096
16.91222 100.6378 -0.714406
16.81548 95.37164 -5.019786
17.71195 95.94093 -1.918087
15.18924 106.8673 -0.7649237
12.03026 93.45953 -10.97745
6.097528 93.31416 -12.82312
-14.2077 110.0172 -0.3476464
-10.95093 95.54877 -11.30237
-15.07022 108.0977 0.2858646
-13.89667 96.59229 -8.688486
-17.29255 99.14429 -0.2843661
-17.7219 94.0635 -3.681265
-17.11704 94.97664 -4.602321
-16.27525 96.93395 -5.205637
-17.02275 96.47836 -3.842558
11.97856 118.9099 1.081348
12.94824 113.2101 0.3442371
-13.57764 132.3524 -6.406833
-14.29522 132.2015 -3.471586
-8.581638 129.9132 -9.198011
-11.25599 129.6351 -7.412681
13.34721 124.6466 2.928977
13.4705 125.7794 1.81312
-13.14263 123.5507 3.014188
13.62713 127.8531 -0.1457201
-13.36248 124.767 2.832346
-13.06517 124.4175 1.203777
-13.19682 128.5649 -2.989877
-11.42155 127.9678 -6.06174
-11.08682 126.5535 -5.43137
13.32391 132.7031 -7.114587
6.032879 129.9849 -9.978884
13.57023 129.4305 -2.513641
3.315267 127.8713 -9.207716
17.16882 98.76457 -1.430473
15.28859 94.56731 -7.759794
15.63823 105.723 -0.4392356
14.55545 108.9654 -0.57374
13.50327 94.32863 -9.724432
10.74352 94.35989 -11.63252
10.09924 94.96128 -11.84784
8.295979 93.66891 -12.54863
6.77208 94.36567 -12.7786
-1.006738 95.6887 -12.59971
-12.26409 115.6626 0.610011
-4.252855 95.03545 -12.74106
-8.924434 93.65191 -12.40331
-8.939145 94.55117 -12.32113
-16.09637 104.9107 0.6322647
-14.83043 108.8056 0.292979
-14.5599 96.14097 -8.115516
-14.14772 95.28058 -8.851334
-13.84392 94.72147 -9.307845
-17.34848 98.52252 -0.7291762
-17.14373 98.54619 -1.766269
-16.97775 99.76284 -1.306237
-16.68181 96.83121 -4.42892
-17.43598 96.86527 -2.145983
12.23065 120.073 1.569713
12.74152 117.7016 2.67881
13.0936 112.3317 -0.6211609
-13.02428 130.6331 -5.820051
12.94337 122.7804 2.570744
12.60006 123.6426 -0.09910954
11.13332 120.7166 -1.412633
12.06435 122.6813 -1.553619
12.03138 122.5906 -1.100034
11.45092 123.0661 -2.278549
10.28326 124.4465 -4.823784
12.77912 125.6264 -1.162088
12.2859 125.3994 -2.288131
11.6778 126.2368 -4.27697
11.31802 126.376 -4.974324
10.24803 124.7527 -5.0818
9.168859 122.5991 -4.8709
-12.50058 118.5526 2.372017
-12.50897 121.6447 1.539629
-12.16263 120.6607 1.001945
-12.18426 117.975 0.9230437
-12.77176 116.2039 1.964454
-12.85094 126.0265 -1.369421
-13.58728 128.7143 -1.37244
-12.15166 126.6644 -3.791629
16.20692 95.90758 -5.887388
16.34204 99.93874 -3.125808
13.76531 110.9814 -0.4058516
16.02375 104.7136 -0.03123757
15.43269 103.8667 -2.618332
15.97078 103.6846 -1.328596
14.86761 104.5079 -3.349232
14.31885 105.8051 -3.483454
14.2922 106.0774 -3.350809
13.61613 107.1331 -3.777794
14.51641 107.0694 -2.289397
15.90165 101.1518 -3.38712
16.22978 100.6643 -2.907431
15.83288 98.5488 -5.116676
13.24224 96.47445 -9.363112
10.18434 96.54308 -11.49263
11.87445 97.11124 -10.30186
8.032516 94.90897 -12.52611
5.854287 95.15986 -12.7733
6.876709 93.6642 -12.78199
1.303281 93.86578 -12.72064
-12.44938 115.8343 1.522648
-12.84642 113.8359 0.2023304
-12.91562 113.8427 1.474314
-12.20542 115.9382 0.1523047
-12.09682 113.4581 -2.270511
-6.514251 96.48988 -12.54553
-1.541372 94.57789 -12.69941
-6.892685 95.74682 -12.6254
-4.351362 95.88235 -12.65213
-11.43159 97.1422 -10.6069
-16.12298 103.8221 -0.663009
-15.81929 103.477 -1.956553
-15.81715 105.862 0.5040385
-14.11701 110.9733 1.764843
-16.85969 101.0701 -0.5084013
-16.40949 100.4959 -2.570507
-16.45768 99.37345 -3.220183
10.72116 119.8035 -1.820235
11.46087 119.8414 -0.4505052
12.71238 120.9467 3.218207
13.47113 116.298 2.260619
12.94587 113.5845 1.095035
13.56383 113.2884 1.32669
13.58598 112.5767 0.2557387
12.70322 124.8524 -0.6870252
12.65312 122.6202 1.29393
11.99351 120.8774 0.4055839
10.43428 126.048 -5.770564
8.033503 126.0715 -7.383646
7.710304 128.1442 -8.646461
9.937988 124.4649 -5.188616
8.252888 125.0191 -6.71362
4.303109 127.0608 -8.836377
2.309032 126.5549 -8.699667
4.890778 122.9673 -7.100686
2.065532 127.0446 -8.909178
11.10794 124.5255 -3.792091
-12.20177 121.1634 0.8389009
-11.32643 123.6873 -2.793843
-12.34076 124.31 -1.210414
-12.68999 126.1818 -1.969391
-12.31065 122.8949 -0.04836956
-11.7252 121.6182 -0.6376767
-4.281989 129.1672 -9.726472
-2.726751 129.5429 -9.895348
15.30223 95.62011 -7.380959
13.85785 111.0331 0.05354209
14.82682 107.3708 -1.347154
16.1312 103.2252 -1.247088
12.66098 106.3884 -5.326857
16.30475 101.4891 -2.15611
15.26981 99.71971 -5.436617
14.46808 99.66727 -6.700133
17.02217 97.64838 -2.957746
15.53696 98.81297 -5.507185
13.45747 94.63628 -9.694759
12.37977 98.27724 -9.502464
13.07016 99.6979 -8.311149
10.36388 97.73864 -11.09285
11.26244 102.353 -8.65529
13.70346 96.21681 -9.009237
11.73754 96.56129 -10.56001
4.42485 97.24763 -12.42511
5.319531 96.71824 -12.56325
-12.0907 117.7477 0.0551105
-2.084921 95.42658 -12.64049
-1.162766 95.31432 -12.63891
-12.26479 100.4984 -8.695912
-14.99069 108.8905 1.712213
-15.73744 105.0479 -0.7540438
-15.7208 102.7003 -2.811836
-16.32824 100.4371 -2.828404
-15.66903 101.1126 -3.917197
-15.97035 98.38937 -4.942809
12.0344 117.9077 1.427638
13.04891 115.5123 0.01693858
12.01089 113.0889 -1.982839
12.40793 113.8332 -0.5820505
12.98229 113.7722 1.770533
-9.029774 128.0776 -8.019546
-6.281052 127.6553 -8.79062
-5.376995 127.7168 -8.993269
-7.670926 126.9232 -7.998193
2.781769 125.6096 -8.381765
3.339079 126.7991 -8.809951
2.374003 128.6844 -9.517069
-12.87417 117.066 0.8462991
-2.572499 130.1087 -10.15329
-3.387109 129.3642 -9.81514
-0.2152278 127.903 -9.195369
13.98653 110.4387 -0.5045899
13.41917 108.3512 -3.377281
15.43943 101.3166 -4.251509
14.54573 100.2151 -6.320574
14.24286 100.0299 -6.826422
9.161049 101.2821 -10.39538
12.09211 101.4553 -8.407532
13.68649 102.6087 -6.223133
14.10696 96.64213 -8.450461
14.92059 98.24307 -6.75703
8.910112 96.62761 -12.01647
-12.49797 113.3755 -1.304383
-11.62415 115.2436 -1.371856
-12.48734 116.1724 -0.7257836
-6.547428 98.59268 -12.07088
-14.78738 107.5063 -1.319321
-15.88805 102.8366 -2.298821
-14.93935 102.259 -4.618606
-16.30853 99.30546 -3.633341
11.45419 116.6485 -0.7409897
8.730808 115.6865 -3.918762
11.07516 118.2452 -1.120388
12.25101 117.2974 1.733741
12.99624 115.4823 -0.2934474
13.22672 111.0345 -1.924194
-7.373674 128.6289 -9.009597
-8.800099 127.0159 -7.548519
-12.08565 128.328 -5.435279
-12.53735 128.7154 -4.966467
1.40188 129.8875 -10.05058
3.689722 128.6554 -9.510919
-1.012989 126.9543 -8.871432
-2.604116 126.019 -8.534079
12.89089 100.4941 -8.122839
-13.05982 111.954 -1.081872
-11.44702 112.8232 -2.918246
-7.643592 98.02499 -12.03576
-7.683138 97.39655 -12.1814
-15.1268 105.6719 -1.954288
-14.77367 103.9154 -3.898649
-16.26587 98.83742 -4.050213
10.45151 116.5839 -2.344587
10.05864 116.3016 -2.828753
9.915544 112.7655 -4.268184
12.81659 108.5104 -4.035127
10.55422 108.2975 -5.963975
8.683222 114.3111 -5.556251
10.0213 113.3935 -4.372684
-9.954193 129.3351 -8.187308
-10.85688 128.0984 -6.765089
1.067514 126.0185 -8.539907
-10.93436 119.9076 -1.501415
-11.40859 120.6736 -0.8450904
-11.23973 116.4903 -1.313017
-1.496033 127.301 -9.056509
11.45523 98.94975 -9.982879
-13.84648 110.7984 -0.4298054
-11.6168 113.639 -3.172831
-8.327407 98.53104 -11.70985
-14.04371 109.5155 -1.476218
11.42535 115.5573 -2.990111
12.41295 110.1037 -3.615321
9.571774 114.6326 -3.645981
11.63476 110.6208 -4.080853
-11.25973 127.3665 -5.81528
-9.85029 126.5361 -6.591818
-12.28425 126.3635 -3.157243
-2.722375 124.7415 -8.051349
10.29883 99.59721 -10.5071
11.75338 100.173 -9.271773
7.26084 99.72198 -11.61008
-12.42267 112.691 -1.62257
-12.50652 109.3497 -3.939151
-11.77864 112.7233 -2.649213
-11.82215 112.3807 -2.749874
-7.901567 97.49709 -12.11414
-7.071323 97.93958 -12.1744
-13.42736 109.8508 -2.404237
-14.2997 103.0987 -5.156901
12.15426 111.2501 -3.155724
9.93103 114.4526 -3.739938
-9.884634 125.7809 -6.104234
-9.244592 124.326 -5.696086
-11.97042 124.0379 -1.818636
0.416518 125.8291 -8.497338
1.636981 125.1142 -8.170144
-9.930592 117.1156 -2.799652
-11.19114 113.7897 -3.789178
-10.1797 113.3534 -5.01946
-6.078353 113.3323 -6.708974
-9.315502 111.5842 -5.016897
-8.879027 111.2537 -5.334308
-11.1334 112.0451 -3.661634
-9.978336 111.1992 -4.894795
-7.05704 111.9061 -6.02429
-9.421621 111.2001 -5.151761
-10.01177 110.6116 -5.156823
-8.055539 112.7869 -6.113359
-6.898754 110.3689 -6.134335
-9.197092 112.887 -5.548553
-4.583664 113.019 -7.051616
-7.183837 113.0523 -5.808054
-7.209042 113.0975 -6.536746
-8.676614 113.4313 -4.558105
-10.30381 113.8891 -3.934306
-6.218607 96.62907 -12.53394
-14.67671 107.611 -1.530336
-14.0707 105.3039 -4.161257
10.15867 114.4194 -3.796546
8.002222 114.508 -4.508237
-9.099787 125.5268 -6.516137
-9.311785 123.2586 -5.004872
2.844548 123.9859 -7.830678
4.370113 123.8429 -7.563814
-10.49709 119.2247 -2.074043
-9.548235 115.1999 -3.510024
-11.73997 115.7613 -2.189262
-10.74562 114.5996 -3.719023
-11.8393 107.3073 -5.577227
-5.970229 98.57869 -12.12432
-13.65106 104.1684 -5.433587
-13.53357 103.7338 -5.826543
9.421782 114.4885 -5.019938
7.953372 120.2222 -4.717217
8.187686 115.5155 -4.240027
-8.33053 125.3642 -6.863585
-11.17478 121.9163 -1.915216
-10.08304 120.2993 -2.841688
5.638179 123.3977 -7.0614
2.07109 123.5454 -7.603023
-9.666857 118.8888 -3.040694
-8.186826 113.5097 -4.69459
-9.113411 118.0017 -3.487699
-11.60572 109.2686 -4.818852
-12.49316 105.2183 -6.125618
-4.047963 97.28894 -12.3935
-10.01261 106.3896 -7.267347
-13.18873 106.2938 -4.795421
-12.42495 106.918 -5.252137
-13.49044 107.49 -3.752592
-11.11874 105.0284 -7.351264
-10.7165 107.3032 -6.369071
-12.70125 108.5563 -4.128782
-12.73701 110.0026 -3.317666
-11.87925 110.7229 -3.77153
-11.46172 106.7218 -6.189888
8.678186 113.911 -5.877942
7.949341 113.3245 -6.125322
8.836756 115.9624 -3.810512
6.973066 115.5943 -4.755581
7.636711 118.4214 -4.514506
3.302832 119.9433 -6.392653
6.515572 118.2293 -5.054695
-11.22204 122.9548 -3.025383
-7.497148 109.9553 -6.193389
-12.30428 104.0064 -6.960759
-13.83435 102.0651 -6.324203
6.337068 115.2905 -4.995318
5.210742 117.3176 -5.414759
-9.304337 123.3575 -5.066563
-10.49 122.7587 -3.825039
-9.235753 120.7154 -3.876294
-7.886909 108.5313 -6.738407
5.453848 113.0401 -6.984503
4.79758 112.9419 -5.705142
4.495799 115.1554 -5.504573
4.752666 114.911 -5.448987
5.28047 113.0257 -5.703563
3.476 116.1156 -5.723182
3.992245 116.5203 -5.669246
2.531824 118.0605 -6.265401
8.706093 117.3639 -3.794905
-6.820772 123.2722 -6.556018
-9.437038 122.0647 -4.886451
-1.55867 122.425 -7.104453
-0.4779711 118.4401 -6.160471
1.402432 120.4579 -6.718885
-6.371431 123.649 -6.898397
-4.837902 123.1807 -7.21022
-6.169099 122.5872 -6.531582
-0.4924303 123.4729 -7.656971
-8.535535 121.8226 -5.55969
-5.847875 121.2021 -6.646786
-6.834853 124.7259 -7.203313
-5.834591 126.2109 -8.196655
-3.946134 127.0153 -8.854959
-1.691829 126.7365 -8.780047
-3.305484 126.2384 -8.592788
-3.994085 125.3627 -8.197209
-3.383148 124.7582 -8.037075
-0.4135616 119.9622 -6.363416
-5.055325 122.2059 -6.772338
-2.91823 120.0731 -6.45245
-2.380921 125.1632 -8.196638
-3.87231 125.8004 -8.380482
0.02086885 121.6771 -7.163589
-3.369519 120.1521 -6.465777
-1.301082 126.6963 -8.765974
0.5782975 119.4386 -6.220592
-0.5715775 119.7608 -6.2904
-0.9376367 118.0322 -6.111567
-0.8035927 117.891 -6.099467
-1.380683 119.1574 -6.221782
2.705741 118.9325 -6.207166
0.6213132 125.1214 -8.1566
-0.6926589 124.3953 -7.960291
-4.944417 119.2304 -5.840465
-6.645852 118.5104 -5.037822
1.850904 120.1309 -6.552114
-1.06407 126.0861 -8.556239
13.70159 126.9997 1.731586
13.49618 126.4766 0.7894204
8.417193 128.8203 -8.712518
5.115889 98.86652 -12.03775
-15.35994 98.78387 -5.812183
-15.92807 96.90263 -5.866737
-15.42081 97.70365 -6.292307
-14.69868 99.81712 -6.297729
-12.2178 97.59194 -9.868331
-12.0185 96.35139 -10.42444
-13.56521 98.83471 -8.151388
-11.40726 99.47675 -9.822283
-11.77846 100.8455 -8.956041
-13.22461 100.3014 -7.87146
-12.93398 99.28831 -8.616207
-11.94941 99.4385 -9.416903
-14.38739 99.30331 -6.970665
-12.00092 98.40619 -9.767814
-15.18725 101.8129 -4.423867
-13.89593 100.7805 -6.886619
9.842363 121.3018 -3.492642
10.18339 121.1991 -3.046037
11.1767 121.3762 -1.628417
9.690051 119.1299 -3.040819
9.781612 120.2327 -3.175051
8.535974 119.9921 -4.227886
8.017813 119.1289 -4.397051
14.85005 102.5224 -4.637602
9.992135 98.65807 -10.99349
7.77861 98.07063 -11.99282
7.478025 98.6652 -11.8992
7.282759 99.13423 -11.79624
7.291593 100.2026 -11.44177
4.782328 100.7479 -11.40051
3.125774 99.48434 -11.77494
6.240583 102.0801 -10.82004
4.667406 99.09571 -11.95478
4.347085 99.86626 -11.69182
3.272925 98.71128 -12.01378
4.28081 100.1771 -11.58152
3.290726 95.24323 -12.68719
5.659094 102.975 -10.4103
5.447077 102.2662 -10.76483
6.569528 104.9057 -9.246002
9.629479 102.4343 -9.627507
10.76871 105.5547 -7.304873
11.37867 103.0924 -8.198916
5.332421 97.37056 -12.4269
2.827051 95.14154 -12.68409
1.519692 101.605 -10.94541
3.990379 102.1185 -10.78153
7.350017 103.7733 -9.767505
10.23361 104.673 -8.116116
0.8267865 95.27496 -12.63943
3.81032 102.4998 -10.5861
8.864613 102.4488 -9.970364
12.03027 104.938 -6.700712
-0.02879604 95.91059 -12.56536
0.7867749 100.9248 -11.22132
0.2769413 100.8715 -11.23978
-1.801462 97.51243 -12.28856
-0.4880798 95.89296 -12.56675
-2.129908 100.534 -11.39024
-1.62198 101.9951 -10.77161
10.90912 103.6258 -8.260013
11.6888 103.9754 -7.502157
9.946963 103.0628 -9.139795
-0.9486262 98.08081 -12.14268
-4.761246 103.6407 -10.03043
-3.024399 103.5738 -10.01657
-0.7137468 103.1368 -10.21694
0.4006963 103.2653 -10.15282
13.21094 105.709 -5.095139
13.48502 104.3658 -5.531549
-3.608129 97.86002 -12.24995
0.720125 98.49615 -12.03736
-9.552415 99.99194 -10.74787
-0.114588 102.0366 -10.74109
-3.280512 99.30594 -11.84068
-7.258375 99.47489 -11.69174
1.354192 98.82388 -11.9463
-9.980136 104.9013 -8.129569
-8.895453 106.2286 -7.818445
-9.004183 103.4655 -9.385713
-3.75813 102.8176 -10.42848
2.230757 102.2795 -10.65404
-11.28906 103.8996 -7.84751
-12.60042 102.5534 -7.417371
-12.35296 102.6868 -7.589591
-9.663615 103.3424 -9.146922
-8.614081 99.47967 -11.31925
-5.484423 102.257 -10.7607
0.6821725 103.061 -10.25517
2.109038 104.2043 -9.677169
2.877084 102.6089 -10.51018
-6.828084 106.157 -8.384153
-3.549513 102.3514 -10.64695
-7.754122 102.039 -10.57022
-5.695958 105.8658 -8.71785
-9.622478 107.5977 -6.74487
-8.509413 100.1165 -11.12158
-6.975624 99.95172 -11.58936
-2.790049 101.5606 -10.98638
-6.558123 100.4476 -11.47311
-7.894512 102.4948 -10.30868
-6.956717 102.8916 -10.32518
-5.081684 104.9372 -9.314827
-3.686233 104.7342 -9.395366
-8.701283 106.6894 -7.5971
-3.88564 101.2191 -11.1696
-2.855065 100.0071 -11.59483
-4.212488 99.15084 -11.91817
-6.263904 108.3136 -7.083683
-5.106883 107.0536 -7.974819
6.917938 105.1795 -9.02408
3.649807 105.4192 -9.021201
-3.419235 106.7204 -8.308507
2.823891 107.3293 -7.989951
2.849005 106.1325 -8.641634
1.87193 106.653 -8.377541
0.5885261 106.9537 -8.23349
2.811476 112.8841 -5.925675
3.961244 107.8455 -7.6386
1.57753 111.7114 -7.404344
11.86195 109.4017 -4.513293
11.93199 106.5142 -5.922635
10.19815 107.3359 -6.648009
10.79296 110.0578 -4.98813
10.8595 108.0626 -5.897443
9.287991 108.5145 -6.392869
8.911712 109.5442 -6.053688
7.197476 107.5467 -7.418288
5.582322 106.6198 -8.22061
6.199373 107.3067 -7.70895
7.613492 107.6167 -7.299342
8.634624 105.2772 -8.504512
7.666361 105.9538 -8.3562
10.10449 105.6628 -7.629793
3.813121 108.4352 -7.368129
8.793314 109.9327 -5.924376
9.124776 106.8035 -7.396508
4.198561 110.1175 -6.82705
6.105572 108.3481 -7.16502
7.204611 109.0257 -6.668133
7.467527 109.9279 -6.227854
6.90373 113.3824 -6.676184
5.565025 112.8258 -7.04423
8.827857 113.2465 -5.68173
6.987885 112.8349 -6.484238
2.369372 112.8143 -7.302542
-6.085357 115.5295 -5.257627
-8.819701 116.6296 -3.753397
-9.244888 117.8482 -3.392441
-7.980396 115.958 -4.576745
-7.189312 116.6008 -4.634465
-6.619273 117.6678 -4.93597
-9.661951 119.4015 -3.117579
-9.032461 119.9603 -3.835688
2.101993 111.6488 -7.326798
4.155458 112.5163 -6.039087
1.307764 112.6171 -7.492377
1.825131 112.2826 -6.246688
0.4388108 113.1375 -5.746147
2.181892 119.9999 -6.445254
3.558109 115.6295 -5.678139
-8.644765 120.4143 -4.264171
-7.516 120.1938 -4.96244
-1.1584 118.9542 -6.186353
-1.873249 118.1842 -6.105482
2.10486 121.2192 -7.428197
8.706187 126.6964 -7.376503
-13.38679 97.9232 -8.708073
8.603874 121.4984 -4.718263
10.91724 123.254 -3.152302
9.519743 122.0653 -4.983772
9.642718 123.5792 -4.922001
10.98521 104.6526 -7.655539
13.10912 106.0954 -5.00282
0.3991433 106.4304 -8.506294
-1.127183 103.7024 -9.929586
-2.434613 104.9994 -9.24008
-3.333793 107.0899 -8.099165
1.329235 105.4568 -9.004928
-3.888974 107.4846 -7.836801
-6.113151 109.2318 -6.673698
-2.936768 109.3592 -6.95249
-6.3188 103.872 -9.878119
-3.237036 101.6204 -10.97419
6.110043 123.6182 -6.993226
8.993595 125.106 -6.339135
9.257884 123.9484 -5.444921
-4.525803 118.1143 -5.734402
-6.80596 115.5711 -5.043706
-5.734381 115.3743 -5.326946
-6.858047 114.4649 -4.931019
-4.574598 116.8237 -5.556616
-4.822917 113.9761 -5.521067
2.670204 112.0867 -7.470016
-0.7656653 110.7588 -7.032103
1.255936 110.7296 -7.05109
-0.2737375 110.6468 -7.0175
-0.4691972 110.2539 -6.932017
0.1427014 109.4012 -7.090975
-0.2966995 108.3113 -7.491379
-1.085329 107.5179 -7.912468
-1.786724 108.7313 -7.255294
-3.797507 110.3794 -6.570861
-1.977788 108.729 -7.252759
-2.111272 111.2378 -7.026774
-4.136463 112.7786 -6.720658
-2.063104 110.7082 -6.855627
-2.747183 112.6315 -7.44863
-1.201329 110.3903 -6.895212
0.475912 113.7822 -5.728534
-1.014829 113.9301 -5.740628
1.761018 121.0868 -7.536763
5.468301 122.3094 -6.684135
6.13307 122.3122 -6.445939
6.0954 121.6784 -6.558198
7.283288 120.8474 -5.314363
5.412827 118.9985 -5.776991
5.784556 121.1835 -6.665928
1.769685 115.9174 -5.74907
8.247605 120.2718 -4.5321
8.707573 121.0021 -4.429927
7.424581 122.154 -6.009554
