# .PCD v0.7 - Point Cloud Data file format
VERSION 0.7
FIELDS x y z
SIZE 4 4 4
TYPE F F F
COUNT 1 1 1
WIDTH 1650
HEIGHT 1
VIEWPOINT 0 0 0 1 0 0 0
POINTS 1650
DATA ascii
-16.17459 95.6716 7.046243
-14.98944 95.33707 8.266713
-17.01298 93.31416 6.888888
-18.23793 87.04013 7.376441
20.62736 30.56756 -0.5132384
-10.75687 21.34569 -0.9411364
-12.82253 20.10646 -1.052985
16.30502 47.96978 2.800052
-18.18598 54.76026 2.727861
-17.6772 53.83871 3.180836
-14.57104 52.49533 4.635402
-14.65167 51.92531 4.468762
-15.96038 52.49282 4.341761
-13.24713 45.14028 2.528922
-8.112512 61.77833 6.999094
-16.47343 51.26755 3.696069
9.461369 19.92006 -0.9993355
1.173671 114.1374 12.08841
2.061776 114.4403 11.99079
4.480398 116.5147 11.57873
4.816844 113.7225 11.99061
-5.9732 23.63208 -0.7261582
-6.955287 24.68878 -0.6456884
-16.23742 50.41408 3.622782
-15.5724 47.90657 3.007057
-14.7139 46.18439 2.641932
-17.03549 67.24848 6.739373
-13.24167 65.2028 7.536773
-14.60121 63.07278 6.84075
-16.63646 66.73467 6.920592
-14.09929 63.45343 7.016079
-4.352253 65.88551 7.894135
-10.40899 68.80917 8.432467
-10.71961 66.07803 7.843258
-13.8176 67.6705 8.123994
-12.33943 66.69402 7.945912
-7.279313 61.54646 6.973629
-10.19103 60.03695 6.544835
-4.003533 61.11559 6.949406
-12.30256 58.02445 5.974853
-11.65449 55.63956 5.471531
-10.35687 54.58565 5.287008
-4.903793 65.26287 7.766909
-7.860016 63.37639 7.339092
-6.003637 65.4959 7.801938
-3.108364 63.78145 7.489344
-2.921214 70.82758 8.83577
-11.99382 72.84196 9.179217
-9.367195 69.86377 8.642294
-9.426325 68.6851 8.412037
-3.575466 66.10224 7.941168
-3.142643 66.86481 8.091572
-2.745332 68.43275 8.394042
-1.534404 66.71712 8.06791
-0.2704443 64.61071 7.661392
3.627922 72.55309 9.136925
3.846282 66.95063 8.106305
1.043793 65.23254 7.780937
2.283606 63.8606 7.507739
0.4578983 71.79564 9.009246
12.26457 109.1083 8.377604
11.99027 108.4572 8.734117
10.60993 113.1691 8.434777
8.469796 114.9939 10.26221
8.596256 112.791 10.2414
8.631308 109.4752 10.86377
5.170834 111.5681 11.57492
5.177024 112.6677 12.03565
7.836474 115.9148 10.16202
4.940968 112.8531 12.07006
5.165245 110.0237 11.94764
2.941852 109.5321 12.17312
4.232351 71.21944 8.911489
-11.1411 111.0831 9.230918
-8.970819 114.5471 9.585654
-5.977666 114.4165 11.50824
-14.00662 105.6222 7.662487
17.32641 22.82635 -1.03742
14.57942 27.98997 -0.3701863
14.77609 31.33359 0.09551996
11.00282 32.26091 0.2623965
16.5083 30.60013 -0.03317874
4.453242 20.88513 -0.8932945
7.166186 24.05467 -0.7057014
8.482652 27.67423 -0.3389665
8.678287 28.5583 -0.2304434
-1.552773 26.97879 -0.38703
5.274992 30.14513 -0.003871169
-5.803771 118.4487 11.20491
18.29454 38.2726 0.9721587
16.6306 37.68512 0.9725653
9.697886 39.00333 1.296182
16.14413 37.90322 1.004688
17.53945 33.95663 0.4587798
20.13271 35.24515 0.2425506
18.42725 33.38957 0.3710634
17.03193 33.89746 0.4536991
21.29493 36.93749 -0.5352305
18.8055 28.04848 -0.4388807
-16.83079 28.52895 -0.3345703
15.20903 55.1647 5.047714
12.2274 54.10918 5.08936
17.35213 61.18962 4.907299
14.13105 60.90237 6.40061
13.60576 61.84727 6.70836
17.11037 51.76371 3.397914
12.68796 102.5569 8.686793
14.95134 99.93472 7.273807
14.30493 96.64588 8.384747
13.87614 95.51245 8.829545
15.34492 81.79987 9.843619
17.78446 27.36567 -0.5170228
-3.015385 115.3238 11.85815
-3.931082 113.4123 11.75283
-4.070289 111.7507 11.81526
-5.802064 112.7441 11.23472
-8.353888 112.837 10.51327
-9.574534 109.1109 10.14519
-6.312107 107.8985 11.41574
-5.32641 109.6112 11.77555
-5.451545 111.4151 11.53957
-9.679407 105.34 9.978473
-8.526077 108.7383 10.53714
-15.98282 38.34856 1.053054
14.29742 49.15485 3.570205
16.74578 64.17847 6.175065
16.64725 65.42808 6.578695
17.15992 67.29298 6.691562
14.99072 64.85892 7.156023
13.4091 62.39315 6.852651
11.13354 82.80161 10.21935
13.68378 88.98523 9.959495
11.16534 90.67538 9.822655
15.35103 88.74406 9.476251
11.85823 86.67132 10.20477
14.54597 83.13211 10.09324
14.29602 84.89352 10.1105
17.64557 86.62821 8.160888
11.93326 85.84988 10.23284
10.77945 84.09685 10.23789
12.74984 81.89973 10.18404
10.60524 78.30316 9.922481
8.728378 77.71998 9.855728
7.499458 79.34362 10.00955
8.10335 79.29385 10.00646
6.10423 76.0609 9.654546
9.582172 76.01335 9.653619
7.645225 77.76875 9.861875
5.218819 80.30236 10.08152
4.286129 80.62593 10.1056
3.74283 79.37643 10.01056
-0.2632527 73.32832 9.260993
0.9731216 70.58651 8.797923
3.671908 74.87646 9.495822
5.59999 76.14115 9.664177
-0.6489939 71.9789 9.039534
-0.439528 70.50536 8.781548
5.731489 81.53041 10.15902
1.930625 81.13698 10.13891
-9.416834 98.5582 9.355365
17.42165 45.1783 1.736233
3.882506 114.2762 11.84822
2.216457 116.2059 11.90657
-0.8412858 111.4007 12.11785
-1.144294 112.5744 12.06057
-0.8166009 110.3006 12.16602
-8.311445 22.83372 -0.8095507
-12.47944 40.22388 1.460772
-13.84312 50.95635 4.203722
-11.43032 71.23193 8.893406
-5.41223 78.22423 9.905592
-9.755311 73.20538 9.236152
-11.83761 67.98109 8.250648
-4.613918 71.47949 8.947157
-4.254245 73.81631 9.335139
-6.078062 73.73528 9.321245
-3.845745 75.5207 9.583655
-4.542397 74.49101 9.436613
-3.326541 76.06577 9.65399
-1.330059 77.07459 9.780569
-6.062174 85.54842 10.23091
-7.118464 77.40966 9.818612
-0.1759703 80.04188 10.06487
-3.50672 78.86044 9.965901
-4.535158 79.45137 10.0187
-4.406154 80.87415 10.12197
-7.552508 76.81249 9.751275
-9.108514 70.17862 8.702721
-11.90523 96.3597 9.159917
-10.15524 97.79555 9.253732
-11.19625 103.9045 9.376709
-14.25174 103.1697 7.693084
-13.46168 106.493 8.014049
-14.67019 106.2598 6.586763
7.733697 104.9486 10.6576
5.731455 107.5803 11.66261
6.036353 105.0374 11.33627
2.276345 105.7881 12.28131
5.880369 107.0712 11.57876
3.186371 108.2862 12.29228
-1.365633 100.4641 11.23018
11.02917 101.9706 9.251796
12.14734 102.2141 8.931919
11.3399 100.1943 9.103317
8.853254 100.9907 9.655882
8.250078 104.0019 10.31029
10.5402 99.87119 9.241607
1.555465 92.20956 9.573731
4.780513 100.7215 10.6775
-10.91107 116.5541 8.002269
-19.37231 65.48038 2.739018
3.116682 24.26349 -0.6595006
-4.6847 118.9401 11.54622
1.660814 20.03403 -0.9176887
3.438585 22.85536 -0.7702609
-1.554374 21.68266 -0.8347107
16.71035 39.07467 1.14496
13.49725 41.11734 1.574074
13.72943 39.63244 1.307469
13.8875 36.79826 0.8891848
16.40045 59.10065 5.19075
12.45343 53.71859 4.985065
10.5071 52.91973 4.865236
12.86147 58.59692 6.065831
12.69363 56.58245 5.637328
13.49962 97.11357 8.679735
-5.011183 107.2802 11.90664
-15.95984 37.26809 0.9120884
14.97504 49.78877 3.69815
6.603322 69.71854 8.633839
14.85664 45.94664 2.529007
15.23777 44.32508 2.073712
15.91537 43.23729 1.769526
18.04732 43.73542 1.376956
-3.647974 110.8233 11.97777
-0.7600558 109.4167 12.20533
-13.68246 43.89122 2.157581
-11.23524 45.4304 2.77825
-10.49491 43.09167 2.185735
-14.54709 43.28807 1.93585
-10.69811 42.03296 1.914115
-6.637966 39.60295 1.475742
-3.974784 61.65357 7.058491
-1.36879 60.94867 6.938536
-0.7067689 60.42394 6.834942
-0.1624748 60.54266 6.859204
3.067491 61.95657 7.125766
-14.09907 69.98952 8.64448
-9.572619 76.38956 9.702245
-11.40049 74.43282 9.43079
-8.949588 77.97453 9.887477
-6.632366 71.31466 8.91556
-4.975361 81.97676 10.18404
-5.862587 81.21234 10.14265
-4.074143 81.30422 10.14818
-2.786592 84.74643 10.23872
4.392666 65.62818 7.841835
7.919411 65.09384 7.688403
4.00948 64.44042 7.609931
3.561051 62.4188 7.212961
5.254093 67.39352 8.186353
4.553405 69.25574 8.550287
3.328051 61.94371 7.120929
9.446681 61.1389 6.809167
7.161845 69.44594 8.580159
9.490586 66.8759 8.039238
13.59264 70.49512 8.773954
9.92709 63.04777 7.199059
9.438975 64.42595 7.512503
7.34778 60.57152 6.759589
5.278439 58.80635 6.439564
6.512987 70.59513 8.797103
9.262525 65.7282 7.796885
9.21111 72.28767 9.097214
12.69311 64.83186 7.481258
14.73477 67.82104 8.018332
14.69119 66.31453 7.616213
3.291247 64.22765 7.573458
-8.857642 95.22054 9.35519
-0.9799621 95.65914 9.67035
-7.807763 97.2835 9.483351
-4.313567 94.61347 9.463438
-9.078341 92.58466 9.550971
-13.66554 93.94782 9.20253
-10.05098 93.48528 9.455898
-2.972294 85.80019 10.22888
-11.06172 93.81985 9.438518
-9.591863 91.68835 9.680885
-4.713999 91.41099 9.688961
-5.506634 89.12907 9.999823
-4.737288 89.74398 9.921431
0.2448732 95.43784 9.596944
-2.744633 94.50316 9.450385
0.2538376 88.77238 10.03327
0.1081041 87.72107 10.13293
1.292819 84.63899 10.23817
1.050742 86.3347 10.2131
4.77093 83.07171 10.21921
8.99834 82.96956 10.21864
4.415051 82.31024 10.19703
2.815269 85.20152 10.23485
3.828295 88.41473 10.07602
4.706109 88.42488 10.07692
2.688505 91.34453 9.698022
3.536167 92.61874 9.520334
10.21881 85.31562 10.24145
9.705095 84.15694 10.23876
4.642424 89.11877 10.00091
9.808169 89.17172 10.00705
4.114007 91.74898 9.644629
1.523716 93.50207 9.426746
-2.054249 96.23776 9.804956
8.603858 91.30309 9.729045
7.635188 88.50672 10.07646
11.59994 94.04758 9.411905
5.393639 92.09087 9.601326
5.729568 92.04467 9.609548
3.970928 93.78265 9.363954
8.895405 95.65475 9.22553
3.167649 95.50713 9.462336
5.898705 95.72377 9.308682
6.914553 90.07785 9.887397
9.20518 96.86363 9.267986
-8.759374 105.3968 10.35466
-12.37865 106.4276 8.849531
3.107347 102.2442 11.53923
3.343353 100.9626 11.10766
0.390008 100.7581 11.36588
0.4229388 103.1917 11.98147
-2.923506 105.0593 12.14528
5.083871 97.05262 9.686215
4.106158 97.1617 9.826761
13.16581 35.10356 0.6578792
6.973041 33.15498 0.4107872
-6.039364 115.5256 11.29677
2.917173 25.5753 -0.5366613
11.756 40.59524 1.546347
11.59126 34.80084 0.6247773
9.87734 34.28129 0.5598211
-5.437955 108.663 11.77163
-4.659301 107.8927 12.04373
-0.7897539 106.6774 12.29226
-3.9732 104.7853 11.90616
-1.308963 103.9673 12.09419
-1.051243 103.2051 11.97239
3.776084 73.21935 9.245371
11.40241 51.82794 4.537642
13.08315 51.27723 4.304165
11.70612 43.02635 2.083204
9.135543 38.79668 1.266749
12.05458 38.83965 1.221744
-2.174153 23.60283 -0.705227
-0.1090897 23.78687 -0.6904008
1.860053 25.13523 -0.5754377
-11.33312 44.2626 2.444375
-10.5429 50.60099 4.271558
-9.772742 48.18414 3.649057
-6.267707 42.32318 2.127922
-7.391192 43.26407 2.356591
-7.374054 46.20341 3.195697
-6.955265 43.73052 2.501066
-4.480791 43.3497 2.451642
-10.23117 53.27072 4.972067
5.146835 59.60289 6.611497
5.308984 57.54002 6.163559
9.648357 59.43303 6.430795
-7.432869 83.81403 10.23727
-2.653419 83.08629 10.22196
-7.05034 85.75515 10.22436
-3.902191 87.35104 10.15399
-10.27467 84.00017 10.24458
-4.329223 85.82599 10.22745
-6.525115 88.55575 10.063
-12.55801 83.04252 10.23591
-12.64273 84.07806 10.25516
-11.43322 85.05299 10.24753
12.03698 61.1272 6.677605
9.691849 63.77068 7.362786
9.390467 57.22923 5.950497
7.868647 56.92957 5.945129
16.12684 76.87531 9.176112
15.54796 73.55205 8.961433
7.881183 75.39252 9.568788
15.57665 69.43581 8.139393
-3.669736 95.92879 9.658071
-6.673123 97.34961 9.62993
-0.01739205 99.05621 10.84438
-9.283516 102.4212 9.836889
-2.370526 100.3399 11.08407
-19.11339 88.33081 5.353095
-17.52851 86.11361 8.347923
-15.92411 87.35494 9.386435
-13.60619 89.91567 9.851522
-17.11629 85.31712 8.741739
-14.61059 85.65005 10.04011
-15.08532 87.78377 9.692795
-15.86209 85.9803 9.527992
-13.90774 88.5183 9.984499
-14.48344 83.54341 10.07125
-16.17573 83.40916 9.455787
-16.54855 81.15079 9.227236
-13.57891 83.82898 10.23289
-18.48671 80.86256 7.492631
-19.00083 79.4917 6.712752
-18.7477 78.99316 7.046025
0.8571439 83.19016 10.22132
1.801073 100.0196 11.05247
7.36375 32.47986 0.3127103
-3.768252 100.2747 10.8007
10.34327 95.23951 9.262088
-1.327975 49.50157 4.266665
13.94988 48.5459 3.4155
11.6736 49.36377 3.845948
9.334158 45.70655 2.951774
12.06439 45.59205 2.740756
8.986176 42.3244 2.036163
9.632797 41.45719 1.803258
3.752341 39.31089 1.430289
7.684643 38.00964 1.14723
6.827365 33.71301 0.4910757
14.19096 41.89129 1.681078
4.134629 26.85066 -0.4092975
0.03529209 26.4446 -0.4435494
5.366428 34.51131 0.6112198
4.493534 28.60746 -0.2015932
2.381341 35.28324 0.731104
3.313094 34.10435 0.5563205
1.524488 35.45746 0.7584242
1.671979 31.41908 0.1765253
-2.308085 32.96857 0.3917343
1.903091 37.10487 1.022522
0.06624988 31.0916 0.1312066
-2.698457 29.49681 -0.08408795
-1.046023 34.21525 0.5731695
3.016195 37.49257 1.086662
7.02349 37.3525 1.038666
-4.000179 45.65876 3.133685
-3.846382 43.00839 2.364838
-3.252162 44.91668 2.927942
-1.793846 39.41454 1.467794
-13.3906 35.63012 0.7152746
-10.57099 37.34561 1.005
-10.00229 36.03268 0.8069203
-7.21866 36.66587 0.9276672
-3.080329 54.50272 5.519041
1.577431 59.06135 6.5493
-8.336889 82.93201 10.2191
-14.47481 81.78884 10.07465
-12.88062 75.99811 9.667665
-14.12247 77.86508 9.83209
11.51798 69.67417 8.617804
16.07354 73.78408 8.754673
11.08038 69.91814 8.667747
12.5358 73.17004 9.254071
9.533578 73.76527 9.334037
12.1392 72.70285 9.179381
-8.06022 96.7678 9.437899
-7.309711 99.99339 9.942448
-8.309632 101.8152 10.01095
-6.082718 102.1833 10.73152
-6.940528 102.1269 10.47258
-15.83945 80.60588 9.604402
-9.473532 87.85957 10.12399
-8.510735 88.34863 10.08557
8.281623 34.2808 0.5674562
8.870138 36.58127 0.9033417
8.950971 48.82559 3.855773
8.485444 45.64539 2.976936
7.844714 44.24868 2.603035
7.059441 40.92327 1.747739
2.300483 39.40517 1.458588
-0.6944027 41.87957 2.072994
3.755836 37.68135 1.118397
4.643438 41.02092 1.811239
0.4249475 33.17099 0.4236054
-4.352669 34.05227 0.5418702
-5.372258 33.31631 0.4321054
-4.609225 36.78641 0.9628018
-3.923624 36.40636 0.9026508
-6.85559 34.32901 0.5722189
-7.618751 49.78539 4.188293
-3.138435 47.90112 3.799104
-5.553042 47.16467 3.533043
-2.21861 47.02841 3.562185
-5.113678 48.51126 3.926588
-8.606014 53.43367 5.087108
0.6487572 41.09179 1.86321
0.9133468 41.98273 2.096935
-2.336113 54.78736 5.597512
4.573841 54.42065 5.467062
3.018017 55.73178 5.805112
2.779893 56.81253 6.052086
6.397528 52.3731 4.908485
3.912149 43.2348 2.42069
-5.337207 36.70555 0.9454159
-14.09638 29.21721 -0.2019238
-11.43752 30.20969 -0.04064254
-15.78704 33.36476 0.3630336
-6.434336 33.87886 0.5087071
-14.14289 33.55509 0.4065045
-7.604783 29.64186 -0.0867402
-12.26925 31.76935 0.1658565
-14.01571 30.5087 -0.02636853
-10.98531 30.50321 0.003075215
-10.05344 29.19076 -0.1623957
-4.761866 31.3881 0.1608984
-10.14683 33.89558 0.4892071
-15.20567 32.31436 0.214795
-6.448201 33.11034 0.3973633
-7.828676 28.03127 -0.2904691
-9.207554 27.90955 -0.3167032
0.5334631 45.48162 3.116906
3.828823 44.29852 2.731185
3.362753 45.25675 3.021819
4.054779 49.51953 4.229966
0.2176679 49.20617 4.192585
-0.584992 47.15537 3.610225
-5.406914 53.51403 5.226053
4.374239 54.89159 5.583692
5.204175 52.26469 4.919616
5.086749 53.98047 5.346911
2.319002 50.5433 4.537654
2.338635 50.2442 4.457944
5.607352 50.52734 4.457206
0.6789551 53.17708 5.224167
4.282763 49.34541 4.177312
-1.706666 49.75272 4.331292
-3.77853 52.71537 5.070093
-9.365341 55.93505 5.655341
-8.590123 57.816 6.122274
-6.207069 56.82501 5.983845
-1.753042 53.49559 5.294469
1.558677 50.16175 4.444056
-0.5956817 49.97711 4.400489
-12.51073 27.11123 -0.4542616
-8.740069 26.00585 -0.5340888
-7.42463 23.83312 -0.7228212
-3.953057 26.9886 -0.3915763
-3.931985 55.15563 5.658246
-1.762595 50.70306 4.58511
5.819244 47.31353 3.562273
-16.09302 77.5896 9.233597
1.20023 42.42224 2.218743
14.16281 111.9087 3.166449
-16.42081 103.3023 0.1384418
-9.827501 105.4957 -7.824072
17.03064 95.94614 -4.148596
14.22577 110.2464 0.1101743
21.7895 35.9322 -9.916499
-9.762774 116.1937 -3.770882
20.51449 76.96957 1.437714
3.800572 10.69094 -11.09692
-14.52533 110.342 1.344544
20.57402 56.69372 -1.208313
-14.92424 66.32392 -7.949317
19.89421 67.19479 0.02345468
17.85182 96.21994 -0.01658061
20.63051 81.48712 0.7985197
18.25187 94.24572 -1.108288
-15.60352 105.5551 -0.6318566
17.89194 96.19298 1.484704
19.21294 91.22496 1.446265
-16.06265 104.4814 -0.07374548
13.41803 115.1113 2.813424
13.07924 117.6139 4.12395
16.31631 104.5002 1.705302
17.52318 98.15836 1.386607
5.377843 119.0116 -6.313137
-22.8581 26.13227 -4.433597
20.61533 47.98666 -3.43791
-6.020583 14.27792 -11.08376
-19.76645 65.39671 0.3134869
-14.30195 104.2287 -4.469931
12.98416 115.0065 1.095658
-16.93776 97.21694 -3.477523
-13.19168 116.0752 2.633873
13.44681 112.3026 -0.07776766
12.93259 113.6987 -0.06557409
-20.86165 46.8036 -3.286865
-21.8411 43.30951 -3.420529
-22.23799 15.31611 -3.442219
-13.10064 115.7092 1.731813
-14.54034 108.9049 -0.6016262
13.42512 113.9568 1.431458
-2.345381 119.0949 -6.606821
-16.6516 102.162 -0.1347928
-16.60003 101.6088 -0.962599
-20.63941 80.32015 0.7649836
13.5752 114.5435 3.814522
-20.43553 75.29757 0.3512851
-17.35678 97.94337 -1.235723
13.8094 111.0243 -0.3309166
12.98081 116.6403 2.515922
16.60138 102.0373 -0.5026289
-12.94187 118.0649 3.40256
12.88344 116.1852 1.790085
-17.80213 95.35654 -2.067204
-17.18943 99.69951 -0.03023664
16.07201 103.2026 -1.387196
19.1798 91.25262 -0.002595692
-13.17305 107.7528 -3.973742
22.92397 28.07915 -6.594382
4.325187 57.40805 -9.682617
-19.29265 12.66123 -9.994233
-10.90425 113.655 -3.226566
-11.75913 117.408 -0.03817451
-19.17178 86.35989 -3.736314
10.44381 115.2511 -3.244566
-18.37 93.73236 -1.289274
18.08367 94.4473 -1.83928
-16.16296 99.14445 -3.986781
22.68506 20.48104 -5.966884
22.82459 25.84768 -4.427321
4.592631 14.81644 -11.12923
-7.813457 11.45796 -11.03164
-20.46029 12.96422 -9.321368
-20.11374 71.1292 -0.7621254
-0.9168419 117.4615 -6.874205
-10.66705 117.5213 -1.99398
-9.831394 116.9962 -3.437246
-18.53593 70.54414 -5.207083
-19.08559 91.24396 -1.007955
15.58016 105.8064 -0.4648865
19.33626 90.50687 -0.3312116
18.96489 92.09447 0.105225
-16.28835 100.0488 -3.142964
22.65656 18.00557 -6.380991
21.53114 44.86405 -4.01795
17.04518 14.37983 -10.85291
0.8661714 11.23869 -11.11368
-23.23403 34.37308 -5.287885
-6.383084 11.55405 -11.05828
-22.63834 21.70774 -4.662102
-22.51079 13.36619 -7.344095
-22.36256 16.717 -3.628114
20.41912 74.71616 0.4465282
-4.540533 117.5948 -6.693029
5.65914 118.3152 -6.363962
7.977638 117.3914 -5.451973
-10.23827 114.7628 -3.640908
-13.8022 104.2039 -5.180958
-11.45912 113.507 -2.591252
-13.80237 111.5622 -0.1006179
-5.859018 116.8689 -6.548392
-20.37785 79.82373 -1.3599
-20.1999 86.41652 0.6230932
20.18342 86.45785 1.686501
19.41108 89.88647 -0.9375955
18.89644 91.35508 -1.94343
16.44243 96.45568 -5.117325
22.9985 27.16111 -5.576119
22.26925 15.91028 -7.51719
19.03451 17.05825 -10.28364
23.05453 37.60482 -6.125648
23.11122 30.93752 -4.965284
13.47119 14.37086 -10.9841
-18.8322 56.56846 -4.817896
19.94457 62.9309 0.4780144
20.43201 56.29486 -2.499064
-6.64597 10.81647 -11.04853
-10.68088 12.20019 -10.97677
-23.19657 33.68185 -4.536564
-17.36888 12.83758 -10.71632
-22.67489 17.85655 -4.535392
20.27575 76.3932 -1.365136
0.5193278 117.8923 -6.800055
2.905357 116.1051 -7.013296
-5.101865 118.1139 -6.54041
4.217085 117.5414 -6.686114
-13.37643 110.6063 -1.845901
-20.47075 81.63663 -0.7938828
-19.48616 71.18083 -3.301561
-19.67242 85.88974 -2.708168
-19.58344 86.96146 -2.499931
-17.49561 94.16021 -4.131075
-18.71073 91.9311 -2.099009
20.1097 86.36938 -0.5198151
18.60633 90.58043 -3.461378
16.06895 101.8036 -2.509345
22.84736 25.15857 -5.80696
21.86662 43.86222 -6.021309
23.19112 33.53782 -6.130508
23.21807 33.10878 -5.622194
12.60437 15.99406 -10.98188
9.0955 15.75416 -11.06685
-20.04494 58.63619 -0.7051204
-22.11681 41.9448 -3.20978
19.57983 65.04133 -1.552888
20.6746 56.522 -1.848705
-10.15724 11.17768 -10.98625
-1.149045 12.20298 -11.11861
-14.22497 11.51108 -10.98694
-23.14199 30.68983 -5.262476
20.61321 81.29161 1.768057
20.42151 75.17583 1.428023
-19.64344 64.64315 -0.8495606
3.56611 115.1739 -7.139561
-12.47351 111.7904 -2.341879
-20.44906 82.48716 -0.7613112
-20.46313 76.4841 -0.1827343
-18.21119 87.71795 -5.172816
-19.17171 82.69608 -4.29611
19.96214 85.65938 -1.724082
17.80617 90.2974 -5.24622
21.19263 17.33666 -8.944969
22.40412 41.78012 -4.683907
21.15243 46.12558 -5.649445
22.89566 39.29224 -5.832189
22.97338 27.53517 -6.115416
22.02848 30.82409 -9.145361
22.53339 31.28057 -8.256439
14.59373 14.10891 -11.00382
18.46249 16.01191 -10.46047
19.42325 18.90884 -10.17657
20.64641 18.08947 -9.443933
22.58407 23.48613 -7.040928
5.11998 11.0797 -11.0901
-19.67645 54.33129 -3.782052
-19.29981 51.98723 -5.609398
-20.94174 46.66395 -4.110558
-22.03461 43.46082 -5.275073
19.63521 64.0434 -0.04756141
19.9661 68.04126 0.07039523
20.08076 69.56084 0.6288711
20.54213 57.78332 -1.536606
3.29957 14.76528 -11.13865
-16.07388 13.7077 -10.8557
-22.55746 26.9558 -7.738075
-23.1379 32.04204 -6.053047
-22.56573 25.1001 -7.37772
20.50665 81.39661 -0.6420691
20.38071 74.12935 0.6153863
20.45672 79.27771 -0.7918263
-19.14189 68.05912 -3.752312
-19.77462 62.24291 -0.0952142
3.121063 113.0311 -7.55345
0.4051566 115.2404 -7.237003
-1.501065 115.4903 -7.193878
-3.497109 113.4972 -7.479159
-20.10514 79.79418 -2.364818
-20.11275 70.27009 -0.1560879
20.32261 84.18552 -0.8842913
19.72603 83.84846 -3.097137
17.52199 88.32331 -6.044134
19.10026 87.79001 -3.492855
17.38686 90.25404 -5.949049
16.321 100.0225 -3.070179
22.86446 39.20742 -6.618082
21.39653 45.48094 -5.536903
22.73244 40.35169 -5.919822
22.72254 27.6249 -7.363971
23.1966 33.80474 -6.078409
11.90666 13.20853 -11.00197
18.18841 19.70684 -10.53052
18.70231 24.75176 -10.95655
20.45802 24.13333 -10.20313
-21.05347 46.38724 -4.599183
-21.45732 45.1937 -4.404239
-19.15091 58.00923 -3.040864
-19.1843 56.5075 -3.558179
-23.08083 34.43918 -3.904145
-22.84527 38.32816 -3.834996
19.50664 62.45038 -1.069573
19.88562 67.91806 -0.8659886
20.78989 53.45815 -3.087248
1.131967 13.31546 -11.13316
-8.403786 14.89025 -11.03947
-21.9783 17.73448 -8.113782
-22.51653 17.60796 -6.935515
20.19415 71.92682 -0.3946418
-0.521302 110.2817 -8.202649
-10.13807 109.2252 -5.864519
-12.90775 108.1593 -4.078565
-8.351533 109.4672 -6.918169
-20.17767 71.96707 -0.6338395
18.40998 83.41213 -5.382988
18.54362 77.13411 -5.307405
16.25014 87.24268 -7.474288
15.86823 100.9485 -3.552632
21.42561 42.91679 -8.43815
21.81936 38.53999 -9.67507
21.82239 38.84089 -9.614291
22.79486 39.84806 -6.140737
22.56419 35.57085 -8.64143
21.80175 34.84994 -9.856104
20.73143 49.7635 -4.780511
11.22156 15.41326 -11.01298
-20.72456 48.33883 -3.706949
-21.80569 44.10661 -4.543113
-18.5324 57.25634 -5.830129
-18.38735 56.97715 -6.259347
-22.35185 41.69456 -6.971452
-21.88431 42.71883 -7.583117
-20.84274 45.46837 -7.553414
-20.46335 48.23335 -6.499745
-19.49927 44.14921 -9.807428
19.03409 61.16424 -2.972464
19.95015 68.85597 -0.7989178
19.33673 54.22056 -4.891072
-8.891161 11.73713 -11.01126
-21.73243 14.21784 -8.274725
-18.55454 14.63759 -10.30013
-22.68321 21.34935 -5.767025
19.2881 79.19018 -4.151403
-1.412585 112.5972 -7.727151
-13.78893 108.0063 -2.97651
-19.77707 78.00468 -3.177213
-20.25187 75.19481 -1.21419
21.86687 40.61891 -8.929455
22.41222 36.21544 -8.979029
20.41033 27.77682 -10.55792
21.20316 26.97666 -9.824175
12.2038 17.21911 -10.99479
11.57642 28.03957 -11.59212
-20.46448 37.44534 -11.07974
19.26022 59.02354 -2.879716
-14.85569 16.33088 -10.84506
-17.43393 14.13781 -10.62794
-14.54467 17.1936 -10.84912
-18.0244 16.08016 -10.43949
0.3721835 110.9416 -8.061964
-7.328366 117.3518 -5.87187
-7.903575 117.1859 -5.495334
-19.64456 77.04265 -3.44288
21.82714 40.25851 -9.145397
18.02056 32.03254 -11.92788
10.25577 19.89255 -11.0908
13.59785 17.62401 -10.95227
12.54237 20.07873 -11.01836
12.26038 18.24878 -10.99902
-20.15015 48.92311 -6.428567
19.69468 69.1226 -2.305304
14.39243 70.11107 -8.365579
19.40483 67.91615 -3.01703
18.41329 71.14856 -5.43638
20.13402 75.43251 -1.792832
14.91379 52.34437 -9.390662
-12.42239 18.70156 -10.95576
-18.48293 18.79298 -10.37219
-22.62262 21.74222 -6.49698
-6.695498 113.6051 -6.822526
-7.272089 114.346 -6.447666
-19.81929 74.75539 -2.8024
-19.68838 68.95679 -2.266423
-14.9395 72.87003 -8.235985
-19.11589 66.78416 -3.617099
-18.68741 66.18801 -4.426657
-19.56458 66.93389 -2.256086
-17.59801 69.06183 -6.280867
-17.18084 70.27709 -6.808966
18.83815 37.52467 -11.80095
5.366483 16.01588 -11.13113
12.60866 17.55005 -10.9835
14.91433 24.23939 -11.1343
-19.52385 49.51108 -6.788399
-19.39574 45.37087 -9.269484
19.36865 72.79564 -3.790986
19.67766 75.9048 -3.266719
-18.71294 17.72054 -10.28508
-9.705305 113.456 -4.689119
-15.9459 65.11588 -7.392523
-17.45289 63.79537 -6.34124
-14.15209 65.69032 -8.206906
-17.73001 66.59195 -5.833682
20.14991 34.82613 -11.31979
7.109874 16.72911 -11.11396
5.939135 16.51567 -11.12858
11.0831 21.07806 -11.1004
9.256087 19.33667 -11.10475
11.77955 26.01381 -11.3921
19.77405 75.17646 -2.904377
18.70787 60.5022 -4.206462
-8.066724 110.7117 -6.73719
19.44504 39.04268 -11.41022
7.036382 18.33729 -11.13353
9.893512 24.42257 -11.29914
9.049048 22.69078 -11.21782
8.70846 28.60564 -11.67241
14.38135 27.77023 -11.52121
18.75063 72.34177 -4.986201
19.43216 76.28144 -3.826991
17.50212 76.99651 -6.493561
17.23382 75.22383 -6.798984
17.94431 79.37578 -5.980469
-19.07776 60.0197 -3.14293
5.097066 18.9129 -11.16868
17.96808 74.86188 -6.093497
-18.45948 59.71073 -5.704689
-18.97537 61.06166 -4.103818
4.091193 17.67859 -11.16108
3.449589 18.69296 -11.17861
4.672354 19.16413 -11.17703
18.12524 72.92555 -5.883334
12.58832 29.69405 -11.75682
7.071731 22.71739 -11.25176
5.620913 21.48545 -11.22196
4.330644 19.62999 -11.18868
4.703332 25.64907 -11.44564
12.05359 41.71953 -11.40166
12.39642 29.72787 -11.76211
6.261902 25.91389 -11.45484
-3.69326 19.07056 -11.16762
2.648019 19.79378 -11.20184
10.98534 28.58825 -11.65431
12.81098 113.4807 -0.4941696
10.67977 114.2402 -3.272893
8.920547 111.4312 -6.004224
-18.01962 93.85497 -2.845843
-16.68005 99.13145 -2.70466
-16.04191 98.39673 -4.761839
5.708391 116.9384 -6.539567
10.48711 116.6138 -2.709344
-19.45487 86.98004 -2.88667
-23.11067 29.89383 -5.112988
-22.27549 29.7453 -8.628225
-22.6512 30.27828 -7.902989
-23.00948 27.7858 -5.576541
-18.26888 28.2268 -11.42575
-19.86148 27.76719 -10.92014
-21.12448 30.82865 -10.23486
-12.76664 25.05101 -11.25429
-20.62265 25.23117 -10.16509
-17.85808 22.12406 -10.69856
-21.10472 20.52206 -9.228988
-22.40022 22.57659 -7.485898
-15.43131 25.51755 -11.22319
-12.24807 19.49903 -10.97297
-10.74096 20.34023 -11.04907
-17.38986 22.06605 -10.74038
-13.42327 24.01349 -11.14404
-12.11375 25.76633 -11.3391
-18.87915 27.2373 -11.24016
-17.79263 25.56734 -11.14946
-22.14771 23.63353 -8.170548
-19.60948 24.58265 -10.7173
-18.73932 27.99628 -11.36092
-15.25734 89.69275 -8.530962
-16.42637 83.78021 -7.229364
17.54597 92.58319 -4.894975
22.1703 21.94438 -7.937763
-23.20493 33.58747 -6.077359
-22.38383 34.36711 -8.982651
-7.600742 13.61399 -11.04882
-4.439091 14.60043 -11.10931
10.28874 104.9474 -7.911601
16.11589 24.74255 -11.12918
15.28535 26.76323 -11.39176
16.03267 27.53024 -11.46059
18.42884 29.39277 -11.54361
19.48919 24.85223 -10.8049
13.61859 34.9286 -12.13353
20.02763 23.95159 -10.45547
22.55209 23.79523 -7.270698
-10.09578 112.7238 -4.548069
18.11729 44.95261 -10.08388
17.7762 40.35579 -11.67197
13.40125 45.947 -10.42338
15.31831 40.16538 -11.76336
11.30871 45.35112 -10.64772
12.68447 39.85385 -11.75791
13.67329 40.87633 -11.59576
13.65203 40.05227 -11.74532
12.54214 40.85963 -11.58043
16.24085 37.35191 -12.12848
18.08789 45.6042 -9.807875
19.00352 45.7816 -9.290979
17.25571 46.49101 -9.690936
20.36551 45.68251 -8.21268
18.78443 46.7767 -8.932293
20.76693 49.97549 -5.732849
19.42131 50.06364 -7.053747
19.16797 53.27292 -5.524382
20.54691 51.99107 -5.210414
17.20859 52.17366 -8.019024
17.78783 54.61563 -6.866555
16.05257 49.99557 -9.302119
16.70401 59.42714 -7.621583
13.90534 50.12834 -9.793054
10.42321 48.90817 -10.18308
10.57233 50.74433 -9.973601
8.295702 45.79654 -10.6779
9.463608 49.68099 -10.15405
10.49728 47.01172 -10.4198
9.002916 44.88643 -10.80187
5.760003 45.5839 -10.76258
11.0546 44.30328 -10.85876
10.81905 39.5365 -11.77193
10.19446 38.77248 -11.85828
5.327459 41.73148 -11.35924
9.177579 41.15104 -11.48178
8.55382 36.86321 -12.01877
8.674922 34.07724 -12.06768
13.4443 39.77947 -11.78745
7.935075 41.3964 -11.4298
12.08524 36.19762 -12.10455
11.78206 36.16738 -12.10219
14.52082 35.11205 -12.14975
16.72528 33.11901 -12.09735
5.937093 37.47987 -11.94031
3.037946 34.5056 -12.04478
12.61559 36.37119 -12.10448
12.23988 34.42708 -12.1072
8.04586 34.41289 -12.06924
13.14448 37.19969 -12.06833
10.26023 30.81575 -11.87479
1.811084 37.46346 -11.91746
9.955911 30.28722 -11.8285
5.036835 27.23106 -11.56794
8.459916 33.07223 -12.0351
3.836181 29.04841 -11.72941
3.565239 26.16624 -11.48915
4.470615 28.22517 -11.6555
1.16703 30.47655 -11.85012
1.998869 28.87205 -11.71585
2.226963 29.67758 -11.78411
-18.6846 53.29769 -6.239938
-22.61817 40.95598 -5.294292
18.63047 55.37799 -5.125456
17.40638 54.73498 -7.483505
-10.59297 105.9205 -7.183557
-7.881732 107.103 -7.926396
-18.09195 75.60917 -5.905229
11.12735 17.3792 -11.02795
-17.66392 50.40791 -8.726564
-17.93975 51.98658 -8.111658
-17.41883 47.14576 -9.551779
18.22893 61.32294 -5.522526
15.26423 59.68016 -8.335255
16.05913 57.32758 -8.303433
14.15138 58.29646 -8.808302
18.14116 79.94297 -5.727778
16.48934 84.22897 -7.193147
14.14684 83.10985 -8.317225
15.78071 77.78056 -7.632374
16.85165 83.20702 -6.883375
17.23894 84.43417 -6.554814
-16.72972 61.35174 -7.398085
12.46934 69.59125 -8.660013
0.5980759 25.7421 -11.46147
5.842549 115.4989 -6.76073
7.773003 109.1148 -7.277698
8.352552 113.8844 -5.847609
10.35672 111.3125 -4.855829
7.12459 111.8044 -6.924757
5.805197 111.2643 -7.491405
7.297127 109.241 -7.4476
5.936096 108.5137 -8.068253
12.23597 108.6635 -4.541434
15.08166 108.066 0.3732159
14.04666 109.1117 -1.748674
14.24419 106.0249 -3.428384
11.88274 106.8593 -5.754054
12.15331 105.4169 -6.282858
10.63935 106.6103 -6.776539
14.75468 100.1249 -6.011074
11.08529 106.5431 -6.531204
15.04019 101.4666 -4.854968
12.47781 108.1173 -4.5585
15.62227 99.47931 -4.931436
16.59896 97.42899 -4.170657
8.428002 103.5917 -9.504283
11.99038 103.0531 -7.684232
11.24246 103.2898 -8.178533
12.05405 100.2344 -8.966992
13.83985 101.0601 -6.79404
14.01033 99.24685 -7.426386
-13.64475 103.028 -6.027946
-15.79327 104.4567 -1.095253
-16.74036 93.06546 -6.199908
-9.141285 25.03957 -11.3346
-7.609852 19.50066 -11.1129
-13.75141 26.23092 -11.34799
-17.00599 82.97995 -6.772063
-18.06037 83.03893 -5.810123
-18.13993 86.39256 -5.458313
-17.97972 83.47507 -5.884578
-16.96522 85.29102 -6.812466
-14.71449 87.84483 -8.783298
-13.36562 85.87081 -9.19927
-14.84187 86.1714 -8.44591
-11.87617 87.86002 -10.49744
-10.95251 90.32772 -11.41556
-11.77997 87.38885 -10.39194
-12.33915 84.81313 -9.220883
-9.091321 88.22687 -11.42708
-13.28353 88.45448 -9.894671
-10.61681 87.15443 -10.68151
-13.01493 87.49275 -9.851662
-13.20822 89.74954 -10.1501
-10.13263 90.63536 -11.78098
-6.385833 88.99875 -11.9427
-12.82356 91.78896 -10.51652
-10.08975 94.34416 -11.90945
-4.589115 88.41359 -11.66136
-11.74227 94.19102 -11.0699
-6.297463 91.69845 -12.64637
2.455252 108.42 -8.558175
-7.87625 93.3923 -12.62535
-7.437458 88.40621 -11.68295
-4.925837 88.79883 -11.81042
-5.033178 93.38116 -12.79136
-3.056247 87.30678 -11.22412
-3.442707 86.19882 -10.7953
-21.43083 35.62669 -10.34592
-22.63528 39.78739 -7.416096
-21.61302 36.94323 -10.14841
-22.69546 35.98907 -8.298396
-21.41946 37.72441 -10.28053
-18.797 37.93673 -11.77382
-16.88778 33.58467 -12.17032
-20.06911 33.57575 -11.30831
-10.1201 14.77904 -10.99619
-7.88435 17.58377 -11.07617
-6.46866 15.44757 -11.08455
-7.412001 18.58975 -11.10055
-4.941173 22.12663 -11.23593
-2.497814 19.29309 -11.18305
-2.436169 15.87079 -11.14131
1.658103 22.69611 -11.29197
-1.494955 16.99774 -11.15815
13.81256 92.48155 -9.739737
18.06774 23.62856 -10.83001
10.08692 52.23833 -9.855457
4.318472 50.71188 -10.23472
5.2299 45.4212 -10.79142
4.570692 34.48298 -12.04984
4.331823 33.348 -12.02551
0.2176551 34.7718 -12.03787
2.059428 24.52541 -11.38344
-15.9795 45.45317 -10.36343
-7.910834 108.3329 -7.477298
-9.334259 104.8174 -8.472124
-4.425875 112.6732 -7.541235
-11.69761 106.1206 -6.306492
-5.372657 111.5112 -7.593812
-10.96607 104.7873 -7.573606
-14.5655 103.0687 -4.750881
-13.35676 100.2609 -7.731516
-13.79404 100.2543 -7.234787
-12.04138 96.71695 -10.27986
-18.46818 79.8959 -5.397185
-15.29338 75.12467 -8.04532
-15.85926 79.91655 -7.527234
-14.20693 67.64356 -8.296504
-17.46414 56.25769 -7.703433
-15.46397 51.92979 -9.452975
-14.72281 51.84502 -9.588347
19.19341 65.15785 -3.185325
17.33008 66.24701 -6.288749
16.89909 65.16438 -6.713433
1.56041 87.85668 -11.42143
-17.48918 59.11546 -7.166451
-18.73051 59.41866 -4.98912
-15.46487 54.10364 -9.189796
-15.64297 55.50715 -8.950875
-13.01621 64.21745 -8.585047
-13.98773 62.34724 -8.549268
3.518233 109.3326 -8.260175
-3.254219 109.6485 -8.248093
-4.331944 108.5583 -8.386921
-5.734108 108.1497 -8.249963
-4.542962 105.329 -9.352597
5.134798 107.1476 -8.630631
1.500207 106.9929 -8.979733
9.209768 98.92504 -11.25851
5.491346 106.5641 -8.754814
1.665846 103.9409 -9.993689
0.879796 104.8265 -9.6806
-0.8079883 108.8884 -8.512823
-9.285606 100.3404 -10.70869
-10.81457 102.3775 -8.935749
-8.848083 101.2124 -10.53665
-6.42544 96.66398 -12.50018
-12.83646 103.2077 -6.834401
-5.439039 98.40897 -12.15858
-10.56827 97.41545 -11.04008
-8.578763 94.3063 -12.42992
-7.993145 99.5059 -11.47058
-6.431572 97.90318 -12.23246
-2.038386 96.37849 -12.46868
-3.237515 97.53544 -12.27855
-7.801159 97.84703 -12.02282
0.9627601 99.77959 -11.59369
0.4508332 97.39886 -12.25219
-0.1394409 97.44144 -12.24502
-2.500267 90.91374 -12.37189
2.20234 97.50038 -12.25742
1.485101 97.89626 -12.15401
-1.431605 102.5483 -10.55991
-3.246319 92.20924 -12.61137
10.07438 89.97019 -11.66359
-3.517195 90.41095 -12.28163
4.100627 97.61675 -12.28671
0.4266801 92.87884 -12.62823
6.35573 100.4542 -11.45021
1.254296 96.18752 -12.47843
2.805901 93.09042 -12.66476
0.00807626 105.5187 -9.449164
2.668185 90.07148 -12.17218
-5.488461 103.5255 -10.08809
10.12676 92.52455 -11.96209
3.897658 92.68069 -12.67248
-2.358797 101.9831 -10.79627
-6.172934 100.9291 -11.29755
-3.957132 100.1806 -11.54366
-2.932523 101.3073 -11.08543
8.301819 108.1633 -7.349421
10.00419 108.8048 -6.134817
12.15024 110.8547 -3.386321
11.17595 99.6757 -9.889787
13.69552 104.147 -5.319538
-17.87374 93.54904 -3.576069
-16.1077 95.0352 -6.407818
-17.15031 91.84116 -5.928201
-12.04888 27.09339 -11.47178
-14.44128 30.75152 -11.85788
-12.78669 29.08729 -11.67709
-16.60835 91.83947 -6.781893
-13.97676 94.61237 -9.186115
-13.70362 96.11296 -9.008309
-15.68567 96.07766 -6.619854
-16.00705 96.00146 -6.143577
-3.040452 85.74115 -10.63299
-20.53304 39.72395 -10.66809
-17.99466 32.26064 -11.95257
-17.53372 34.40484 -12.15247
-11.99581 30.1327 -11.79855
-13.17293 32.92348 -12.0653
-13.73908 28.62891 -11.61349
-12.6117 34.69445 -12.13012
14.51001 90.21996 -9.207996
12.7337 88.75976 -10.28478
12.99428 88.85809 -10.16119
9.144185 90.1555 -11.95805
7.425312 90.02058 -12.22855
8.535563 95.34505 -12.31511
7.135926 93.2795 -12.728
7.592946 93.74882 -12.67929
4.691608 95.88841 -12.6439
9.494117 97.13586 -11.64874
8.812224 95.61372 -12.2028
17.01134 93.947 -5.297621
15.14059 95.66943 -7.553117
11.84999 96.13026 -10.58767
11.49803 96.55392 -10.71438
13.49105 94.62017 -9.634626
14.98577 93.86948 -8.309324
17.0143 91.95941 -6.123927
12.33409 53.62698 -9.541673
3.722912 45.6502 -10.78064
0.8767658 48.5243 -10.48625
4.050658 47.48125 -10.55931
1.010228 48.78003 -10.46083
3.147037 50.96617 -10.23157
1.079579 47.43329 -10.59669
-1.504011 46.3743 -10.72311
-0.2742589 43.75926 -11.05464
-0.3820694 42.58789 -11.22463
-4.812814 44.13788 -11.00046
-3.038517 46.49396 -10.70614
5.869687 41.53841 -11.39362
1.608116 40.0529 -11.60458
1.405487 44.06126 -11.00752
-1.452371 32.68693 -11.99866
-17.51999 76.94173 -6.478936
-16.40956 75.07404 -7.437605
-9.306703 76.23798 -8.840465
-12.75049 78.1448 -8.585541
-14.55341 76.48917 -8.275495
17.60427 64.71149 -6.023691
16.65229 62.72631 -7.230141
13.01811 57.59808 -9.072149
13.81529 61.95784 -8.508077
9.924141 60.29074 -9.20438
14.86401 61.29273 -8.269748
13.67451 79.97516 -8.325119
13.28688 82.68159 -8.53294
12.94976 83.98409 -8.874998
12.27687 84.60635 -9.189564
10.96703 84.81638 -9.558717
10.5723 86.82761 -10.5258
7.730282 84.99679 -10.1205
7.124159 87.70325 -11.36682
7.17753 86.79397 -10.9269
5.558133 89.88513 -12.22644
9.529331 82.62727 -9.222909
5.030603 84.52222 -10.14253
-0.2557575 82.24186 -9.674957
3.509171 88.31107 -11.59916
2.568194 86.87238 -11.05661
3.645086 84.17558 -10.09847
1.210202 82.17059 -9.654965
0.4627585 86.58325 -10.95962
1.934846 85.50623 -10.56397
1.089392 83.45967 -9.960987
-1.062865 79.89034 -9.283861
6.618528 81.53928 -9.321996
0.8280672 77.70553 -9.07638
-3.86379 79.40368 -9.176292
-5.305523 85.40945 -10.45005
-1.690488 82.90235 -9.816251
-0.3352112 80.05511 -9.305313
-3.930643 75.42889 -8.949002
-5.724571 81.45417 -9.370853
-6.053759 78.4208 -9.022869
1.798329 77.30502 -9.046932
0.3450754 76.7974 -9.02848
-0.2293174 79.7252 -9.26382
-8.110275 81.08276 -9.140929
-14.34086 61.86722 -8.51301
2.093342 104.9926 -9.599876
9.211431 98.48383 -11.38394
8.760715 97.45232 -11.84522
-8.268246 21.94526 -11.16936
-10.97041 26.40851 -11.42217
-9.260406 28.07686 -11.60463
0.9501138 31.78197 -11.94504
-10.59536 30.67697 -11.85945
-6.739604 25.69651 -11.41842
-5.955496 27.24343 -11.55435
-14.21483 27.31489 -11.45585
-7.759607 85.82854 -10.46274
-7.890683 82.66345 -9.43275
-8.214664 84.09421 -9.763823
-13.80342 80.91492 -8.290594
-13.11001 79.62613 -8.449235
-19.96457 38.49472 -11.23177
-15.69555 37.99646 -12.0671
-17.44726 38.26778 -12.02364
-14.62455 41.02459 -11.59301
-19.73714 42.43742 -10.39044
-16.39119 41.47953 -11.52692
-17.79188 44.9998 -10.17321
-14.80369 43.67354 -10.94554
-16.53887 45.49513 -10.23688
0.3722276 21.69281 -11.25392
0.5423291 25.86175 -11.4703
13.83742 86.87603 -9.20586
12.64744 97.82102 -9.413453
4.708091 48.5971 -10.42923
7.633254 52.31317 -9.989152
9.463483 53.06823 -9.823133
9.917665 53.20984 -9.778491
10.47179 54.65584 -9.605975
8.965166 58.44371 -9.415235
9.230743 54.79377 -9.687819
7.188525 55.74962 -9.721797
5.281876 57.60315 -9.643779
3.473491 56.7245 -9.752344
4.085621 52.62314 -10.07086
2.182024 55.27938 -9.884165
7.543908 59.90348 -9.386824
8.58983 58.20295 -9.457455
4.338348 61.03175 -9.419668
6.21886 62.28229 -9.277699
4.574982 59.4648 -9.525456
4.77632 51.84252 -10.12245
7.953608 62.36147 -9.195007
4.199648 62.09851 -9.350237
1.391013 60.32593 -9.513048
1.647631 62.30297 -9.375528
-0.338257 36.36261 -11.98966
-2.074195 44.24992 -10.98932
-1.02633 25.19114 -11.42362
-13.41358 50.91874 -9.836024
13.56238 65.84447 -8.384304
11.68836 67.4137 -8.668226
10.17917 61.50433 -9.096457
6.364459 63.36668 -9.201352
6.575298 63.4382 -9.188956
10.37847 82.3769 -9.053974
6.241675 92.00174 -12.69219
9.904677 81.21394 -8.96097
9.198399 79.17874 -8.879101
2.657381 81.5185 -9.500683
-0.2033541 77.98747 -9.098604
1.782088 76.64015 -9.013271
-7.509829 79.89024 -9.059703
-12.25597 61.49984 -8.956929
-12.88691 68.17025 -8.546094
-3.353938 61.64989 -9.409137
-9.710005 63.41864 -9.046479
-5.444979 51.0577 -10.22134
-13.33255 60.31083 -8.901545
-14.77102 57.76601 -8.896613
-11.45338 60.20367 -9.163191
4.07163 105.0131 -9.484824
4.165794 98.72294 -12.00568
3.955159 99.8073 -11.66579
5.196856 101.0413 -11.27993
7.723235 103.3439 -9.892489
3.000335 103.8238 -10.01848
-5.644743 24.82304 -11.36699
-5.760918 21.79911 -11.21161
-5.507695 25.49573 -11.41701
-10.83407 23.79889 -11.20787
0.8896172 31.70162 -11.94012
0.024987 30.32475 -11.83622
-4.485721 32.87234 -12.01173
-2.071459 27.54966 -11.5992
-5.060318 30.73164 -11.86747
-6.402437 28.01567 -11.62104
-1.86381 33.7241 -12.03025
-0.4237246 33.92323 -12.03341
-11.91215 80.34082 -8.638509
-10.03434 79.43378 -8.824055
-14.78766 80.73595 -7.978484
-14.12753 79.37939 -8.220514
-13.83485 36.81361 -12.10248
-9.448365 32.05792 -11.98083
-14.1933 35.01749 -12.1545
-9.958837 34.01761 -12.081
-8.631773 31.39475 -11.92554
-4.771506 37.07249 -11.961
-5.658773 38.44451 -11.83878
-3.358291 42.73679 -11.20844
-9.800313 34.48547 -12.08881
-4.292221 40.61257 -11.53663
-5.41421 43.45612 -11.10011
-4.155137 44.47509 -10.95602
-7.611231 33.57875 -12.05087
-7.822671 38.7375 -11.82999
-8.388052 35.0304 -12.07625
-4.727944 47.72168 -10.55902
-4.372589 47.04035 -10.63758
-6.861923 42.76836 -11.20935
-5.994294 50.45917 -10.26731
-5.996689 41.16306 -11.46274
-7.215035 39.62032 -11.70469
-9.71548 44.83554 -10.84917
-9.612199 41.98199 -11.35003
-9.6183 41.73406 -11.39597
-13.05135 41.29922 -11.51038
-8.217106 50.07044 -10.24839
-9.322978 48.94454 -10.32438
-10.65935 48.5203 -10.31137
-10.01215 51.89997 -9.993701
1.11092 57.29592 -9.73774
-10.76099 51.19608 -10.02079
-12.26986 52.18065 -9.814046
-11.67481 47.18506 -10.42152
-13.27402 46.89759 -10.35447
-15.04701 44.40282 -10.73643
1.141238 51.42654 -10.21464
-7.638806 53.49771 -9.951146
1.639799 55.21233 -9.894812
0.6471378 55.03972 -9.91573
5.563466 62.61925 -9.278787
-3.789781 75.20359 -8.945977
-2.563259 66.74764 -9.098965
-1.065717 60.87712 -9.482013
-3.53828 65.52308 -9.153158
0.7916156 65.98205 -9.152225
-0.6646255 58.17332 -9.677856
-7.646801 63.14001 -9.183533
-5.845093 63.10957 -9.253401
-4.097387 66.87299 -9.066825
0.1465556 66.37629 -9.132479
-0.6752326 69.24043 -9.004479
-6.864795 57.04646 -9.677656
0.5705758 66.57189 -9.121161
2.953546 67.42535 -9.059192
7.77515 65.78115 -8.998706
2.609937 66.80847 -9.093503
2.593807 68.06658 -9.035463
5.299582 63.32697 -9.240315
4.846618 69.8598 -8.940031
-0.4341711 49.15944 -10.43003
14.09737 76.80831 -8.413054
11.76724 77.63879 -8.711013
11.63935 77.47343 -8.726751
11.48957 82.09016 -8.83551
8.900442 77.80267 -8.860632
6.603043 78.4578 -8.990608
5.517498 79.36164 -9.105205
0.569092 72.86658 -8.939155
-9.465751 65.40435 -8.933179
-7.00456 65.07947 -9.083168
-10.60462 56.72874 -9.523629
-11.62381 53.52675 -9.7375
-7.379214 58.66955 -9.530081
5.065863 104.2168 -9.760085
-3.693287 29.17719 -11.73657
-2.020308 52.51267 -10.12691
-2.821271 52.36887 -10.13516
-14.69229 48.59071 -9.946752
-5.475676 64.12645 -9.196686
-7.93104 66.22977 -8.975389
7.194997 76.82397 -8.912006
2.623669 75.73489 -8.972378
-1.30247 37.40603 -11.91602
9.386794 66.75536 -8.864523
10.87635 69.60606 -8.745926
10.11985 70.73915 -8.789471
9.505188 72.49786 -8.820129
10.76116 71.05235 -8.773121
10.20671 74.86758 -8.819539
14.12489 73.62512 -8.496696
4.50861 71.721 -8.915099
11.10927 69.0512 -8.724784
6.946403 71.511 -8.874308
12.60899 69.16209 -8.638831
2.23414 68.3885 -9.025807
2.218469 70.29248 -8.963895
3.019232 74.49862 -8.938975
11.10332 67.37784 -8.716853
11.48998 66.70857 -8.694952
14.48074 70.97163 -8.367356
14.98652 69.37202 -8.117526
13.98699 68.35877 -8.399518
-10.22246 68.27248 -8.767044
-7.183256 67.89558 -8.933585
-11.24864 70.52929 -8.744065
-8.561728 70.12766 -8.830978
-0.3692464 69.98777 -8.9816
-1.144338 71.57694 -8.945751
-3.675138 72.35934 -8.920249
13.69239 73.12029 -8.604482
16.15556 72.63786 -7.636095
-0.8167623 71.42215 -8.949785
-0.1830564 75.09135 -8.967777
-9.664882 54.60841 -9.763188
-7.570191 58.26112 -9.555265
-8.575006 54.83078 -9.796535
-5.460107 58.15937 -9.629205
-7.398797 54.51722 -9.870301
-6.031506 55.18665 -9.85257
-10.54096 77.80623 -8.778396
-7.123505 75.27632 -8.889028
-6.360332 72.11482 -8.881473
-6.294777 73.47929 -8.886082
-11.58069 73.13734 -8.784636
-4.914178 72.80643 -8.904378
-13.7316 70.16591 -8.530026
-11.45498 74.55756 -8.793652
-13.96291 71.43283 -8.506738
-13.09982 72.71554 -8.698763
-12.7619 71.2374 -8.683842
2.628309 40.20436 -11.58565
-0.2811536 37.46494 -11.91046
-2.884744 37.00364 -11.9527
-3.219427 24.85272 -11.39093
-12.49992 145.2523 2.527358
-12.33341 147.3237 -10.70353
-8.715897 126.8096 -7.600113
-12.12708 151.6566 -5.755496
-10.94763 134.9515 -10.4026
11.94355 142.9205 4.844888
12.04097 149.4102 -0.6960946
9.045713 126.7975 -7.373357
12.25139 151.6737 -5.348536
12.58621 142.908 -11.38429
11.95559 120.3388 0.5236303
12.39633 120.5352 2.026131
-8.083966 121.2659 -5.781163
1.217283 119.9666 -6.678574
13.01985 121.989 5.126369
11.88699 122.1582 -0.5539423
4.357242 122.4926 -7.034619
5.64292 123.1346 -6.919208
-5.457888 119.9968 -6.441479
-8.271432 120.4668 -5.103247
-11.58189 120.6884 -0.4678358
6.591653 121.9905 -6.252782
-2.148585 122.1065 -7.078455
-8.811502 122.7241 -5.159891
-8.037808 122.6383 -6.121555
5.771682 120.449 -6.204032
-3.513146 121.106 -6.784672
12.33803 120.1633 2.068843
12.54153 120.0296 2.903175
10.78072 120.0471 -1.749434
9.620741 119.4411 -3.422635
2.519296 120.2333 -6.665437
0.6470618 122.4218 -7.197319
-9.395499 120.2531 -3.920977
-12.16287 119.2803 1.552962
11.99467 121.4591 0.1211752
6.993203 123.2066 -6.495636
-14.4334 128.4635 5.99699
-10.09485 123.7976 10.54533
-14.55793 129.8308 6.550586
-14.28763 135.3069 7.811031
-9.827442 125.2656 11.50535
-13.87863 127.403 6.788501
-14.42583 129.2071 6.6415
-8.283731 138.3931 12.09002
-4.849854 136.7099 11.89894
-7.236513 136.2072 12.81981
-14.93119 134.1844 6.851247
-5.319063 137.6528 11.28879
-5.133804 138.3472 10.61865
-14.37294 128.4579 6.226856
-13.91249 132.9168 10.04789
-13.65957 125.4655 5.936163
-11.56417 124.1202 9.677107
-12.21893 124.5762 8.39589
-10.49842 127.8321 11.16944
-14.8024 133.4112 7.492275
-5.388834 126.8764 12.92145
-3.990336 135.8532 12.09973
-2.495687 132.5453 12.50534
-4.316582 128.8017 12.71094
-14.73533 132.1403 7.654745
-13.15646 137.195 8.391788
-6.286477 130.1643 13.44164
-5.384444 129.2858 12.92521
-1.777363 130.7448 12.7288
-5.652078 131.9067 13.8039
-6.913622 135.2572 13.25484
-12.17905 139.0999 7.791659
-7.514605 129.375 12.90547
-6.7463 133.9514 13.6765
-6.959224 128.5993 12.45991
-12.45299 127.7572 9.584592
-5.963947 135.2942 13.08037
-7.772342 128.4659 12.35445
-13.07689 130.2021 10.74419
-10.93758 131.8047 13.00262
-9.764961 130.4042 13.06176
-8.423668 135.8411 12.97354
-13.62088 134.3318 10.089
-13.05751 131.4155 11.20063
-13.30247 132.9951 10.98655
-9.792996 127.6643 11.62338
8.976543 126.1202 11.22368
0.4012729 130.2271 12.72767
9.036829 130.4994 13.29751
4.689758 138.7727 10.12077
1.921619 130.9133 13.28111
3.169737 134.6599 12.25664
3.067019 127.5204 12.64593
5.495636 126.8214 12.53214
7.483793 128.3456 12.25542
1.999509 135.978 10.96088
2.371676 132.4869 12.73501
7.325197 127.6163 12.14541
0.868999 130.9402 12.63921
4.946627 131.6734 13.96333
3.49111 129.969 13.48204
12.65482 136.6588 9.632234
11.55888 124.9201 8.732224
11.73438 124.7212 8.577342
12.69688 125.3482 8.205893
14.01936 129.7884 8.587774
1.705302 130.2383 13.44928
12.76595 137.4628 8.666591
14.44615 132.3532 8.829265
12.71795 123.3767 6.807765
6.416944 128.5895 12.56576
