# .PCD v0.7 - Point Cloud Data file format
VERSION 0.7
FIELDS x y z
SIZE 4 4 4
TYPE F F F
COUNT 1 1 1
WIDTH 1669
HEIGHT 1
VIEWPOINT 0 0 0 1 0 0 0
POINTS 1669
DATA ascii
14.57439 118.791 3.352458
14.95702 122.8528 6.497139
15.0028 118.5562 5.591138
15.54633 106.9576 0.8226061
14.65543 111.6638 1.997288
17.55037 99.50024 -1.075596
-13.05288 128.7582 10.53373
-13.46458 127.4957 8.611412
13.1628 132.2306 11.25342
-8.315749 131.961 13.83345
-6.62462 133.3834 14.58902
-19.52856 73.30365 5.81982
-19.88626 85.39356 4.395758
-20.57039 77.94094 0.2443397
-17.99925 76.31834 7.739488
-16.62358 73.85667 8.528301
-17.52386 100.8773 -0.1412515
-15.65359 106.2476 0.02262665
1.412054 70.38729 9.326115
3.032294 70.51936 9.330495
3.504308 73.01478 9.651491
7.209393 72.84844 9.563879
7.016153 73.74706 9.683708
4.667266 73.73709 9.721888
9.441722 70.69459 9.186057
19.67366 89.37711 1.46242
19.67863 89.36674 0.3955454
20.4104 83.40437 2.931707
18.41962 94.01154 2.010201
-13.40244 116.774 5.033442
-13.64367 117.9435 5.892233
-13.75184 116.6121 6.653208
-13.30072 115.8396 4.87998
-13.36264 119.5263 9.205946
-13.69256 119.6519 6.500642
11.78751 72.53004 9.323193
11.26009 72.66358 9.372028
20.56126 77.9323 2.010583
20.55613 83.25379 1.611115
20.65576 81.52151 1.056427
14.82075 123.6167 6.099727
15.91016 104.815 -0.3973677
16.4248 104.0816 1.778113
16.47038 103.9099 2.900671
14.63152 111.8964 1.545496
15.63312 111.8334 6.605178
14.98934 110.1708 3.159061
15.97155 106.7072 5.384752
17.09534 102.364 1.586752
-12.23596 124.9499 11.41201
-11.36018 127.0446 12.17906
-11.58755 125.277 11.90623
-12.65839 129.3955 11.3897
-13.16823 130.2959 10.69973
14.85193 125.2569 6.859865
-20.07647 85.73149 3.477316
-20.58946 77.69723 0.7286284
-20.48655 75.67862 0.4217709
-20.48269 75.24107 2.510642
-20.45016 76.74801 2.502416
-17.19682 76.91174 8.536189
-11.48925 73.80127 9.524601
-17.38842 99.08476 0.6464155
-16.73096 102.6372 2.658378
-15.98723 106.4894 2.064502
1.297919 72.01526 9.544811
7.663184 75.4659 9.843158
6.642104 75.78976 9.922322
4.70902 75.43915 9.949065
18.45878 94.05602 0.7874969
18.16086 92.8656 4.894301
17.77959 98.53259 -0.5566766
-13.48302 112.2086 3.815884
-13.27122 114.5307 9.514528
-13.66014 121.0156 6.549144
20.17295 86.69698 1.373062
20.46314 82.4184 2.951434
20.66015 81.24178 0.6978648
17.10007 100.8174 0.9687282
15.70801 110.3543 5.723044
15.53554 110.0203 7.533169
15.42824 111.1563 7.718294
15.7779 108.4418 6.886065
15.90456 107.6881 5.448967
17.04753 100.4468 -0.2237127
17.21473 100.4965 1.801477
-19.71641 84.90794 5.100244
-19.61747 87.93254 3.996821
-20.41864 76.98412 -0.8074621
-17.23578 75.52493 8.329783
-15.57732 75.41211 9.229263
-13.6147 75.65546 9.651103
-18.09177 95.9828 2.185969
-17.29458 101.685 1.44292
-16.22871 104.8256 1.181117
-13.90243 110.3256 5.192415
-14.8666 108.4987 5.155297
-15.18059 105.5795 6.740472
2.206175 72.57301 9.60932
1.409005 74.24913 9.824149
5.30968 77.68858 10.30395
5.605863 76.09361 10.03213
5.84869 73.54687 9.681177
6.799601 77.75102 10.3047
7.373288 77.06831 10.15513
18.48519 91.93096 4.705067
17.53171 99.64641 2.703657
-13.60533 114.9532 6.029974
-13.48788 120.1407 8.72405
-13.55566 118.914 8.548874
-13.05467 119.4669 9.973065
-12.35824 121.475 11.04505
16.98716 101.4239 2.303608
17.86118 99.16734 -0.3291435
17.6726 98.02509 1.140936
-19.45248 87.43601 4.883355
-17.67579 86.82911 8.121454
-13.35523 75.40209 9.635136
-13.19943 77.13316 9.857789
-17.70514 97.38072 0.5933116
-16.80917 102.852 1.95133
-14.62832 107.6135 6.596117
-15.20216 106.6049 5.531258
1.609597 74.90673 9.922514
9.056203 79.82401 10.23017
1.562557 77.13359 10.30593
3.419204 77.78323 10.32646
1.410186 77.89993 10.31993
10.8971 75.26862 9.758048
9.591773 74.97537 9.769063
18.85723 92.42627 2.121888
-13.53005 115.0069 5.760671
-13.6423 118.1239 8.168953
-12.51718 120.1515 10.75025
17.0563 102.5678 1.574885
15.64314 110.7899 7.114849
17.33274 97.21114 5.445421
-10.70547 124.9482 12.26693
-12.38564 76.45613 9.828646
-16.80829 102.1127 2.885104
-15.55734 105.3658 5.529233
-13.47419 111.7594 6.135254
-0.6567346 74.11467 9.807067
4.607552 77.47597 10.30413
11.48151 75.87404 9.803634
10.98898 78.25555 10.149
11.52952 78.06674 10.03942
17.6922 96.3541 3.300062
-13.73748 110.9036 8.895463
-12.2626 115.2598 10.68151
14.8041 112.6398 3.496942
15.46674 113.1366 7.331287
16.04633 105.422 3.456658
17.8247 99.30036 2.820906
-18.15538 89.14555 6.970268
-15.41519 80.24281 9.783185
-14.48229 107.2175 6.461319
-14.01964 106.5987 7.758303
1.834537 78.33879 10.28497
7.962108 79.65809 10.21402
11.54524 78.63047 10.18516
-11.22259 119.0199 11.60697
-11.25258 120.6146 11.72454
15.28042 117.0457 6.215411
15.7161 107.0323 4.3393
17.48256 97.8561 3.330528
-12.22318 122.606 11.27457
-11.30025 124.5099 12.0062
-18.6673 90.62773 5.199806
-18.02703 93.29942 4.920374
-18.1292 94.70352 3.652508
-18.26178 90.85464 6.017045
-18.02917 93.78046 4.536547
-13.3661 107.1046 8.160927
-14.99769 108.1995 6.395517
-2.109878 74.46671 9.843343
-1.639439 71.5152 9.478927
0.8779197 76.36299 10.19397
-0.1765815 77.03539 10.29777
-1.656735 75.60777 10.03932
-2.860098 75.68774 10.02745
9.554642 79.95037 10.2281
17.44749 97.93961 3.145433
16.534 101.8268 4.437669
15.55476 112.9228 6.970592
14.27342 121.7556 9.4487
16.46711 100.812 4.911608
12.70849 95.46175 9.17649
17.43956 97.10133 5.274489
-10.72067 122.0484 12.01795
-17.34002 98.44371 2.954396
-17.61561 95.77386 4.130569
-17.69233 96.80704 2.492865
-17.05762 97.30698 4.715972
-18.01725 90.96334 6.443661
-13.55159 105.6923 8.741499
-1.457665 75.56772 10.03449
-4.358264 71.21013 9.408228
-4.780703 71.59003 9.453197
-5.426481 73.1136 9.642504
-4.304026 74.63065 9.82683
-3.64735 77.42304 10.33353
12.51828 76.1037 9.780914
15.44878 114.4065 6.252954
15.3979 114.1577 7.453904
15.13973 114.3663 8.37562
15.259 118.143 6.804188
16.09499 101.3822 5.570621
16.93923 98.64908 4.746376
16.37449 97.11304 6.88679
-9.479262 124.0552 12.43483
-10.22595 126.6674 12.48581
-9.241853 125.9366 12.59309
-16.55802 90.60035 8.394217
-17.5175 89.79232 7.64422
-16.89444 91.40484 7.807356
-18.00883 91.71676 6.067366
-17.07071 98.47497 4.092618
-16.53777 96.18484 6.679129
-11.45206 106.5262 10.12577
-14.06069 109.459 8.133689
-11.73761 108.2775 10.10791
-13.3934 109.8382 9.336769
-3.202391 72.4539 9.588216
-3.921753 76.2605 10.11916
-5.607788 77.24242 10.26775
12.20273 77.61681 9.930393
7.183558 79.29598 10.2489
7.064618 81.03909 9.910579
14.9636 115.6703 8.718705
14.34002 114.4635 9.636899
16.557 99.75223 6.437143
-10.76871 119.7959 11.83057
-13.46032 90.91467 9.766897
-15.3981 91.39717 9.030903
-16.48644 91.00345 8.344177
-13.21 111.7152 9.650405
-8.529051 76.17983 9.871272
-1.704101 80.54771 9.7987
-7.090358 77.99075 10.33405
-7.54805 79.40351 10.32206
14.28733 75.59324 9.578954
4.774682 81.10567 9.85266
6.266496 80.73494 9.919518
6.967062 78.1172 10.33039
12.70212 110.2606 10.27828
-8.575995 126.8757 12.75959
-13.6173 89.99388 9.88433
-16.39096 92.62134 7.923522
-12.70971 111.5142 10.09802
-12.30215 112.6159 10.48318
-9.584744 73.353 9.557576
12.13746 75.74735 9.757054
2.907044 81.78173 10.19952
5.037316 82.89709 10.86255
7.618028 82.3689 10.17868
6.607812 81.80595 9.98068
11.07318 83.86511 10.61202
-9.519407 128.758 12.81916
-9.698709 131.2982 13.40908
-9.506071 130.1376 13.1461
-8.278627 131.4584 13.75832
-16.01603 89.34235 9.09155
-17.50532 92.84088 6.363655
-13.51651 111.3134 5.781788
-11.99857 111.5205 10.45452
-13.62694 112.1832 6.794789
-7.601122 75.29574 9.821343
-2.117309 79.27743 10.04707
13.35872 73.73991 9.394107
13.92202 74.63894 9.484244
16.81951 75.21755 8.56805
11.6719 80.39336 10.22688
11.65891 82.1099 10.14213
-8.392777 129.4916 13.24457
-13.8689 89.77485 9.854213
-14.06728 94.27979 9.161954
-12.82224 112.9108 10.11583
-9.172174 110.8902 11.478
-3.009945 119.335 12.66546
-9.268034 110.4618 11.43637
-7.844961 75.35951 9.819087
11.90948 72.88422 9.366879
18.52853 79.88872 7.457334
9.707445 82.87675 10.17523
6.406268 82.37231 10.33997
10.42277 83.4951 10.4828
-6.361938 125.0426 12.85217
-16.63768 95.49992 6.647294
-16.09008 96.34554 7.427908
-15.39749 94.75269 8.599203
-16.66061 93.50281 7.322253
-13.12389 113.7317 9.74594
-13.77524 114.4954 7.951286
-7.182838 110.9959 11.74177
-9.251675 77.36 10.05365
14.81057 73.75225 9.219337
17.46617 73.8274 7.924269
12.80017 84.62447 10.63613
11.44161 81.58363 10.15305
-14.33018 88.7188 9.900214
-17.02116 87.67412 8.616526
-18.0709 87.54264 7.538988
-16.82584 87.87141 8.757359
-14.02098 88.16308 10.02791
-13.16031 92.6116 9.549651
-16.0343 95.50488 7.443227
-14.71195 96.49767 8.257299
-7.620173 120.1185 12.40268
-10.21099 118.1014 11.83718
16.31938 74.45925 8.78941
11.00882 88.7005 10.10738
6.405476 85.36801 10.54243
8.222178 86.16405 10.21708
6.779371 85.21473 10.64413
12.79719 80.46691 10.19879
-18.53402 87.07425 6.969946
-12.221 87.79596 10.13439
-10.79529 87.53209 10.00419
-11.79296 82.46838 10.13923
-13.17076 93.60012 9.742977
-9.136228 116.3936 11.92023
-9.160154 119.441 12.15263
-5.839795 119.2959 12.50941
-7.483648 118.8662 12.33468
-7.427357 120.2937 12.43366
-7.614675 124.0439 12.65373
11.18533 87.13249 10.17257
10.72329 88.31171 10.07427
13.95577 80.21101 10.10228
13.17695 82.83232 10.25689
-11.14754 90.05293 9.758836
-15.39105 86.61458 9.766632
-14.60814 85.20412 10.07506
-14.94076 94.92588 8.792584
1.362142 90.83611 10.21719
-15.81899 98.38374 7.664791
-12.40559 94.94637 9.324564
13.32249 91.32377 9.73688
9.489833 90.05664 9.467298
16.00101 80.91605 9.566588
15.35246 80.74306 9.82707
-10.07633 91.64413 9.955861
-17.717 84.77037 8.293558
-12.52756 86.34708 10.49979
-11.01265 86.71104 10.24582
-16.27395 97.7266 6.22817
-8.269545 116.7868 12.09451
-8.613237 119.3549 12.22948
-7.076538 125.7648 12.84605
10.68886 89.10175 10.13208
9.015542 91.48504 9.370604
10.58849 92.90518 9.638222
16.42322 79.23219 9.244919
-16.86794 85.99043 8.929529
-16.81513 84.1321 9.087819
-16.6571 83.16558 9.211237
-17.74323 81.86604 8.353919
-18.03203 83.16459 8.054429
-13.02447 78.65865 10.02598
-12.39987 85.20036 10.44793
-9.152333 87.52735 9.837268
-11.16934 91.18658 9.684248
-16.92108 99.50298 5.013649
11.23668 90.91641 9.686347
15.64882 90.85755 9.002855
14.37934 82.30363 10.13299
-19.5716 83.49488 5.700316
-15.22308 81.29783 9.896814
-11.05492 93.13123 10.04665
-16.67713 99.05498 5.274054
-15.65529 98.46824 7.780671
-14.27288 99.27728 7.954798
11.22387 93.20512 9.605459
12.24984 90.08428 9.97433
12.48054 88.67764 10.09647
6.138303 90.28767 9.113355
9.05055 88.66832 10.03291
6.961938 93.70547 10.32736
8.495372 89.94875 9.297156
6.561653 92.74476 9.77044
3.276206 91.74683 10.42874
5.291541 92.24685 10.12508
4.500696 91.2281 9.75693
10.39658 92.45548 9.560168
-7.153385 92.43843 10.2315
-19.02986 81.91387 6.76822
-18.74745 82.45319 7.181831
-19.17326 79.44196 6.454163
-12.01003 84.62945 10.2948
-12.54041 79.49657 10.17973
-11.28301 85.69447 10.77401
-16.95976 98.58717 4.379751
-17.73021 100.8175 2.475889
-16.68117 103.2847 3.874859
-16.59933 99.97015 5.770743
-14.81803 96.7613 8.174425
-15.25036 100.3031 7.04071
-13.62506 99.52113 8.311077
-14.69598 104.6157 7.670685
-4.319668 122.4988 12.80749
15.44534 85.78233 9.793836
15.85508 82.94204 9.667328
16.03575 85.82731 9.486512
14.88978 86.84727 9.899083
16.47499 88.43736 8.93005
16.37143 89.08026 8.890753
16.33853 85.47839 9.331696
17.94195 87.002 7.803103
17.05709 85.03774 8.857264
9.90962 94.02505 9.449809
8.831145 95.50546 10.70943
4.339846 92.5564 10.62332
-13.72181 80.90596 10.1862
-9.113531 85.00305 10.98855
-8.185734 85.62847 10.6999
-12.34719 98.17458 9.380751
-10.88512 99.31184 9.21362
-7.966733 98.04624 10.7833
-17.21294 100.0164 4.839302
-13.96411 98.62298 8.365144
17.04662 83.81467 8.923251
16.50884 81.26675 9.294792
19.37128 86.21806 5.59008
7.77985 93.68462 9.641067
6.482657 94.41135 10.94034
-13.4073 82.82966 10.24304
-8.383541 84.69962 11.03131
-10.17723 85.39641 10.82031
-9.510395 99.17816 9.610603
16.37634 90.37237 8.622227
12.30347 92.7613 9.590811
13.51469 92.45399 9.53357
12.39329 96.32796 9.195205
15.1702 95.76714 8.470887
13.57058 95.61967 8.983971
6.408411 89.35882 9.159011
2.695478 90.4163 9.766155
-11.82991 84.97789 10.50767
-8.396527 83.67546 10.62004
-5.44981 83.68902 11.04987
-4.525365 83.30544 10.96398
-4.395726 89.38583 9.621791
-2.916763 87.57065 9.337017
-15.22387 79.83401 9.803566
-6.38746 91.75024 10.3928
-13.69777 100.6962 8.190281
10.73315 96.60401 10.22995
17.58192 84.19225 8.454629
2.74551 89.46358 9.229141
3.713812 94.57651 10.55787
-5.938296 90.28423 10.00792
-6.466976 90.10828 9.852093
-6.449379 91.45007 10.36617
-7.570776 85.05087 10.92942
-7.974402 94.14193 9.669796
-9.045823 97.71446 10.61672
13.82119 92.21071 9.506099
15.20462 93.5825 8.628111
15.8924 94.36967 7.968323
17.00109 85.38868 8.880863
18.98138 83.99052 6.748086
18.05344 83.29517 8.018241
18.08908 81.20003 7.99788
1.156024 90.2733 9.940428
6.543692 86.74787 9.928608
-4.410529 89.2989 9.589232
-7.982582 87.61143 9.69256
-16.89862 80.3924 9.021543
-17.2177 78.73206 8.702283
-8.77447 98.58807 10.19363
-10.29895 100.6589 9.610583
15.05502 95.94046 8.587795
19.45882 83.75132 5.901889
17.54926 81.15533 8.524723
3.876946 91.96548 10.44301
-5.681283 89.03765 9.478352
-17.85548 77.12859 7.992661
-18.66546 78.38885 7.180308
-10.3635 101.4059 9.92695
16.00783 97.88661 7.222671
19.95524 83.1993 4.76771
20.36382 82.51607 3.405736
19.67657 84.91455 5.196356
20.07332 80.37992 4.579671
18.5922 79.4882 7.35254
19.79134 80.5949 5.276946
1.720238 92.40534 10.6733
5.773475 85.02544 10.72139
-5.603096 108.4435 11.72649
-8.1429 110.6694 11.68801
13.79919 98.2566 8.797787
19.47288 81.37534 5.990502
20.49535 81.74513 2.852562
-0.8135496 91.53516 10.57086
-0.808026 89.49603 9.658959
-1.360112 89.22153 9.52699
-2.994343 90.70453 10.35312
-1.586975 93.46075 10.10574
-10.39075 107.9504 10.87409
-9.598935 108.2091 11.03944
9.990269 102.7558 10.43612
20.21916 80.71294 4.123273
1.028848 93.9129 10.2786
-0.2197575 87.93626 9.201244
-5.047172 91.54048 10.45223
-9.070524 109.4418 11.37484
11.32007 96.71231 9.933507
20.36256 77.77985 3.257916
20.38411 78.42997 3.296151
20.46225 76.4845 2.197696
-1.705426 88.36727 9.281984
0.6755198 88.49477 9.177761
2.711998 86.76279 9.703979
1.521751 89.75304 9.562592
-6.375982 99.54884 10.58542
13.1921 98.54726 8.884398
14.19542 98.22884 8.647264
-0.4266104 86.45626 9.683352
-5.957354 100.9822 10.75156
-5.608924 99.56077 10.88928
-4.194885 101.0947 11.18606
-13.80902 102.2224 8.725829
-2.147503 103.4226 11.96858
13.28122 100.5385 10.07535
11.43431 97.67415 10.05505
9.028555 96.2854 10.90398
3.27584 87.08563 9.683674
4.055633 82.78252 10.87442
-9.022999 102.3501 10.78047
-5.293634 107.46 11.88074
-5.552161 86.15528 10.04947
-2.840611 85.72681 10.14428
0.7018327 82.46118 10.74694
-3.482454 92.05891 10.4053
-3.377799 85.18369 10.57444
1.76095 85.19896 10.44206
-1.811515 93.5805 10.06618
-1.32833 92.61423 10.37502
1.79916 86.55195 9.707614
0.258373 84.01145 11.19106
-3.982329 97.79581 11.4233
-2.938222 104.442 12.06746
0.2752681 84.43445 10.99918
-0.1445869 83.24653 11.2067
-2.230348 84.73904 10.84957
1.438503 81.90169 10.33825
1.834898 80.21494 9.807818
-3.679174 97.23902 11.18967
-0.6482238 99.32073 11.62195
-3.468588 84.59052 10.97669
-1.710311 83.45136 11.19933
-0.1625528 82.4518 10.73734
-2.330239 95.19527 10.33298
-1.537927 101.494 11.97937
-2.45972 99.97478 11.92478
3.027433 97.2075 10.28189
-4.165215 82.8746 10.74808
-3.884576 82.45424 10.48014
-1.157024 81.3025 9.964359
-2.482941 82.16476 10.41159
-3.425633 80.77708 9.822141
-3.687899 98.28414 11.56458
-7.964528 94.78905 9.808552
-5.846606 93.31264 9.909733
-0.9043007 101.8346 12.10427
-2.40647 98.35291 11.51854
-0.5289602 99.94079 11.81228
1.516922 101.2215 11.76576
2.674703 102.6167 11.85661
0.5059094 103.3868 12.29252
-4.387887 78.48032 10.33959
-0.2270821 78.40372 10.25855
0.1574029 78.24673 10.29213
-2.652693 77.98425 10.33663
-3.85931 95.78405 10.57719
-6.055641 94.00392 9.834488
-2.85031 97.18237 11.11398
-4.307884 94.6621 10.10559
-7.429153 94.62092 9.821482
-8.306837 94.94891 9.814997
-0.7644131 104.2725 12.17011
-1.725313 97.51407 11.13569
-0.6727366 95.30362 10.28145
0.8423526 94.96407 10.1053
2.745888 102.0283 11.6734
0.8147457 99.51668 11.4039
-4.921764 78.42236 10.33414
-8.928215 93.05153 9.995959
-7.822831 93.26444 9.842617
2.741146 100.9978 11.4041
-9.648014 93.7104 9.664729
2.505618 98.66483 10.83408
1.961902 98.04382 10.76736
2.854483 95.94046 10.13876
3.328218 94.24381 10.58193
3.417036 96.17769 10.13478
3.337413 97.21611 10.23305
3.524473 98.32615 10.46827
3.756912 98.88793 10.57032
5.500581 97.71482 10.16739
8.492912 99.32257 10.62703
5.560001 98.73541 10.12961
2.366333 102.6119 11.94324
2.994678 105.2856 12.40226
9.246385 98.05715 11.1222
-4.797951 105.4923 12.13252
-4.492763 104.5824 11.90222
7.091667 97.68672 10.54655
6.441569 95.84495 10.86012
9.777977 98.78871 11.08964
6.068569 97.38689 10.32395
9.384331 95.53896 10.27294
6.20203 96.05539 10.7511
11.3553 101.1793 10.88607
6.897744 95.63745 10.98506
8.70119 99.03165 10.7844
8.863027 101.1021 10.32464
8.806593 102.3306 10.05732
7.314442 102.9012 10.35968
13.14686 103.9771 10.36924
13.93264 101.3219 9.272994
10.75466 100.8024 10.9665
11.84084 103.4766 10.76914
6.930547 103.3591 10.59014
6.37266 103.0949 10.76635
5.223291 102.9541 11.18145
8.043885 104.2413 10.30809
6.41466 102.4893 10.62302
8.530923 104.4163 10.17062
4.488524 107.1899 12.39092
7.629494 106.2054 10.71245
9.501016 106.4685 10.13776
7.705709 107.823 10.82031
9.319769 109.4869 10.22855
10.64642 107.7217 9.993032
5.581866 106.5932 11.78355
6.111239 109.134 12.1195
2.272393 108.9866 12.33398
5.894211 110.0869 12.40766
3.097452 107.132 12.50208
2.050903 107.6854 12.35482
10.35022 106.9949 9.966368
12.76569 102.458 10.54284
5.61097 110.4719 12.53666
3.465808 111.9891 12.37375
9.061999 109.6045 10.34353
13.51601 105.5879 10.17536
2.430057 106.7668 12.44197
2.619816 108.712 12.38366
13.47176 101.7533 10.07681
13.87482 101.7859 9.337092
14.39734 103.8587 9.110129
15.90871 105.5239 6.983219
14.27164 100.7188 9.159612
15.66036 106.3027 7.494422
14.58175 100.701 8.785379
15.68655 100.9529 6.498709
-4.244267 132.5986 14.92569
0.2736557 133.3006 14.48799
-1.346385 129.6924 13.57787
0.8106672 131.1721 14.22749
1.85984 131.3092 14.23192
-3.620439 132.1352 14.83879
-5.496743 133.0124 14.76054
-20.66033 80.59341 1.190054
-20.50432 80.13713 2.899051
-20.50128 82.36121 2.670333
-19.95406 82.23262 4.872739
-20.03845 82.1547 4.628143
18.65973 73.88642 6.797984
20.17989 74.24191 4.064638
7.556014 131.6585 13.84521
12.87182 131.7654 11.5399
11.01588 131.2162 12.86507
10.0748 131.0655 13.23267
11.15606 130.4749 12.57845
-5.009216 130.4592 13.67943
-6.307504 131.5669 13.99113
-6.477032 128.9783 13.39811
-1.880711 128.4333 13.45033
-3.663287 126.6297 13.23457
-1.91559 127.3117 13.36351
-0.8011352 126.6489 13.32155
3.5166 131.284 13.98366
3.12923 130.658 13.74129
-1.250955 130.6032 13.87414
-4.156168 128.8183 13.45937
-3.832253 128.8459 13.46492
3.176395 127.8305 13.46913
-4.627948 129.87 13.55995
3.019449 133.4059 14.78791
3.851656 131.2009 13.90894
-19.94086 77.35794 4.656676
-19.50349 77.22532 5.653909
-20.36612 80.58875 3.565167
-20.48083 79.58295 2.973516
19.87249 88.35278 0.3107198
16.29095 104.6229 2.945803
15.15558 108.1033 8.366618
15.40571 108.2289 7.94686
15.01472 108.0902 8.590403
14.27623 108.6822 9.650456
13.77298 110.4801 10.07843
-16.25471 105.8791 2.105243
-16.37603 104.6405 2.114019
-16.11381 104.9758 3.984292
19.57543 88.82426 3.383937
-17.68419 97.25539 1.898419
16.80744 103.4512 4.001114
16.43482 102.38 4.863806
14.97066 104.0724 8.230649
15.23854 101.9584 6.994976
15.94115 102.7226 5.962012
-9.880721 105.0008 9.9173
-13.25331 105.8871 8.959557
-11.89077 106.5727 9.904814
-11.49097 105.3357 9.413478
-13.50909 103.1808 8.997214
-7.233293 101.9281 10.86679
-10.01185 104.821 9.888071
-8.150152 106.6258 10.58562
-6.90363 103.0458 11.33273
-8.828033 103.7068 11.12839
-8.165874 106.231 10.54961
-8.128782 103.4707 11.33121
-6.171951 105.3435 11.9426
12.73349 78.79899 10.071
16.35358 95.58495 6.999067
16.75797 94.34203 6.947308
15.26443 117.8446 6.658321
15.30266 116.5822 7.347355
15.07324 120.0435 7.820464
14.48585 118.1225 9.334763
13.22542 119.8594 9.883456
14.95727 121.0204 8.245412
13.52848 122.5733 9.803061
11.51571 119.3367 10.06895
15.05371 122.2166 7.254316
14.9845 123.1879 7.524787
14.64182 123.4052 8.844219
12.31809 120.2479 9.892084
12.95408 124.2041 9.924998
13.67792 124.5673 9.755363
14.30332 127.3002 9.200512
13.79245 126.3907 9.748377
12.04243 129.9062 11.90052
13.06987 127.4229 10.27176
12.05196 127.6424 11.46446
12.01372 129.441 11.84985
-8.498962 125.8743 12.68407
16.33352 78.30092 9.229434
16.31453 77.11066 9.133217
17.28086 77.11021 8.494129
-8.450126 112.3066 11.7743
-9.821141 113.6502 11.52393
-9.835277 114.359 11.58935
16.99971 74.97581 8.395426
17.45946 77.35709 8.384117
18.78971 77.32143 6.88673
19.01151 77.91467 6.622752
20.10043 74.67648 4.190863
19.45663 78.86755 5.934404
18.95907 75.39131 6.390152
19.96919 75.7087 4.400377
19.60173 76.12278 5.29612
-15.20481 87.28592 9.77868
-10.74061 80.55822 10.21126
-10.62337 80.87933 10.12866
-13.47548 78.72801 10.01577
-4.298428 121.6111 12.74886
-4.840311 121.6589 12.72083
-4.952486 121.3896 12.69653
-4.485332 120.2873 12.65526
-1.445995 120.755 12.80084
-3.745834 122.9275 12.87006
-2.814565 123.0529 12.92235
-1.39948 124.6943 13.11229
-2.303806 123.5378 12.98093
1.036372 122.294 12.93849
1.958115 128.6607 13.5133
0.8200631 127.78 13.44501
-0.6295459 125.3868 13.19691
1.213611 122.8264 12.98111
0.1974368 127.8694 13.44244
-1.391797 121.4155 12.84818
5.059362 123.6027 12.93269
2.055629 128.3692 13.50138
3.414539 126.5897 13.32273
4.195126 130.2237 13.63436
1.69441 123.5722 13.04094
3.442335 126.1361 13.26994
-3.241227 120.8849 12.75213
1.204304 119.2027 12.71855
5.253428 129.6055 13.6314
-1.944195 119.3718 12.69743
4.329346 124.3669 13.03918
7.270657 127.5679 13.15896
6.780484 128.1413 13.31263
-2.146142 119.3055 12.68952
5.123949 123.7346 12.93874
8.677567 130.065 13.37593
11.8032 126.7044 11.5162
8.186195 128.5378 13.16931
6.087537 125.3909 13.02332
9.798118 124.8153 12.46372
9.760502 126.7401 12.5526
8.851215 131.3499 13.63907
10.56148 129.591 12.68467
-4.816664 117.6625 12.4898
6.434552 125.3305 12.98055
8.341599 124.3817 12.60126
11.18798 127.7093 12.203
-5.096282 114.9015 12.33984
-2.259598 116.3484 12.44961
7.261642 124.3956 12.76952
8.11132 126.3563 12.84752
8.097612 125.0386 12.69282
10.91171 126.5093 12.22979
7.434435 131.0284 13.74968
3.122008 119.5827 12.76017
2.474105 120.248 12.7858
-3.643683 115.8922 12.42532
-1.338826 116.8173 12.49661
3.352564 121.3767 12.84301
3.57283 117.5063 12.71267
-4.567788 115.3746 12.38508
1.85983 113.7895 12.6829
-3.514327 113.5493 12.02204
-1.272794 114.797 12.34193
3.361523 116.5211 12.6812
4.284912 118.6302 12.70233
3.902722 115.8093 12.57008
-2.861798 114.8304 12.25052
-7.60706 112.4252 11.9589
-5.200203 114.1995 12.26937
-2.801482 112.2687 12.11325
-1.490272 113.4783 12.32989
0.08523062 116.4445 12.534
1.73173 113.2056 12.65563
5.755075 111.6737 12.57947
-6.61336 111.0436 11.66779
-1.747023 111.7417 12.46588
2.648265 112.5384 12.46678
2.805992 110.9882 12.34792
6.318632 113.3451 12.58179
-4.927221 111.658 11.69189
2.30374 111.4002 12.39153
0.199291 112.2412 12.73145
1.098605 112.8068 12.69438
-2.789032 109.3974 12.51005
0.6266599 109.8531 12.4334
1.556726 109.448 12.32194
-2.166411 105.8591 12.30072
0.5688 105.9078 12.25195
-4.291933 108.0486 12.22821
-1.592271 107.8476 12.44406
5.995947 112.6698 12.58355
3.707661 110.5893 12.43693
-3.45012 109.3829 12.33147
-3.192353 108.7278 12.49431
0.2671135 107.1561 12.26908
1.475768 108.5011 12.29607
-4.5048 110.6919 11.89647
-2.538738 111.3425 12.2929
-18.42377 83.60283 7.582926
-15.4377 102.9137 6.441114
-13.77386 102.787 8.819828
-13.5337 103.9257 8.466491
-12.61031 102.0678 9.407422
-14.81162 102.3238 8.058771
16.94929 88.12609 8.619186
17.52848 90.06215 7.548317
18.34993 88.16431 6.987552
18.45969 90.68269 5.69242
19.24879 90.21114 3.449519
18.47265 93.28117 3.175843
19.26846 90.2115 3.357436
17.95238 92.52362 5.678722
17.58536 93.2262 6.0227
17.98303 93.37984 4.985122
15.43742 84.15263 9.83811
3.100447 92.62904 10.74069
19.99286 87.57685 2.024475
20.15777 85.8694 2.944863
19.27862 88.1171 5.051947
2.453144 94.10152 10.4536
-5.151573 96.61233 10.94523
-8.031032 80.53615 10.0034
2.214274 97.11613 10.4401
9.778052 99.43419 11.00961
13.53391 100.4454 9.750342
-4.371474 133.6572 13.74613
-4.352097 133.5231 14.28215
-4.818718 128.6044 13.42484
13.21489 106.2886 10.38562
-9.566882 107.0016 10.59296
16.33677 93.8629 7.5365
11.32566 123.4326 11.18184
11.69382 124.4799 10.98566
9.39118 122.6267 12.48868
9.568221 121.8041 12.42889
10.58782 123.2583 11.98895
-6.241078 115.8666 12.29263
-5.912509 113.5985 12.20432
-9.956383 81.41009 10.02172
-8.315083 81.53358 9.941139
-5.367666 126.7906 13.14732
-4.785427 124.9517 12.97853
8.533093 131.1696 13.65485
7.523105 131.122 13.76082
6.336401 122.7239 12.75213
6.677956 121.4784 12.62218
6.807875 112.2708 12.39734
-14.74889 104.1158 7.237411
19.58893 87.89613 4.143519
8.034524 115.759 12.39633
-19.44385 82.12832 6.031308
13.80726 107.5975 10.01169
11.8819 109.0041 10.23569
10.95128 110.7123 9.951944
11.26046 119.8278 10.30654
12.92386 113.1159 10.14587
12.56523 112.4758 10.17261
5.887887 118.0091 12.52972
5.229678 116.8283 12.51257
6.479994 120.8825 12.61488
7.570081 121.761 12.57121
7.218646 119.9157 12.53985
6.747996 115.3897 12.57278
7.651809 116.2063 12.53012
8.299712 114.6161 11.96509
11.48984 119.794 10.11077
9.031799 119.7226 12.41021
9.37235 119.9164 12.28161
13.18191 113.8431 10.10062
12.80972 118.0622 9.939895
13.84409 115.9581 9.890383
10.68346 116.5023 10.20117
9.423017 116.1971 11.30239
9.795335 111.5433 10.17182
10.21862 113.2325 10.15354
11.32458 118.5183 10.11387
9.38125 117.0527 11.63962
8.48147 113.7859 11.54815
8.716657 112.8647 11.04668
10.22481 112.9802 10.13299
9.662788 115.1257 10.72297
7.196101 110.4402 11.70657
9.561419 110.9225 10.22212
12.62241 123.7385 0.1628606
-0.8825741 80.56225 -10.28734
20.0052 81.56811 -2.688104
19.86051 85.5433 -2.467018
10.36195 92.94836 -11.89827
8.413741 122.8018 -8.264926
12.68429 71.8007 -8.746222
-6.874958 90.76874 -12.46844
-3.218222 121.5166 -8.932875
18.38046 93.40684 -2.414312
18.62434 89.56633 -3.933147
15.57526 104.9305 -1.374052
-11.84928 110.3597 -4.064257
-12.20965 123.0435 -0.4442599
7.422564 122.3875 -8.858389
12.90379 123.7837 1.046967
-8.533963 122.6095 -8.138
17.73632 95.80087 -2.190423
-9.067474 124.0057 -7.360513
-9.815523 123.2196 -5.730989
-5.96437 70.99065 -9.243299
-11.43907 70.563 -8.827384
-14.71523 70.20795 -8.309666
-16.64582 98.77226 -3.167939
-16.20369 102.2506 -2.627713
-17.7747 71.40447 -6.439267
-20.15166 75.40121 -1.804258
-18.37037 93.82603 -1.271092
-20.07721 73.09975 -1.840281
-20.14074 84.81753 -1.542033
-11.89925 122.9998 -1.165554
19.57064 70.49673 -3.277654
0.2342907 123.9758 -8.130166
-9.635105 121.5194 -6.164265
-13.49411 105.0283 -5.138691
-14.78119 108.5757 -0.4329606
-10.69162 70.15094 -8.874649
11.85313 122.9806 -1.310163
-12.8281 118.931 1.644936
-13.88904 109.2765 -2.544895
19.02945 70.96552 -4.571985
-10.06717 123.9097 -5.350102
19.83919 71.75047 -2.432074
17.03414 70.86396 -7.064567
7.162623 70.39874 -9.131886
12.59405 121.8603 0.5018653
-15.9053 74.63309 -7.772337
-18.33148 70.11169 -5.937181
-19.97966 71.87476 -2.314389
-12.63535 118.9565 0.3578076
-12.1939 122.1442 0.02701022
-19.15679 90.549 -1.988045
16.66877 98.94968 -3.519949
-14.92735 106.8872 -1.747467
0.5281107 121.5942 -8.982389
-4.956048 124.8322 -8.380943
9.477121 123.2672 -6.359383
-7.36836 124.194 -8.746299
-9.490463 124.2589 -6.571999
18.97648 72.23276 -4.632729
18.83764 70.47743 -4.983154
16.95938 70.2298 -7.155274
15.17597 71.11932 -8.134056
-4.320381 70.30601 -9.292234
14.28702 115.7051 0.3360298
11.48517 122.2914 -1.953758
-2.759361 72.10183 -9.444622
-20.14636 83.11196 -2.122027
-17.99792 70.30639 -6.297616
-18.54704 71.50329 -5.527652
-12.95539 117.8709 0.8102028
-11.91266 123.9439 -1.869062
-12.08886 121.1419 -0.1932919
-17.05987 100.3086 -1.011244
-16.60677 101.8881 -1.179656
-16.20108 103.5506 -0.7465943
14.57246 111.215 -1.248757
16.17333 100.6316 -3.392652
17.24681 98.32206 -2.844752
13.66162 115.2905 -0.5633165
14.61903 110.9296 -0.3173004
-14.40272 109.0641 -1.583123
-14.8268 105.6001 -2.662789
-1.890139 123.5289 -8.443147
-13.2433 115.2638 0.4845684
4.318241 123.281 -8.810469
-10.91973 124.2873 -3.971386
18.23613 71.80701 -5.797156
19.28872 87.16595 -3.291681
19.59003 80.96217 -3.638964
12.70676 70.9121 -8.721047
11.83951 71.13691 -8.8059
8.293521 71.37258 -9.09806
-0.3196045 73.0787 -9.546647
11.88378 118.4246 -1.259639
11.7514 118.0739 -1.550889
14.07586 116.1019 0.1693942
-14.61756 70.95148 -8.337318
-13.81555 70.38426 -8.542812
-12.6204 72.19223 -8.762507
-11.35582 73.13663 -8.895742
-20.27265 77.47951 -1.63975
-19.98474 84.11838 -2.400916
-19.71051 75.64246 -3.210131
-18.03176 72.41606 -6.096113
-18.60084 72.25088 -5.366981
-16.45026 71.39489 -7.502739
-12.4262 119.892 0.3469829
-17.45935 97.34721 -1.491763
-16.66958 97.00272 -4.338164
-15.64882 102.2811 -3.875387
-15.4613 104.353 -2.444721
-19.27161 88.52068 -2.785877
16.19559 102.2793 -1.905214
17.46665 96.84717 -2.740695
16.86461 99.37406 -2.385295
17.69086 95.64439 -2.510043
14.57166 113.2575 -0.009633581
14.48771 108.7965 -1.609679
-15.49805 105.9154 -0.8549963
3.153199 124.1038 -8.342998
-0.05251931 124.2353 -8.017788
10.93866 124.2376 -3.911381
9.657451 122.6433 -5.942626
-10.45412 121.1226 -4.277014
18.58523 72.08038 -5.300236
18.87171 73.11216 -4.834188
20.0151 82.48425 -2.578602
18.93478 87.32836 -4.026564
20.17946 79.32447 -2.165332
19.57808 82.0832 -3.649473
15.42952 71.63556 -8.041661
13.27613 73.20088 -8.698812
11.108 71.58811 -8.881154
10.6139 72.99953 -8.960298
5.385951 70.50729 -9.241493
6.503945 73.5966 -9.336452
1.361479 70.06959 -9.359627
1.160747 71.51326 -9.44301
11.15031 121.321 -2.621575
-4.801064 71.46628 -9.329735
-7.22794 70.41201 -9.139114
-5.87477 72.82912 -9.341455
-9.479121 70.97116 -8.999552
-19.73977 82.32172 -3.293008
-20.16791 84.27998 -1.658352
-17.57429 70.99259 -6.664535
-16.86526 73.41752 -7.182203
-12.73586 117.0376 -0.585489
-17.58563 95.39509 -2.9701
-16.37024 97.88558 -4.427315
-17.78061 93.98843 -3.567481
-18.75542 91.24596 -2.856004
-19.48281 88.34501 -2.291405
-18.06375 91.30534 -4.450336
-18.28853 86.41209 -5.300086
-19.54726 87.51872 -2.4408
-19.98698 85.43121 -1.88974
-18.88242 86.22044 -4.413455
-17.75176 87.36572 -5.905239
-17.91308 85.26727 -5.879573
14.65113 108.4692 -0.8888716
16.25423 102.663 -1.398088
18.28346 92.31097 -3.362283
18.774 90.90602 -2.871966
18.52443 89.0283 -4.33285
12.06761 114.4686 -2.043832
12.84396 109.8261 -3.524148
-13.24665 112.6444 -1.928389
-14.40414 108.3922 -2.319164
3.100781 124.466 -8.174741
-13.46431 113.3463 -1.293745
-9.776876 122.1719 -5.801475
-9.864159 120.9527 -5.699654
-8.628676 122.0288 -8.015594
-9.983632 119.3337 -5.663188
17.96137 73.62757 -6.132253
17.72956 88.34986 -5.809339
19.1881 82.14522 -4.367486
19.25333 82.97513 -4.216787
13.47996 76.04343 -8.621663
14.77039 75.03911 -8.299188
15.71155 77.1139 -7.766927
15.72593 72.10554 -7.900304
10.6763 74.27412 -8.982925
0.9663546 71.51526 -9.44592
10.75959 121.4623 -3.491773
10.9621 120.0272 -3.040659
10.19836 119.8715 -4.718981
-8.273611 71.24313 -9.101424
-1.886353 71.48999 -9.432251
-4.954034 73.1391 -9.413589
-2.14435 74.75398 -9.640211
-3.543979 73.15955 -9.482615
-19.13058 80.88799 -4.497251
-19.61318 78.48053 -3.616495
-19.67632 82.5504 -3.430018
-17.01595 72.4018 -7.055157
-15.76622 72.56919 -7.884472
-11.09625 121.4634 -2.702676
-17.84831 94.03999 -3.344554
15.48652 105.2209 -1.381286
14.97247 102.6283 -4.367485
17.56952 95.17791 -3.287017
11.99244 115.9102 -1.666886
11.63813 115.9544 -2.161316
14.32168 109.8534 -2.45991
-13.06594 112.7998 -2.051833
4.041276 122.9471 -8.862505
-3.799239 122.0247 -8.903169
-11.85891 115.8183 -2.32807
-12.12954 114.0938 -2.49995
10.05122 119.5548 -5.041129
-8.749173 119.702 -7.87536
-6.377488 122.7245 -8.846225
-9.988668 117.4535 -6.07366
-9.012013 120.2131 -7.563476
17.08062 75.10563 -6.965273
18.09709 76.27583 -5.93612
17.36512 78.38882 -6.586116
17.75779 80.86854 -6.188432
15.50217 77.32973 -7.85848
5.092674 73.00124 -9.393498
-0.1157865 71.67439 -9.460702
7.955437 74.84361 -9.278378
-1.868381 70.62364 -9.385773
-19.59734 79.09346 -3.65469
-16.31766 77.9277 -7.373953
-17.81554 78.9054 -6.147383
-18.57437 84.06902 -5.16023
-15.77776 77.19902 -7.729298
-17.04789 76.46775 -6.942533
-17.69754 77.65235 -6.308403
-15.00353 77.64358 -8.057828
-16.51875 76.61592 -7.317292
-18.47662 74.58736 -5.486235
-19.22881 83.77688 -4.178696
-12.07023 120.5431 -0.3158416
-11.58215 118.2661 -2.048312
-18.91171 84.74314 -4.601115
14.96177 106.4108 -1.77135
14.64154 104.4654 -3.798361
16.69939 94.40682 -5.735733
12.51145 116.2416 -0.9711426
13.4192 109.4053 -3.493407
12.43017 109.9308 -3.742785
-13.58047 112.823 -1.402164
-13.44149 109.225 -2.971119
-2.445539 120.8176 -8.969078
10.34306 121.6973 -4.41182
-6.482659 119.9369 -9.076538
-9.576999 118.2077 -6.903673
-10.14155 118.6037 -5.397261
-10.32289 116.8804 -5.232388
-10.63985 115.9792 -4.569346
-10.97898 117.7055 -3.529979
-10.89489 114.6043 -4.226062
-11.92089 116.9259 -1.881007
-11.0552 117.0673 -3.475302
19.31211 75.42345 -4.091909
13.50129 77.05695 -8.571563
19.91551 77.14369 -2.80371
14.94369 77.61313 -8.082872
7.770909 75.18896 -9.313905
15.68172 76.24226 -7.835297
9.73974 74.42875 -9.082639
11.02678 75.00844 -8.954412
10.54584 76.61903 -9.030391
0.1598452 71.98696 -9.478533
-3.833325 73.91687 -9.520124
-18.65081 77.95006 -5.195053
-16.98904 81.39137 -6.819848
-15.39085 82.26259 -7.809237
-16.79194 82.48714 -6.979019
-14.2535 79.49236 -8.204124
-12.16854 73.1692 -8.820932
-12.90719 73.13721 -8.746149
-13.66997 77.32778 -8.51353
-14.86383 79.4148 -7.989147
-14.80235 77.95322 -8.115697
-17.88304 93.21711 -3.835075
14.06376 111.4384 -1.952088
-12.86241 108.6753 -3.905911
5.56499 122.2056 -8.952715
8.113183 122.9242 -8.578068
4.125223 121.632 -8.972521
5.743869 119.4329 -9.105125
-3.722919 119.0816 -9.053808
19.13964 78.91611 -4.485368
18.87016 78.89468 -4.891886
17.13065 81.76907 -6.722342
5.396137 73.58264 -9.410458
-0.988936 73.14005 -9.545828
0.3895425 73.606 -9.582149
4.179506 72.41555 -9.404763
-8.907613 75.13476 -9.189943
-2.458551 75.31808 -9.67619
-16.69625 84.61536 -7.054339
-16.23827 76.07848 -7.533047
14.22295 105.4149 -4.047694
-11.42618 112.3032 -3.877158
6.474852 122.452 -8.927644
1.443942 121.0907 -8.997838
15.79082 80.1089 -7.567742
15.67778 81.751 -7.642934
16.24935 79.59885 -7.327005
14.52432 77.9416 -8.217282
14.60519 83.44817 -8.259469
11.36282 77.39296 -8.905432
14.81376 79.83728 -8.004453
13.37021 80.32056 -8.450572
13.07 78.54497 -8.547884
14.9204 77.46482 -8.108217
6.612998 75.66003 -9.450142
3.286623 73.85039 -9.534877
10.53867 78.44147 -9.072055
-3.84676 77.42917 -9.804101
14.46695 105.1597 -3.664921
-12.11337 110.0191 -3.96655
-11.14499 108.3437 -5.623749
13.75039 78.8012 -8.379848
17.56288 84.29789 -6.272508
16.21763 85.68506 -7.469414
4.17063 76.86051 -9.727314
14.23948 106.706 -3.708793
9.663429 120.4702 -5.883666
9.168768 121.6993 -6.9477
9.438602 119.7893 -6.375716
10.24158 118.5193 -4.63022
9.224484 116.6807 -6.913997
8.338056 119.3104 -8.373695
9.087323 119.9368 -7.139656
6.393881 76.77488 -9.548944
13.71575 107.0548 -4.518935
6.486652 117.0016 -9.262968
9.519987 112.1612 -5.958329
8.738154 113.3385 -8.171771
5.556781 118.7813 -9.148306
7.482224 117.9695 -9.053238
5.541114 117.6549 -9.226334
6.709896 119.7975 -9.077731
4.542533 76.47762 -9.671756
12.11008 108.2057 -4.889898
12.76568 108.4186 -4.303935
13.70678 107.4491 -4.343652
7.620133 117.1331 -9.043652
7.492198 116.2736 -9.156316
0.8443764 100.6967 -11.48332
1.59694 78.31752 -9.986147
-2.963504 79.75437 -10.1192
8.948382 109.6246 -7.108233
10.30152 109.2319 -5.682524
11.1378 112.6482 -3.693115
1.092649 116.3355 -9.265564
2.774896 117.6439 -9.179742
0.15407 117.7605 -9.150817
1.191135 114.8693 -9.391179
10.29079 107.7013 -6.40986
10.02656 107.3872 -6.718206
-0.4207249 119.8119 -9.024616
11.54309 112.9572 -3.161387
11.64836 115.2659 -2.317218
0.4634747 120.1086 -9.020023
-0.330786 121.0255 -8.995801
-2.883943 120.3948 -8.979682
-0.815584 121.3684 -8.9757
11.54974 113.5775 -2.935624
10.73025 111.6957 -4.424094
9.955862 114.6013 -5.161718
10.0577 112.137 -5.086803
9.242991 112.9593 -6.717575
9.825819 111.9301 -5.424857
-0.3006109 120.775 -8.999538
8.453444 112.2284 -8.721839
-1.612837 118.774 -9.074998
-3.490811 119.5269 -9.025231
-0.02321348 113.8269 -9.489049
-1.560199 116.6671 -9.232851
-3.296422 115.9495 -9.319373
-15.70089 101.6092 -3.789765
-15.60945 104.8304 -1.80827
-15.11722 104.3717 -3.171965
-13.83933 105.4203 -4.493
-14.92885 103.751 -3.812327
-15.46478 101.9951 -4.412459
16.3111 98.86101 -4.269978
16.40607 98.41232 -4.916087
15.85301 97.79628 -5.976418
14.57859 100.3999 -6.18292
15.84334 95.12176 -6.810845
15.69622 100.5956 -4.309351
13.44032 92.51142 -10.05622
17.13722 96.73589 -3.557137
12.77856 100.5562 -8.199115
15.38959 97.65491 -6.559292
14.62231 98.86875 -6.87528
14.0241 97.88005 -8.084408
13.71206 96.46143 -8.920558
14.99778 96.13995 -7.590558
13.21159 93.40643 -10.1421
13.60148 93.14118 -9.855952
13.43389 96.21509 -9.268368
12.13667 99.08473 -9.40568
13.06548 95.25439 -9.886892
12.34889 100.2133 -8.742736
14.21616 101.1025 -6.315536
11.4086 102.3966 -8.532705
14.48437 102.9403 -4.98482
12.12837 102.967 -7.687864
10.03628 103.9156 -8.633174
13.69682 102.0118 -6.510698
11.15831 92.49442 -11.52061
10.90463 98.37662 -10.57426
13.16426 93.0731 -10.2261
11.37706 94.24097 -11.30324
12.78255 92.99995 -10.52012
12.28262 91.08602 -10.87033
13.99854 92.25343 -9.618873
13.23789 90.3955 -10.22244
10.10751 88.45709 -11.3127
8.66211 93.49657 -12.4735
13.14636 90.94534 -10.31701
10.95144 95.232 -11.38548
13.23472 83.46233 -8.810088
14.4945 90.32399 -9.26415
15.46771 89.78133 -8.367371
15.92311 86.15479 -7.712688
14.70998 86.07083 -8.537266
11.29862 88.93874 -11.0438
14.69533 83.71085 -8.250476
12.92247 87.1923 -9.827412
9.492979 88.6348 -11.51048
10.81934 90.60918 -11.55108
14.42621 82.35514 -8.215163
11.73698 85.41965 -9.786599
12.02055 87.04815 -10.20862
11.88656 84.28217 -9.458197
-16.38564 98.79208 -4.001912
-16.42184 98.17126 -4.128269
19.55892 85.14677 -3.283683
-13.97889 95.98512 -8.808726
-15.8002 96.00352 -6.510846
-8.78875 124.0631 -7.89726
18.73286 85.79105 -4.732425
17.93217 87.03487 -5.716201
15.18154 86.1978 -8.241167
17.4528 90.93036 -5.743047
15.19799 87.15515 -8.351452
15.48651 92.43638 -8.106932
16.98939 91.69988 -6.279946
15.74454 88.79997 -8.05306
14.43772 93.50346 -9.012359
-11.55877 74.52025 -8.892471
-7.325105 75.97395 -9.399497
-9.166436 73.06629 -9.094737
-11.14659 75.2122 -8.936288
-9.854237 75.98743 -9.103616
-5.760879 74.70679 -9.457595
-13.12332 78.66312 -8.52426
-8.701405 76.36913 -9.264613
-17.04826 91.11256 -6.315667
-17.02186 87.60555 -6.738911
-15.41048 85.24561 -8.003964
-14.58729 87.51488 -8.858367
-14.81768 86.16132 -8.476221
-13.49643 91.79199 -10.06461
-12.96304 85.28059 -9.27305
-11.89765 85.37955 -9.715419
-13.07103 86.84576 -9.655993
-11.73339 78.41544 -8.829081
-12.45085 82.22121 -8.90719
-12.28919 81.96053 -8.922737
-12.63561 79.84109 -8.6476
-12.52407 81.71605 -8.818092
-11.99026 80.46966 -8.856253
-13.2651 75.36976 -8.691941
-12.01588 85.70602 -9.759746
-11.73045 87.95022 -10.60758
-9.27429 78.06828 -9.278577
-13.34161 87.07831 -9.561103
-2.729196 91.82857 -12.80569
-13.27773 89.36551 -10.07821
17.75068 92.70965 -4.467407
-5.34591 119.3871 -9.053088
-4.745394 118.6574 -9.097327
0.8492813 74.80746 -9.667112
-17.77404 92.96406 -4.27901
-17.02476 93.56955 -5.535847
-16.55703 94.59097 -5.896711
-16.69518 91.03294 -6.858162
18.09537 89.52604 -4.98352
-8.999063 118.5494 -7.671108
-9.747095 117.4364 -6.769882
-6.192795 117.2367 -9.392493
-8.167952 115.6929 -8.414144
-7.082554 116.9905 -9.284513
-6.471856 114.9916 -9.555241
-7.152021 112.0562 -9.116058
-4.146632 115.9445 -9.369196
-3.372433 114.4714 -9.495945
-3.819337 114.0162 -9.589799
-2.839003 112.7563 -9.671847
-3.753301 109.5954 -10.17156
0.151511 114.2921 -9.443707
-0.6363993 115.1218 -9.367497
1.931855 113.9315 -9.477629
-0.2855506 111.7592 -9.711585
0.028941 111.9453 -9.686143
-1.521489 109.3441 -10.04559
17.99283 79.11408 -5.977158
12.3563 79.63684 -8.711452
10.47132 81.34294 -9.348079
10.8159 83.80928 -9.690641
9.711357 82.41582 -9.699094
7.912319 77.65189 -9.446636
9.067643 78.14142 -9.314884
8.766769 81.31537 -9.713235
7.502273 77.67097 -9.500196
5.460931 77.44157 -9.689989
-3.953859 76.73194 -9.732625
-5.847959 77.55636 -9.668804
-4.895369 78.86839 -9.890052
-8.238906 80.48339 -9.696341
-9.030252 79.3289 -9.421439
-11.10778 81.29002 -9.186195
-10.01958 80.60213 -9.366385
-9.923516 83.48833 -9.867965
-2.27869 76.98678 -9.829421
0.5039878 77.61808 -9.926515
-1.148118 75.5091 -9.721221
-7.455737 80.89902 -9.876281
-9.916742 81.58122 -9.522865
0.4802974 76.74357 -9.838516
-4.111882 78.92084 -9.951145
-5.242948 79.74443 -9.969631
-2.880324 81.02364 -10.30404
-6.492559 79.80659 -9.851782
-8.56708 84.51879 -10.39902
-8.815129 84.04964 -10.24092
1.495521 77.27573 -9.876954
1.939093 74.40441 -9.616888
-1.918915 78.84455 -10.04094
-0.5476098 81.57053 -10.44266
1.394014 80.59094 -10.28061
-0.3857271 83.16248 -10.71906
0.4338417 85.03287 -11.10452
-2.109701 82.81477 -10.62939
-10.78774 84.5523 -9.878176
-7.435744 81.36219 -9.953143
-2.149878 80.38796 -10.2352
-1.375203 80.23423 -10.23261
1.886584 80.09185 -10.19855
1.862245 85.05367 -11.09169
1.800003 85.74014 -11.25445
0.8964334 84.72044 -11.03197
-2.000827 81.17023 -10.35601
-9.372718 85.3027 -10.43671
-6.810786 82.66134 -10.26544
5.350619 79.12298 -9.876783
5.307024 83.50491 -10.58875
3.861658 83.12253 -10.61151
-10.69182 87.17883 -10.7133
-6.245063 83.30319 -10.46022
-0.7229681 85.2683 -11.15722
1.589684 87.01237 -11.57848
6.934394 78.91177 -9.685743
5.631679 78.31941 -9.760566
-3.29271 84.2687 -10.88084
-2.474369 84.84017 -11.03119
0.4998307 86.77415 -11.52632
4.467914 82.09136 -10.38311
8.649149 80.51336 -9.621181
9.326425 82.02579 -9.71347
-9.701939 89.46159 -11.70054
-8.138947 88.42923 -11.67319
-5.406416 87.21138 -11.51254
-5.394506 85.9685 -11.17287
4.415552 83.02998 -10.55891
8.205383 84.23582 -10.38501
9.784569 85.06788 -10.26488
-6.168375 85.9087 -11.09389
-8.296205 90.78413 -12.2909
-6.007381 89.48173 -12.16334
-11.98993 89.53036 -10.85019
-8.240978 93.05318 -12.56641
-7.636425 91.34059 -12.49831
-5.081454 91.55942 -12.68073
-10.89119 91.12766 -11.5848
-12.47149 91.034 -10.75465
-14.14134 91.85741 -9.529178
-2.675739 89.55445 -12.26409
-14.21249 92.72539 -9.372009
-16.16024 92.29341 -7.309292
-15.60165 93.52496 -7.702232
-3.619164 91.22726 -12.66998
-3.008836 89.59975 -12.27105
-0.7297809 90.50331 -12.56435
-15.37881 94.08822 -7.804461
-14.18422 95.17104 -8.846743
-13.87053 91.92503 -9.759422
-14.60041 98.25841 -7.229779
-12.05585 94.01875 -10.90885
-12.31345 112.1413 -2.819549
-11.35408 109.6305 -4.874876
-10.56969 108.0325 -6.352134
-10.56334 110.7665 -5.573535
-10.21479 112.2297 -6.236933
-9.762923 116.9321 -6.909131
-10.10421 115.2056 -6.198573
-9.793293 114.9129 -7.406086
-9.930199 114.3208 -7.241125
-10.192 111.4123 -6.505551
-10.12576 110.7592 -6.966153
-13.64835 107.26 -3.693631
8.14727 110.9328 -9.171185
9.562913 106.2762 -7.566432
14.67206 103.0399 -4.625678
12.68973 104.0342 -6.77241
12.9625 102.9176 -6.966852
11.68498 103.7175 -7.644134
11.72673 105.4611 -6.668554
14.53703 102.2582 -5.275775
10.0836 106.6503 -7.073818
11.46704 98.5145 -10.14076
8.764341 107.0481 -7.743505
8.394786 106.3058 -8.384631
8.206563 92.10435 -12.50305
6.598312 92.49052 -12.75686
6.491264 93.80396 -12.81878
9.667893 93.89475 -12.13786
3.335102 86.07676 -11.29792
6.487686 84.40659 -10.67183
13.13148 88.23059 -9.974852
-15.6611 100.2952 -4.919116
-15.17063 98.87167 -6.38414
-14.10612 99.92553 -7.041693
-14.54865 98.08494 -7.336694
-17.63218 89.01848 -5.835801
17.22565 90.28314 -6.229287
16.74681 92.47457 -6.413479
-16.10633 84.49471 -7.498156
-10.44102 114.6866 -5.199853
7.729099 85.23691 -10.71673
8.458622 85.93563 -10.7934
8.593961 88.00105 -11.45857
6.87833 87.99593 -11.64586
5.830909 87.09985 -11.45039
7.315511 85.29395 -10.79222
7.810379 88.6655 -11.79833
7.316114 90.05759 -12.26333
9.059273 91.34899 -12.21371
3.729141 87.93803 -11.78905
5.068569 89.03464 -12.06563
5.727913 87.47637 -11.57077
3.687937 88.76328 -12.02488
2.534406 91.10904 -12.67849
4.767226 91.89129 -12.74921
1.425859 87.33733 -11.66682
-1.165617 90.55367 -12.573
-0.04224655 88.90049 -12.10146
0.7959297 90.46304 -12.54222
-9.914311 94.76614 -11.96382
-9.325728 91.90436 -12.21352
-5.36412 93.39609 -12.84973
-11.86029 92.41819 -11.14167
-14.23631 90.49008 -9.478273
-14.39428 89.92798 -9.328362
-16.34816 88.35766 -7.440292
-15.9066 90.18116 -7.910881
-15.44263 91.72522 -8.284659
-4.16845 89.51163 -12.22341
-4.128548 90.0166 -12.36207
-13.64382 99.42241 -7.83646
-13.33289 100.986 -7.430112
-14.58652 102.1878 -5.637794
-11.7923 104.9672 -6.885912
-12.71197 102.1344 -7.557737
-13.04006 104.8059 -5.793985
-11.47588 107.3443 -5.858154
-12.95008 106.1955 -5.122228
6.673628 114.2269 -9.451079
6.161953 113.2956 -9.540048
3.644346 116.2086 -9.301427
2.290179 115.0695 -9.379692
3.460062 114.1308 -9.466745
1.853595 112.1573 -9.649572
1.003717 112.4791 -9.620748
3.930577 109.8661 -9.865111
3.184698 111.1224 -9.743263
9.008801 112.0401 -7.298346
8.348316 107.198 -8.319025
8.53149 107.9319 -8.004669
7.432086 110.862 -9.598787
7.618044 107.9616 -9.838127
6.358986 108.8248 -10.00521
8.313065 111.347 -8.954243
10.46603 104.3516 -8.159218
8.499908 102.7184 -9.988437
9.910349 102.4677 -9.461597
7.408562 107.9117 -9.945858
7.772549 107.3024 -9.690378
7.790757 109.5327 -9.562749
8.62335 104.1328 -9.189765
4.205318 106.8958 -10.24861
4.196914 105.42 -10.50833
6.050295 107.8087 -10.13913
2.541798 105.6443 -10.47108
1.829974 106.6545 -10.33365
2.368966 109.1538 -9.977789
8.533442 98.85286 -11.54466
6.557276 97.79347 -12.28164
3.747262 93.73888 -12.8537
-2.990291 88.17666 -11.87372
-1.959423 85.64612 -11.23131
-4.097569 86.27444 -11.32545
-4.263717 88.56949 -11.95484
8.547873 89.90823 -12.05795
3.507472 91.70288 -12.76994
1.307886 98.11852 -12.13279
