# .PCD v0.7 - Point Cloud Data file format
VERSION 0.7
FIELDS x y z
SIZE 4 4 4
TYPE F F F
COUNT 1 1 1
WIDTH 1662
HEIGHT 1
VIEWPOINT 0 0 0 1 0 0 0
POINTS 1662
DATA ascii
8.738751 124.4046 -6.090598
-20.98333 87.32728 -2.459959
-20.0858 78.4007 -3.21542
-20.46308 90.66106 -2.438471
-5.106684 64.08011 -9.929753
-1.350847 65.98326 -10.68413
-15.62283 68.95932 -9.068558
-14.20365 69.29286 -8.768703
-13.89707 66.88664 -8.989427
-15.29562 69.124 -8.953174
-20.50225 80.10487 -2.811174
-20.06021 74.00872 -3.47869
-21.34456 67.94176 -8.996223
-20.79045 72.00928 -8.048234
-12.30392 126.2016 -2.946649
-9.836648 122.1799 -3.889926
-11.17907 124.3778 -3.555729
-12.53212 124.7456 -0.9621345
-11.65704 127.1108 -5.049665
-7.202699 125.5292 -7.449094
-7.903696 125.358 -7.053514
-10.29714 126.2165 -5.973564
-13.9958 129.5891 0.4581977
9.69778 109.1527 -6.223426
12.06245 103.6722 -7.326506
13.36641 105.8309 -4.89177
-18.59634 95.01737 -2.534511
2.647479 127.7874 -9.140878
4.169549 124.5016 -7.850629
2.0047 122.8234 -7.329402
19.47466 87.61559 -7.771699
18.7121 89.69422 -7.596629
7.451064 64.99156 -10.96378
5.420838 66.11035 -10.30697
2.99385 66.69939 -10.28566
13.14937 127.6297 -1.975269
-19.37312 81.57587 -4.094233
-19.45156 83.88493 -3.773181
-19.58008 86.13132 -3.085145
-20.11378 80.9482 -2.981159
-19.6961 86.77708 -2.765951
-19.23426 82.82114 -6.095218
-19.40942 82.13622 -4.004199
-2.516433 67.21477 -10.89228
-5.995477 67.11795 -10.25574
-19.32903 70.50352 -10.1401
-17.75524 73.99574 -9.340516
-19.45525 76.51925 -5.772855
-12.15451 126.2105 -3.312671
1.225659 125.4767 -8.312732
19.43326 86.88478 -7.833941
13.26912 94.52192 -9.8792
16.76534 88.8175 -7.195474
4.722018 66.55708 -10.22988
5.834239 68.98279 -10.30446
-0.7746721 65.34689 -10.53535
-2.172707 68.94794 -11.20277
-2.295313 68.14373 -11.06612
-15.16771 82.44981 -8.059033
-1.545178 66.73817 -10.82642
-3.166978 68.46767 -11.06113
-19.52429 74.29353 -5.124338
-19.39793 71.28048 -10.06778
-20.65865 72.95934 -7.626331
15.2901 92.98547 -8.203191
13.27071 93.62498 -10.15558
16.52284 93.21439 -7.391809
-19.80012 88.83274 -2.530687
-18.72592 87.41711 -4.514615
-18.96798 86.13148 -5.748107
-19.76256 78.41747 -6.833039
-20.44235 74.49021 -7.359614
-20.21301 76.49216 -7.675364
-19.43735 74.46346 -9.551546
-2.897851 124.5555 -7.97884
15.89474 91.0275 -7.867585
14.62687 88.2467 -9.263926
14.08677 93.82828 -9.293019
-18.36154 89.18816 -6.14785
-18.68295 87.39352 -6.821121
-19.47029 82.76482 -6.901745
-18.63696 74.25124 -9.564684
-20.42339 73.54308 -8.904599
14.47939 92.05722 -9.209792
13.36734 93.60452 -10.07706
-18.59412 87.0033 -7.103754
-16.24962 87.71996 -7.730488
-18.45262 87.80433 -6.987411
-16.78166 87.53713 -7.517726
-19.91216 76.28611 -8.824954
-17.9009 81.63179 -8.496567
-19.7895 78.63532 -6.925192
-17.37392 71.88353 -9.380151
11.80174 88.88472 -11.01305
-18.23361 92.11765 -3.670808
-17.89142 86.6097 -7.662941
-15.80434 78.68797 -8.225212
-19.4035 77.59499 -8.920902
12.31664 90.68812 -11.12046
-15.12348 86.08289 -8.266213
-17.37567 86.18578 -7.68094
-14.38146 75.11229 -8.469364
-18.71171 77.89503 -8.956646
-18.25895 72.30425 -9.738325
13.56686 89.8589 -10.85542
-14.70307 87.34745 -8.760221
-2.258345 82.03134 -12.6297
-15.27396 87.47034 -8.330693
-13.03516 90.60809 -10.38163
-14.51821 80.19869 -8.207832
-15.2071 77.97091 -8.207017
-14.9065 78.65412 -8.216191
7.466204 104.4252 -9.746668
11.91178 85.90794 -11.22288
-12.41351 86.44977 -10.44245
-13.88795 92.3243 -9.717622
-13.77313 82.52645 -8.614037
-12.18516 80.93539 -9.364988
-11.6988 80.54018 -9.706619
8.948348 90.17041 -12.16952
11.12819 88.83804 -11.17557
-14.48561 90.5787 -9.261399
-12.34122 76.19844 -8.819061
-14.62193 89.0443 -9.064124
-13.78643 88.65823 -9.635001
-16.58236 77.46259 -8.550374
-14.2403 78.39949 -8.331317
-12.28591 78.65427 -8.919559
-12.85447 79.52776 -8.772489
11.67368 86.87881 -11.0913
-14.00284 93.77351 -9.377223
-17.6721 81.562 -8.469242
11.49669 90.28371 -11.2584
-12.31149 98.60823 -9.436568
-16.76907 78.72843 -8.520697
-18.87779 80.38048 -8.57739
-14.56979 94.05901 -8.74011
-12.61974 92.59708 -10.63477
-19.21355 79.77308 -5.711838
-19.45007 81.59383 -7.657996
-11.52445 111.4361 -3.688356
-9.616218 110.9207 -5.27807
-10.69726 110.1592 -5.071701
-10.02861 108.8084 -6.696224
13.38253 125.8848 0.9439438
10.87969 122.2722 -2.589795
12.87906 125.8317 -1.079207
-13.31954 102.7672 -6.560327
-14.88876 102.1158 -4.772026
-13.9847 100.5089 -6.903854
-14.61427 101.3747 -5.620079
-15.53653 99.84035 -4.921875
-14.73566 99.87019 -6.215528
-14.75526 95.0488 -8.255946
-16.17088 94.80815 -6.531335
-15.60918 93.24093 -7.774639
-18.21639 89.81119 -5.439753
-15.95237 90.91929 -7.888308
-15.31964 98.88132 -5.828876
-17.65481 92.66745 -4.806575
-16.7219 94.10424 -6.123693
-17.7825 92.02636 -5.025111
-13.78152 100.1691 -7.309154
-14.9504 95.90556 -7.721524
-17.34983 95.41935 -3.880507
-14.86085 95.97392 -7.813566
-12.74122 120.1057 -1.345714
-9.996204 118.0906 -2.987915
-11.01436 118.8397 -2.108498
-12.97616 121.1389 -0.8968482
-12.35914 120.0554 -2.216719
-13.0801 121.7134 -0.1113596
-9.250961 117.6515 -3.997113
19.30855 76.36198 -7.983808
-1.879318 123.572 -7.620053
-14.9646 104.3301 -3.288002
19.61043 76.87185 -8.228806
10.84593 108.5202 -6.030102
10.75202 107.9226 -6.272344
7.573038 108.9486 -6.652141
7.95137 108.3589 -6.879859
9.670699 107.8845 -6.797959
9.346741 107.7362 -7.062404
13.2082 95.99513 -9.541025
10.85512 97.05947 -11.00206
14.89821 97.86959 -7.468613
15.49837 98.13239 -7.064591
15.12051 95.19553 -7.881829
10.15994 99.5565 -10.59212
15.97558 97.99792 -6.885048
10.33848 96.37981 -11.45706
11.38126 100.6984 -9.332865
9.842813 102.2944 -9.580944
11.97977 102.2537 -8.12741
10.98861 102.1754 -8.94031
9.602083 99.44978 -10.91665
5.956146 66.37703 -10.38436
9.452728 66.70094 -11.61888
7.704219 67.26331 -10.80065
10.76369 66.86388 -12.47398
9.511414 68.59706 -11.44512
13.14321 68.41163 -13.6116
15.66082 71.2428 -10.61408
13.21229 70.93734 -13.23585
15.72787 70.11672 -11.49187
13.2932 71.56806 -13.137
-8.024245 124.2816 -6.449325
-7.988997 123.687 -6.164574
-11.41863 125.2833 -3.847977
-8.456503 120.8779 -4.517619
0.1329089 118.7265 -6.559638
-17.18137 97.43584 -3.24069
17.16509 85.75095 -7.250837
18.11894 78.75283 -7.360643
18.25601 82.47844 -7.493184
17.0908 88.55431 -7.166378
16.06814 84.79029 -7.681079
14.99418 88.51419 -8.757005
14.97025 86.06658 -8.793768
14.94741 85.06713 -8.931723
17.05242 82.68188 -7.315117
14.84411 85.1373 -9.279981
-8.470798 70.98525 -9.938936
5.550174 72.71563 -10.57533
5.387262 71.04443 -10.45722
7.663323 73.0588 -10.49947
-19.30049 77.75098 -5.44259
-13.61665 69.74409 -8.688433
-13.32731 72.24281 -8.666528
-14.95168 72.23031 -8.603361
-16.22692 73.21677 -8.792845
-12.57116 69.90356 -8.71336
-12.99462 66.34493 -8.952265
-10.28074 68.6547 -8.911404
-9.912207 71.08241 -9.206657
-8.706764 66.55064 -9.1693
-12.26415 78.2058 -8.907906
-10.78369 66.17124 -8.896141
-7.396363 69.23274 -10.15415
-8.607755 69.29222 -9.59784
10.9905 93.73309 -11.55554
12.59733 87.15332 -11.30025
12.16828 84.81464 -11.33048
7.360701 76.64036 -10.65687
12.30877 87.09878 -11.26348
11.5481 85.50713 -11.13033
-6.173873 108.08 -7.372396
-8.955125 108.1614 -7.577744
12.19097 123.2592 -0.6433606
12.29804 125.42 -2.2591
12.38585 126.4688 -3.024397
-9.650619 101.6222 -10.27164
-13.36534 99.07198 -8.263123
-11.72283 100.1816 -9.280662
5.508034 110.4328 -7.617323
6.779025 106.7581 -8.542207
4.453068 104.1171 -10.06018
8.061882 110.7519 -6.809336
7.563537 111.1643 -6.621736
9.444688 111.3398 -5.679839
9.179996 114.5566 -3.892276
6.132632 109.285 -7.363949
4.912906 110.589 -6.342548
8.053481 105.0124 -9.178486
5.558048 108.9411 -7.360664
2.061531 102.9308 -10.88835
-5.979986 105.3697 -9.657494
9.459584 101.1923 -10.29404
2.875251 109.3296 -8.389783
-8.558206 109.4847 -6.653096
3.647486 107.9665 -7.688613
2.876976 109.6639 -8.586897
8.063261 104.465 -9.347135
5.265488 108.2213 -7.515172
3.00036 107.991 -7.757446
-0.4039338 107.9753 -7.947133
5.475996 104.2833 -10.09734
0.6962053 104.9961 -9.880634
2.564899 106.7461 -9.134247
-0.4183633 106.6559 -9.222464
-7.784326 118.2384 -5.770448
-7.997651 121.3131 -5.045546
-9.645007 119.4034 -4.606828
-4.067403 123.4647 -7.466032
-1.667421 122.0682 -7.037513
-7.109221 122.9329 -6.252257
-7.805773 123.7584 -6.295325
-5.757838 119.5204 -5.938234
-8.383713 118.6003 -4.299271
0.5881109 118.3434 -6.119203
-0.6898354 122.5915 -7.203183
-3.761651 119.4104 -6.261275
1.266581 120.2857 -6.450521
0.3434002 119.527 -6.541057
2.829079 119.6943 -6.581628
-9.184825 121.133 -4.02459
0.4581744 123.8547 -7.722143
1.724209 121.501 -6.858634
3.123758 119.2915 -7.019588
2.575834 124.1431 -7.809952
2.210601 124.3837 -7.897313
6.040926 123.5349 -6.984599
4.070625 119.339 -6.930741
2.963997 119.7285 -6.343522
4.944399 121.1805 -6.430968
0.08956509 117.0163 -6.353344
3.387305 117.5444 -6.340467
11.02524 126.254 -5.257737
9.532301 123.5727 -4.967791
10.97831 103.4019 -8.324665
9.092816 104.0682 -9.006956
7.768525 67.83775 -10.76509
7.763205 68.35898 -10.71661
9.967139 71.11982 -11.42203
9.888288 69.76678 -11.52118
15.69979 70.65768 -11.24426
13.41128 71.43491 -13.17505
15.49117 73.28622 -9.805606
15.54141 73.19653 -11.24994
16.75566 73.71152 -7.351506
18.43374 79.9588 -7.519511
-6.868074 70.00156 -10.53513
-3.908201 69.98144 -11.22111
-5.25357 71.41428 -11.2386
-4.423423 70.98666 -11.30486
-1.401361 69.97992 -11.38267
-1.183809 69.04053 -11.23554
4.329799 71.03102 -10.66673
3.426808 71.1778 -10.93176
2.534162 73.77007 -11.65681
1.831095 73.42241 -11.73353
-6.255158 68.7475 -10.50315
-8.682548 71.53658 -9.932996
-4.598184 71.88827 -11.40846
4.752332 74.3574 -11.11585
-0.5019978 71.82145 -11.6644
-0.3077108 73.71597 -11.91535
0.9861011 72.82894 -11.74788
-0.4555823 72.75105 -11.79056
-12.93827 74.56704 -8.745957
-12.12193 74.88449 -8.817425
-12.35618 78.29731 -8.88013
-10.33739 73.60984 -9.276442
-10.1424 71.96005 -9.173415
-9.581325 73.59853 -9.790247
8.937971 87.78561 -11.81328
5.856453 87.23234 -12.85483
7.197545 84.59728 -12.08389
6.5258 85.46371 -12.49845
6.103183 83.14056 -12.28594
5.435489 83.68878 -12.58329
5.094775 84.35148 -12.71702
10.17845 92.57237 -11.96431
-0.5123993 75.71314 -12.16319
2.027642 83.02162 -12.82146
7.165299 88.54459 -12.74123
6.425272 89.50824 -12.85954
8.472278 99.83142 -11.23621
4.660663 82.15179 -12.53985
8.790486 90.6691 -12.31302
8.611596 98.82993 -11.52381
9.187403 98.46925 -11.41897
6.369934 81.85917 -11.94314
8.357397 103.9215 -9.397544
3.943407 77.90118 -12.06869
6.340026 102.9534 -10.72515
8.974337 103.212 -9.539585
5.887099 97.71214 -12.33617
3.74918 76.81189 -11.92346
-10.19556 105.4681 -7.983429
-8.96637 104.4 -9.056602
-7.301182 106.9347 -8.713909
-8.590165 106.2292 -8.222223
-11.55042 103.2656 -8.542735
-9.812821 100.5477 -10.57205
-10.76651 99.8211 -10.1226
0.8292968 100.8951 -11.98003
-14.34476 96.21472 -8.327471
-8.433592 98.88738 -11.67338
-13.15671 95.32351 -9.776439
-10.34203 98.46396 -10.87303
-11.90258 92.45012 -11.11989
-13.13725 96.2291 -9.53761
2.260935 112.3683 -5.994574
6.384861 110.7144 -6.234009
4.202186 110.0144 -7.27126
3.535926 110.3044 -6.673584
-0.3945293 109.6849 -8.573204
1.389902 110.0349 -6.891737
0.3137277 114.7459 -5.576184
6.925762 110.6716 -6.054604
-0.0558352 117.8239 -6.798638
4.353726 113.5315 -5.663447
-0.1465336 113.4047 -5.840523
0.5024647 112.8707 -5.916004
-0.9640043 111.0109 -6.061565
2.093487 115.2271 -5.723995
6.644583 114.4242 -4.992844
-1.645059 115.6337 -6.484533
-1.733482 119.0162 -6.793449
-2.530581 117.8517 -6.005161
0.806964 106.8238 -9.064926
-10.35907 118.7155 -4.225999
-9.850925 119.8042 -3.03215
-10.33511 120.4597 -2.564483
-6.038233 119.2307 -5.979122
-1.645432 115.9541 -6.658994
11.42292 123.3053 -2.352063
15.24263 75.00274 -11.401
15.51211 76.39086 -8.667379
16.53506 76.86157 -7.422549
15.96267 76.47738 -7.924943
15.50328 79.30845 -8.328008
17.8641 79.05931 -7.240872
14.85657 80.78073 -10.96627
14.69498 81.70626 -11.00339
14.26359 81.26303 -11.68402
13.25851 82.13387 -11.73419
12.40965 83.55981 -11.48741
14.80457 77.60586 -11.5811
14.8394 74.414 -12.24187
15.59682 78.70778 -8.301006
15.07503 78.99585 -10.74619
15.3711 80.62084 -8.503226
13.93434 83.32359 -11.50602
-1.583609 73.41356 -11.85087
1.537651 73.73877 -11.82507
0.2935206 75.17567 -12.09823
6.358768 73.43254 -10.51192
-6.4478 75.24811 -11.51881
-10.65896 76.04428 -9.535357
-7.447631 73.30853 -10.97545
5.067574 90.6228 -12.77294
8.705262 73.96535 -10.67996
2.731626 83.77696 -12.85379
-1.328133 77.48243 -12.29932
4.028567 83.72439 -12.80371
3.691759 79.44234 -12.36465
0.1391744 78.41178 -12.4465
3.160276 76.61321 -12.02929
2.139159 76.54619 -12.17584
-7.114673 87.22775 -12.42017
3.725929 76.61864 -11.89574
-1.47093 80.18871 -12.51574
7.176005 82.9062 -11.75463
6.216378 77.09331 -11.07163
5.670615 76.25485 -11.13831
10.59841 80.93317 -10.95889
7.873956 75.68967 -10.54522
9.910901 73.74784 -11.15076
8.990447 76.53538 -10.65312
10.00267 75.13474 -11.07199
12.88242 74.846 -12.66642
12.73411 73.46605 -12.79792
4.970441 96.77866 -12.54303
8.910498 94.74117 -12.31294
8.273249 93.58957 -12.54864
7.483107 91.96851 -12.72587
7.215689 93.25894 -12.73404
1.388955 95.25934 -12.77147
6.561954 94.12822 -12.78907
3.841539 98.57687 -12.04303
2.242546 97.20979 -12.37483
1.858105 95.00819 -12.79645
3.11612 93.58902 -12.86988
2.780389 97.1172 -12.41942
3.916127 94.02444 -12.85152
-0.02160681 90.99629 -12.84769
2.437994 94.40676 -12.8564
0.3129999 94.16047 -12.87987
1.588448 90.15112 -12.83662
2.037197 102.3855 -11.44583
5.90416 102.235 -11.01346
-9.34903 99.7167 -11.02477
-7.892123 110.4666 -6.864929
-8.222472 110.7662 -6.448751
-6.644327 105.1526 -9.19204
-5.784393 106.8681 -8.940244
-3.53488 109.7352 -8.398389
-9.265038 106.434 -8.193327
-1.17241 105.8244 -9.999957
-7.29687 106.2918 -8.706402
-8.537253 105.9493 -8.60641
-2.459919 106.0852 -9.939453
-2.643659 106.6447 -9.017649
-4.902926 105.0486 -9.641273
-3.107773 109.8371 -8.499502
-11.58892 103.525 -8.413116
-10.5565 102.4692 -9.502365
-8.621893 100.534 -11.11357
-5.240433 103.8421 -10.25339
-11.62657 96.51746 -10.65156
-2.740522 109.5032 -8.678722
-3.717807 110.4179 -7.925825
6.523065 115.2635 -4.935557
6.139818 116.813 -5.043141
3.615059 116.4641 -5.718855
-4.563533 117.9339 -5.742773
-6.884595 116.9763 -6.041704
11.61319 122.3221 -1.939359
7.402214 120.4187 -5.098365
7.860356 121.0899 -5.061428
2.885257 118.5569 -6.234634
5.744403 119.8297 -6.391804
6.159515 117.3853 -5.24294
6.359896 118.5418 -5.425763
8.670761 120.5815 -4.68114
7.743416 117.4389 -4.455029
8.209629 120.494 -4.73325
6.705601 121.9845 -6.046127
3.93639 118.3542 -6.245016
7.081124 119.2348 -5.605621
6.862957 122.3268 -6.10659
2.424365 115.5343 -5.884672
13.59542 81.13873 -11.89639
11.49019 81.6657 -11.32154
9.243542 84.06176 -11.05572
10.97349 84.87759 -10.95488
7.009647 80.28817 -11.31894
11.77301 83.5982 -11.3186
13.96939 79.51839 -11.99787
11.41693 79.87812 -11.38477
13.50501 74.87283 -12.72151
11.71992 75.80843 -12.02828
13.33884 78.49475 -12.23819
-1.983602 74.48278 -11.97144
-1.23961 77.02255 -12.26402
-6.732333 74.61922 -11.36763
-1.960645 80.9324 -12.54929
-1.954892 77.60339 -12.26884
-3.395751 76.87752 -12.08039
-3.407544 79.54779 -12.25833
-4.92441 79.17945 -12.03156
-4.430829 79.46896 -12.11224
-5.242076 81.03386 -12.03964
-3.343105 76.36166 -12.04507
-7.743052 80.17171 -11.70703
-5.538957 86.64815 -12.72128
-3.620995 83.77048 -12.66973
-8.238524 73.26314 -10.58184
6.941193 92.08496 -12.7554
6.03012 91.49077 -12.77176
9.316977 79.93207 -10.72269
8.525558 77.43517 -10.59034
10.19727 77.04394 -11.01124
-1.135813 98.21114 -12.18111
-2.978937 98.30753 -12.23522
0.8744283 97.20671 -12.33986
-0.9769317 95.41455 -12.75368
0.8752921 99.4676 -12.01797
-4.705193 110.2371 -7.084372
-4.232723 112.7187 -5.835407
-0.7616174 114.3504 -5.626178
-3.838213 115.8894 -6.026958
-2.862093 106.6584 -9.022175
-1.691628 104.9891 -9.883519
-7.982476 99.64115 -11.61319
-7.360797 104.0638 -10.21645
-9.375545 98.5589 -11.31018
-7.310714 102.5979 -10.79656
-6.328224 99.12659 -12.01807
-3.543531 99.20549 -12.19456
-4.704587 99.4129 -12.16722
-3.898161 97.11758 -12.43665
-10.81203 94.38646 -11.58192
-0.5585669 103.9328 -9.870442
-4.416934 95.91168 -12.68889
-7.331171 96.65218 -12.40526
-3.206581 86.58452 -12.81676
-9.684216 88.29279 -11.63286
-7.570289 97.12806 -12.27088
-6.564418 96.6025 -12.52071
-0.9493271 110.2134 -7.783687
-3.515947 117.9032 -5.943618
-7.221208 117.2481 -5.979586
9.742254 120.1023 -3.165495
12.61198 78.81619 -12.02352
-5.819785 74.43472 -11.54728
-6.625664 79.78911 -11.8417
-10.74577 83.15331 -11.08117
-6.714906 81.39215 -11.85315
-9.846732 79.88666 -11.0207
-1.702918 85.67844 -12.82713
-0.652841 84.11108 -12.8233
0.1426014 84.46664 -12.84916
-1.937267 86.73119 -12.81504
0.2352537 83.85324 -12.84231
-2.00799 85.98188 -12.82471
0.00177895 85.84211 -12.83093
-2.176273 88.28659 -12.772
-9.196367 89.91748 -12.11361
-4.947684 88.31383 -12.76399
-8.204569 83.61079 -11.68882
-7.470031 85.42415 -11.95121
-7.97047 87.73817 -12.22762
-7.723193 85.77583 -11.92622
-10.28339 84.34583 -11.3717
-10.66561 83.83884 -11.17905
-9.040706 85.09086 -11.58893
-7.009702 83.92786 -11.93083
-12.43695 87.98159 -10.61551
-8.887966 83.09229 -11.5953
-11.12886 79.98349 -10.0857
-11.68252 82.06107 -10.12762
-10.4875 78.82409 -10.34795
-5.891395 76.63466 -11.75843
-8.499276 77.4315 -11.2275
-9.570877 83.31593 -11.49835
-8.107909 89.06588 -12.44501
-3.127093 97.28064 -12.37437
-2.795781 100.2973 -12.15619
-2.288167 101.2883 -11.89089
1.810753 101.3323 -11.7733
-1.156775 99.4913 -12.14721
-9.721199 113.177 -4.048829
-7.5788 110.9483 -6.201667
-9.367703 111.8463 -5.546342
-8.629201 111.3252 -6.138736
-3.515005 115.7082 -5.696609
-7.058382 114.0515 -4.949696
-5.850115 113.6727 -5.342173
-5.952979 116.7077 -6.396364
-1.217236 114.8813 -5.552743
-2.913135 114.5943 -5.679346
-3.38623 115.4461 -5.696685
-7.398257 113.4766 -4.983149
-6.594379 111.7138 -5.730348
-5.802367 109.8133 -7.984128
-2.638883 114.0938 -5.723319
1.949403 103.659 -9.887662
2.73552 103.9579 -9.772782
3.757118 103.4172 -10.68435
3.315155 100.3773 -11.76345
1.691844 101.3765 -11.77217
1.375263 103.2208 -10.29241
-1.223979 102.217 -11.31916
-3.136989 103.19 -10.25018
-9.508792 95.53117 -12.00669
-8.784009 94.51376 -12.38368
-4.923676 94.95945 -12.80963
-7.121198 92.58026 -12.70254
-9.828356 91.16841 -12.01986
-4.181428 76.09356 -11.94043
3.456929 89.39581 -12.77989
2.633774 89.36036 -12.79047
5.420162 88.14174 -12.89938
3.902952 86.87543 -12.90659
2.272592 84.78474 -12.8771
-1.586573 99.08565 -12.16811
-2.205462 114.6222 -5.678832
-11.58421 94.83977 -11.08257
-5.286897 88.17914 -12.76975
-2.016561 90.64164 -12.79352
0.1281215 90.2728 -12.83136
-5.101826 90.15276 -12.69806
-1.255607 92.96776 -12.88563
-3.981354 92.04956 -12.81186
-8.041616 92.70604 -12.58349
-6.258657 93.03001 -12.80628
1.968708 86.29057 -12.84194
2.115317 88.12885 -12.78914
-7.48052 90.54998 -12.59679
-7.425016 89.99931 -12.60251
-3.99905 87.97737 -12.77915
-8.612233 87.90208 -11.99032
-4.20037 90.09818 -12.69826
-1.651462 87.90528 -12.78872
-4.937772 89.35717 -12.71667
-10.10594 76.50449 -10.08748
9.042315 145.772 3.171768
6.44286 153.6193 -3.838424
6.855466 151.3641 -1.040703
8.14397 144.5193 4.800345
8.004619 146.8407 2.852638
7.783534 151.1406 -1.600886
2.814304 156.1451 -8.15344
8.157107 150.2937 -0.5386702
9.204391 144.8133 3.919604
8.612872 147.7637 1.67139
-9.380529 144.7691 3.870554
-4.225792 155.8685 -7.289674
-6.629424 152.8521 -2.795455
-7.794655 150.533 -0.6776638
8.32485 144.4492 4.777292
7.429663 151.7862 -2.295255
-0.3389827 155.2469 -8.833199
-3.724071 155.4082 -7.930775
-6.730962 153.1532 -3.509612
-8.897279 150.1056 -0.6706223
-9.21921 148.6535 0.4904288
-9.914014 143.9797 4.260078
7.04916 151.9671 -2.158571
-0.1687176 155.8721 -8.669485
-7.612843 151.671 -2.181142
-6.191686 131.5294 13.61338
-14.69893 132.0956 4.955077
6.779901 133.1643 13.84088
3.381521 131.9336 13.28434
14.26594 136.0209 6.972014
12.90259 121.7502 4.486902
-8.813803 128.9675 12.51808
-4.169551 130.425 12.95244
-10.19028 138.7779 9.243193
10.36588 140.8069 6.82662
-3.989379 132.3112 13.37206
-11.96086 134.1385 12.21435
-12.1533 125.8059 8.196508
-13.80173 138.7709 4.838911
-5.795729 139.3277 9.741055
-1.09965 133.3194 13.07983
-13.26435 135.6649 9.668875
-9.537829 140.6059 7.440165
14.72913 135.6417 5.262445
10.68371 141.2069 6.069301
-3.105532 131.8889 13.2357
7.099492 128.2919 12.08723
7.932866 129.7338 13.09561
6.305392 129.0878 12.62253
12.93516 122.094 3.708788
12.29623 119.771 1.972208
11.52796 129.9444 11.91591
-14.93161 134.0333 5.53226
13.91184 128.5518 5.418086
-1.517462 134.0436 12.99367
1.961027 131.3624 13.08957
2.652023 135.1831 12.72793
-13.62622 137.3916 6.739271
-12.93706 134.3168 11.13894
-13.83063 137.6668 5.970072
9.120785 142.1481 6.377825
10.10462 141.5675 6.282173
-7.205762 127.673 11.62611
-10.85925 128.6093 11.43848
2.877756 132.5931 13.23938
5.829804 131.7575 13.64321
7.936158 128.2266 12.03035
8.698684 129.3234 12.75528
14.23001 137.3057 5.346424
-9.095479 126.1673 10.47876
9.297907 128.235 11.8024
-2.104133 131.2211 13.04266
7.367547 129.3327 12.87485
4.225806 130.4429 12.98971
-13.91707 138.1614 5.185313
-10.28614 125.0104 9.608373
-12.69181 125.6689 7.58545
11.33032 127.4699 10.04853
11.89551 125.1464 8.162327
9.606645 131.8648 13.50793
-14.7619 135.5403 2.816273
6.943296 131.3418 13.70532
-14.01178 128.7745 2.707083
10.06125 131.692 13.35311
-14.61057 134.9651 7.029874
-14.88093 134.1142 6.133152
-14.86923 134.6682 5.566583
-14.52538 134.678 7.680178
-14.41701 131.6467 1.916804
-14.45469 133.2865 8.601178
-12.82888 137.5032 8.11207
-14.2269 131.5634 9.274894
-12.45482 137.7501 8.365867
-11.41663 139.071 7.806403
9.24945 139.8892 8.428912
-13.1723 126.199 5.890379
13.22969 124.2423 4.63226
-1.531653 135.9314 12.37959
-3.792985 130.9552 13.09622
-6.121117 133.3477 13.72375
5.254429 135.8141 12.69063
14.3925 130.5811 6.828517
-9.196827 129.9996 13.0398
-7.559447 134.5502 13.59948
-13.45944 125.0101 6.057171
-14.6473 131.7978 7.26654
10.1955 136.3848 12.04742
-12.86138 134.731 11.02935
-14.25733 129.9772 5.177654
-14.84385 135.461 4.221005
-13.13674 137.8253 7.088793
-10.48857 139.6271 8.010096
-11.87691 137.6765 9.174372
-11.4536 132.4935 12.75488
-13.67878 132.8496 10.48905
-9.0547 131.6152 13.64878
-12.26785 133.4493 12.06235
-10.0616 133.6761 13.31961
-10.11645 137.3655 11.12883
-11.54801 136.4035 11.03374
-10.50329 130.9202 12.99174
-11.43411 133.3201 12.72741
12.39574 120.2164 2.146475
-5.996607 137.8626 11.29414
6.722278 135.6086 13.01118
-9.858816 139.4623 8.545534
-9.595393 138.9777 9.312646
-7.13528 137.016 12.11013
-5.716943 136.2202 12.56629
-6.316966 136.1898 12.66301
-8.04939 136.5754 12.44526
-9.053622 137.618 11.30239
-12.31396 135.8818 10.79629
7.878904 138.5706 10.49316
-13.66418 124.756 5.327552
-13.24518 130.4649 10.52628
-12.70424 127.3459 7.671858
-12.16132 128.5965 10.24613
-11.67035 129.134 11.31879
-11.91139 127.8746 9.613128
-13.67836 127.6839 4.603877
-13.94461 128.5923 3.863664
14.78568 132.4877 5.166215
13.15893 125.0187 5.564003
-2.477383 134.3076 13.01385
14.88014 134.5622 4.519324
9.347193 139.45 8.885523
10.91976 138.5259 9.058435
11.40291 136.9629 10.65398
12.7193 137.1299 8.805583
11.83125 134.7775 11.98458
14.54558 135.5763 6.536616
-12.80931 124.8325 6.839318
-14.42703 130.7219 6.723652
11.95457 132.7023 12.36973
9.694523 134.1604 13.40776
12.06085 132.9814 12.30477
9.499492 134.7222 13.28254
10.22884 137.3634 11.07891
14.04298 130.6329 8.92226
10.95788 132.6504 13.04021
13.5787 134.016 10.37151
12.37694 131.4339 11.86149
14.10672 131.3334 9.270177
14.38847 131.9792 8.972616
8.041018 136.5482 12.47517
7.005821 135.2224 13.27165
7.017339 137.2167 11.93005
8.802467 138.3331 10.59742
4.737684 137.7037 11.3108
6.325401 138.1159 11.01882
6.34143 140.0466 8.941592
-12.65277 137.1518 8.879705
-13.85792 134.6527 9.44454
-7.72213 132.1023 13.88767
-10.16185 131.7354 13.31656
-4.376644 137.1258 11.81293
7.784074 139.5507 9.332679
11.11472 139.2363 7.885566
-10.05854 126.769 10.33724
-13.8716 128.2256 3.785148
14.21218 129.6682 5.371374
14.59193 131.8455 3.917086
1.10847 134.224 12.93458
1.796658 134.5488 12.92386
12.95689 135.9721 9.820737
-14.53793 131.3611 7.705569
-14.12163 129.6279 6.090293
9.727988 128.8196 12.16448
7.939465 138.372 10.72609
0.4802184 137.1973 11.58296
-14.60439 131.3593 5.865972
-1.262885 136.9997 11.74583
14.18426 130.126 7.340726
14.1846 129.7081 5.921752
14.67507 134.0644 7.736547
13.49706 129.5026 9.137726
7.479775 139.0739 9.949681
9.492951 138.4012 10.21811
0.2657452 136.9256 11.7789
14.85703 132.8982 5.576573
7.729751 139.4399 9.465338
-6.656401 129.2928 12.81952
-13.61042 124.437 5.457067
-7.60427 134.4173 13.64936
-8.986096 135.3712 13.10803
13.00405 124.4143 5.88174
13.04487 128.5774 8.900924
13.74266 129.16 7.696132
12.89314 125.9883 6.785929
-7.178319 133.2233 13.82568
12.09845 126.217 8.336643
13.2082 113.973 1.177728
22.00176 71.39276 7.876791
-22.72708 72.24933 0.741998
-12.85748 118.6948 5.622021
-23.87364 81.77637 -2.131941
-21.20603 87.48602 -1.095829
-18.71335 74.21421 10.45929
-19.74796 73.65341 10.6435
-24.88585 71.39559 -0.7231792
-21.88091 72.89194 6.164129
-21.28814 75.90516 5.603638
13.06902 111.1634 -1.882495
-12.82814 115.1548 1.662735
0.7697402 106.4221 12.32958
2.538711 125.128 12.66223
-18.83941 100.4028 -1.829897
-22.4406 88.88222 -2.491015
-13.57793 112.2599 0.9137348
-15.3 107.5455 -0.6424105
-13.13856 116.9767 4.046311
-12.5091 117.7764 3.69014
-13.69231 118.4689 5.977749
-12.97269 120.9595 6.359813
-9.424168 124.0035 10.62215
-6.070092 128.2192 12.06286
22.22447 71.98206 -8.561747
0.1386809 129.214 12.5519
19.05213 70.42104 8.945011
20.6983 73.28753 8.184422
22.2587 69.4805 2.579548
-12.54994 119.6931 5.470746
15.96738 103.3633 -1.806598
11.53607 72.97069 10.21468
20.67554 69.70164 -2.287397
-22.53624 73.06903 7.175981
22.45597 69.882 -7.933705
-20.54603 83.569 0.8415139
19.79729 82.26178 -5.180748
13.57088 108.9065 -2.821801
21.7849 77.98158 -8.057788
22.08959 73.51713 -8.489005
22.13655 71.65466 -6.544086
11.12331 124.3001 9.023839
13.10446 119.6142 6.391373
-1.618779 129.981 12.81692
14.93123 108.6339 0.516064
4.05759 129.2315 12.50574
13.67579 109.7968 -1.99599
15.11984 105.5685 -3.365952
16.75406 101.265 -4.508531
-2.39955 130.6353 12.88799
7.769307 127.3384 11.4175
16.38788 104.2005 2.706229
12.82719 111.7495 -1.773475
12.56556 112.4212 -1.707051
19.42194 93.22472 -6.315626
20.70855 80.79704 1.195679
21.53008 80.30289 -6.976219
22.45617 69.2418 -7.674814
21.90364 73.43126 -6.37584
12.3985 121.4367 8.891601
-12.86757 120.5309 6.344584
-14.16738 111.4216 1.473148
18.36683 95.1952 -0.836724
15.22256 107.5815 0.2656781
13.2061 112.8224 0.3060102
13.44739 112.8101 1.788683
13.15906 115.1721 2.590942
-13.70423 116.8978 4.875145
13.28954 117.7938 4.72908
-24.83946 72.4783 -2.982428
-25.16627 70.88448 -1.124884
-25.28677 71.85424 -1.584204
-17.82001 98.11251 0.6786149
-21.60499 86.63845 -1.089628
-17.83684 72.49394 10.60847
-18.16808 77.06138 9.960928
4.606925 128.5142 12.26057
1.607266 130.7693 12.93076
5.531253 128.4579 12.22948
-3.307281 127.2122 12.13598
15.96556 88.2575 9.2761
12.94895 78.31271 10.34897
21.76143 74.50928 2.68808
19.94855 78.47517 -4.415503
21.00961 69.89517 -3.928679
22.17945 74.66605 -7.848554
22.20282 72.98201 -8.30109
12.96021 120.34 6.800889
-11.94781 121.1001 8.874433
-13.34767 119.8126 7.594643
-17.54304 103.7446 -0.3742535
17.05562 98.84035 -1.856506
15.93842 105.686 1.017512
13.33078 119.4111 5.773015
-23.91305 75.36057 -0.7514392
-24.42395 73.98602 -0.8823396
-23.0658 70.74743 0.8332021
-23.68538 75.49885 -0.6362455
-20.99432 73.78898 4.19217
-23.13742 84.81989 -1.717077
-22.00397 80.90892 -0.4903743
-21.77502 72.57791 10.36564
-14.52097 72.38586 10.47371
-13.60452 73.8833 10.45448
9.103793 126.3128 10.52687
-7.687454 124.735 11.55108
-5.136274 128.0927 12.05198
-0.9556363 129.754 12.84622
14.96789 72.3067 9.840569
22.95446 74.0354 5.21253
19.31184 89.91324 -1.700346
20.78822 69.18937 -1.118759
22.88566 72.97582 6.466483
21.22134 77.21884 -6.077743
22.04487 76.61669 -7.793569
-11.04152 122.715 9.808828
12.74087 120.0518 6.949421
-11.5322 120.5784 9.608546
-11.59453 120.5119 10.05693
-11.29176 120.16 8.364627
-15.62443 107.951 0.760424
-14.61633 109.3184 -0.05008718
-16.68339 105.4321 0.2068218
17.1176 99.63174 -4.049894
15.51931 104.9524 -3.116626
-21.31909 72.87256 2.394048
-21.83648 74.68855 1.026015
-21.87168 89.3599 -1.558934
-21.89039 90.72151 -2.208275
-24.22964 80.00485 -2.59992
-23.47016 84.09926 -2.371617
-22.48657 75.17198 7.501217
-21.75011 73.88514 10.0088
-14.576 73.77573 10.41123
-17.27797 100.91 0.7476972
-19.62864 98.01505 -0.9968717
-10.41907 75.97014 10.22411
-4.056476 73.97052 9.832014
4.411398 75.7424 10.36354
9.328968 123.6628 10.38583
6.165991 126.8467 11.94808
-6.115977 125.5372 12.0508
3.222193 126.3818 12.19124
-2.274851 125.9764 12.54442
-4.524613 124.9261 12.44674
-2.074078 128.2803 12.10916
0.3234237 125.7581 12.50187
9.244375 72.72228 10.35731
6.194657 72.00672 10.32481
11.82397 72.78515 10.1785
17.30657 72.37978 9.34469
21.19893 83.83361 -7.057026
20.77645 69.67956 -0.8734319
23.34419 70.8849 4.448138
21.7088 79.3222 -7.244005
20.17539 76.14651 -2.173587
19.39513 85.49228 -5.243617
-10.03804 121.9223 11.07694
-10.58762 119.9985 11.15545
-11.18919 119.7737 10.52876
12.52608 120.3082 8.101601
-13.83471 111.946 1.4242
-17.93546 103.0824 -1.146164
15.28136 104.9606 -3.634228
-23.37084 76.07176 -0.5217228
-24.83481 74.74077 -1.562718
-20.86219 74.78623 4.017647
-21.52007 92.28233 -1.970228
-20.55475 91.29981 -1.075218
-20.38495 87.36746 -0.2680186
-21.24805 85.12424 -0.820269
-22.17291 83.26099 -1.01088
-20.92206 74.92262 4.580574
-20.38539 76.44465 10.13725
-19.49826 74.35946 10.51291
-16.23007 73.18031 10.38958
-19.98123 97.42555 -1.358342
-20.54108 95.51047 -2.277379
-7.715431 73.1574 10.05115
-13.73766 72.81033 10.46505
-4.113798 72.61191 9.930595
-3.746863 73.26704 9.891309
3.529249 72.72253 10.34158
7.93481 126.8702 11.26745
7.501729 124.6093 11.44122
5.782823 125.5404 12.06358
5.141923 127.3358 12.05435
10.16773 123.1527 9.91471
7.528018 122.704 11.35304
-9.153601 125.4856 10.46804
-5.702491 125.7399 12.28054
2.708957 127.4647 12.12352
-0.5025471 127.2707 12.06388
-2.424172 125.1145 12.28175
1.066237 126.5509 12.20585
2.320702 123.2695 12.46885
1.854151 125.1682 12.65341
13.43238 71.64666 10.00176
13.54167 72.62461 10.01953
20.92752 72.20327 8.222174
20.24105 89.19619 -6.659116
18.98509 88.11335 -3.745285
18.99244 90.84118 -5.396404
18.21086 93.38377 -4.717903
23.03889 71.39278 6.927985
21.3181 79.32597 -6.38364
20.1342 83.09721 -5.719484
19.89036 79.28338 -4.501468
21.53084 74.59922 -6.006709
20.58148 73.00949 -3.906922
21.02439 85.01483 -7.248781
-10.57539 119.3276 10.89588
16.67437 100.2134 -2.307045
-20.75302 75.6263 3.372056
-20.64346 76.65565 3.471402
-21.16961 75.01636 1.914643
-20.71279 93.78873 -1.319693
-21.28558 90.28689 -1.372878
-23.4563 80.52161 -1.169853
-22.96142 77.75828 -0.5174304
-22.32026 77.07711 -0.01471874
-22.28464 74.79288 7.007823
-21.66834 74.65414 9.740164
-19.67415 76.97941 10.0634
-17.3701 101.3143 0.4369544
-17.47145 102.8094 0.1012138
-19.40636 94.3993 -0.5373756
-18.21729 95.54425 3.029668
-9.569017 74.83009 10.13793
-1.115358 73.51849 10.25714
4.854607 123.169 12.23339
5.126147 123.9595 12.30103
3.082881 122.4615 12.1254
3.128979 118.1738 12.16291
8.470023 121.4497 10.84017
12.74251 74.42525 10.18546
14.76473 71.92506 9.857595
21.40419 73.04301 7.848552
19.2644 85.86025 -4.757521
19.33806 84.63962 -4.662574
19.48229 83.46015 -3.907448
19.30424 86.31525 -3.640142
17.43656 96.77826 -2.31469
17.57 97.82954 -4.53646
18.96182 90.95602 -2.171471
21.83565 71.09665 2.169142
23.24882 71.52048 4.442569
22.25914 76.34282 3.658786
23.06514 73.82071 4.841999
20.71638 70.71823 -3.201076
16.56321 103.2424 0.9282861
17.56725 97.92213 -1.035649
16.44648 101.4796 -1.799481
17.1912 98.94307 -1.364593
-22.0694 75.9411 6.854825
-23.00031 79.91559 -0.8086953
-22.09469 84.40779 -1.083959
-20.6871 77.33349 9.836249
-18.65918 93.61574 3.541892
-18.31713 95.60537 3.49649
-18.02109 96.77409 3.243954
-18.13021 96.47272 5.477083
-18.74482 92.84376 2.022306
-18.76751 92.7229 3.116673
-17.51241 98.42706 1.766024
-19.24927 92.01929 0.2375348
-17.68207 97.65682 2.363024
-17.46153 100.0818 3.639752
3.321191 76.77858 10.53394
2.666065 75.05482 10.55262
1.963951 122.5805 12.14035
1.608208 121.498 11.96669
1.059341 120.3409 12.18716
-0.2315132 120.9787 12.52943
-3.957595 119.2327 11.91205
2.826669 119.638 11.90156
1.898631 119.6919 12.05155
11.79529 73.77316 10.25811
16.374 72.30453 9.601589
18.74012 89.32452 -4.050257
17.44127 97.76122 -4.296316
21.36141 73.95485 1.902267
20.30155 73.88383 -2.511358
15.54067 105.2658 -1.212399
15.74785 105.2325 -0.5329832
17.41634 99.43997 0.0618179
17.61718 97.23293 -1.414186
-22.24281 75.07817 6.968392
-21.83873 77.19269 0.4759478
-20.57819 77.43726 3.320832
-20.72105 83.68617 0.2177582
-20.86726 80.1962 8.877909
-18.50748 93.74042 3.001701
-17.04125 101.1201 4.898003
-13.03698 73.63878 10.47147
-15.98523 73.95667 10.30819
2.75604 75.87495 10.57002
-2.221286 123.8016 12.34818
-0.7437097 123.1692 12.07079
1.8089 112.0867 12.08973
18.54539 92.00322 -2.726519
21.04303 75.60105 1.520492
20.14494 77.32969 -2.360864
15.57054 106.5338 0.2939582
17.48087 99.19756 0.0663267
17.80302 94.6252 -2.990801
17.20197 99.0078 4.256221
-21.69296 79.46565 7.48859
-18.94457 91.70065 3.186405
-17.08377 98.86736 5.922733
-17.15247 100.7924 2.295419
-15.02651 75.67706 10.27428
-1.18275 121.7938 12.67443
5.17473 115.4443 11.93173
22.40786 76.42591 5.412083
23.02135 73.50745 5.724243
16.72576 102.408 0.4659712
18.22117 95.04594 -1.350316
18.3009 94.75726 -1.348398
15.37731 107.838 2.050832
-19.31954 79.1655 9.761777
-18.99207 91.39948 3.525388
-14.0805 77.62246 10.34981
-15.31302 77.28808 10.15966
-17.28879 76.99401 9.964092
1.107903 117.7531 12.79737
1.721645 115.0228 11.97353
3.72094 114.8764 12.19475
21.09963 74.74081 1.53903
21.17084 74.87056 7.665943
18.60299 94.49679 0.8611094
-20.26742 81.65987 4.590565
-13.74476 109.2601 6.33006
-18.01542 78.75517 9.787776
0.1314868 119.0034 12.85093
-0.4124318 117.3655 12.29865
-2.43964 119.6339 12.2801
16.86773 101.8224 2.881264
18.89857 93.15317 -0.3634081
17.98628 97.05264 -0.4320827
-20.5758 82.19144 2.182241
-21.32473 81.27039 7.61136
16.92364 101.3271 3.388956
17.95867 95.84656 3.555881
-20.35112 79.79617 4.042706
-21.70464 79.45148 7.111143
-15.17954 78.22812 10.14901
-20.14834 83.00003 4.724887
-20.35276 82.88702 3.374928
-20.19287 82.40528 4.265043
-19.9787 87.00689 2.943465
-19.9229 86.3772 5.121791
-20.64694 82.74735 0.97056
-20.80527 81.01117 1.232944
-20.57672 78.72719 2.653187
-14.52103 102.9017 7.777458
-14.22164 79.22476 10.29527
-13.63809 81.0421 10.34189
19.08835 92.22827 0.9860113
-21.07338 81.83329 6.540036
-21.45696 80.8509 7.472385
-20.26894 81.1318 9.097941
-20.75735 83.56541 6.563675
-18.48475 81.00049 9.559803
-16.17298 82.63022 9.659978
-17.11463 81.10394 9.635664
-14.70851 81.25831 10.12954
-14.14586 83.73901 10.20957
-20.22122 85.60838 5.87836
-22.30491 79.46815 -0.448112
-20.81979 80.51092 1.221253
-15.98731 102.2117 5.922598
-16.29639 104.4884 3.807862
-11.0823 82.81675 10.09448
-20.77843 81.30575 8.65995
-19.57212 89.3934 2.635628
-19.40399 88.17408 7.608155
-19.3786 89.92555 6.978916
-15.93083 99.73257 6.665566
-16.67056 104.5826 0.8405399
-16.28049 105.9494 0.824895
-15.31024 108.036 2.763821
-16.02802 104.2431 4.983856
-14.33677 110.4495 3.091087
-13.91885 111.2414 3.441745
-12.60421 80.00085 10.39953
-16.40269 90.55331 8.563969
-12.90095 86.18414 10.25233
-11.61946 82.77232 10.20733
-20.63978 85.00941 6.616082
-16.66604 84.65221 9.373024
-19.99313 87.70341 7.057815
-15.32521 103.2706 6.52157
-14.66809 107.7492 5.603095
19.42601 90.58426 -0.06584258
19.14816 90.18652 -2.149295
-18.25989 82.85859 9.314105
-15.97997 86.70314 9.442122
-10.48683 109.1515 9.569991
-14.56626 107.3846 6.126181
-13.48463 114.8215 3.790626
-13.00851 113.6918 4.505228
-19.96885 85.62432 7.925332
-13.92565 108.0137 6.800288
-9.316563 104.3509 10.56898
-12.45507 113.1834 6.160405
-12.46903 114.4543 5.508926
-17.00836 89.07792 8.607703
-20.32162 86.53601 6.261106
-13.1365 115.91 5.361352
-13.56262 111.0955 5.172529
-13.11683 109.9196 6.922477
-12.61793 112.9803 5.852434
-11.33665 113.0842 7.72039
-18.89763 89.31397 7.723027
-17.08066 86.06052 9.066292
-16.39033 86.54417 9.277332
-14.57024 89.42377 9.746313
-12.81794 84.81502 10.27839
-14.8144 88.20641 9.799834
-17.55635 90.13154 8.179923
-18.98988 91.17226 6.909354
-19.1249 92.85007 5.3261
-15.29735 89.55417 9.41677
-13.31578 89.30444 10.02976
-12.32579 88.51705 10.08002
-12.43734 87.90206 10.12987
-11.32582 86.64493 10.02198
12.86742 117.142 5.413089
9.233507 120.2841 10.1987
13.03165 115.2395 6.448801
13.66321 112.5751 2.161352
13.26602 115.4598 6.209553
13.14346 113.9431 3.693136
-8.626534 123.6219 11.18951
-3.114466 121.8109 12.74967
-4.572782 121.4068 11.99612
-3.340767 118.3978 11.90538
20.74868 77.22977 -5.459805
-2.434509 75.48927 10.26566
-1.320383 76.22774 10.60195
-2.755553 76.38034 10.31142
11.05688 121.1335 9.361338
20.32397 77.50941 -1.571777
20.46944 82.94412 -0.6089088
20.30187 82.91149 -1.512993
20.21333 81.44977 -2.037913
20.48736 80.19196 -0.9343178
20.59862 78.43571 0.2870285
20.16778 75.43024 -3.54734
20.20844 83.76694 -1.683382
22.27604 77.14407 5.341959
20.37489 76.65366 -4.672216
-5.748102 75.21242 9.674944
-9.071711 75.9047 9.967819
7.199435 120.6182 11.23113
9.048374 120.2801 10.31532
13.37786 76.03288 10.17318
-19.60361 89.72054 1.467319
-19.88627 88.00271 2.148713
-20.86411 85.8657 -0.6011958
-20.4732 85.02721 0.5946413
-20.20691 85.71255 2.695598
5.652111 77.40875 10.2499
6.967352 76.64372 10.23719
8.904414 77.42432 10.43543
8.532463 75.68347 10.52376
7.306692 77.82068 10.1812
3.915207 79.70822 10.51695
-0.3494537 76.35049 10.73088
0.951538 83.14739 11.22308
-1.227352 76.75033 10.69304
0.4906192 78.00655 10.90668
-6.084713 89.17092 10.64849
-9.441613 79.78274 9.788707
3.092694 82.55023 10.83705
-3.049906 78.57027 10.51109
2.315832 82.23172 10.96125
18.64233 76.0787 8.551395
20.68805 78.76948 0.753172
22.05612 75.93542 3.33794
21.90635 76.72842 6.517099
19.92723 75.08782 8.230048
19.48959 77.01732 8.112359
20.48256 75.94041 -0.3888873
22.31512 73.3363 7.171443
16.81934 101.9709 3.214648
16.69899 102.8529 2.395151
18.02632 96.70641 1.5571
17.09843 99.76189 4.025588
18.35928 94.91293 2.238957
17.92953 95.4619 4.090889
-11.22848 82.33749 10.15101
-11.6934 83.47198 10.20917
-10.44549 83.46558 9.889281
-14.33693 100.4796 8.331044
-15.13316 98.46162 7.67373
-12.41815 103.8709 8.929903
-12.70094 104.6015 8.826007
-14.53908 105.2933 7.197151
-13.82894 107.395 7.314006
-13.04593 115.9743 5.504309
-12.11668 114.8148 6.739995
-12.29741 117.0335 6.709741
-11.48592 116.8568 9.016727
-11.77887 115.8908 7.088031
-3.117291 117.7191 11.92585
-12.18007 108.4118 8.630806
-7.791037 89.08714 9.609254
-11.67624 88.69734 9.971712
-11.67321 87.68415 10.02512
-15.20427 90.6479 9.281508
-15.9288 94.17145 8.012477
-14.44201 92.19246 9.384049
-15.62381 95.83824 7.800606
-18.62427 94.55213 3.950057
-15.39801 94.89637 8.188951
-16.25632 93.29162 8.028006
-17.47731 96.06419 6.551262
-18.10759 95.68652 6.05809
-15.13129 96.95076 7.970942
-16.12872 96.14177 7.404911
-8.114316 124.0933 11.62485
-6.210495 121.7956 11.87173
-7.303632 121.9328 12.1684
-5.554172 119.7595 12.20466
-1.958195 117.3298 11.8957
-8.313931 119.9673 12.02526
-3.087912 75.89368 10.15333
20.07142 87.46418 2.291965
21.7829 77.35897 3.180752
20.7371 79.57444 1.485783
20.82768 78.31216 1.528371
21.27609 81.47018 3.045232
21.80597 79.56738 4.201934
16.04344 78.47038 9.612247
21.06833 79.76522 6.575748
21.40252 79.41012 6.160735
21.16046 81.87889 2.906782
20.5528 83.85179 5.297065
21.32866 81.79432 4.128193
20.54957 83.46005 0.7381835
20.69748 84.29707 4.141092
20.04054 82.38644 6.838463
20.46031 85.01542 4.311785
19.53886 87.14266 5.442354
19.70119 86.29202 5.662801
19.76768 86.95073 4.915227
-8.095332 75.90699 9.812069
-6.909708 78.36924 9.553747
-8.882754 79.37756 9.669598
-4.022034 81.88359 10.61916
-2.423396 82.19203 11.14602
-2.625913 79.50026 10.76636
-5.329069 78.93301 9.766374
-2.392191 81.53679 11.07911
-4.878199 82.58356 10.36012
-8.561086 82.84693 9.494086
-12.82795 80.32951 10.39961
-10.24518 79.67118 10.0109
-3.581507 83.41854 10.99602
-8.111242 84.39662 9.460581
-2.964602 83.92308 11.23051
-6.893555 84.23295 9.617243
-8.150467 84.76595 9.453048
-6.297922 83.58391 9.826634
-6.253917 87.01807 10.20853
-10.03697 86.97976 9.636545
5.726211 120.279 11.82732
5.690225 118.277 11.6287
5.91311 117.6902 11.46793
3.933269 120.1577 11.96455
6.919981 117.7785 11.04993
11.56602 110.9246 8.30547
6.857132 116.9203 11.00421
8.987473 116.7229 9.716451
12.58366 115.8475 5.958691
7.566632 113.9207 10.75078
10.21729 117.6028 8.997589
11.34022 118.5167 8.63251
10.81472 120.7184 9.633171
12.42723 114.0424 6.150007
12.73585 116.1453 7.374215
10.97536 113.2563 8.076057
13.81112 110.5508 5.120578
15.33397 106.6441 4.859897
14.2205 110.3407 4.080876
10.86994 113.9296 8.113338
8.394724 114.1037 10.18306
12.66614 119.7182 8.419382
9.659225 112.1573 9.591657
7.269795 115.4258 10.75012
12.49475 118.4902 7.28922
7.818511 112.5982 10.87048
9.139194 110.6101 10.21665
13.25797 107.2391 8.025748
10.8793 109.0846 9.358097
13.09816 109.7264 7.106164
13.01626 110.853 6.51304
11.50564 74.56687 10.34736
13.16745 77.41273 10.27456
8.849309 76.71925 10.49165
14.2041 75.45152 10.04222
13.79741 79.89921 10.23969
4.87781 76.39637 10.32503
16.46722 75.46911 9.504494
18.56682 75.18256 8.681229
15.95055 106.0314 2.305318
14.97344 108.9717 2.530844
15.94333 104.8522 4.585457
14.4646 106.7766 6.691544
16.05462 104.7943 4.178654
14.4507 109.5957 4.292114
15.09471 103.4694 7.067504
14.84686 104.656 6.958433
14.94862 104.3544 6.915643
15.24253 106.5132 5.250699
14.7107 108.5873 4.677968
15.97036 101.9905 5.642258
13.90332 108.4824 6.588653
12.35584 105.4285 8.965796
12.53295 108.3331 8.371257
16.52099 103.7028 2.179123
-11.56106 78.10133 10.35402
-10.53644 77.99318 10.168
-12.58309 106.4408 8.765307
18.4746 93.3606 3.789774
19.61873 89.47743 2.362013
19.55017 89.42043 2.973238
18.70586 89.24648 5.919104
20.41508 85.86546 2.355746
19.50494 88.34448 4.485172
17.69395 92.2972 6.440118
19.40936 88.46075 4.716553
18.17101 86.02789 7.751235
20.66145 84.60551 2.722054
17.92626 89.46401 7.209454
20.08246 87.14903 0.2815464
18.68864 86.6009 7.015955
18.66957 85.16003 7.42519
17.08323 85.51082 8.800106
19.5171 84.68793 6.693992
17.25411 88.76389 8.207094
15.32065 86.88682 9.73093
14.25911 86.48631 10.08919
13.26524 87.70853 10.13939
16.06581 91.71088 8.49061
12.97054 88.57546 10.0733
11.58722 99.45125 9.042318
-13.82779 91.70419 9.71831
-11.65213 98.17274 9.090162
-14.31933 100.8876 8.349133
-13.34938 98.85895 9.003385
-9.9584 102.9752 9.934308
-13.48204 100.6549 8.730083
-13.33951 95.09866 9.556909
-4.988749 118.3629 12.36339
20.3288 83.114 -1.341224
19.8409 86.6292 -1.801573
20.53641 83.80131 1.196178
-4.939539 83.55858 10.46621
-4.692377 92.68288 11.58335
8.339991 109.4561 10.59427
10.13329 109.8021 9.661868
11.29922 106.5598 9.453168
11.73108 103.9162 9.213101
10.92045 107.6151 9.584692
11.63473 102.9462 9.165692
10.79194 104.2007 9.537229
6.888301 92.20424 10.28893
5.252462 101.2646 11.62227
8.295879 105.4835 10.63805
17.35542 96.31747 5.303611
10.92613 101.7753 9.290443
13.69939 103.3883 8.429253
11.28201 98.5574 9.109214
10.31618 97.1203 9.284164
8.695995 106.2306 10.48994
11.68376 101.1425 9.051578
14.82971 101.259 7.951823
12.15058 98.17263 9.057896
15.59507 97.91592 7.269859
12.29019 96.67459 9.224421
-10.98487 107.9648 9.517757
5.348958 107.3126 11.81575
5.981112 107.1649 11.55488
-2.653339 105.0415 12.28063
6.082917 109.8656 11.4237
4.331581 109.3845 12.05348
4.919754 109.6834 11.89128
13.96497 98.02068 9.010194
4.022907 114.4332 12.06177
4.885662 110.4487 11.82902
6.748422 113.6449 11.40822
6.426478 113.2909 11.54638
15.81056 97.01191 7.148206
17.3059 98.17842 4.485567
18.02829 93.45332 5.267723
17.4606 94.07343 6.055744
17.65457 91.45441 6.851409
18.03748 92.9253 5.504178
16.52843 91.97822 8.001165
17.89907 90.95846 6.650618
12.9629 112.6161 5.470165
11.69597 79.05058 10.54623
6.091645 78.08951 10.20316
6.584308 78.37391 10.15971
17.14445 75.71561 9.26362
18.85631 77.02481 8.353623
18.70727 78.11109 8.281775
15.7328 79.94312 9.70615
18.15378 81.28121 8.330256
18.0064 78.69009 8.606711
15.27716 80.12764 9.861761
16.08548 81.29012 9.565094
13.45265 81.58093 10.33155
12.43532 82.24726 10.43
13.34024 78.85863 10.29892
-13.13024 107.2911 8.110888
-11.47416 106.457 9.355996
-11.13668 104.3676 9.41233
-8.744187 102.6385 10.79688
-5.52606 100.6987 11.40825
-9.907709 107.5705 10.04246
-7.565341 103.6546 10.90124
-6.588482 104.412 11.15193
15.36343 86.21472 9.76648
16.96433 83.23966 9.013174
-9.090926 90.10627 9.373185
-10.41853 99.63229 9.303974
-9.589038 101.3532 9.951236
-3.919321 118.834 11.95634
-7.308251 119.603 12.27052
-9.426793 114.791 9.741248
-6.818278 119.421 12.38603
-7.085732 117.659 12.10137
-8.488439 116.954 11.27506
-10.45824 113.5857 8.576833
-5.622296 90.6609 11.13514
-5.74559 87.40834 10.58222
-6.069673 88.0995 10.4756
-8.295436 90.65656 9.482714
-10.48374 91.35641 9.492439
-6.938317 91.16991 10.36051
3.735719 85.20892 10.8906
-10.19007 95.73795 9.254869
-8.494066 97.01451 10.15679
-8.847326 91.2336 9.338987
14.36832 96.25911 9.068205
14.49494 92.60845 9.468392
14.38188 94.06101 9.348094
15.0006 93.07198 9.110866
15.93136 76.76865 9.663791
15.09815 84.89924 9.941742
12.42255 87.65119 10.14519
12.13686 83.05323 10.36224
10.70966 85.80537 10.06439
5.005002 81.00951 10.35623
4.985831 82.27263 10.40028
6.486158 79.76096 10.14621
8.934267 80.35519 10.16337
-8.775046 106.1198 10.50539
-7.978858 104.8149 10.74436
15.4526 83.23199 9.831494
17.88647 83.50905 8.309986
-12.23241 93.96085 9.562579
-11.51378 98.02564 9.115804
-10.69237 96.39123 9.210752
-9.938437 99.20685 9.410408
-10.21957 101.1989 9.501371
-11.50794 95.4343 9.314127
-12.89116 94.44717 9.601259
-7.513858 112.9353 10.5952
-4.579518 114.926 12.51011
-5.827606 115.427 12.18046
-7.659142 109.5284 10.75586
14.47815 91.84869 9.577112
14.24844 94.97156 9.272836
11.90514 85.91323 10.19777
12.08287 84.33972 10.30699
