# .PCD v0.7 - Point Cloud Data file format
VERSION 0.7
FIELDS x y z
SIZE 4 4 4
TYPE F F F
COUNT 1 1 1
WIDTH 1662
HEIGHT 1
VIEWPOINT 0 0 0 1 0 0 0
POINTS 1662
DATA ascii
8.689653 126.9323 13.56746
7.938524 127.0655 14.06627
9.256241 128.7594 13.07427
0.9929773 129.6932 14.35487
12.00595 127.7256 10.35597
7.75023 135.1564 11.47851
12.47818 128.2811 7.862177
9.671565 131.593 11.91038
9.723731 128.2165 12.16134
9.596889 126.7511 12.79661
8.126124 130.5222 13.66275
10.49208 133.7997 11.04822
11.11742 133.0509 10.3101
9.06364 129.833 13.073
8.432148 135.4163 11.21091
2.805722 130.7335 14.2547
12.36648 128.2852 7.693008
9.985149 132.8432 11.29766
11.5457 132.2006 9.313134
11.15757 129.9485 8.615353
8.444753 130.2608 13.55001
10.06882 131.5859 11.66879
3.811057 128.1999 15.32608
1.808118 129.1698 15.08226
7.980007 134.4188 11.93181
7.014388 134.4013 12.18316
6.078363 132.979 13.16383
8.220032 129.3594 14.05922
8.725204 127.1145 13.70761
11.12166 130.2428 8.907717
7.36827 132.7841 12.94343
10.70456 132.9469 10.65201
6.55996 129.9388 14.55462
11.14886 130.1154 9.915593
11.23632 129.7354 10.79748
2.74132 129.2038 15.18428
2.751669 129.0029 15.27442
5.532818 132.2448 13.56503
4.222305 132.0635 13.67107
6.758922 126.9741 14.42635
7.111435 129.2525 14.62448
5.439713 126.7496 14.63034
8.893738 128.7156 13.78072
1.61402 128.6974 15.1424
4.318749 129.9613 14.87387
4.944418 131.3301 14.18478
6.049755 129.812 14.73372
-12.13189 128.7557 8.956719
-9.799479 126.2661 12.94929
-8.795108 126.7796 13.98421
-10.54191 133.1735 10.96655
-6.382909 134.6141 12.45462
-2.857499 131.9049 13.91517
-10.61893 133.7691 11.05624
-8.836587 132.5752 12.50501
-8.795712 129.0718 13.21896
-8.359526 131.6679 12.96989
-3.034304 127.9545 15.29917
-11.30743 130.1153 7.901109
-4.566836 127.546 15.34782
-6.616385 134.3436 12.51154
-7.220399 133.3723 12.95578
-7.617302 131.3104 13.61091
-0.1543869 129.1575 14.62669
-11.47508 129.6024 9.203874
-9.268029 134.206 11.68179
-4.816016 130.493 14.79355
-3.957556 132.371 13.8539
-3.866999 130.5863 14.71105
-3.802628 129.8901 15.13841
-4.0697 128.676 15.5248
-4.852695 131.4816 14.26669
-6.4678 127.8491 15.19419
-5.894332 129.8365 14.97711
-6.406816 126.6722 14.64767
-8.658187 128.3041 13.24727
-11.88279 128.1258 10.51782
-10.10809 129.9155 12.44107
-6.351359 131.5169 14.07037
-4.579512 128.2841 15.474
-5.708584 130.7802 14.54558
-7.524419 130.8297 13.96135
-8.211989 128.4746 14.22399
-5.87923 128.8065 15.32102
-10.57779 127.843 12.70666
-11.66894 128.1015 11.10567
-12.14752 127.5489 9.622032
-11.009 129.8572 11.13703
-9.011823 130.7041 13.03093
-9.407632 132.9468 11.86979
-5.677149 127.3634 15.1848
-7.562889 128.434 14.6887
-9.801714 131.5707 11.99781
-9.201862 129.5707 13.18198
-10.37953 130.2594 11.9074
-10.17057 130.2928 12.13329
-10.75387 129.9171 11.56538
12.46981 132.8051 -6.093273
12.90846 137.5379 -7.648951
13.53562 142.4801 -6.771098
13.44017 140.0438 -7.61282
11.62806 129.4054 -4.869397
11.83174 131.711 -6.188824
12.66977 139.7534 -7.772391
12.62911 144.9035 -4.434578
11.01407 127.5055 -4.31021
-11.78065 128.9277 -4.184466
-11.98206 130.2174 -5.001943
-12.42136 145.1256 -3.991624
-12.93814 141.7398 -7.270403
-12.83132 133.1018 -5.964137
-11.52219 127.4272 -3.19124
-11.72813 128.3846 -3.75173
-13.1959 144.0791 -5.299078
-13.25829 137.7734 -7.6014
-12.58411 132.2603 -5.66466
14.85015 75.41558 5.77273
14.9079 77.30316 3.642517
14.95988 78.23079 5.535767
11.4043 126.7219 -2.552639
15.16264 80.63744 4.258216
9.811255 123.8327 -3.5718
13.94727 90.52333 -2.021973
-11.66957 126.4951 0.01426501
-7.841961 102.2997 -7.46531
-11.68324 127.3042 4.681386
14.91845 75.8444 4.475252
13.34046 95.70471 -1.065766
13.09049 102.7847 0.2853182
13.34744 100.0002 0.9790566
12.76858 102.409 -1.075769
15.05342 91.56117 1.858798
9.312327 111.7963 -2.098499
10.73754 116.4277 2.353451
11.49121 101.3034 -4.083535
8.141306 96.5599 -8.746156
6.263189 67.7095 -3.843069
4.586922 68.24624 -4.513162
11.88072 110.3445 2.039644
9.998532 115.6534 0.1461004
10.34554 115.5736 1.334489
11.64008 102.1227 -3.708168
14.15919 85.92824 -1.71353
14.63322 73.0688 2.877288
8.11526 124.6213 -4.860244
11.71624 98.25497 -4.136843
11.23678 95.58109 -5.744899
-11.121 124.9726 -1.775713
7.654874 105.5927 -6.042416
10.69259 98.23044 -5.970912
-14.49526 92.60373 0.1084063
7.739405 102.3665 -7.434319
12.5791 101.9565 -1.727493
11.71435 110.5691 1.621487
-11.65807 126.6361 1.710984
-11.10138 123.3574 -0.02869152
12.78362 105.4131 -0.2190593
12.26007 107.7927 0.02492557
12.75491 106.3039 0.6590213
11.17432 111.5492 0.8658851
14.54235 75.71299 2.180236
11.08306 103.7179 -4.303682
11.68561 126.8358 3.246978
11.75554 128.3555 5.038528
12.18068 100.2093 -2.808316
11.29556 119.6541 1.746598
8.826605 125.4732 -5.023423
14.1523 84.54697 -1.591402
13.55784 92.25733 -2.243826
11.31567 119.5791 3.264247
9.506544 108.7941 -3.585314
13.69147 94.6872 -0.6717584
-10.12017 103.762 -5.27684
9.08763 123.5077 -3.986004
8.710408 117.7144 -2.832884
9.97746 106.1461 -4.514973
6.666801 112.2948 -3.397834
13.25782 100.6964 0.7607603
9.03695 107.254 -4.621701
6.254504 118.6786 -4.088679
9.26698 117.859 -2.152057
8.51791 120.394 -3.846752
-9.910344 92.59932 -7.84973
4.95471 122.3013 -4.967814
4.871716 124.8262 -5.660161
8.017815 124.915 -5.026143
-11.41997 124.0764 2.059101
13.10664 102.0119 0.2238979
13.62186 98.17392 1.177459
10.52874 101.309 -5.526453
8.557547 113.36 -2.021449
11.95766 108.933 0.2988984
12.58625 71.35681 -1.103403
-11.70275 70.98109 -2.206535
1.654504 88.22845 -9.160892
14.22896 95.55306 1.544495
-12.48305 93.33204 -3.95436
10.9976 98.81516 -5.353189
-10.7415 71.00606 -2.679009
-9.331337 94.08362 -8.216796
11.35492 121.6604 1.902244
11.73965 92.22515 -5.447967
-9.012837 103.8154 -6.148883
-12.87943 103.9971 -0.6745036
-14.9502 77.78909 5.079349
-11.19711 95.92784 -5.635245
-11.67162 127 4.396132
-10.98143 101.7842 -4.69098
14.81149 78.26512 2.428893
9.425666 112.241 -1.720972
-5.713843 98.61066 -9.349144
11.45084 106.1522 -2.773746
-14.67089 75.45711 2.713043
-14.99724 82.05071 1.755688
11.70984 104.985 -2.952057
-11.70928 127.4884 2.382412
-11.05543 126.093 -2.907398
-10.18432 124.1819 -3.086616
-14.04379 93.93536 -0.1915506
-12.68527 104.1973 -1.253126
15.10497 88.01517 0.6434382
-13.20185 102.3794 0.7983091
-8.418913 119.1592 -3.46363
-15.4098 87.86372 3.782615
-11.756 127.0071 -0.1856773
-15.01692 93.02238 2.712406
-14.1651 95.69398 1.416899
-14.36669 73.82688 0.549683
-10.04375 105.2301 -4.730344
12.44043 99.799 -2.181999
13.12064 92.06987 -3.106506
-6.807307 109.4972 -4.434246
-10.1785 123.8973 -2.929553
-7.813106 118.3546 -3.775941
-11.13182 112.1945 1.560654
-9.013437 113.4524 -1.661976
13.01598 100.7304 -0.3780507
1.740837 123.6319 -5.398884
8.360217 117.1355 -2.976247
-4.208452 123.4549 -5.301774
10.30847 105.0509 -4.69427
-8.154003 115.4177 -2.627329
7.023514 92.20701 -9.657435
-5.970914 118.494 -4.621995
-14.99779 78.38586 4.50283
-8.561818 108.3571 -4.351873
-12.41969 103.6049 -2.146717
-10.08348 106.4282 -4.238573
-11.6731 100.4723 -3.862912
-14.85234 76.43467 3.626098
-10.73157 114.4289 1.829399
9.713525 125.4582 -4.437186
-11.16765 115.9991 3.098059
-9.137513 124.8868 -4.482921
-11.4792 124.9927 1.378673
-11.71175 128.0934 2.933203
-11.33316 122.9162 1.821217
12.13694 98.23598 -3.197661
-11.66951 128.5809 3.976648
-11.02957 92.18179 -6.51289
12.50235 98.94463 -2.118459
12.90956 99.60645 -0.7349932
-9.605525 107.122 -4.29253
9.981503 107.2091 -4.010413
1.867762 94.65618 -9.971972
11.09643 123.6906 -0.5017331
11.57232 125.7219 2.555363
8.890744 107.9548 -4.370449
-7.644032 104.5718 -6.586377
-2.072538 121.7368 -5.291399
7.586826 117.3209 -3.322355
0.1806712 74.21946 -4.191414
2.456171 76.84808 -4.317955
0.4153345 72.68411 -4.671968
-12.06111 95.16182 -4.223307
-15.24814 91.12652 2.758562
-11.80723 99.00155 -3.769182
-12.31753 95.99568 -3.350067
-11.72967 103.9174 -3.43661
-7.163761 72.82008 -3.97929
-10.85052 74.96027 -2.907533
-14.53722 76.32835 2.077713
-14.96142 78.22386 3.385484
-8.522942 112.7967 -2.247358
-9.45245 113.7594 -1.000445
-6.391005 123.7723 -5.004217
-7.568383 123.6594 -4.554653
-9.003143 116.9032 -2.130834
-11.08547 123.1475 0.03600507
-10.24884 109.5463 -2.418363
-10.00143 104.1079 -5.277433
-11.20738 104.6554 -3.889998
-11.02981 106.1918 -3.434318
-10.91432 106.9086 -3.254058
-12.18385 107.783 -0.3197884
-12.3599 104.5866 -1.980835
-11.27803 121.5857 1.88293
-11.18719 122.5687 0.7926848
-8.99495 123.954 -4.008539
-11.55888 125.6047 1.577283
-10.8604 123.7253 -1.394639
-11.324 123.063 1.524915
14.934 83.89812 0.5597069
14.68934 76.34001 2.701635
14.69578 74.17776 3.533415
14.6221 74.0285 3.189193
12.23362 69.57817 -1.126435
14.40357 85.04804 -1.180194
14.65547 91.69646 0.1458355
14.06614 92.23929 -1.13133
15.39127 87.79355 2.664753
15.31533 88.50871 1.983752
12.64235 92.48891 -3.850051
12.31218 94.73824 -3.868613
11.99197 96.4776 -3.958185
12.17501 97.99531 -3.161054
12.40014 103.1681 -2.203667
13.52504 97.17834 0.3833955
12.01048 97.41759 -3.645734
-6.180103 93.10182 -9.906943
-5.337905 98.9287 -9.358196
6.624247 99.72213 -8.817408
6.956896 92.9848 -9.68235
-7.413638 99.19952 -8.640472
-8.198418 103.76 -6.686707
6.475174 105.438 -6.433783
10.07541 98.28491 -6.868134
11.98086 108.3066 -0.3194553
11.43988 107.2436 -2.21334
9.978977 108.5048 -3.290608
8.844749 112.7559 -1.96579
9.601818 113.8739 -0.5964642
8.702135 115.0266 -1.864981
10.70584 116.6368 2.287198
11.26304 110.0623 -0.4439711
10.63512 113.2194 0.9946796
9.51018 113.9924 -0.6939465
11.15135 117.68 2.535755
11.36481 121.0543 2.80317
8.972239 119.1412 -3.049138
9.845012 119.9851 -2.296963
10.16247 121.3507 -2.353621
11.85243 127.4706 -0.4566966
11.07565 123.5555 -0.4696335
11.61869 126.1855 3.132448
11.5413 125.7203 4.035895
0.3144006 110.8211 -4.289389
-6.337381 106.51 -5.846162
-6.742868 117.5257 -4.07871
-0.8129112 122.8144 -5.148261
7.122396 120.5651 -4.200422
13.13764 71.5033 -0.5309276
-2.681841 66.67362 -4.983951
2.809909 68.96318 -5.217868
-7.481651 71.08279 -3.819153
-12.62046 91.17931 -4.07587
-14.34593 90.87343 -0.9889835
-12.59595 97.42458 -2.278197
-14.64566 92.32838 0.580363
-14.01054 94.66823 0.1425777
-14.90668 88.64008 0.1724339
-12.29494 99.25475 -2.622384
-10.65468 97.2803 -6.251726
-12.60847 98.48698 -1.916115
-13.09768 99.52283 -0.1738085
-12.9449 102.7214 -0.3608681
-15.22141 81.95722 4.823792
-15.06416 87.83467 0.4377671
-14.38562 74.88087 1.44492
-14.50752 79.06533 0.9282178
-14.43779 88.2067 -1.273382
-15.37658 85.65051 4.035036
-15.20809 89.22299 1.392036
-14.31699 91.5502 -0.8083492
-8.248779 114.0321 -2.260503
-9.600809 112.6818 -1.245069
-10.67241 113.3733 1.290858
-9.747319 113.8282 -0.6304702
-2.255182 122.7772 -5.398436
-8.219891 122.8158 -3.894189
-8.52376 117.2159 -2.745807
-8.603971 118.246 -2.981863
-10.82283 115.4929 1.851244
-11.21934 117.7211 2.935844
-11.12364 117.3289 2.177228
-12.09531 103.3135 -2.851943
-12.13024 105.092 -2.246708
-12.92492 103.8093 -0.5399312
-9.552539 109.5227 -3.159031
-12.47442 106.3431 -0.8179717
-11.46447 106.7621 -2.617806
-11.57022 109.1894 -0.3865952
-11.39922 123.7561 3.129671
-9.59129 123.4063 -3.2268
-9.099525 122.9872 -3.431128
-10.43209 122.2595 -1.674903
15.04658 82.81696 1.536903
15.04107 81.28905 2.244248
15.11288 81.19396 2.828152
15.09113 75.26302 5.299607
14.50515 75.81118 2.030288
14.37985 76.63179 1.311355
14.29933 72.06634 1.483808
13.04715 70.53564 -0.3591622
11.82329 71.27375 -1.846878
15.10465 83.27943 1.674788
15.23623 89.46105 1.641623
13.99415 90.768 -1.863651
13.97549 93.28864 -0.7650996
15.40299 86.91312 2.872474
12.77592 95.9692 -2.349332
13.9607 96.08808 1.031615
-9.366973 93.13733 -8.279172
-8.324792 96.80836 -8.670767
-9.973806 100.8209 -6.28219
10.24881 96.12807 -6.989192
7.449273 95.30913 -9.31723
-9.607283 102.5533 -6.044777
-8.489883 105.2075 -5.813411
-8.530478 102.6107 -6.94093
9.91336 105.0181 -4.98755
8.76832 104.7672 -5.913938
7.871695 106.3684 -5.557484
8.538544 104.4447 -6.194081
9.657914 101.7712 -6.30006
8.756753 101.3876 -7.113095
8.972403 100.4557 -7.189683
8.741575 116.9352 -2.541064
10.22902 115.6338 0.87395
11.18529 110.3796 -0.3457506
10.4829 114.3852 1.306938
10.51385 118.4477 -0.1150824
10.96119 120.1794 -0.2119071
9.496201 117.9183 -1.620738
10.79267 119.2828 -0.06275234
10.86641 120.9837 -0.837056
11.00014 119.8495 0.06089636
11.37703 122.8215 1.643604
11.39583 123.443 2.678003
11.52684 125.2471 1.269336
9.714375 110.454 -2.443624
11.38453 124.5778 0.3199079
10.87027 125.732 -3.043533
11.0538 125.0955 -1.985769
10.52162 122.286 -2.082
11.63263 126.0619 0.4576286
8.413769 109.4069 -3.804331
6.808088 109.1597 -4.578299
7.947445 113.0565 -2.563407
-6.417345 108.1384 -5.128697
-5.87678 108.005 -5.259811
-5.987823 111.8936 -3.624921
2.557488 124.0467 -5.492829
6.045539 121.8566 -4.5124
8.356821 123.178 -4.273621
8.440475 121.9473 -4.100953
7.172753 117.4449 -3.479935
7.874435 119.3519 -3.682439
6.470068 69.00531 -3.652034
3.15514 68.53715 -5.154888
-4.147368 66.94761 -4.207731
1.758709 67.58856 -5.729381
-8.551578 70.65535 -3.566835
-13.27155 93.6926 -2.211607
-14.16838 89.09379 -1.821485
-14.78932 91.03799 0.4809595
-13.08632 90.87543 -3.409768
-12.71121 95.23798 -2.778938
-12.92172 96.12514 -1.899664
-14.09768 95.63364 1.145623
-14.04039 93.55523 -0.4434007
-15.2154 90.27524 1.911738
-11.15463 99.23603 -4.987429
-10.59873 99.01389 -5.872693
-12.39145 97.03771 -2.898918
-11.06577 96.14966 -5.81597
-11.70123 97.17266 -4.408437
-12.37084 100.854 -2.313548
-12.56557 102.5301 -1.803665
-13.04671 101.3345 -0.1588227
-12.33278 101.6637 -2.411088
-10.83686 101.3356 -4.961368
-10.58472 71.31936 -2.746679
-13.49934 73.80716 -0.8403975
-15.15218 80.42122 4.004457
-15.10492 81.13022 2.819165
-15.09467 79.56387 4.252017
-15.34799 85.33598 2.695913
-14.82456 87.04284 -0.2470596
-12.99195 88.59996 -3.664081
-13.87344 89.2996 -2.362149
-15.03656 90.06883 0.6731861
-14.13516 91.3598 -1.34615
-9.953287 110.6838 -2.027072
-10.48657 113.4687 0.8854071
-10.87421 110.5754 -0.8044477
-9.849398 115.4413 -0.502089
-10.8686 117.8547 0.83013
-9.961027 115.8503 -0.3663967
-9.384123 117.5769 -1.804025
-11.15146 112.519 2.135118
-6.54441 119.9691 -4.717621
-5.952041 115.7546 -3.822054
-7.011323 123.0066 -4.610006
-6.870163 121.7364 -4.363679
-9.955026 121.6253 -2.216983
-9.260193 121.4657 -3.065324
-9.116065 109.082 -3.677412
-10.91271 108.8988 -1.97609
-10.90955 121.0461 0.2044902
15.12101 80.17986 4.568929
14.668 79.33717 1.294527
14.1094 73.00957 0.9630016
8.880749 74.47563 -3.76055
14.94697 81.13133 1.754273
13.3174 89.94579 -3.239904
13.1588 94.51457 -2.096112
-10.35235 95.98637 -6.927783
-9.842843 98.03832 -7.127011
-10.38491 93.25297 -7.265088
-9.932784 100.34 -6.409651
-7.646769 102.1746 -7.62483
9.787826 95.71387 -7.642162
12.38166 91.4032 -4.475937
10.79204 97.37022 -6.030869
8.975091 93.1538 -8.592216
-6.058911 103.2963 -7.738577
-6.565686 102.5836 -7.898118
-4.490187 106.1619 -6.343029
0.4462395 104.1274 -7.490168
7.091753 100.9554 -8.276365
4.713192 103.0189 -8.054725
6.775197 102.6539 -7.820417
8.851011 98.47377 -7.911183
10.01846 111.4083 -1.528318
9.316049 116.0007 -1.287436
10.4222 116.5493 1.453713
11.54959 125.4473 1.441989
11.58279 125.9475 -0.2997442
11.58397 125.766 1.371895
6.425728 106.2647 -5.989486
6.052664 112.1821 -3.593231
-8.06263 110.5202 -3.539186
-6.134397 113.0335 -3.345797
-7.353272 107.3107 -5.30356
-6.802607 105.2313 -6.500901
3.761738 124.5806 -5.613606
6.91508 120.7965 -4.286772
5.395151 122.3743 -4.828106
7.816468 123.7745 -4.584123
7.265031 116.0197 -3.108948
7.655229 119.3248 -3.736155
9.192461 70.02893 -3.395431
5.614245 66.7382 -4.262094
-3.403779 66.93736 -4.54936
-4.475245 68.61987 -3.769013
1.626186 67.14889 -5.825561
-4.685315 68.32883 -3.747695
4.332995 69.73286 -4.448875
-5.083811 68.62164 -3.624323
-14.51777 90.06757 -0.7820373
-12.35928 91.52758 -4.474768
-13.80435 88.27238 -2.555072
-13.229 96.25257 -1.066566
-13.93018 73.35665 -0.4780486
-7.774856 69.10306 -3.486717
-15.26258 82.32922 4.236001
-15.34485 84.81877 2.869683
-14.71926 79.00711 1.687554
-14.83144 86.48907 -0.1829378
-13.95779 90.33473 -2.062946
-10.45666 112.6781 0.10556
-9.530783 116.695 -1.35678
-11.16875 110.6555 -0.1262792
-7.656024 119.1732 -4.123211
-3.897928 116.2302 -4.326491
-6.04787 116.179 -3.933924
-3.069851 121.7257 -5.487154
-2.72975 122.8414 -5.40953
-6.073709 122.415 -4.684736
1.138742 121.4547 -5.183991
0.2907948 122.3633 -5.064063
-5.339622 121.0365 -5.054654
-9.47458 119.7979 -2.313468
-10.63506 117.7136 0.1881298
-10.46059 120.62 -1.20127
-9.907608 119.7414 -1.715824
15.05556 82.34811 1.820433
14.63108 80.51675 0.7796372
14.0945 80.51512 -0.6786788
14.40526 84.30676 -0.9627559
15.07038 83.99118 1.118016
13.90403 85.31812 -2.13714
13.67273 79.84659 -1.221823
14.08447 88.22829 -2.148717
12.98559 84.21525 -3.152212
13.86512 82.8846 -1.748465
14.89193 86.37923 -0.03907794
12.57009 82.13091 -3.263232
13.60451 82.68743 -2.081641
10.74309 80.58837 -4.336569
14.55187 90.67402 -0.5518691
14.40751 88.86934 -1.346311
14.40412 88.10197 -1.382528
8.512663 92.04797 -8.982197
13.30032 91.23647 -3.024623
12.84111 90.85268 -3.835685
13.00833 89.60174 -3.701649
10.92589 93.2991 -6.581671
10.78849 89.39379 -6.751099
10.16341 91.8399 -7.591703
9.187786 89.63628 -8.365883
11.96807 88.03862 -5.045838
8.245164 90.02903 -8.962703
8.212509 92.90374 -9.066983
8.141644 93.49117 -9.073543
-7.969084 99.86545 -8.194203
-3.726857 100.2899 -9.081623
8.764257 94.28979 -8.617145
10.22127 97.11597 -6.898479
10.01866 96.89812 -7.147102
-5.743509 104.041 -7.429748
-6.839816 107.2634 -5.428782
8.05421 104.995 -6.172568
5.616077 106.4325 -6.06325
5.072988 109.4401 -4.706797
10.77411 124.5322 -2.185621
10.99906 121.9701 -0.7759368
7.739603 109.0181 -4.303051
6.133464 110.3991 -4.205474
6.834808 111.6043 -3.577693
-2.802209 111.4493 -4.058733
-5.388781 109.6404 -4.59851
0.6368222 109.3008 -4.858829
-3.64128 113.5358 -3.702649
-7.432389 114.1588 -2.833329
4.458794 123.9187 -5.419748
5.204569 118.8128 -4.481667
3.195961 119.6369 -5.005882
3.528307 122.3198 -5.082187
4.551146 116.9518 -4.150784
4.447177 117.4719 -4.342249
6.499598 70.92688 -3.678979
7.971433 69.12268 -3.511348
-2.351121 68.84815 -4.545724
-1.31287 67.6364 -5.350815
1.759611 70.12755 -5.281774
-6.829239 69.02592 -3.527085
-4.608922 71.55745 -3.776651
-12.95508 87.90198 -3.681257
4.273262 93.93851 -10.04518
-12.41401 89.57415 -4.512076
-9.459943 91.16579 -8.182592
-12.46535 84.5695 -3.881039
-12.66014 90.217 -4.131099
-7.636118 69.7578 -3.606025
-10.83529 74.39578 -2.910881
-15.23352 82.33338 3.059058
-14.17106 75.78918 0.983736
-15.03864 79.9574 3.043226
-14.83884 79.21928 2.146732
-14.41428 79.20064 0.6000208
-11.85944 76.37172 -2.395507
-13.90443 78.82202 -0.5194293
-15.04067 83.22355 1.336301
-15.16191 85.96702 1.163143
-14.81934 86.04683 -0.2071814
-14.53876 84.86462 -0.7524504
-15.16796 87.22655 0.7992615
-1.527356 123.5117 -5.348131
-5.634205 118.5135 -4.724927
-3.806859 121.3527 -5.308046
10.6027 72.03744 -2.85339
13.84982 82.16022 -1.550172
14.67813 86.84794 -0.6459194
13.7946 88.36915 -2.581561
12.52639 86.69875 -4.152128
7.468726 86.73554 -8.046427
10.46522 83.66161 -5.299991
9.302077 88.60288 -8.001638
-8.071771 98.68756 -8.459287
-7.817511 99.9982 -8.261937
8.188459 94.53683 -8.942816
5.347044 92.43528 -10.04874
7.861782 95.79678 -9.087703
-6.061124 111.7685 -3.659101
-1.023036 109.5722 -4.746688
-1.823218 104.1628 -7.471049
-3.394447 108.0266 -5.455069
-3.581542 116.7924 -4.48824
-6.533859 114.7782 -3.306119
4.048119 119.2097 -4.825764
4.47566 69.06835 -4.461575
7.979943 70.89568 -3.713278
1.376922 71.05559 -5.117637
2.708864 70.85834 -4.967346
2.668598 72.15102 -4.759696
-0.6039785 72.38261 -4.491987
0.7625124 68.9897 -5.516747
-4.795583 68.89483 -3.653105
-11.50405 90.38045 -5.926003
-11.59327 90.02468 -5.770392
-7.628421 93.59454 -9.383492
-12.03405 74.37754 -1.999395
-9.526052 70.74082 -3.192339
-5.973343 71.58897 -3.820698
-14.36309 77.22727 1.138803
-3.666867 121.7981 -5.343973
11.93347 70.29721 -1.5787
11.03747 69.90928 -2.317693
11.81127 73.0761 -2.071311
12.29756 78.80785 -2.49765
12.83721 80.86053 -2.638391
14.17213 81.21602 -0.6686438
10.58804 78.47205 -3.852719
10.81189 81.10796 -4.423876
11.57765 85.92139 -5.13716
10.05556 86.40772 -6.540761
11.96366 89.18166 -5.18505
13.01141 85.42796 -3.390336
11.21474 84.37225 -4.913437
7.878611 84.14413 -6.33583
-6.94185 101.7633 -8.075388
-3.727263 101.0652 -8.88277
6.498999 94.97047 -9.684871
-4.678503 110.1183 -4.467599
-3.345493 103.5059 -7.805323
-6.111824 106.4025 -5.934259
-2.517828 107.9795 -5.513156
-3.089742 116.0213 -4.272574
0.433551 114.7086 -4.091938
3.625582 121.5685 -4.982761
0.2130346 119.8219 -4.62411
3.454257 116.934 -4.483736
2.868083 118.0994 -4.853395
1.32213 117.838 -4.735281
1.827656 121.6129 -5.217168
5.797962 70.90762 -3.822883
0.3140332 71.18784 -5.011704
-2.417972 70.52426 -4.143894
-6.21616 81.42714 -5.581228
-9.668983 87.69812 -7.348832
-11.42752 77.28506 -2.978002
-0.4154935 120.3525 -4.547942
13.95294 73.9735 0.7157277
13.61285 75.81013 -0.1877303
14.4762 80.17964 0.4661649
13.62241 78.45064 -0.8865653
12.638 76.69161 -1.741221
11.99954 77.36478 -2.570592
9.020727 77.14007 -4.168194
11.24047 87.14463 -5.885204
3.691327 78.92985 -4.910477
6.260557 90.35666 -9.716336
1.855882 93.0988 -10.03406
6.343104 91.70454 -9.798622
-2.219877 101.3768 -8.764627
-5.391177 102.6352 -8.167418
-3.53066 104.5147 -7.282183
1.870849 104.1539 -7.477458
-3.996985 103.2736 -7.912153
-1.765341 103.8817 -7.613982
4.68358 104.6348 -7.192991
-1.886104 100.2133 -9.09263
-3.43499 102.3335 -8.423095
6.907607 92.61993 -9.707484
7.243488 94.31459 -9.491709
0.5925054 108.5985 -5.195225
-2.523465 109.7015 -4.699245
-2.546726 111.2168 -4.14488
-4.212912 117.1262 -4.575877
-2.43264 112.5657 -3.813977
-1.978218 69.1786 -4.634944
-2.569843 72.55167 -3.936826
-0.5513837 71.84901 -4.60006
8.701682 81.25292 -5.267508
-10.97375 74.31379 -2.820404
-12.39002 76.88466 -1.870028
-6.599544 71.59503 -3.879906
-1.511972 120.5008 -4.667874
-2.399728 117.8061 -4.576091
11.94145 74.88331 -2.119112
14.19654 79.63493 -0.1123771
12.95329 76.93766 -1.42648
7.926293 86.71459 -7.849724
8.203227 88.29486 -8.454246
7.488953 88.91624 -8.98819
-1.192809 101 -8.854106
-0.5937347 100.3091 -9.065328
0.6021719 101.4359 -8.711986
1.342828 98.06879 -9.577336
0.6293887 101.5211 -8.678956
-1.781992 98.01106 -9.558989
-0.9148852 98.98738 -9.387205
-2.620806 96.9305 -9.73011
-3.488345 97.427 -9.662734
-0.7823007 104.1385 -7.484269
0.7544007 100.2444 -9.092467
4.985886 103.878 -7.582172
1.999638 103.3271 -7.893548
4.414526 104.8265 -7.115148
4.767212 90.72385 -9.911362
5.437975 94.71917 -9.985552
2.038979 109.4652 -4.782742
1.889836 108.7821 -5.095973
-0.2284988 107.806 -5.599924
-0.6988019 110.4256 -4.424686
0.3486428 113.5299 -3.830312
5.887864 112.5325 -3.52523
2.448528 112.3523 -3.872391
1.535134 111.7282 -4.009889
4.66117 111.0098 -4.156829
-1.389801 115.9615 -3.957969
0.07139292 112.8826 -3.807955
-3.227916 110.441 -4.414706
-7.118007 86.83453 -8.147047
-0.835538 86.1055 -7.909481
-1.874088 72.10378 -4.124395
-12.03151 77.81397 -2.651885
-11.73133 75.76854 -2.338592
-9.574417 75.64919 -3.651888
11.72784 75.76347 -2.41308
10.42878 74.75889 -3.124886
8.225059 74.7506 -3.969657
7.410606 87.74229 -8.507892
5.695747 86.21889 -8.024763
5.529205 88.62475 -9.346952
8.881256 87.41119 -7.678516
8.383134 86.14056 -7.330631
7.43746 82.82826 -5.799448
8.022141 86.16981 -7.52971
12.17439 87.07358 -4.656011
2.831193 87.70962 -8.928034
7.003098 89.36494 -9.334494
3.038214 86.83328 -8.40404
7.772819 90.45163 -9.24271
2.907887 102.0473 -8.522228
1.946521 102.425 -8.345316
3.346307 103.2808 -7.929666
4.914362 93.52692 -10.07498
5.409091 90.79789 -9.878147
3.939668 90.03138 -9.873573
1.239402 110.4837 -4.405365
2.009255 110.4233 -4.424373
2.349966 108.5643 -5.196916
3.496989 111.38 -4.094011
0.8250266 77.28819 -4.450661
-6.976415 73.75101 -3.959639
-7.342958 73.57701 -3.986032
-8.404269 72.23803 -3.724348
6.571558 74.28264 -4.009214
9.648588 73.6568 -3.467036
9.552069 74.9599 -3.588014
8.326691 72.20352 -3.829417
9.155025 72.88309 -3.659453
6.602848 71.96805 -3.764193
1.220444 102.6285 -8.242864
0.8173808 105.1544 -6.96744
0.4219173 92.83493 -10.01855
2.361042 89.66382 -9.677556
-3.265071 92.5553 -10.05447
2.17117 90.34966 -9.86352
0.5052183 107.8511 -5.574911
-0.9589976 75.56794 -4.164719
-1.773712 75.55638 -4.160206
9.156048 73.06448 -3.659382
11.54601 72.4212 -2.227535
3.914324 105.8134 -6.56602
0.7925888 106.2624 -6.396792
3.895713 107.3968 -5.743577
4.657304 107.6606 -5.548777
1.517622 108.0499 -5.469364
4.466629 108.7282 -5.061546
2.25877 93.12473 -10.04337
-4.1387 93.99311 -10.04027
0.2247574 94.57968 -9.967049
0.9898781 90.51322 -9.850533
-0.03056158 86.6139 -8.228234
3.434674 88.86036 -9.519066
-10.75974 85.31937 -5.630261
-7.120106 91.14375 -9.555551
-2.37723 74.96628 -4.093596
0.5878139 74.80415 -4.143252
-1.746955 83.96143 -6.607323
0.06675721 76.8356 -4.362091
0.5604781 78.30042 -4.723901
-5.066685 73.91384 -3.927338
-1.688583 75.10606 -4.11509
-3.861252 75.61677 -4.161988
4.696156 110.1466 -4.45994
-0.7306972 94.2433 -9.989974
-1.948829 87.64658 -8.814187
0.8625416 95.19434 -9.920827
-4.100871 92.23021 -10.10614
-1.779275 97.0407 -9.711517
2.987358 94.18363 -10.01402
0.4517284 89.59997 -9.610229
-2.029275 90.99358 -9.925598
-3.378114 94.19362 -10.02201
-6.431446 95.29398 -9.695378
1.293208 88.90813 -9.410069
-5.652922 93.93437 -9.955547
-3.350667 95.93884 -9.871198
1.08401 85.13909 -7.297294
0.1333467 85.78323 -7.70688
-0.138892 86.91071 -8.401325
-1.970102 86.50019 -8.153977
0.667285 78.78401 -4.866728
-0.134085 97.39284 -9.658844
-0.3006204 96.02045 -9.842543
3.392889 98.17536 -9.600655
-3.220826 88.10119 -9.066742
-4.50158 88.86661 -9.531834
-2.773633 95.87254 -9.869477
-5.213321 96.19299 -9.825779
-5.656713 94.99196 -9.834663
-6.309757 94.10508 -9.824025
-5.423022 95.86763 -9.842595
-7.413597 97.24166 -9.052041
-8.483261 94.52532 -8.866302
-7.653932 94.70709 -9.314822
-9.111828 97.35878 -7.965398
-6.600632 91.21386 -9.686308
-8.664201 93.06782 -8.831613
-3.10429 91.92464 -10.04279
-5.676587 91.8173 -9.964567
-2.697459 79.34696 -5.025744
2.622951 100.7942 -8.953055
-4.600144 84.46856 -6.847229
-3.339136 89.11608 -9.538537
-3.111461 90.51128 -9.877728
-6.758118 89.3775 -9.377777
-4.99399 88.59093 -9.410315
-8.306585 88.86878 -8.664129
6.62852 101.4542 -8.303156
7.508743 98.22667 -8.800484
-2.374445 86.82857 -8.350857
-1.318075 86.65402 -8.248951
-5.435643 87.32854 -8.688
-3.405597 89.37637 -9.630077
-5.429804 90.17607 -9.769518
2.605488 100.745 -8.96805
6.345477 100.8621 -8.61451
8.804686 99.93826 -7.491927
7.24845 98.7042 -8.832283
-4.728658 84.57547 -6.908012
-5.10199 82.31699 -5.812341
-6.673081 88.25508 -9.00939
-10.57734 85.41294 -5.769344
-5.357571 88.43532 -9.311993
7.004392 95.85413 -9.366085
4.394035 98.42382 -9.539424
-11.29294 105.3157 -3.481733
14.63381 77.58661 1.933537
3.9347 68.63174 -4.789076
-7.802003 86.45653 -7.778196
-11.95704 85.54197 -4.612047
-11.21169 86.51026 -5.737909
-10.95864 84.45276 -5.111684
-9.478251 83.71675 -5.742214
-10.07331 81.74906 -5.007689
-8.981 86.86903 -7.353351
-2.771231 121.3084 -5.358941
11.22691 82.21404 -4.4061
11.00025 82.75842 -4.696035
8.34671 77.55403 -4.451328
10.99472 81.82524 -4.477515
4.131332 82.52776 -5.916939
7.897524 81.57579 -5.549026
3.301223 81.2316 -5.566065
8.372276 82.69169 -5.673882
5.772501 82.72788 -5.911497
6.133871 83.43968 -6.141818
4.280498 79.81429 -5.197185
1.893786 79.37871 -5.046874
8.912985 84.27739 -6.155481
7.084349 81.08627 -5.577526
7.386987 85.00327 -7.162867
10.83823 85.04952 -5.482152
8.506702 83.60406 -5.868633
7.167218 80.16929 -5.274314
2.175881 85.73079 -7.683385
4.990468 81.71781 -5.679847
2.932805 79.23897 -5.009042
6.071906 76.73062 -4.305005
0.884991 85.76237 -7.696967
4.678481 85.35789 -7.431007
4.739231 84.64606 -6.909459
5.495284 79.00986 -4.969372
4.848796 79.16534 -5.004954
0.6490524 80.45023 -5.348978
7.729334 75.47035 -4.118735
3.918031 82.07085 -5.790222
1.752273 83.60727 -6.403508
-2.197733 85.16113 -7.306115
-2.287277 84.01884 -6.633427
-0.3774011 84.29264 -6.806129
-0.8585832 83.20356 -6.242642
2.288472 80.07228 -5.250985
0.6972533 82.30118 -5.893104
2.421915 73.08341 -4.634454
2.234413 77.17633 -4.396783
1.558382 76.14059 -4.202252
1.041763 79.3097 -5.02057
8.271693 78.79053 -4.784113
0.03716976 83.16327 -6.222456
-2.453863 80.75054 -5.424696
5.774843 78.57625 -4.805069
7.887051 76.76172 -4.395027
4.354116 74.83933 -4.062129
5.073873 71.84183 -3.973615
2.62494 71.33164 -4.909822
7.031843 72.9941 -3.908741
6.282701 72.772 -3.855763
1.782614 71.8203 -4.942263
4.917812 75.6325 -4.085271
0.3997499 79.87795 -5.184168
-0.116382 80.03152 -5.226448
-3.316077 82.35669 -5.894351
5.450239 73.78053 -3.956438
6.018049 75.37317 -4.069007
7.123845 77.54837 -4.615366
-2.6046 81.95696 -5.770466
-5.633677 82.93518 -5.972285
-2.994778 84.81572 -7.082214
-2.888524 81.11109 -5.522737
7.085114 73.89672 -4.007718
-5.163919 85.47627 -7.553925
-4.62233 86.07047 -7.901216
-3.813524 82.29775 -5.861139
-8.478267 80.3318 -5.130678
-6.649681 82.91489 -5.909265
-5.218599 81.26606 -5.567816
-5.043152 80.31736 -5.296409
-3.635216 78.08707 -4.691112
-9.712917 82.87222 -5.392673
-5.363619 76.44634 -4.309741
-7.746147 81.22119 -5.482385
-5.454604 79.43549 -5.038309
-5.912392 74.50922 -3.984569
-5.995329 76.88091 -4.387521
-6.213615 76.1697 -4.26679
3.625836 114.0868 -3.697051
3.975885 116.5849 -4.236519
2.843929 112.8386 -3.788333
1.19551 113.9097 -3.966399
0.0800308 113.9161 -3.889909
-1.061593 117.8932 -4.210481
-1.773355 115.8189 -4.014128
0.8469908 115.4256 -4.273648
3.818718 118.1206 -4.680348
0.2382578 120.0779 -4.669378
4.978766 111.4158 -3.990603
-2.015065 117.4588 -4.35962
-3.750249 71.84832 -3.776214
-13.56326 80.03472 -1.398594
-12.62076 77.07912 -1.600829
-13.55098 78.32566 -0.9484313
-14.61197 81.56051 0.3641359
-13.18538 81.0842 -2.20743
-12.61234 80.02438 -2.68299
2.412637 101.2849 -8.771294
5.488617 102.3194 -8.278496
2.241261 112.1902 -3.900769
-9.47942 91.9688 -8.276259
-7.377694 88.43385 -8.903726
-10.93482 91.36938 -6.665762
-9.671723 90.40242 -8.009917
-9.38899 85.8822 -6.670282
-6.940271 84.83308 -6.958655
8.761211 79.3863 -4.803143
8.39761 76.03208 -4.120083
-10.4517 83.92271 -5.326035
-6.956199 79.94193 -5.183535
-6.662785 74.81719 -4.02851
-8.417457 78.4438 -4.654145
-9.223145 76.79896 -4.032366
-9.171445 81.18084 -5.142328
-9.007893 78.75809 -4.56432
-9.400563 80.2902 -4.850671
-9.797586 79.54555 -4.424718
0.6762409 117.8628 -4.540157
-13.96511 85.23406 -1.973388
-9.342157 91.42272 -8.321739
-9.807499 83.39664 -5.501736
-8.556021 82.30125 -5.544496
-6.490091 76.98009 -4.40829
-10.11071 77.89854 -3.895021
-9.149717 76.59088 -4.009319
-14.749 83.8763 0.06697419
-14.81715 84.55997 0.08797113
-10.6566 80.83076 -4.460071
-12.74499 83.96612 -3.421973
-11.48935 84.06294 -4.62531
-12.09463 83.35926 -3.985099
-14.10384 82.07742 -1.106721
-11.68853 83.23889 -4.270009
5.311794 96.86842 -9.619164
3.767713 94.60579 -9.994699
2.017292 96.00592 -9.850238
4.679882 97.2822 -9.710361
-12.87802 84.89871 -3.474105
-14.71714 77.12438 6.469218
-10.34385 124.5885 8.65183
-13.82652 74.76402 9.508635
11.37675 112.1513 4.797417
-15.17302 82.29261 5.685958
-15.39802 86.93948 4.393208
-13.23554 103.2311 3.140751
-13.22577 103.3003 1.830648
-13.39535 75.3764 9.743402
-6.622962 72.6814 12.24244
-11.35731 125.3929 4.783172
0.8895445 71.52671 12.34209
-11.31988 124.936 4.656709
-7.379767 71.92328 12.35565
-11.62683 126.3925 8.111917
-8.214289 125.7556 13.56032
-15.2882 91.45332 4.204689
-14.95059 79.55165 6.373927
-13.13864 102.7827 4.408035
-12.02137 105.8257 7.523839
11.8324 128.9869 6.262196
-12.59127 108.063 3.883507
-11.83996 110.6601 3.396703
11.41995 126.2709 6.925522
-11.72345 128.4358 5.834893
-2.69098 125.3731 14.72285
-11.22174 122.7313 4.678007
-10.68545 124.2262 7.502323
-11.30549 112.4735 4.36776
-1.552459 121.9759 14.04033
8.243317 123.2096 11.60713
-7.989016 125.0836 13.079
-10.09784 125.6232 10.76501
5.807083 124.8988 14.0731
-11.96229 127.7718 8.322817
10.94463 126.1761 10.70493
-1.027851 126.8962 14.78332
-10.92755 126.0404 10.99432
-8.417228 124.7985 12.58817
15.31295 90.71098 3.201934
5.998586 72.43227 12.54148
8.274521 73.44501 12.42235
14.71587 78.424 6.953512
13.73726 98.15415 1.943813
13.55914 99.74123 2.232188
-5.87682 126.0946 14.58518
11.36097 126.4477 10.18984
9.525647 93.79459 10.71793
12.9437 74.84641 10.94168
11.76118 100.4529 8.732756
15.15245 81.41614 5.06976
14.63709 79.1525 7.328137
10.5176 121.9192 7.16316
-11.06586 119.3332 4.954433
10.46741 97.79533 10.00941
9.348567 120.9116 9.398801
5.992362 126.4794 14.32969
-11.70209 128.0119 5.378821
15.39812 87.85407 3.994517
13.01009 105.5868 1.631989
5.877893 92.35905 11.05424
8.883135 124.505 10.82584
2.82065 126.536 14.63566
9.47379 125.9687 12.03389
11.93524 110.3353 2.492723
11.64189 126.6272 4.964406
-3.818727 123.9822 14.52861
11.70833 126.7596 9.854784
2.768518 125.5635 14.65624
-3.01638 124.1948 14.48186
12.45679 108.6722 3.766577
5.101683 124.4809 14.19407
-7.727264 124.0873 12.34566
11.23051 125.0486 5.348731
11.48321 125.4006 4.210864
12.18776 127.6303 7.632569
12.25555 127.5585 8.290657
-14.84721 75.7298 6.207306
11.751 127.3949 5.023439
6.538106 125.5167 13.87627
-9.57256 73.07084 12.51715
-9.462817 75.46449 12.24459
-10.77236 125.1519 8.049883
-10.71671 119.5385 6.077829
2.482692 99.46945 12.0128
-10.54411 121.4232 7.138695
7.85533 125.673 13.1464
-7.02778 123.3692 12.74825
11.60616 126.3944 5.406087
4.649795 123.6463 14.14152
6.067494 123.91 13.74523
-0.08772045 125.2032 14.36506
4.308698 122.7566 14.02716
0.2344344 127.562 14.58144
-0.9167538 122.1341 14.02306
-14.3905 86.46321 8.346236
-14.84596 75.75726 6.718328
-12.3554 77.25386 10.87669
-15.35677 87.31196 5.281559
-14.5154 95.94666 3.761317
10.323 80.43152 12.01102
13.681 97.63908 6.739155
11.92144 77.54398 11.2127
11.97102 74.79565 11.53192
14.08447 77.79406 8.630663
11.12542 116.6639 4.251308
-11.24384 122.1984 4.328438
-10.77199 120.7455 6.468157
-3.431465 114.9597 12.62517
-10.46114 98.71603 9.934684
-11.19255 118.9173 4.161076
5.685988 122.5269 13.58958
-7.003169 125.2399 13.56756
-3.313211 124.1091 14.51987
5.833231 121.5584 13.27967
7.639071 123.1198 12.28654
7.059617 122.7337 12.62307
-3.175346 121.2333 13.95734
-14.94006 86.81642 6.930802
-14.36392 80.12659 8.365019
-14.43151 76.04932 7.43653
-14.49947 78.07543 7.605732
-13.63049 77.03905 9.33711
-11.01798 77.7739 11.82537
-8.583307 93.56713 10.86931
-5.213068 73.08041 12.09276
-13.05866 101.0183 6.166651
12.48949 94.83779 9.215014
13.31346 101.1221 1.222702
6.954864 72.3764 12.47319
-2.685202 72.52852 12.2421
14.31413 77.74197 8.014284
14.94015 78.97717 5.902142
13.50508 79.45081 9.667
13.92166 76.97702 8.980197
12.13512 109.5783 5.051982
11.24995 118.3618 3.606063
10.98582 115.1307 4.884453
10.95593 116.8029 5.091466
11.11628 122.4711 5.394793
-11.14685 123.2761 5.152559
-11.08313 121.653 5.147496
-11.04553 114.8901 4.619918
-12.69971 107.389 2.20504
-12.76414 107.3874 3.090312
12.77974 107.2053 3.041372
-11.23551 121.0132 4.286411
-11.11873 114.9687 3.341202
8.300039 124.0586 11.68455
7.935918 122.2871 11.52695
6.449601 122.6754 13.10392
-15.05908 86.21324 6.672448
-14.95901 79.27396 6.298143
-14.07079 79.39368 8.829489
-13.54504 74.94888 9.804911
-13.32632 77.9081 9.859446
-7.715384 72.13833 12.40929
-15.2593 85.3672 5.387072
-14.28052 96.64643 5.384534
-8.584629 74.4224 12.39208
-13.70579 99.15987 5.470836
-13.84525 95.83179 7.291362
13.09961 90.08804 9.583936
14.15655 97.0556 2.882569
14.39908 96.39595 5.445249
13.26474 101.945 1.212151
10.2356 73.17823 12.30927
7.989316 74.94869 12.36493
14.96644 81.25864 6.505378
14.40554 81.37152 8.276989
1.185222 72.8224 12.30492
-3.828586 76.03677 12.37951
12.38494 74.24317 11.37926
14.02339 79.59026 8.838178
13.29971 77.72922 9.851007
11.26398 112.7376 3.291981
11.26876 120.5034 3.910254
10.7451 117.0052 5.906849
10.17976 114.8043 7.227868
11.07246 114.9207 4.25106
-10.99481 121.8605 5.615173
-11.26162 112.7545 3.449483
-10.90896 112.8822 5.724252
-12.8024 106.3586 1.045684
-13.04793 105.0718 1.469577
-12.68792 106.9831 1.206909
-12.16167 109.0672 5.313983
-13.12359 104.5878 2.974622
12.5469 108.0266 1.759336
11.99586 110.0616 2.120405
13.39044 101.7251 2.867486
12.51193 108.2965 4.259202
-10.96293 118.7656 5.390747
-10.56193 118.6445 6.604122
-10.83971 118.9688 5.717181
-10.22593 121.0696 7.858929
-10.17779 119.9686 7.729331
8.240567 122.8943 11.48702
6.939919 120.6308 12.15194
8.670126 120.0081 10.18908
9.010303 119.2807 9.657899
8.048267 121.3782 11.04264
-0.4980768 124.4564 14.29801
-4.13381 78.7505 12.55552
-15.15778 85.95401 6.251049
-12.97238 81.57964 10.22603
-13.5541 78.51546 9.562647
-11.89923 76.82157 11.20599
-10.70938 75.25241 12.04347
-10.68533 74.69889 12.16062
-15.09678 87.64284 6.520386
-15.38763 90.00361 3.782748
-14.57093 91.82247 7.209553
-4.536416 73.48106 12.11372
-8.833453 73.44351 12.49798
-2.706813 73.41061 12.29898
-14.88896 94.1364 3.795681
14.94179 92.88213 2.425777
14.94253 93.48164 3.066443
14.44653 90.47472 7.67172
14.97476 92.48855 2.337942
15.39685 90.16608 3.72118
15.40379 87.5307 3.019832
14.73659 95.09019 4.384659
14.23108 95.81353 1.760874
15.05675 93.33841 4.902586
13.8725 98.42185 3.317224
13.21952 102.8218 1.142278
13.12922 104.5556 1.084682
5.007295 73.61491 12.5426
6.622625 73.97815 12.50712
15.36931 86.01714 4.707525
14.44093 79.62971 8.009846
3.116375 72.03017 12.64381
1.885046 73.58194 12.36594
10.68546 77.05338 11.94851
11.22994 76.94774 11.70026
12.94198 79.91538 10.4477
10.6794 115.2774 5.913239
10.51683 120.0616 6.866352
11.10094 122.0316 5.117913
-10.54005 120.731 7.057553
-11.31117 112.0755 4.88537
-12.94531 105.6161 1.122951
-13.15862 104.192 1.313341
-11.90666 110.3944 3.124571
-13.89531 98.60451 3.169925
-13.65073 99.85135 3.928466
12.44128 108.5751 2.189068
11.80251 110.4587 5.248373
12.89634 104.4736 4.989117
-11.03808 116.9225 4.879004
-14.71478 85.03809 7.688384
-14.89369 84.54523 7.147434
-12.07835 76.18014 11.00171
-9.972279 74.10381 12.35733
-14.52354 87.41272 7.915106
-11.83563 87.74097 10.83737
-15.23011 91.43864 5.089861
-14.27238 87.9604 8.220476
-15.13758 88.57249 6.331794
-15.09718 92.95459 3.738399
-3.515156 74.12845 12.24445
-7.110761 74.70157 12.35414
-7.616767 76.28672 12.33874
-7.941319 73.08485 12.43698
-1.712519 70.99088 12.24027
-4.180315 74.59316 12.24047
-3.303907 74.79453 12.27306
-1.606218 75.54797 12.35738
-2.597131 74.62649 12.29612
-14.43479 96.21774 3.369328
-14.24092 95.91911 6.339653
15.23003 86.64771 5.738486
13.72461 98.33692 6.12232
14.00395 97.05875 1.984434
15.1126 92.90775 4.162116
14.86156 92.9554 2.048598
13.50918 99.06681 6.155412
13.78524 99.24998 4.102201
13.46363 100.5888 2.072584
13.20722 103.1966 1.279193
7.645761 74.42181 12.37097
6.147318 73.04301 12.46276
14.48232 80.65282 8.002477
14.35797 80.26293 8.28172
10.29789 77.83752 12.03117
10.41128 79.20934 12.12923
12.68593 81.06223 10.68175
13.52602 80.10289 9.696885
11.00803 80.51889 11.71334
9.312055 77.01506 12.33918
4.923884 75.16056 12.4508
1.63845 75.10656 12.38021
8.980749 74.45414 12.35037
11.52353 111.7708 2.928107
10.19236 113.9621 7.268903
10.73796 118.0352 6.034489
10.21383 114.6281 7.118701
9.485376 112.893 8.620419
-11.79292 110.8134 3.902904
-10.50953 112.3976 7.182524
-10.79315 114.7345 5.619017
-13.03795 104.0692 4.473668
-12.14065 109.6815 4.34785
-13.2465 98.60425 7.304875
-11.74959 99.5502 8.851617
-13.09543 100.3049 6.594274
-13.45362 99.65257 1.487269
-13.38073 101.7029 3.53061
-13.13565 102.1122 4.795799
11.88828 110.6409 4.327336
12.16332 109.4186 5.188869
-10.24021 115.6076 7.107869
-10.35528 117.2345 7.059836
-14.11456 83.58595 8.913118
-14.01796 85.35435 8.924665
-13.38524 87.4182 9.550479
-12.47591 85.03912 10.69348
-10.36201 76.38173 12.07284
-13.39219 87.9895 9.470432
-12.87936 85.98415 10.28291
-14.44682 88.81117 7.868421
-14.08572 89.13293 8.498688
-14.87647 91.94792 6.490665
-14.69259 94.58602 2.57863
-15.24305 91.86154 4.409513
-1.994962 73.6993 12.3503
-2.981989 77.5191 12.50231
-4.400397 77.02459 12.46941
-5.729419 81.8127 12.47723
-6.231884 77.47273 12.49415
-9.472116 78.02976 12.31548
-13.33385 94.7772 8.337182
-14.59717 93.65578 6.492063
-14.35742 95.22808 6.430407
13.2041 89.67317 9.529371
13.85726 95.93259 6.88538
14.3919 95.78089 5.919782
15.15082 92.44617 4.862352
14.52845 95.57345 5.315
13.84334 98.28738 5.638227
12.11366 98.59921 8.662143
4.55016 72.33606 12.73222
12.88799 80.66093 10.46527
9.682281 119.3865 8.661158
9.898598 119.4124 8.25926
10.32214 122.7504 7.758007
10.01262 121.6706 8.26333
9.020883 122.3349 10.1058
10.43123 123.8156 7.582625
-10.53614 114.3437 6.39036
11.0045 111.6395 6.84731
11.71734 110.2547 6.021423
10.61499 109.9572 8.594447
-11.81479 85.82247 11.06168
-15.10502 92.44956 5.754357
-13.69007 94.20879 7.900001
-13.80461 93.04594 8.142197
-13.49423 93.09636 8.556619
-6.677574 78.14355 12.52378
-9.584981 79.3325 12.32322
-9.871443 76.41568 12.19404
15.17751 87.16905 6.284327
11.54873 98.58612 9.29769
13.12274 96.87638 7.949479
8.188745 77.34147 12.50362
7.343721 76.83869 12.49838
5.554774 76.69869 12.48102
6.148609 75.6739 12.45503
7.584606 79.13625 12.54382
10.00149 118.2907 7.91814
10.60952 123.6563 7.17186
9.561876 123.7396 9.463887
10.15539 125.3046 9.415645
11.0099 126.0834 9.218293
-9.457512 114.804 8.426753
10.74898 111.2118 7.639911
6.751307 118.5414 12.0208
-10.88767 95.14823 10.16351
-10.22702 77.10699 12.13392
6.933925 76.61852 12.48867
6.493512 78.79477 12.54317
4.675065 76.07933 12.45824
9.995534 123.7486 8.528572
9.844395 113.081 8.101658
-11.85692 95.089 9.688204
-11.93732 77.74489 11.21404
4.166221 78.18301 12.5349
5.696903 75.85551 12.45739
1.422228 75.70767 12.4063
-9.811379 96.2997 10.39195
-10.36154 95.06638 10.38487
-11.05265 97.25729 9.76996
-12.07353 94.61865 9.536977
-7.653848 94.57948 10.86957
-1.196907 91.61964 11.14042
-9.992759 93.65948 10.63964
-11.07159 92.2788 10.51392
-11.76009 90.67037 10.41833
-3.74546 90.88941 11.24103
2.504485 77.49256 12.50587
-12.37657 92.86559 9.618203
-8.799627 94.92609 10.73622
-7.865503 97.19126 10.85173
-11.27598 98.10741 9.525994
-10.31573 90.91042 11.0095
-8.47666 91.13962 11.20382
1.955591 75.114 12.38416
1.784033 79.88114 12.53598
-0.5263559 74.21471 12.34617
-5.381398 93.4879 10.97723
-4.542073 97.2564 11.29509
-12.35896 101.7554 7.565474
-7.353883 95.56463 10.88992
-5.009983 96.21972 11.15378
-5.627038 95.97665 11.06716
-4.335346 95.74297 11.18221
-3.509237 91.58276 11.13321
-3.721713 93.37943 11.05544
-3.785263 97.3868 11.40525
-5.390396 95.866 11.08297
0.9700055 99.27994 12.12079
-0.2792938 92.57403 11.11761
-11.28 91.15625 10.59718
-12.97985 89.88557 9.587138
-10.36656 89.67273 11.11934
4.669648 78.54885 12.54689
3.716271 80.46558 12.51602
2.334034 80.19479 12.52587
4.987996 80.84242 12.50169
1.52836 77.91186 12.52703
9.267994 80.65693 12.38432
2.365104 79.62981 12.54081
6.316796 80.63003 12.49719
12.02136 82.39203 11.17358
9.271281 82.46412 12.30388
-4.467055 94.24424 11.08237
-6.022421 92.4948 11.03045
-11.12141 86.7328 11.38143
-9.663003 87.65257 11.65251
-4.317062 87.33031 11.89077
-7.779209 88.78267 11.64415
-2.437759 81.24725 12.49488
-0.1370158 80.84896 12.50626
1.036926 79.72021 12.54123
0.01106026 79.37179 12.55098
-1.44048 80.60476 12.51785
-0.4346819 80.58384 12.51759
2.585771 80.55061 12.51443
-7.126464 92.41081 11.02336
-6.190194 89.23945 11.54149
-5.705643 90.3975 11.33175
-5.012733 88.46227 11.69577
-0.7837129 90.74136 11.25287
-4.210222 87.10316 11.92587
-6.176144 89.46935 11.49507
-1.296674 89.15176 11.55359
-2.281473 87.38685 11.8727
-2.428873 89.76987 11.43939
-5.009767 91.91241 11.10314
-3.791691 92.05551 11.08472
-1.684879 78.224 12.54146
-0.7755526 80.50896 12.52034
-3.14133 82.368 12.45049
-4.29589 82.01482 12.46876
-6.761257 88.37491 11.72134
-2.306387 90.08633 11.378
-2.901709 88.90273 11.60274
-1.920183 87.88441 11.78379
0.3986252 92.96449 11.17067
-3.448188 79.38404 12.558
-10.57669 85.65942 11.62097
-4.184058 81.1693 12.50018
-4.832189 87.70988 11.83042
-5.29778 86.10123 12.0707
-0.3005931 87.49973 11.83958
0.4317253 88.96537 11.58148
5.813745 90.92908 11.26016
4.762684 89.68163 11.45576
5.275232 89.24928 11.52021
0.4053229 91.44707 11.15063
1.663749 88.8319 11.59886
12.26682 90.87924 10.06758
3.527608 83.47653 12.35992
3.066288 92.86291 11.06346
11.05904 92.45546 10.4418
8.577866 91.05841 11.21213
1.66491 89.74488 11.44762
0.6453348 88.00613 11.74691
-2.397894 91.52437 11.1383
-4.009478 85.66982 12.12858
-3.648841 85.01497 12.21613
8.952773 94.59258 10.74592
-0.9277924 96.39671 11.60093
-2.488319 94.07372 11.18549
0.9353175 93.86839 11.26112
-0.346426 94.23071 11.3146
6.550494 94.75729 10.95875
8.724075 93.12891 10.91141
8.865115 96.24097 10.63553
6.963249 93.62307 10.94955
1.957462 90.85001 11.24079
-3.491314 84.18085 12.31991
3.808561 91.28265 11.18261
7.909421 91.69224 11.17549
12.75942 92.99522 9.356163
13.72436 91.61843 8.649845
12.53713 92.82476 9.5517
12.8195 91.85778 9.522296
11.73144 92.20358 10.20959
13.3882 92.08283 8.93232
14.38775 92.20824 7.573519
14.98689 91.80912 6.211545
11.37865 89.98266 10.67206
7.452276 88.91208 11.56719
9.600581 89.80207 11.13759
12.51698 90.02066 10.08336
-5.60915 83.78793 12.37279
10.42882 92.30732 10.72186
13.50642 90.29114 9.098146
9.203135 90.5929 11.22625
10.84855 89.26907 11.05744
10.01298 91.26363 11.02932
12.33191 88.56203 10.39812
13.99771 88.35783 8.681602
14.90388 89.90498 6.838452
14.5014 89.66159 7.720225
14.84603 89.58035 7.040564
11.2496 97.95265 9.572874
1.839713 93.89494 11.21114
10.31532 96.02244 10.24856
9.568806 96.72118 10.42157
10.6709 96.53331 10.05206
11.70936 97.52542 9.303954
11.41406 98.67739 9.366264
7.752864 95.3829 10.86743
6.709501 96.66713 10.98382
11.92367 96.15702 9.428732
7.224752 101.5156 11.49561
8.717575 99.03194 10.76589
11.61255 99.81142 8.987052
4.179223 97.11009 11.33369
8.118246 100.6033 11.08333
10.95163 125.2452 6.978497
-10.06071 123.5097 8.776011
-8.660034 125.6514 13.05883
-9.771121 121.5334 8.83982
-8.605638 124.6845 12.21259
-9.646458 123.1472 9.740919
-7.888654 121.7884 11.42321
-8.790028 123.2624 10.99122
-9.812199 122.4133 9.139918
-2.619906 122.4733 14.20994
-3.832176 122.019 14.07187
2.543323 124.1079 14.16984
0.679024 123.2985 14.03919
1.926812 123.1669 13.94918
-13.10642 80.48531 10.28816
-12.91965 83.55644 10.419
