# .PCD v0.7 - Point Cloud Data file format
VERSION 0.7
FIELDS x y z
SIZE 4 4 4
TYPE F F F
COUNT 1 1 1
WIDTH 1653
HEIGHT 1
VIEWPOINT 0 0 0 1 0 0 0
POINTS 1653
DATA ascii
-5.386739 92.88667 9.630086
-14.42589 92.56851 9.244064
-13.11374 91.0861 9.777308
-6.539046 94.28968 9.521222
-3.429793 101.4477 11.26742
-6.940053 103.0769 10.6586
-6.119107 105.1429 11.30329
-7.137596 106.3999 11.07286
-3.625649 11.58211 5.091833
-3.814527 113.1952 11.76732
-3.947112 111.045 11.94406
-5.987299 110.5214 11.37637
-16.3299 15.69044 -1.690917
-14.24446 5.859095 -2.092993
-12.67035 6.233282 -0.2141284
-7.813012 3.470942 0.2561794
-2.930226 20.95815 2.913136
-3.225445 25.5832 1.094882
-3.766434 30.09317 0.8805823
-14.70296 28.73251 -0.4689263
-4.28804 37.74258 1.450083
-5.135542 35.75697 1.337268
-4.59416 49.1003 3.563335
-10.9006 54.47606 4.997436
-6.466099 66.39745 7.837325
-3.401896 68.20869 8.231775
-10.60078 64.28601 7.340671
-5.138577 69.26622 8.467534
-11.13513 71.65906 8.99257
-7.864409 75.16251 9.509846
-8.454375 80.42157 10.06567
-11.51524 79.19399 10.0095
-8.543788 83.32288 10.19475
-12.30592 80.53204 10.12588
-13.10571 86.13373 10.24211
-5.86379 94.96133 9.528742
-10.5701 89.95386 9.936412
-3.268079 99.44177 10.6415
-7.629124 100.5462 9.983303
-3.780043 104.6878 11.96665
-3.736685 11.06119 4.665309
-2.892788 11.68676 1.095568
-7.445931 108.4544 10.9608
-13.34358 4.501439 -1.060925
-3.24055 24.1283 0.9521012
-2.843238 24.26759 2.710591
-4.099777 33.0705 1.20363
-8.464728 33.36394 1.209981
-8.776776 33.88098 1.203236
-8.605611 39.51138 1.505699
-11.43429 37.69555 1.258451
-4.005488 45.69017 2.707426
-6.721389 48.67458 3.425566
-6.083638 60.63581 6.45023
-10.58957 74.01978 9.370481
-8.071969 75.46519 9.553476
-11.07053 69.42643 8.557668
-7.112064 66.22706 7.799477
-12.50524 83.52484 10.24755
-10.04902 79.77759 10.03771
-10.14563 75.75732 9.614854
-9.258087 94.96844 9.42162
-9.690178 102.8008 9.759962
-2.901051 11.09528 2.342754
-4.277691 3.915066 -0.5076856
-7.709199 2.720676 0.168816
-2.917774 20.27253 1.419143
-3.34181 25.60867 0.8385699
-8.345912 36.61808 1.278472
-6.954001 37.3283 1.353683
-8.255539 49.79708 3.728541
-6.207241 66.90073 7.952591
-10.4177 61.87764 6.756328
-7.80777 67.84344 8.176885
-7.492959 88.94205 10.01097
-4.970481 100.0668 10.48059
-2.903481 6.342463 1.18897
-10.23935 7.717638 1.109267
-5.241764 7.008328 -0.6039316
-3.563631 13.94268 0.1106744
-3.81558 24.7169 0.4399258
-8.28349 26.6081 1.224821
-8.998709 27.18284 1.339831
-9.783278 29.37119 1.35572
-8.661335 40.01206 1.562801
-7.493461 42.80713 2.011295
-8.931808 48.6618 3.389623
-9.021051 53.03717 4.632457
-6.640379 57.3711 5.646847
-3.665401 4.810101 3.635351
-14.96661 13.50945 -2.138012
-12.70486 9.656666 -0.2073667
-5.814039 11.50036 -0.2871018
-13.24639 22.86839 -0.302953
-9.039446 29.94203 1.292959
-7.74153 42.06869 1.878708
-3.171698 5.021789 2.820648
-13.13306 8.774916 -0.7061254
-7.368946 6.019596 0.1122107
-6.429416 9.634311 -0.1947122
-7.045067 22.83252 0.7194023
-13.49845 19.6737 -0.7264384
-12.8361 28.00495 0.5329409
-3.778398 56.74644 5.504989
-11.14655 7.665175 0.8918073
-6.565287 13.3145 0.09376675
-7.878758 12.89892 0.6878433
-6.776649 55.32547 5.165997
-13.30628 11.68494 -0.8467768
-12.8786 14.86527 -0.267781
-5.115647 17.03242 -0.1977955
-5.272043 18.25872 -0.124134
-12.86713 16.045 -0.213366
-11.3782 18.8282 1.024624
-11.79977 23.78669 0.9367322
-10.51551 26.57492 1.410396
-11.23074 19.95946 1.116722
-10.37618 18.46999 1.296144
-5.929905 20.69244 0.1736726
-6.349316 19.52238 0.2686091
-5.604735 97.79869 9.833881
-17.16267 9.158486 -2.089795
-13.93935 11.3034 -1.560047
-4.645173 21.68263 0.01693963
-13.8357 72.7686 9.186604
-3.718064 5.049445 6.570938
1.782676 1.466552 6.476098
-0.2496971 2.963515 7.154917
-1.322812 22.31338 4.249146
-2.191783 19.29332 -0.7370368
-1.85487 22.76971 -0.4852294
-2.254337 8.664444 -0.1994347
-2.212591 16.4962 5.080122
-0.3386067 25.23742 1.627357
0.1433748 22.21003 2.888919
-1.192259 27.07731 0.332637
-1.487046 24.30649 0.03530175
-0.8825298 17.65596 0.8513232
-1.835383 20.67557 -0.3200575
-0.3094823 23.48675 3.223675
-1.5139 20.36603 4.59094
-2.559348 2.755813 -0.4800637
-0.3368433 24.8407 2.02399
0.2695163 17.4492 1.628286
-1.322245 27.1313 0.1397398
1.061711 5.132885 6.320043
-1.384048 7.5716 0.3881711
-0.7123863 12.29009 0.7567273
-1.887764 1.143706 7.731771
0.9798067 0.5717826 1.123876
-0.58626 8.963863 0.7634826
1.636844 10.03522 2.942761
2.179224 3.216242 2.915654
2.508404 5.271042 4.582104
-1.158552 2.467274 0.5692051
-0.6221659 15.06156 5.522031
1.618017 10.21643 2.984885
-0.07225605 10.0892 1.029603
0.06393272 3.123057 1.45409
1.374923 12.86814 3.25894
-0.1263239 12.9901 1.075123
1.670212 7.388048 2.428076
1.169395 7.709052 5.776941
-0.4254277 9.581031 6.355988
-1.26887 31.40419 1.305936
-1.959827 16.08362 5.321218
-2.547066 13.8574 -0.7238321
-0.1306322 6.710341 1.054261
0.6158468 5.005464 6.57461
14.26298 9.929517 -2.186993
-0.6053485 3.154758 -2.731261
-0.427106 34.02961 1.144139
-1.05694 43.8756 2.363063
7.121944 116.3653 10.54125
-1.478044 50.42212 3.918903
11.4113 77.40887 9.817633
-0.9249799 90.57344 9.844166
-0.721158 99.9968 11.13727
0.7555403 116.993 11.84122
-0.1805391 2.795019 -2.232767
9.887387 51.68806 4.233037
3.744335 116.4161 11.75222
14.90996 8.956971 -0.9355232
8.88244 116.3505 9.675539
15.95757 3.027491 -1.57357
8.089645 108.4858 10.69805
8.553353 113.6331 9.73107
9.007545 71.75724 8.968129
9.61297 76.49674 9.689885
11.60192 80.28693 10.08108
8.215425 30.29556 1.124313
1.563743 42.8665 2.14977
-1.259775 68.69302 8.328535
11.21818 83.78374 10.22581
2.222344 92.28748 9.685847
-0.2751668 101.9938 11.72312
14.76429 6.352042 -2.410966
3.798372 115.5874 11.75853
-1.076713 6.011042 -2.939569
2.013348 1.748684 0.3548568
12.14249 23.2173 -1.279415
-0.0590831 35.58413 1.363493
0.8901531 39.95756 1.708653
-0.2446267 48.18577 3.347612
-1.048026 54.08738 4.849729
10.2559 60.88499 6.503782
9.75188 66.92551 7.965973
8.355403 63.04916 7.038626
10.2686 78.17917 9.886211
-1.093483 81.64442 10.08661
8.607269 87.5379 10.12233
1.455262 97.87568 10.38277
9.036129 103.2783 10.01922
9.28287 106.8464 10.27649
12.7632 2.275535 -2.983999
1.137569 112.3852 11.86285
-3.001183 6.650233 -3.199227
-1.103231 6.412448 -2.933614
4.154985 2.521298 1.218705
-0.1296224 24.6377 -0.6305003
-0.1593385 28.16181 -0.1549135
10.18634 40.56845 1.619598
-0.6554182 42.22462 2.055354
6.09832 46.47002 2.85196
-0.7903463 43.82889 2.352506
1.793838 49.35555 3.636127
7.70609 57.51901 5.683291
6.63344 55.80022 5.273191
5.836918 65.01772 7.50965
2.876071 64.24293 7.323627
-0.06318051 67.41427 8.052361
6.001446 63.46287 7.138583
-1.602203 72.80944 9.109968
7.708482 73.90774 9.313999
-1.562028 77.96249 9.807317
9.160315 80.08088 10.03962
11.05022 82.19891 10.17981
-0.6416606 88.26208 10.0326
8.700488 88.99604 10.01321
0.2192747 91.45665 9.761651
6.722998 94.6909 9.485901
7.829279 91.90231 9.708084
7.359292 99.09977 9.782806
1.704741 99.54482 10.91817
5.423654 102.7831 11.07754
0.8783297 105.4601 12.27446
4.343623 107.2669 12.11614
2.230683 108.4017 12.27014
14.74087 5.035038 -2.673011
4.18592 112.2319 11.79424
7.81713 110.0434 10.5869
-2.471267 12.17388 -2.46528
-0.8217337 8.724857 -2.586641
1.859682 3.218242 0.2720981
6.852664 3.177249 0.5270034
11.26617 18.7591 -1.562637
-1.929873 21.73483 -0.8699468
9.63028 30.76476 0.7204784
10.62342 32.5313 0.5500795
0.9707218 29.72033 0.9941727
8.805549 39.55038 1.528741
1.532439 39.83492 1.68481
3.730453 36.77601 1.372207
5.433922 37.37579 1.385783
3.808555 34.24796 1.293246
6.840336 46.07967 2.74092
7.972087 54.88274 5.051391
0.03874173 59.9347 6.284294
10.26213 68.46248 8.317179
0.3777682 70.85526 8.763484
5.70335 61.68147 6.707025
2.859761 75.85912 9.568899
9.365932 73.20387 9.215631
0.4987386 77.55864 9.765903
0.4463481 84.67095 10.15909
1.054207 82.06202 10.10726
1.595933 90.84566 9.818531
6.854764 95.05878 9.474177
5.009523 90.5821 9.845719
1.614573 97.26905 10.15166
-0.04502409 102.2519 11.79129
2.754497 104.6206 12.1233
2.790607 102.9011 11.77993
12.32735 12.27225 -2.395102
6.065236 110.9186 11.29231
-1.511833 17.07203 -1.999798
11.24609 14.98233 -1.796682
-0.7737228 22.00626 -1.297138
10.28453 36.58773 1.246756
4.778502 34.384 1.273897
6.677221 32.83709 1.232872
2.116071 40.09455 1.710202
7.583682 49.13159 3.527149
3.635539 51.26 4.124017
2.265636 50.87344 4.027289
1.879645 54.1023 4.853517
2.108526 60.43128 6.40499
4.986643 62.80088 6.978954
8.312831 66.91525 7.957845
6.489225 69.41905 8.49896
-0.1442221 70.41739 8.679594
3.735624 75.33985 9.501614
2.822984 73.85192 9.282949
9.406182 72.65133 9.12656
5.887006 82.91225 10.15768
3.321002 83.7356 10.16219
5.753961 78.34157 9.864251
3.380367 99.81202 10.73697
11.96234 13.01115 -2.250509
10.8272 8.289635 -1.83495
9.151963 3.669708 -0.8402714
10.77089 22.39855 -1.036928
4.778174 27.59329 1.525062
1.316326 43.8488 2.340515
1.3326 71.21542 8.831965
4.773554 65.94513 7.72539
6.194418 88.63484 10.02665
4.473659 85.34772 10.16654
4.827288 100.908 10.75149
9.567413 7.989254 -0.9492373
4.48267 6.262775 1.369114
9.279899 6.272433 -0.8213683
9.487148 16.36085 -0.4455383
7.808382 12.40404 0.4874742
6.652288 27.21431 1.352504
8.404085 26.47225 0.9355886
2.954137 41.21768 1.855755
3.473603 67.00532 7.964803
5.126859 88.5629 10.02646
12.44896 6.962925 -2.664452
0.6310976 9.309857 -0.9233849
8.709235 4.202267 -0.5378284
8.994976 12.42066 -0.3233109
1.221283 25.48568 0.7285144
3.524205 40.14646 1.697535
3.393076 53.6436 4.738136
1.15347 14.17997 -0.06345298
7.217383 6.863388 0.4883096
10.63056 9.248947 -1.672212
7.613649 4.687265 0.1460626
9.956957 9.850252 -1.153334
5.26102 28.8299 1.443603
3.507889 56.3103 5.399677
2.588954 8.161039 0.9640245
7.779813 10.23433 0.4017899
7.262866 8.052999 0.5392006
4.016373 28.3272 1.544548
1.173959 10.78918 -0.1963914
3.267662 6.56261 1.173471
8.441362 15.8757 0.3065789
3.436758 24.89454 1.624833
2.188812 26.89149 1.42477
3.870692 24.73354 1.631347
1.23301 16.11705 0.1313041
1.624692 28.63074 1.252632
1.096105 21.82202 0.3065788
1.9328 16.92539 0.8059262
8.782299 19.58989 0.2755163
7.955391 19.22116 0.778434
7.019289 18.92488 1.180561
2.118159 49.31072 3.622921
6.456059 44.63101 2.417845
3.787304 46.73302 2.954284
5.101353 80.36102 10.02963
0.3649988 11.36564 -1.19604
2.926232 44.02179 2.355554
12.98355 11.14284 0.472685
10.78122 2.225727 0.3896604
12.24276 23.62759 -0.008569495
12.78859 19.59571 0.1130221
10.43432 25.22632 1.33068
11.9756 34.32444 1.002384
13.85966 11.42011 -0.06434868
13.26014 6.20855 0.5585492
12.69337 12.07347 0.552274
12.57397 9.323037 5.165668
11.68546 31.20851 1.556655
12.20731 24.93986 3.223321
12.12123 4.20431 4.900486
11.27725 26.11451 0.5050536
6.700949 1.974122 4.293902
11.3799 3.925669 4.685352
12.07392 6.346755 4.872299
11.29208 23.32503 0.5943612
15.66899 1.854325 -0.3708189
9.04763 2.278575 4.909277
11.91212 17.65569 0.5169479
10.84577 13.5421 0.6047835
12.75565 4.082897 0.5935092
6.695926 0.9894646 1.753898
9.379819 18.27626 3.021214
9.809895 19.74152 1.315828
11.98456 8.485311 4.77586
9.95654 2.810693 0.4294379
7.65162 2.542883 1.170748
9.794182 2.79306 0.4130042
9.773841 5.79544 0.7022321
9.49542 15.25881 0.9350656
10.60715 12.52781 0.604259
10.92595 9.256542 0.6334798
8.42002 11.22016 1.363409
7.661231 6.900408 1.449966
9.112277 5.661753 4.783435
7.97827 5.576083 4.603185
8.875741 15.26225 1.518155
7.4856 8.226303 2.111698
11.59474 6.757422 0.6895236
11.97863 32.0738 1.471612
11.06372 23.67521 3.087685
11.23539 24.61599 3.07019
17.43143 2.785822 8.038739
13.53143 82.08916 10.21185
19.6594 4.326528 7.399807
11.91235 40.37092 1.547551
11.86635 55.25677 5.157942
11.29194 67.61 8.132964
19.27464 70.71241 4.848083
18.43948 89.4938 6.274529
10.72081 101.6981 9.339187
10.73015 116.5474 8.27633
17.36313 3.627659 7.508332
19.0041 52.85908 -0.434255
10.66583 115.6177 8.235902
24.80873 9.556336 -3.003599
12.51869 115.3987 2.679809
16.01027 105.4951 3.4867
10.98434 101.2167 9.233753
10.02237 113.5201 8.856369
18.94664 58.29683 0.4651571
17.71871 83.45921 8.341631
12.53221 86.06793 10.2329
14.58882 31.59531 1.251275
15.18953 55.64508 5.040774
11.53947 61.78503 6.733994
20.29859 85.67374 1.909331
15.08913 94.05996 8.541436
15.92371 106.1023 2.850687
24.98959 7.599652 -3.237318
9.435352 110.6218 9.707575
16.15935 5.102785 7.089556
22.88727 6.340765 5.51655
23.9311 33.16282 -2.876671
22.45705 39.80305 -3.017805
20.44006 46.38601 -1.832732
11.45935 46.01116 2.569443
11.14945 52.66568 4.534984
10.29812 58.79956 5.97521
12.75675 67.40937 8.105935
13.29326 71.94245 9.07507
12.67376 78.03282 9.912666
14.2971 83.85275 10.16185
19.2865 90.97503 1.346333
11.77754 94.17089 9.426635
16.54936 103.5035 2.509244
27.39023 5.269343 4.512193
27.31418 3.458659 -0.0897319
10.11202 112.1101 8.990374
13.39656 13.92275 5.408481
16.36498 8.205629 5.843876
26.17754 19.34887 -2.503652
24.33379 30.57727 -4.253487
22.80751 38.952 -3.936924
21.34688 44.73034 -2.970954
18.99869 46.52155 0.4410993
14.06442 46.89472 2.64109
18.30563 54.24551 1.576633
18.92645 60.20461 1.510355
13.27395 59.22896 6.023116
18.08805 64.4495 4.975417
17.11016 69.41867 7.281578
15.88577 69.05092 7.931873
12.62504 71.40208 8.956916
18.61877 77.41126 7.099478
19.49463 76.57937 5.560475
20.04024 83.81242 4.380459
20.03887 81.77888 4.630683
20.51587 81.64917 2.738919
13.1257 89.61068 9.970955
19.36953 90.06429 2.922766
14.29429 91.24622 9.534803
18.69047 92.8354 2.575928
17.39255 95.52584 4.974303
17.05091 101.1183 1.743403
17.52065 96.86241 3.391295
15.93577 102.7778 5.52707
15.85411 104.6749 4.959789
12.84902 106.3835 8.592291
24.57918 12.35162 -3.15727
12.35918 113.5919 6.052465
11.96325 109.7262 8.402644
13.89363 14.22225 5.474462
17.02986 6.737588 5.594606
18.92863 5.319196 5.55195
27.63093 5.197556 4.500245
25.63709 23.97227 -2.622751
25.46191 25.48297 -2.775089
21.64081 29.71651 -1.154817
13.76073 28.44036 2.169987
15.60385 32.83888 0.9068296
21.84817 35.35119 -1.149404
14.19117 36.48536 1.092781
16.25195 36.39632 0.9595985
20.44373 38.26559 0.2329073
15.67616 41.60587 1.500785
19.21457 47.94285 -0.04489876
14.99061 56.78426 5.177866
18.6691 61.6233 2.854828
19.88011 68.31362 2.014587
14.75456 66.60052 7.701953
14.68514 72.78655 9.088948
19.5031 73.55485 4.958484
16.5289 76.67405 8.951711
14.42314 84.93324 10.11705
15.94035 86.21528 9.502807
18.4014 78.84689 7.559644
16.94697 80.66417 8.991153
15.48989 93.10443 8.531401
16.49849 97.21621 6.006554
14.73581 95.78479 8.36365
17.80851 96.58272 1.662333
14.92986 107.3562 5.344214
13.6938 107.4129 7.458614
26.99698 10.27476 -1.276339
26.98499 4.980848 0.0004318461
27.32407 6.299719 3.154691
13.88561 17.5681 4.776748
23.6157 28.70826 -2.28374
22.98368 33.51771 -1.879372
20.79292 31.2586 -0.4742947
21.4067 39.45565 -0.8213288
18.4552 50.32096 1.393941
14.50002 47.23057 2.734717
14.1423 53.69443 4.959299
19.69214 67.65404 2.625444
19.04925 69.77419 5.059725
13.62963 70.38613 8.787425
16.70668 75.50918 8.694787
17.24889 74.65328 8.201654
19.54281 86.47482 5.054144
15.00182 86.33155 9.896457
17.99501 79.55692 8.014936
16.53385 100.5082 4.801349
16.38525 101.4105 4.95541
13.45089 108.0028 7.519781
24.62834 14.31971 -3.251625
27.78879 10.26095 -0.6363543
21.29991 7.045543 3.940923
26.93015 15.90179 -1.805274
13.94231 26.24688 2.534828
18.77365 38.18734 0.9448107
13.4784 50.39569 3.887715
13.70913 54.44182 5.060467
15.1485 70.22674 8.481858
15.36806 75.571 9.310917
18.13671 88.55076 7.180916
15.86048 96.86751 7.053002
15.0787 100.5932 7.072983
26.9475 9.653744 1.461654
20.79452 6.62937 4.365389
27.18084 8.177444 1.814943
25.51241 17.66858 -0.02200334
23.92057 13.82779 0.5376377
20.48209 27.52766 -0.6267
22.63347 27.39682 -1.830587
16.08069 41.30933 1.448471
17.35332 52.82023 3.313643
16.56989 61.26414 5.438882
17.32311 87.90789 8.317425
28.24547 8.281857 0.2748226
16.27906 12.05277 4.564165
26.0941 6.128421 3.545542
25.62093 14.04355 0.596099
22.66708 26.18898 -1.684422
18.63152 39.41381 1.086263
16.04571 54.74312 4.666941
15.74843 59.50993 5.511996
15.32428 10.40157 6.04377
24.28432 7.468967 2.433546
25.05626 8.482583 1.699273
25.54815 19.96439 -0.5550328
15.52005 20.02138 2.710957
19.0377 29.36338 0.005469803
17.2282 53.46821 3.600464
19.90607 13.35487 1.415948
21.87627 8.953309 2.005062
22.82696 13.38952 0.6346216
23.44987 10.53179 1.211163
16.01054 27.49162 0.9871867
20.49128 12.30076 1.458303
21.88299 9.176187 1.919443
20.82249 18.39091 0.04517464
17.08983 31.06955 0.5699968
17.69688 25.92273 0.4926412
19.65791 25.01426 -0.1721246
16.88443 22.10966 1.159731
20.34873 30.03878 -0.4271813
19.85065 22.24233 -0.08939154
22.46597 22.65171 -1.044619
23.39481 21.50901 -0.8018276
20.87823 21.45779 -0.4339372
15.93316 94.25002 7.814332
17.95348 43.47723 1.399553
18.8103 43.94722 0.971788
21.41563 10.62649 1.618073
18.543 10.64597 2.923786
20.58604 17.33723 0.307887
25.78497 3.106968 -4.130981
24.41942 7.815771 -4.610157
26.97229 18.57843 -3.687657
24.00609 30.2631 -4.550361
23.86871 27.75865 -4.766649
23.67121 32.04591 -4.050195
28.69679 2.524096 -7.458441
27.43739 8.670103 -7.322807
27.35363 9.49151 -7.080841
25.20847 29.88624 -3.977828
25.14928 5.409488 -4.432221
26.01257 25.49387 -3.992563
24.49833 6.296868 -5.386978
23.48284 15.92841 -4.827159
23.23512 23.35543 -5.805008
24.07129 21.91715 -3.982289
26.82187 5.923227 -7.086551
25.40628 19.87873 -4.303638
24.25421 26.56919 -4.929992
24.75401 23.48265 -4.838749
24.78386 4.52571 -9.931804
26.14302 15.54724 -3.694039
25.01328 11.43725 -4.839278
25.43964 4.441632 -8.926066
28.08314 2.931403 -6.78037
24.14193 20.85388 -6.587664
26.72826 11.78811 -5.325902
23.98347 7.621347 -6.231607
26.12741 3.185298 -7.338618
24.99128 5.671627 -9.459384
28.08784 6.139302 -6.794797
25.01512 13.88781 -6.76105
25.08336 7.001388 -7.930225
24.76814 16.45624 -5.959761
25.07466 8.931944 -7.994477
27.74807 6.787302 -6.276202
24.5502 12.654 -7.876476
23.42293 13.23003 -7.918396
25.68688 8.884551 -4.675402
23.86636 9.138842 -6.18074
23.35629 29.26356 -5.018012
23.81797 18.07443 -4.224501
25.08576 15.10096 -4.544797
23.8102 14.1934 -7.873879
12.56188 113.999 0.1158943
20.13296 70.56089 -0.4309563
11.87738 114.1562 -1.387075
22.80528 40.0246 -5.6631
19.44074 61.63603 -0.9336739
20.28047 72.36395 1.242603
17.09178 66.27005 -6.518978
17.94592 95.97978 0.435793
17.0263 100.8348 0.2179923
12.75966 113.8009 0.5286477
24.9842 5.752486 -10.8349
14.32653 67.52016 -8.276749
16.72577 9.838619 -16.73977
17.41983 2.59415 -18.27262
11.91375 115.4476 -0.3882494
12.61808 99.95033 -8.627667
17.59222 3.445942 -16.92474
10.1366 109.901 -5.419424
14.69427 58.59565 -7.292324
14.63958 77.62203 -8.206632
9.879161 110.1956 -5.418627
27.74579 4.617862 -5.957297
16.53402 23.35715 -12.45944
15.85788 47.1485 -9.575258
19.49071 62.19807 -0.6866913
20.40001 74.37041 0.3116517
20.13228 85.52522 -1.209654
17.41334 96.62043 -2.484482
14.82568 109.2934 1.63092
17.70452 1.669384 -17.14789
29.45106 5.696187 -5.893696
28.44149 10.31873 -6.635419
26.4815 22.14009 -6.154514
23.77683 34.61185 -4.93241
22.28755 42.24546 -4.281692
13.86007 47.34542 -9.566203
20.26475 48.47014 -3.176002
19.20924 55.6012 -1.733739
19.09222 59.2064 0.3826291
20.07442 69.37333 1.249452
20.32535 72.73566 0.6284229
20.65068 80.95349 0.4953617
20.45513 84.39265 0.4207368
12.97174 94.048 -10.23292
13.86104 97.74637 -8.283301
11.27053 107.4992 -5.918135
17.4038 2.992731 -15.41034
13.70021 111.4713 0.2533695
12.92262 110.017 -3.045491
30.5052 3.56341 -6.273663
30.38054 6.752224 -6.320704
27.25809 3.193745 -10.80655
27.52509 21.89751 -5.479015
15.9033 31.24677 -12.81441
15.00838 42.75363 -11.09581
22.86345 39.34394 -6.680373
16.97894 46.75291 -9.614665
16.12737 50.36993 -8.265451
15.64753 54.8952 -7.351464
19.52911 51.70548 -2.100008
13.86871 63.78715 -7.979427
15.97075 66.64419 -7.449112
15.36888 64.64568 -7.57839
17.76298 70.78276 -6.278835
19.39594 71.73647 -3.675104
19.79002 65.70643 -0.0005687368
17.04467 73.51001 -7.043622
15.13681 79.3993 -7.888298
18.01019 79.98333 -5.94594
17.13434 84.33655 -6.666274
17.48418 82.18707 -6.40998
18.72849 78.64355 -5.062098
17.63747 78.73457 -6.33047
20.55882 77.06509 0.6408921
19.85492 87.30695 -1.315403
14.08934 90.09812 -9.572895
19.04472 91.93693 0.3452359
15.86611 93.05106 -7.496696
15.91331 96.21795 -6.208822
17.23256 98.91021 -0.9464849
14.87269 99.37925 -6.272325
11.58458 103.6596 -7.752876
15.54369 106.8942 0.6851457
19.00172 4.040676 -12.26149
14.60944 106.1903 -2.699749
30.95822 5.759488 -7.215014
30.37251 9.434328 -5.807323
29.62535 12.8125 -6.694242
27.72031 7.892817 -8.828323
16.39491 18.30695 -13.57148
28.07595 20.70825 -4.17429
18.21661 28.77719 -11.74749
21.32578 30.79311 -10.35111
25.49232 28.83238 -4.875264
17.63941 33.77589 -12.15223
16.53334 39.42865 -11.94885
17.63626 46.27834 -9.668177
16.45889 49.51809 -8.533726
20.99978 46.60046 -4.621773
19.16634 55.89951 -2.872196
19.28775 54.65927 -2.091532
14.38861 58.8899 -7.389775
18.40211 65.29262 -4.786783
17.10555 63.17467 -6.071999
19.23915 69.95417 -3.817036
15.53018 75.70621 -7.943829
19.46907 73.12383 -3.615928
20.51944 79.72542 -0.6996897
19.97633 86.99097 -0.9704961
19.85005 83.8688 -2.834429
18.36308 93.78804 -1.361015
18.01536 95.1731 -1.135274
16.74683 98.79225 -2.883907
16.19223 103.4482 -0.8041424
13.16267 110.1306 -2.619403
16.78938 11.87785 -13.76167
15.09947 106.3827 -1.455067
28.76725 10.007 -7.786753
16.34449 24.4203 -12.78454
26.1546 27.05536 -4.116628
22.90639 34.89497 -7.795951
21.85254 41.09554 -8.791715
22.08894 42.42879 -7.348167
21.53362 45.11547 -5.307105
20.39857 43.18668 -9.581702
19.22282 47.09558 -8.386826
20.7857 47.09494 -5.272907
19.13126 54.55396 -3.576394
17.56366 58.97936 -5.268702
19.70831 68.62694 -2.171945
19.24223 73.87237 -4.178177
18.42736 84.73223 -5.294979
19.37997 84.32409 -3.805345
17.75961 87.42233 -5.889286
14.11324 97.65546 -8.03857
17.40201 97.34811 -1.787778
15.61073 104.8552 -1.327388
19.02611 5.773726 -12.00868
30.21037 11.30988 -6.671433
23.68384 5.560834 -11.23689
26.53691 24.70354 -5.296068
21.95145 35.64966 -9.784409
17.96465 43.31962 -10.81984
19.16644 52.39153 -4.647492
18.09932 59.00389 -4.666256
18.63556 73.29765 -5.228348
18.77583 89.82465 -3.457896
17.34407 93.09431 -5.147254
13.47299 102.2207 -6.667549
28.51109 18.87276 -5.551237
19.37763 5.885714 -11.85882
18.18123 15.72892 -11.57904
18.54054 13.58434 -11.50544
16.54484 19.46549 -12.78097
21.09637 25.71339 -11.14751
17.94411 25.60147 -11.60521
20.44581 39.77567 -10.76593
22.97994 33.18084 -8.136661
17.1212 89.28106 -6.510917
17.12731 6.709673 -13.93789
29.89246 14.46064 -5.67564
29.0325 10.66555 -7.532286
21.26868 11.68845 -11.33453
25.70261 25.55273 -5.792978
21.7677 37.83651 -9.893959
22.98213 31.99532 -8.287515
20.79678 33.97973 -10.88213
26.94666 18.78543 -6.652267
22.49779 7.301113 -11.30295
23.02512 7.52295 -11.26613
21.91284 10.76118 -11.32945
22.77744 17.19917 -10.74379
25.95514 23.50368 -6.198371
25.72046 14.07302 -8.409626
25.06017 16.22014 -8.522325
22.12067 9.594654 -11.32876
19.66748 9.658788 -11.44445
27.15685 13.10644 -7.718096
25.3041 9.634994 -9.752147
23.33688 16.31837 -10.40269
24.38669 18.34159 -8.792219
24.75177 19.84341 -8.04491
21.31784 16.34033 -11.32494
26.20967 17.29299 -7.352484
23.975 29.31952 -7.051666
18.81357 20.99657 -11.42292
24.25431 24.30804 -7.657639
23.34089 28.5828 -8.090956
24.46465 24.8352 -7.284109
22.56269 24.04556 -10.00047
21.44341 18.94564 -11.24352
21.31114 21.8236 -11.25029
20.48786 22.75327 -11.44738
16.53755 4.256158 -18.46174
15.86989 4.796765 -18.62127
15.39223 13.28176 -16.69553
15.4114 15.56866 -16.21212
14.33344 29.68744 -11.65305
14.43999 31.16553 -11.34263
14.74447 24.04295 -11.25383
14.47631 3.313616 -18.8041
16.04047 4.775745 -11.79099
16.18906 14.56471 -16.05942
15.01054 33.45241 -12.42561
15.10088 21.1258 -11.2065
14.01339 18.36495 -11.93233
15.01984 13.79969 -16.70398
13.86674 20.28234 -12.0517
12.0362 17.83636 -13.9877
13.55262 24.04274 -12.22593
17.30917 1.665544 -11.49951
13.57501 19.04856 -12.11942
14.00075 26.75969 -11.83442
11.61019 0.7331386 -17.54472
14.25814 15.80581 -11.82604
14.38306 13.03775 -11.79966
11.30744 2.07334 -17.0707
10.84867 0.2111841 -12.38726
12.82608 21.16126 -12.83802
15.85252 9.363249 -11.65551
12.78519 5.41571 -17.66759
10.63617 3.881074 -12.9385
10.3979 5.348403 -14.59582
11.94309 2.693669 -12.0125
11.94385 12.76051 -12.6591
12.13741 9.989834 -12.26814
12.8065 14.76248 -12.14673
10.57862 6.320048 -14.30995
14.22132 5.726974 -11.87745
11.40623 9.481093 -15.48824
11.57555 11.91938 -15.23425
11.92918 7.470984 -12.23604
12.85149 8.339209 -17.20366
14.61408 32.57187 -12.6348
14.39266 18.11929 -15.82048
16.34401 14.06817 -10.74159
11.85026 15.8265 -14.15754
17.08349 9.10523 -9.215558
0.5031267 114.3688 -5.625401
13.65315 31.83263 -11.08281
7.443632 115.2785 -4.60632
15.07368 2.980072 -7.950037
12.44154 73.76291 -8.789696
1.734357 62.48571 -8.16591
7.419086 72.42542 -8.744475
11.1305 101.971 -8.932755
3.469946 3.23135 -17.07497
7.743087 111.1132 -5.7118
0.6767343 115.626 -5.708563
5.03632 42.05387 -10.91353
3.168501 8.853024 -15.89095
2.732835 15.41576 -14.46336
3.281517 101.9892 -10.85346
10.20448 84.04028 -9.237346
8.120771 111.4055 -5.501264
5.438678 55.82951 -8.194654
1.922725 88.27355 -11.54605
4.377247 52.55157 -8.638898
17.75407 4.747326 -9.444181
15.49434 20.83957 -9.836854
5.603992 44.29741 -10.41527
3.712384 59.06108 -8.079305
2.71491 76.61002 -8.774348
12.14608 85.90588 -9.70853
1.704093 97.70736 -12.28516
4.752182 106.2391 -8.517326
3.656226 2.303401 -15.79436
17.30576 7.689045 -9.244514
17.23854 8.788505 -10.47941
15.82054 20.10967 -10.49204
3.146433 38.19674 -11.4514
2.11328 39.93723 -11.20762
2.667539 48.39046 -9.44874
12.67788 47.00509 -9.697522
10.36091 57.27844 -7.827224
12.27723 61.00433 -7.752939
12.56679 67.24029 -8.519918
13.12964 74.47896 -8.714887
11.03056 78.22551 -8.696929
12.1864 83.81756 -8.990373
1.789478 92.72645 -12.6846
9.894516 100.8055 -10.25314
9.384333 109.6864 -5.839579
3.426736 3.076424 -14.96307
3.649462 109.3928 -6.893604
4.997529 109.0593 -6.889138
15.79275 3.751223 -7.867667
15.90648 5.838727 -8.137616
10.03818 2.436844 -11.46149
15.22388 23.20798 -10.18096
14.14852 29.30106 -10.58421
2.533759 43.67319 -10.51647
11.45884 39.9607 -11.53914
5.293891 47.34451 -9.665583
3.322839 49.9926 -9.113384
5.806727 53.49765 -8.448598
11.58578 50.70597 -8.688081
11.26398 60.35492 -7.76296
5.045959 67.03033 -8.4524
1.724708 68.05032 -8.513637
6.540717 72.47023 -8.740412
11.31965 66.48778 -8.434997
3.620141 72.91659 -8.736868
13.10469 73.48993 -8.727474
3.563848 77.03503 -8.775785
4.966727 82.70647 -9.192677
3.938098 86.67271 -10.80877
7.243262 79.54777 -8.759624
9.711777 77.07334 -8.758702
11.10597 77.15208 -8.752021
1.498549 87.74168 -11.30766
12.31612 82.71225 -8.751684
3.636966 87.99248 -11.45316
3.469432 94.7248 -12.75786
6.60798 95.75075 -12.65881
5.081514 92.30948 -12.73877
5.308551 99.06503 -11.98714
10.89017 102.8999 -8.649483
3.990942 103.2391 -10.2429
2.626396 11.58281 -15.95571
3.280478 107.2332 -8.021023
4.962771 104.6734 -9.461075
15.99278 14.95248 -9.160314
13.74783 5.92765 -9.018573
12.7461 4.948989 -10.0544
2.358452 19.81631 -14.22019
2.140391 22.32203 -14.12245
2.663908 25.69038 -11.96125
3.485981 30.13946 -11.21887
10.88006 27.61391 -12.21256
3.284245 33.76429 -11.60891
9.189413 39.63227 -11.49704
4.357835 45.65601 -10.07236
5.128364 49.29192 -9.223882
12.03731 47.7627 -9.474447
5.276292 57.69954 -8.071473
5.649804 58.65064 -8.022102
6.163079 58.12573 -8.0166
11.64735 63.29735 -8.035173
7.874706 62.12062 -8.019266
11.25765 69.02065 -8.625041
5.135608 72.89571 -8.743044
10.48902 74.15897 -8.797009
7.538162 75.85209 -8.780063
11.43525 86.27225 -10.1003
2.383533 92.04291 -12.62331
9.257525 94.30439 -12.25261
10.93255 94.41774 -11.51457
3.121186 101.9156 -10.88342
7.507164 102.5318 -10.40126
1.438832 106.2612 -8.588072
3.102671 7.828037 -14.27921
6.979788 104.7191 -9.290802
12.63127 4.132808 -10.14177
2.579215 23.51401 -11.98015
2.269148 25.29635 -13.24052
12.32569 35.79955 -11.98074
9.176122 38.93848 -11.59303
11.55067 43.09917 -10.85409
10.65127 42.99538 -10.85437
5.067083 45.25634 -10.17392
6.718376 47.94144 -9.509623
8.227619 54.98085 -8.148695
8.181539 54.32256 -8.23066
7.754378 56.90413 -8.00339
9.081286 69.0002 -8.607612
8.373848 74.56 -8.784579
4.750061 75.54645 -8.773303
10.1044 83.13338 -9.012041
5.220931 86.78929 -10.87314
5.660829 97.3995 -12.42663
7.429614 99.04345 -11.79262
2.902442 13.98689 -14.38666
2.606773 8.813233 -12.90993
11.86622 5.719993 -10.89307
5.980706 25.58215 -11.03753
9.199365 27.7488 -12.09405
11.71417 31.70246 -12.14927
8.420109 47.48004 -9.607338
11.59897 49.10167 -9.101235
8.338419 63.52751 -8.126998
6.477087 77.09549 -8.767957
5.683782 87.82978 -11.42371
7.734232 96.44774 -12.36868
2.625072 6.011905 -11.94593
9.645338 5.270653 -11.6033
2.794914 8.232611 -11.37714
2.563755 15.70352 -11.76731
2.592305 11.96714 -11.82045
5.697073 27.50387 -11.075
5.844624 26.48431 -11.04696
7.511604 41.08475 -11.18183
7.815305 37.82371 -11.66477
9.144557 51.47827 -8.643895
4.069374 91.08491 -12.49398
14.15242 15.7827 -9.249925
15.71693 11.09872 -8.573721
2.914817 18.59235 -11.17296
3.110356 8.724701 -10.87642
9.675763 27.67743 -12.18636
6.164357 40.18157 -11.29552
6.428737 32.26581 -11.61366
12.67511 14.23726 -10.44337
8.316566 6.200989 -11.32367
2.58592 10.07412 -11.86971
6.577246 13.01918 -10.74005
3.247554 20.6058 -10.92392
13.21004 20.32422 -10.18684
8.180193 35.83137 -11.80161
8.3576 14.13534 -11.59723
11.20237 11.92681 -11.49283
5.378595 15.40337 -10.3473
7.997934 29.94772 -11.80015
10.52894 6.475399 -11.53107
11.88854 11.70921 -11.06772
6.90906 30.69929 -11.61168
9.495595 21.59856 -12.09152
11.61522 15.23176 -11.35521
11.91841 21.13763 -11.34747
8.824011 26.07889 -12.01186
3.761425 41.79868 -10.93495
4.432228 99.27403 -11.9084
7.038908 36.25917 -11.73926
14.57523 11.06317 -8.742781
11.32104 25.8676 -11.9401
7.725646 21.17357 -11.5541
4.301955 22.66711 -10.53912
7.618088 17.50849 -11.40436
4.86369 101.4508 -11.13096
1.647777 20.57241 -10.45401
-1.614942 1.109646 -16.62601
1.323617 23.43124 -14.11222
1.863758 23.01707 -14.13047
1.395136 30.52082 -12.39718
1.471199 6.422742 -17.27452
2.334823 6.948849 -10.08585
3.931528 2.523515 -8.392487
-0.3155719 21.44227 -13.83158
0.3613003 4.628453 -17.35289
2.114437 18.78572 -9.332018
-1.296874 15.74785 -14.13632
2.356362 13.634 -15.70795
1.212194 28.6741 -12.98881
-0.004939102 21.91723 -13.9733
0.3921196 19.40518 -14.82425
-0.7539297 6.113704 -16.63294
4.234824 1.97492 -7.623963
-1.226608 4.823784 -11.84025
2.262367 3.557934 -17.76663
2.523438 1.253733 -9.645752
1.910909 17.63091 -10.31688
0.03402426 4.178001 -17.31224
-3.570251 1.22583 -13.03778
0.5078805 18.14138 -11.43952
-0.7864251 16.83061 -14.5735
-2.093571 2.817141 -16.05905
-2.990519 2.520949 -12.80803
-2.539204 3.92461 -15.48379
-2.408542 5.830234 -15.36725
-0.8908192 18.40446 -12.511
-1.389593 14.09354 -12.72286
0.6253117 3.95263 -11.06309
1.177371 8.91666 -10.86135
0.7156191 5.586278 -11.00301
-2.427433 7.401309 -13.18986
1.098106 10.11559 -10.94186
-0.7991729 11.77042 -15.70603
-2.022176 9.022602 -15.19054
0.6131351 10.09244 -16.56429
-0.512153 15.42741 -15.15871
0.09534778 25.82413 -13.03993
-1.064312 14.27085 -15.02877
-5.857047 3.00487 -11.94546
3.075446 10.055 -7.834634
-6.129649 114.0657 -5.198792
-3.295943 110.6932 -6.421257
1.320305 48.3734 -9.456663
-0.02976963 69.28609 -8.587911
1.423926 78.52917 -8.806272
1.313244 57.01276 -8.221958
0.3537611 97.35382 -12.35244
0.4247016 108.9176 -7.139094
-5.041203 4.707719 -11.87336
-7.840721 116.1591 -4.47387
-8.284234 115.6659 -4.535368
-5.581574 114.4638 -5.296807
-11.20934 34.82324 -11.40317
-10.43069 95.77406 -11.55392
-8.576254 73.41612 -8.774352
-1.09657 111.4117 -6.172792
-5.309281 56.83195 -8.089639
-9.507021 84.95873 -9.68714
-9.79126 60.85948 -7.883085
0.4173586 2.67087 -7.504233
-1.820274 24.13706 -11.13776
-9.096697 45.42222 -10.12117
-6.836109 65.93108 -8.370374
0.8849496 80.11277 -8.891208
-11.53892 87.73038 -10.62344
-3.274055 102.0651 -10.81902
-11.62574 3.076666 -8.290461
-1.375549 111.6585 -6.096686
2.976407 6.967531 -6.948665
-3.916123 2.794283 -11.40015
0.1033247 30.55267 -10.36685
-10.39646 38.3173 -11.63193
-10.34019 47.60807 -9.487679
0.5085072 45.8284 -10.01486
0.8199563 51.83874 -8.806019
-0.615875 59.14973 -8.114594
-8.400523 64.45565 -8.228181
-9.404012 72.67496 -8.766543
-11.04077 82.84824 -8.900698
-9.219317 84.83492 -9.639244
-0.8584701 92.0844 -12.61547
-9.629702 99.66391 -10.84134
-0.4197784 103.8689 -9.883259
-15.42721 9.076492 -8.027626
-1.198013 110.9974 -6.312048
-1.529899 108.7269 -7.238174
1.488528 13.04992 -7.654575
0.04638326 5.265611 -7.981367
-12.1818 23.70174 -9.216097
-10.68722 28.62024 -10.42197
0.1082921 34.99018 -11.43706
-4.730867 42.3884 -10.83596
-4.719995 49.11457 -9.206686
-8.764917 50.84754 -8.716856
0.4199007 43.31167 -10.58365
-7.828495 60.71139 -7.951595
-0.16375 57.80097 -8.164095
-1.110665 67.60725 -8.487988
-7.32611 73.07474 -8.76086
-2.323556 72.9141 -8.736403
-9.362566 77.83091 -8.731028
0.895879 78.95367 -8.819359
-11.23222 86.09033 -10.07576
0.864262 86.06886 -10.52485
-8.56297 88.9344 -11.78568
-7.26559 90.30209 -12.31707
-10.7663 97.53252 -10.9131
-11.39289 92.88657 -11.39598
-8.119623 98.78387 -11.69963
-7.779216 105.1816 -8.827432
-7.938644 106.4766 -7.94268
-0.0176227 102.9951 -10.33834
-4.600008 110.332 -6.447732
-2.904763 107.6997 -7.775987
0.501044 2.736179 -7.438778
1.482347 7.922776 -7.089266
-0.8974471 6.778497 -9.065202
-1.680453 5.574747 -9.860891
-13.34345 20.43857 -9.257155
-12.8463 21.89894 -9.115974
-11.16531 26.52863 -9.764266
-8.30005 31.82673 -11.8982
-0.2370722 27.16848 -10.03143
-10.56363 36.81034 -11.72806
-5.291745 33.23061 -11.71662
-8.450481 36.30238 -11.68467
-0.3806763 39.12828 -11.32385
-2.2806 35.4041 -11.56766
-0.4159167 41.43698 -10.96629
-0.2341548 51.11563 -8.9074
-8.119843 60.90728 -7.94899
-0.8005341 68.7042 -8.55639
-6.698331 65.3652 -8.321524
-3.085363 73.67652 -8.753284
-6.878885 80.41071 -8.793705
-9.13027 82.26353 -8.908707
-5.087731 84.41544 -9.692424
-0.7091059 86.48788 -10.72718
-1.738427 87.08736 -11.02084
-7.197622 88.49177 -11.7599
-0.1845321 94.8238 -12.70096
-2.388282 97.30149 -12.38883
-1.296392 100.014 -11.62517
-7.599236 102.3618 -10.45674
-4.565022 104.3245 -9.654173
-6.194344 101.7411 -10.98513
-12.35511 12.42718 -7.914878
1.447307 16.48386 -8.087506
-8.421485 3.428443 -11.3256
1.479799 19.03699 -8.373901
-7.306032 30.31707 -11.9603
-1.580869 38.33116 -11.43058
-1.925233 43.18688 -10.62494
-4.690437 52.05524 -8.642771
-2.950677 48.94081 -9.277979
-1.877009 62.49849 -8.151568
-2.452055 59.13092 -8.0824
-6.58945 67.01874 -8.458395
-4.039424 72.81827 -8.73995
-2.013203 72.90549 -8.735489
-2.192649 78.76528 -8.792053
-3.788193 77.2998 -8.765651
-5.163032 90.6895 -12.4557
-5.510716 94.21634 -12.84162
-7.63101 94.85897 -12.62221
-4.49611 98.55776 -12.12593
-4.849156 107.5679 -7.68741
-11.78796 5.434223 -8.128832
-4.757936 6.838539 -11.90641
-2.884339 8.981425 -11.09051
-6.955027 4.438761 -11.91416
-0.3159281 23.80717 -9.729133
-4.29957 38.00686 -11.50997
-7.310148 52.63076 -8.45867
-7.996975 59.27781 -7.909428
-4.575259 56.83222 -8.113572
-1.458746 66.09266 -8.383727
-3.176774 71.0963 -8.68294
-4.434788 68.05428 -8.525545
-7.541057 84.41322 -9.568197
-2.340477 84.74387 -9.907421
-6.359911 99.29008 -11.88307
0.1308649 14.60381 -8.414317
-11.11998 7.378677 -8.848635
-12.66914 14.21179 -7.930697
-10.48905 13.23632 -9.66347
-0.5922288 24.26986 -10.03668
-7.682765 27.19983 -12.10758
-8.701391 44.65973 -10.33031
-3.683 50.90257 -8.870167
-2.020503 44.91493 -10.22399
-5.437966 54.23428 -8.314132
-6.242383 82.75963 -9.140899
-14.0211 7.28878 -7.081679
-1.062705 13.63189 -9.662073
-10.51237 17.16644 -9.76438
-10.62391 9.347576 -9.450658
-3.699663 27.50777 -11.87655
-4.567387 49.9455 -9.033984
-2.529726 54.95393 -8.327681
-0.9636365 54.78455 -8.381761
-4.238605 14.49982 -11.98936
-4.790363 7.680146 -11.92581
-8.449779 8.315689 -11.47598
-11.39813 9.973107 -8.60541
-9.953137 21.77729 -10.58482
-1.016157 19.46894 -10.03547
-7.438002 54.54433 -8.197465
-7.798812 10.37432 -11.82914
-0.7496066 17.28354 -9.562448
-1.348511 26.28806 -10.94154
-9.085433 18.31497 -11.37985
-2.984561 13.42824 -11.34822
-3.560765 9.767344 -11.5165
-4.440276 30.22735 -11.84013
-2.852671 24.74944 -11.71298
-3.556043 34.65312 -11.60921
-10.05365 16.77306 -10.29741
-4.323233 12.53074 -11.96516
-2.335973 24.00068 -11.4542
-8.430512 17.97553 -11.7937
-4.470617 33.26381 -11.69213
-4.348547 22.35326 -12.06412
-6.316695 21.34869 -12.26042
-10.17821 21.54987 -10.30104
-3.820537 22.19736 -11.95123
-4.055935 83.35084 -9.370092
-8.326612 9.060611 -11.56334
-7.426136 19.26785 -12.17788
-15.83962 2.790399 -9.728856
-15.2961 2.19124 -10.05103
-9.691993 11.77028 -15.84022
-13.81648 3.775572 -10.63534
-13.54848 11.13081 -10.63871
-11.84659 27.06795 -13.71856
-12.59634 20.00278 -10.71084
-12.16933 13.95423 -15.72884
-10.51778 9.214087 -16.75763
-15.00484 5.894647 -10.06197
-12.05801 33.58456 -12.44379
-8.807657 11.98383 -14.03461
-12.32542 18.83708 -14.88627
-11.50005 20.54653 -11.16292
-13.16244 5.909049 -10.82825
-13.28945 2.107252 -17.08628
-12.82777 20.49038 -10.57281
-10.84948 21.67339 -11.49507
-11.67695 29.74154 -10.91538
-7.737564 1.107119 -13.78663
-12.06088 17.80013 -15.17569
-12.39748 16.76135 -10.96221
-11.13224 22.82182 -11.3867
-9.086869 2.141336 -12.05001
-8.040396 3.923634 -15.07467
-10.23115 19.15683 -11.85769
-10.72134 23.56292 -14.02833
-8.659628 10.32839 -13.87954
-12.83723 4.033933 -10.87709
-9.877799 6.582517 -11.63962
-12.07223 4.505269 -11.02435
-9.082123 13.89766 -14.11525
-8.951372 10.54848 -12.79303
-11.72855 11.49481 -11.11916
-9.092726 13.39812 -12.90861
-8.75281 9.385232 -15.08827
-10.24571 10.44082 -16.42253
-8.704248 9.084806 -13.04774
-8.849788 4.282393 -16.63308
-12.06873 10.57121 -11.05146
-8.639586 8.210698 -13.07681
-9.188123 8.07088 -12.21531
-13.45561 15.59541 -10.45955
-11.38126 31.68485 -11.5399
-20.80225 4.395844 -12.98914
-13.22544 15.14575 -14.19891
-12.8629 31.46543 -12.95487
-14.76578 28.32684 -11.64637
-11.6084 114.0505 -1.891949
-10.56719 67.98198 -8.550405
-11.75265 82.90536 -8.846449
-11.73641 92.68805 -11.20119
-10.95525 99.07278 -10.29435
-12.78103 113.6407 0.3890467
-12.01999 111.4673 -3.162575
-19.57167 49.16011 -6.389941
-22.1628 41.5973 -7.788751
-13.71357 3.766068 -15.17022
-24.94941 23.59069 -9.694186
-18.14577 91.96702 -3.891502
-16.34797 100.2018 -2.93081
-19.50962 74.10106 -3.584851
-15.51229 82.13999 -7.726577
-19.03061 78.12609 -4.63872
-13.50124 5.813048 -15.58442
-26.40427 18.16079 -10.33935
-21.39481 44.69443 -7.088027
-17.26833 60.34949 -5.566782
-18.44625 74.58081 -5.510253
-19.28969 88.48437 -2.733439
-13.74241 97.3558 -8.565842
-10.30632 110.1238 -5.23855
-26.33824 4.3399 -9.274776
-14.77964 4.293242 -11.38237
-15.49506 3.552169 -10.96551
-24.82637 27.58643 -10.8682
-13.25381 36.47085 -11.96005
-13.64497 40.94662 -11.45354
-11.47478 49.45728 -8.907488
-10.4841 55.50566 -7.928452
-12.10656 61.87218 -7.841342
-11.11814 65.07559 -8.275487
-17.94331 64.7652 -5.344285
-20.03992 80.2495 -2.621131
-20.15866 77.89431 -2.142979
-18.73309 91.03551 -2.871905
-16.56098 98.93125 -3.265138
-10.20985 106.834 -6.920846
-9.309256 109.9316 -5.758192
-28.13997 3.679682 -11.42948
-11.1623 112.899 -3.085389
-14.96139 3.008345 -11.2866
-14.01463 7.786973 -12.01922
-24.69193 20.51812 -9.707641
-24.34979 29.84305 -10.42136
-22.35146 38.81952 -8.750699
-21.46696 44.81739 -6.635783
-18.28028 47.87306 -8.621348
-19.59198 50.88976 -4.489142
-11.94393 47.46922 -9.499671
-10.7054 53.90635 -8.099794
-12.98927 59.8092 -7.606255
-13.68837 67.36031 -8.417178
-18.74356 71.95232 -4.996446
-11.96088 73.87416 -8.809318
-18.44815 79.2924 -5.434468
-19.42781 80.45992 -3.984297
-13.2506 78.30729 -8.519297
-16.78213 83.13313 -6.976028
-18.25022 89.70351 -4.659561
-18.74214 91.46106 -2.541585
-12.72424 94.35632 -10.36679
-17.76861 94.38734 -3.276086
-16.80272 100.4864 -1.35382
-15.59239 106.4062 0.1876604
-14.76569 106.5728 -2.095668
-13.03618 107.1107 -4.531422
-13.15999 112.4574 -0.01362146
-10.45994 108.6859 -5.826556
-11.8774 110.4755 -3.942897
-13.19949 19.01152 -13.76296
-14.91533 6.214904 -11.23528
-17.07396 5.303502 -10.74333
-24.53415 22.47981 -9.73954
-25.19245 23.85912 -9.88124
-23.34003 32.68092 -10.44351
-22.45834 32.44559 -11.07242
-13.90451 28.83865 -12.14921
-21.88608 38.43263 -9.607265
-20.92339 34.41236 -11.23018
-21.51701 40.81012 -9.434776
-13.39531 38.44527 -11.7977
-15.90354 38.11692 -12.05292
-17.91896 47.55767 -8.955103
-14.22824 50.60822 -8.401005
-18.72008 62.34511 -3.818967
-14.05275 68.92104 -8.409763
-18.6678 63.64437 -4.114148
-19.02761 74.67027 -4.606258
-18.50443 81.71619 -5.31902
-19.67708 81.76656 -3.47551
-14.46952 82.56033 -8.214505
-13.04648 88.2955 -10.03431
-18.70569 86.68381 -4.595419
-17.54243 90.67138 -5.648708
-14.54648 93.24322 -8.956398
-13.03913 98.74313 -8.732774
-12.83861 102.4442 -7.235609
-15.77695 102.5851 -2.753857
-13.51098 106.5983 -4.223982
-26.46727 12.53365 -9.66731
-27.15763 10.98205 -10.24047
-15.82773 9.435711 -10.84267
-25.20026 26.5082 -10.67634
-13.21725 27.49521 -12.9725
-18.31003 40.69224 -11.48843
-14.49015 41.14665 -11.48085
-13.37932 44.48915 -10.48392
-18.62085 50.26501 -6.957569
-18.60394 59.60858 -3.906705
-16.52512 62.23328 -6.463172
-16.7095 67.65536 -7.014439
-17.81045 68.14815 -5.994608
-16.00763 74.46043 -7.733152
-16.64219 69.48401 -7.212752
-17.48835 82.0392 -6.419556
-16.66515 90.81202 -6.937935
-14.66412 94.32467 -8.574752
-16.9821 94.15315 -5.341453
-14.44926 98.92426 -7.076575
-14.58294 105.2872 -3.351722
-27.40035 9.744729 -11.7677
-13.39424 17.01622 -13.19395
-22.68742 6.280243 -13.59829
-13.37752 25.76108 -12.79418
-16.77435 41.2732 -11.5852
-19.06769 36.52045 -11.82293
-17.83883 58.77951 -5.001892
-15.53324 58.82518 -6.914655
-15.24466 66.3018 -7.822596
-17.26391 71.84514 -6.830457
-14.96288 68.22213 -8.095852
-19.24115 84.28879 -4.089523
-14.77952 85.39026 -8.364385
-15.21449 100.071 -5.359215
-13.80516 15.94143 -12.22189
-25.85131 6.814118 -13.71519
-26.53539 17.01812 -10.21737
-24.16344 15.21421 -12.9993
-25.95812 21.5247 -11.02738
-17.44246 27.27696 -11.62192
-23.55349 26.37901 -11.84191
-16.02977 45.21255 -10.32716
-15.52544 49.13738 -8.841208
-14.43891 57.14376 -7.423394
-16.82117 70.55505 -7.161501
-26.74412 8.542082 -9.68033
-14.62857 14.476 -11.35443
-23.82368 9.410032 -13.53367
-24.06447 14.33566 -13.07526
-14.29389 26.01726 -11.7984
-18.6613 44.45187 -10.14182
-14.83739 58.68576 -7.246448
-13.29506 54.71807 -7.81004
-15.11699 14.18821 -11.08866
-23.71497 8.920584 -13.56417
-26.3717 11.79946 -12.74448
-18.66859 10.55006 -11.13191
-23.35253 15.56794 -12.85767
-15.89256 24.53407 -11.22012
-12.96559 56.56051 -7.626929
-16.38721 17.41092 -10.89474
-20.97552 11.32199 -12.16569
-21.17104 14.40016 -12.15216
-23.73147 22.04612 -12.30131
-16.43801 29.04018 -11.64541
-19.3649 13.79263 -11.41241
-20.03617 9.179032 -11.80496
-21.47094 16.68819 -12.19825
-15.93144 28.48047 -11.54241
-18.14626 26.29894 -11.64988
-16.49572 37.56588 -12.13302
-16.15368 19.30086 -10.96749
-14.93208 29.66531 -11.68579
-17.74211 35.3031 -12.16055
-15.60799 22.53619 -11.16308
-18.70681 23.45854 -11.56814
-20.21828 21.05503 -11.80137
-18.06053 19.37566 -11.20412
-18.22287 20.89409 -11.31587
-22.78733 21.63226 -12.28362
-16.88995 44.96205 -10.38901
-14.74279 11.11759 -11.28328
-21.55338 32.40043 -11.38114
-24.87175 8.187617 -9.778377
-27.03956 15.87752 -8.839109
-21.49019 4.490085 -12.16712
-22.45994 24.96409 -7.81347
-22.92397 27.19888 -9.041718
-23.51163 27.83741 -9.541381
-26.68544 1.790685 -5.859609
-28.3709 6.873319 -10.01446
-28.02179 7.218241 -9.41888
-24.17932 31.41479 -7.129118
-26.04564 21.82918 -8.016354
-25.77155 22.65484 -7.79234
-23.53961 15.85759 -10.59323
-22.75128 30.52219 -8.205304
-28.10148 5.006983 -9.107986
-25.81059 19.69171 -7.638633
-21.88155 15.95948 -10.07171
-24.21166 29.18612 -6.978954
-24.12557 3.479212 -8.535471
-26.43824 15.1106 -7.874858
-27.3955 9.230004 -8.607052
-23.61288 15.91184 -6.669477
-21.60426 2.97331 -11.1827
-25.10148 1.384339 -6.584299
-22.00687 20.87851 -9.104243
-24.98697 22.75931 -7.161648
-22.70296 15.28294 -10.74551
-22.83529 6.104904 -12.33154
-23.42092 6.046484 -8.377307
-22.83984 6.698627 -8.880408
-25.94807 4.16406 -5.884532
-24.30739 21.95669 -6.786018
-22.47448 14.19938 -7.711039
-23.93179 14.28342 -6.54453
-23.55318 9.985456 -7.104676
-25.16921 11.00394 -6.205399
-24.26165 6.742779 -6.741835
-25.77113 8.218083 -6.099081
-23.50341 9.089496 -11.48307
-21.65221 9.579767 -11.26095
-21.46501 7.934779 -10.40013
-22.74241 26.87529 -7.439595
-24.44905 9.401695 -10.33898
13.44709 125.4184 2.340647
-5.892378 122.5548 11.80185
11.83057 125.814 8.376883
-3.02848 126.0036 12.21821
-4.460004 123.4315 12.1269
12.23277 125.1765 7.693405
10.91509 126.9335 9.879352
12.59376 121.6786 1.840694
-9.49601 122.341 10.22614
-10.20381 122.4153 9.688255
13.10466 126.1377 6.08929
-10.02874 126.299 10.14138
-11.13743 125.7831 9.058043
-7.894807 125.8875 11.20464
9.389358 124.7027 10.28529
12.92642 125.9635 6.438316
-5.573965 124.9255 11.93993
3.719043 128.436 12.50955
-2.604649 126.0322 12.23856
-3.260844 122.9383 12.10495
10.69385 124.5221 9.282663
-7.862239 124.0738 11.14908
7.780941 122.9286 11.25583
12.00883 123.1439 7.764159
-5.126909 125.6198 12.03764
-1.375017 124.5964 12.22765
1.521668 123.0126 12.12137
11.64935 126.1328 8.649107
12.94378 123.7957 1.428968
12.29868 125.5601 -2.374696
-10.01774 120.0324 -2.828529
5.006671 124.1328 -7.49953
-12.43492 122.4836 0.6312843
-12.82136 121.2967 3.771715
-6.087278 125.2044 -7.652813
-12.92735 123.7332 1.358573
-8.712199 121.4279 -4.593285
5.81355 122.9613 -6.819934
-5.101348 121.1636 -6.369433
-12.09501 124.7248 -2.142614
-12.43506 122.0096 1.051275
1.492044 119.8928 -6.446317
-5.656115 123.5633 -7.087161
-3.219941 121.7575 -6.947953
-8.887523 121.428 -4.444793
-12.50507 123.1896 0.3340576
0.9283233 121.3632 -6.784224
-2.346637 122.8256 -7.307413
-8.095422 122.0081 -5.285056
8.774209 122.6641 -5.104002
2.566339 121.9928 -7.030245
-4.766289 123.9451 -7.5009
2.723001 124.2906 -7.847307
-13.08777 127.2364 6.700715
-3.751229 131.9259 13.28761
-12.14301 137.4227 9.340278
-12.86465 133.9814 11.35729
-11.53471 127.6323 9.700491
-1.972314 130.1748 12.94747
-13.7312 131.6399 10.27273
-11.61792 129.1324 11.39748
-9.377078 136.8162 12.03106
-11.42214 131.3688 12.59043
