# .PCD v0.7 - Point Cloud Data file format
VERSION 0.7
FIELDS x y z
SIZE 4 4 4
TYPE F F F
COUNT 1 1 1
WIDTH 1666
HEIGHT 1
VIEWPOINT 0 0 0 1 0 0 0
POINTS 1666
DATA ascii
-20.21666 86.42529 -0.2616142
-17.32535 91.71061 7.194545
-18.16833 91.87306 5.616011
-17.74376 87.04917 8.218953
-14.66208 93.28168 8.979317
-16.23857 101.5465 5.271112
-15.01659 104.7681 6.616314
-16.19984 105.1217 2.095754
-17.28287 95.85832 5.034322
-12.81597 111.0763 6.706573
-12.5861 107.6878 8.538458
-15.68991 106.7011 1.222702
-17.31659 69.74944 10.03755
-21.87963 60.37909 6.892737
-24.21121 70.64417 -0.200809
-23.63252 66.43587 0.08418383
-16.69339 74.713 9.72122
-17.13089 74.12321 10.17474
-20.84137 81.49056 -0.8304824
-19.38302 85.88849 6.808057
-20.17626 82.98094 5.387086
-19.5715 87.9886 4.1421
-20.00103 87.04936 2.831256
-18.83816 91.99561 3.16335
-16.71886 101.3159 4.052545
-15.02519 108.6022 3.430859
-17.33607 69.30921 10.03396
-17.82603 84.35007 8.444811
-18.73456 87.85825 7.006375
-20.00855 87.21725 2.547558
-17.20563 96.96384 4.503999
-17.90617 91.1872 6.530826
-15.92906 99.26357 6.279109
-18.07467 95.44428 0.750026
-17.05016 100.8903 2.643358
-16.24376 103.9578 4.15034
-20.70154 63.61076 1.337794
-18.54167 74.88951 7.803433
-20.59774 81.73613 -0.05130529
-20.2558 82.51346 5.551512
-17.97658 90.59899 6.703334
-16.85585 98.58243 4.66376
-17.44312 97.24351 3.407366
-17.41307 98.75481 2.041379
-19.58583 89.79248 1.255686
-20.53168 63.93088 3.056567
-16.2233 96.49703 6.730156
-26.81555 63.0885 0.6587345
-16.35628 61.45164 8.795074
-16.32368 61.18436 8.422976
-18.2341 62.30993 7.344568
-16.84114 62.15353 7.623664
-20.8957 73.90136 -0.1053237
-21.21178 77.0562 -0.6277888
-20.58881 77.89674 1.622316
-20.69926 70.23359 0.5289217
-21.74777 72.33288 -0.3259113
-20.50302 65.10997 2.983824
-21.83552 65.70993 5.985508
-20.39383 71.45358 0.9081431
-22.48746 65.55747 0.0751406
-20.62431 76.13328 4.426
-21.69871 64.80929 0.3584811
-20.32298 67.25021 2.170389
-20.45389 69.27353 3.159702
-20.51916 66.61056 3.179252
-21.22385 72.04955 5.250968
-20.08952 69.68218 7.6688
-21.63391 68.63418 6.586325
-19.28695 77.40559 7.89257
-20.19692 77.68889 7.644836
-21.51459 69.48373 5.608733
-19.40018 73.18323 7.764414
-18.82083 76.96472 7.897545
-21.81891 64.19266 5.538861
-20.61689 79.62933 1.986907
-20.40261 80.94721 5.163924
-20.36724 80.57632 4.468271
-20.29939 81.49246 4.297098
-19.631 78.06487 7.84626
-16.73223 81.83369 9.527332
-20.55904 81.51316 2.473716
-18.74032 80.63699 8.122857
-18.01478 82.2883 8.323238
-19.44921 82.63863 7.834048
-18.07224 67.06414 10.39614
-16.60671 67.07937 8.1795
-18.11866 65.03962 7.43422
-16.55983 69.2105 9.378681
-18.50988 72.12732 7.661239
-21.44674 71.27332 6.638333
-21.19323 63.58278 7.464955
-18.38897 66.48933 7.505718
-19.4578 68.49814 7.660492
-21.96821 62.31816 6.386305
-21.70883 68.74794 6.34342
-17.86916 67.12556 7.562262
-19.58783 84.89914 6.980838
-17.93014 65.80743 10.283
-20.50002 71.18694 3.36059
-20.70009 58.15253 12.9195
-17.79205 58.1409 16.17183
-18.67424 69.27409 12.70977
-19.85926 60.68986 13.86298
-18.73653 60.13488 15.31923
-18.2013 72.97565 11.7785
-15.40095 69.07491 12.1185
-16.50524 82.93464 12.45809
-14.71169 92.13731 9.269916
-13.09723 57.37429 16.84979
-13.85972 74.26482 12.01413
-13.02903 60.93895 12.26936
-15.45364 67.4795 12.2112
-15.21933 62.00598 12.40691
-16.20387 86.67934 11.66206
-15.21635 88.46796 10.57322
-15.97035 75.19444 11.72919
-15.48349 80.91072 11.12261
-13.88031 74.59453 12.04048
-17.74368 74.78963 12.685
-17.87644 71.27246 13.59413
-16.88788 78.03439 13.20175
-15.51608 78.48757 13.69518
-19.55105 57.8643 15.00056
-15.59926 83.56501 12.63436
-14.02563 62.06926 11.97622
-15.94071 75.78201 11.64967
-14.69628 81.51839 11.62692
-13.15381 65.89469 15.2488
-17.12424 82.02824 11.13384
-17.20082 57.51659 16.52809
-13.94779 58.34913 12.05854
-13.7598 73.74809 12.39814
-13.25793 69.12675 12.39197
-19.77982 60.43658 14.16287
-15.61619 58.35351 16.85316
-12.19378 56.94115 16.47187
-14.10944 77.90001 13.11366
-14.18092 75.43312 13.90232
-14.50253 66.17421 11.83181
-16.15342 62.23022 16.142
-18.45129 60.42777 15.45677
-14.51567 61.49067 16.41603
-16.37622 58.99647 16.57073
-18.02647 59.68827 15.85824
-11.93509 59.23579 13.29597
-13.26331 70.0267 14.13632
-13.95952 70.43957 14.62058
-14.50658 62.15782 16.30585
-13.32149 72.71629 13.27697
-13.88978 67.72341 15.2233
-14.59448 64.82744 15.83414
-12.14408 61.59234 13.32673
-13.41418 63.63253 15.8385
-15.53567 68.11855 15.44984
-11.91487 61.06823 15.08633
-17.36073 66.16906 15.1699
-12.30189 64.3704 13.49012
-17.81745 67.00401 14.7653
-17.26274 65.60286 15.30811
-15.80561 85.27902 12.00967
-16.2443 73.8422 14.40829
-18.31146 70.41865 13.15774
-17.41573 69.99292 14.45479
-15.10636 72.88406 14.74602
-18.30451 59.85301 12.37506
-16.61205 68.78574 12.50231
-2.248796 76.47622 12.45711
-12.99848 96.55853 8.954979
-12.22431 90.3198 9.881657
-12.87842 100.8221 8.602784
-3.265024 115.0553 11.80685
-2.886483 58.03997 15.50719
-8.765594 92.64371 9.654575
-3.097704 96.85931 10.0901
-7.231618 102.2029 10.40473
-3.86217 90.20277 9.911939
-3.886305 115.7721 11.74155
-4.681313 117.452 11.53429
-2.582187 104.3899 12.10368
-2.791807 83.37535 10.87138
-8.80706 90.14092 9.62527
-4.128436 116.0362 11.69103
-18.25151 58.66195 11.73569
-16.4001 67.56063 12.65839
-12.8564 88.50681 10.3881
-12.16221 100.3583 8.888874
-2.286358 103.4536 11.96203
-3.420895 58.23297 12.36915
-2.626938 62.04231 14.96058
-1.659693 115.1527 11.84247
-18.07897 59.57851 13.1664
-17.5878 61.78756 10.98752
-16.74643 71.53458 12.02191
-13.17899 79.09648 10.34089
-3.892082 88.17094 9.912506
-14.51161 87.1304 9.993035
-11.59619 101.5871 9.094578
-3.781583 92.35998 9.789107
-2.55149 105.8506 12.28974
-3.207133 99.70041 10.74382
-5.505581 57.56395 8.82987
-2.860497 71.78409 11.74657
-3.468785 58.56254 11.70546
-3.298571 60.16165 13.17722
-4.870639 116.3587 11.49319
-17.02498 61.85082 13.38179
-16.34417 76.33267 11.35618
-10.36378 57.93201 9.200624
-16.18011 77.39503 11.35472
-2.805826 85.5359 10.74203
-14.80306 84.13408 10.10307
-13.68302 86.55466 10.40773
-11.75156 98.74001 9.015179
-5.335716 96.52149 9.821583
-6.212901 104.4766 11.15882
-3.461562 102.058 11.4394
-5.040541 100.9761 10.71882
-3.2117 106.4931 12.29934
-10.76354 103.7934 9.525796
-9.094028 108.8379 10.23992
-7.877787 112.271 10.19197
-2.806303 66.59866 13.66332
-2.623262 112.6234 11.85441
-7.267715 114.3094 10.40824
-16.42225 59.50723 10.26081
-17.21949 69.42567 11.90515
-11.30328 59.94418 9.569514
-9.281381 60.15442 8.926854
-5.144311 74.47707 8.833406
-15.58798 82.32653 10.2425
-3.261849 79.99657 10.23232
-4.477487 86.38846 9.554626
-10.17854 90.81809 9.684648
-8.21525 97.7241 9.547553
-12.54291 96.11371 9.114298
-7.707245 103.5992 10.50729
-4.699559 99.02532 10.28364
-10.52808 105.3073 9.691587
-7.728479 110.915 10.4705
-6.406123 108.2576 11.40776
-6.107997 59.06131 8.555004
-2.988735 69.6012 11.54905
-1.461943 110.2983 12.07795
-16.74537 72.01457 11.89125
-17.42532 67.86594 11.2701
-15.54237 77.33709 9.970066
-14.03005 75.22828 10.01608
-13.09795 70.96715 10.11777
-3.232523 81.23526 10.26863
-2.967833 79.69997 10.6755
-5.798077 82.74762 9.003273
-4.503859 82.00333 9.294014
-6.770542 81.90668 8.900211
-12.63416 84.60645 10.63895
-12.19826 98.80042 8.907484
-10.23647 94.89041 9.431249
-8.773414 98.66467 9.520702
-7.513821 97.7942 9.648899
-5.784689 109.5903 11.57347
-16.72092 68.64371 10.48521
-5.979047 62.18317 8.545482
-7.704319 61.81553 8.530415
-10.28439 82.26304 9.803091
-15.21485 71.18508 9.926234
-8.202451 84.24719 9.080355
-12.42916 84.1362 10.62105
-7.946985 88.11797 9.411724
-11.25026 87.96774 9.944993
-8.46189 100.5597 9.791205
-10.73943 95.47673 9.350011
-5.18978 60.77613 8.910353
-11.02683 84.91574 10.08562
-10.12543 83.98887 9.661858
-9.008299 97.47048 9.432945
-3.350806 59.16131 12.73034
-11.89456 70.3668 10.14157
-8.97335 93.92564 9.572398
-7.117449 90.49117 9.68747
-8.252847 96.83614 9.520026
-8.471306 91.36975 9.693289
-10.78559 81.45539 10.13347
-4.438316 87.58334 9.684992
-12.57176 75.74984 10.33289
-6.787367 90.90706 9.718393
-10.21808 76.88904 9.849081
-5.553542 90.87182 9.764356
-7.453688 72.93365 8.669739
-7.187232 72.50778 8.607543
-8.500061 75.6666 9.000386
-10.5236 69.27415 9.791884
-7.330361 93.1412 9.674746
-7.381501 75.26089 8.700794
-5.909631 75.93394 8.685135
-7.984459 69.05402 8.722091
-6.16422 96.81775 9.751531
-8.815788 81.95489 9.137953
-3.256609 74.95012 10.2617
-10.2045 78.10792 9.834823
-4.759051 77.80656 9.057389
-4.380296 71.57124 9.143246
-6.217413 71.43428 8.572309
-7.533233 68.20506 8.595507
-11.12424 66.92166 9.874305
-7.386175 66.5153 8.520051
-4.150578 71.57351 9.309271
-5.560175 65.52441 8.667921
-7.955662 66.11485 8.645414
-6.280121 63.5692 8.46657
-6.858859 67.33062 8.475983
-11.99511 68.78656 10.07194
-4.13505 66.68491 9.489011
-3.177775 66.26408 11.29507
-3.112611 65.69842 12.1206
-17.03256 63.23752 10.61879
-3.210471 64.16853 12.46454
-16.10897 67.65918 10.13914
-16.86596 66.59151 10.57422
-16.5899 62.96289 10.34623
-14.675 69.5373 9.917051
-11.34441 65.1923 9.838634
-15.25367 65.7335 9.952361
-12.61888 65.91174 9.987972
-9.34335 63.30992 9.088286
-13.64869 60.97015 9.879047
-13.22159 76.72769 10.26029
-10.97334 77.29454 10.17728
-3.124295 73.70464 10.59693
-3.3645 62.01889 11.2949
-3.273915 63.17167 11.5774
-3.048985 69.58203 9.019188
-0.8792278 77.20066 12.55512
-1.661538 63.18218 15.18905
1.414112 64.96897 11.10255
-1.751574 72.50501 13.37175
-5.617989 61.81481 6.234287
-0.0711263 77.97581 11.55154
-1.563157 86.96711 10.04694
-0.3797879 76.15664 12.44616
-0.6247261 59.49147 15.88548
-4.558884 68.24078 6.820057
-5.783796 60.08884 6.998394
1.356265 66.62628 11.38188
-6.170545 58.59761 5.980618
-1.646278 86.56165 9.52651
-1.928608 88.37508 10.02195
1.897367 56.00018 14.8263
0.7447466 58.60597 15.38754
-0.8379096 60.67722 15.66216
-3.513854 73.97073 8.186822
-0.9004799 83.07528 10.79686
-0.8918365 79.87566 12.04895
-2.47878 79.47432 9.091786
-4.76377 57.17829 8.245287
-5.232454 60.94181 7.553834
-0.1854362 74.1086 12.81685
-1.417076 76.57973 9.576013
-1.443194 58.82912 16.09145
1.756181 56.34494 14.96887
0.3773781 74.84051 11.43798
-4.501865 65.34602 7.987541
1.133977 58.20414 15.18248
2.371286 58.53609 11.69389
-0.2643171 56.7241 9.461869
-5.367136 63.59744 6.139139
1.063013 60.27382 14.7513
1.782271 57.90962 10.57246
1.932509 61.20918 11.25123
1.900683 59.39811 10.89391
-3.532313 57.30938 8.794884
-0.3369401 60.93255 9.552985
-3.026397 61.50756 9.002308
-2.096451 62.23278 9.286389
-1.618921 64.69716 9.44311
1.796133 62.63794 13.0527
0.8772758 65.21027 13.85932
2.076009 59.96067 13.41443
0.448517 64.37512 14.39878
-3.376505 69.01575 8.772766
-3.236573 65.91691 8.918837
-1.662324 65.6646 9.440283
-3.733364 68.522 8.320441
-1.623774 66.52321 14.48485
0.1024379 67.30012 13.94551
-1.233592 76.3022 9.651905
-3.116829 72.18846 8.819865
-0.09700703 72.50957 10.09754
0.8804021 70.97029 11.34803
-3.334789 77.36346 7.522591
-4.454347 60.49702 8.306036
-2.909292 60.6563 9.022015
-3.903657 70.10334 8.177353
-0.1688112 69.39652 9.915154
-2.697923 68.28814 9.246309
-6.293335 57.89542 5.208487
7.183487 103.695 10.6886
-5.391197 58.74477 4.709963
5.223114 117.0983 11.35939
-2.522954 83.10749 8.142875
-0.2997277 92.53352 9.846591
-0.957029 102.2363 11.77565
0.6680801 115.9776 11.84536
-1.686485 93.83678 9.888915
7.741878 108.6478 10.81586
11.84234 59.68872 8.081724
14.11515 58.32106 8.266896
13.18851 69.19246 10.27871
6.392632 105.105 11.19404
6.148297 117.3905 11.02427
4.384735 117.9706 11.60962
8.763209 100.3584 9.735677
6.943292 57.64404 9.90647
3.311269 115.7132 11.80898
-1.881189 57.05895 6.158405
9.834038 88.54598 9.578835
8.958634 103.101 10.02463
0.8482595 103.5827 12.07188
12.1307 58.14953 8.001552
14.58684 59.65305 10.3099
5.087324 115.3834 11.43812
-5.195527 62.14151 5.319624
13.45201 66.36662 9.123829
2.024184 79.56879 10.08292
-1.489004 88.10609 8.885722
-1.385767 94.79305 9.943503
-1.368051 90.79611 9.684562
-0.912257 100.4786 11.2826
7.755331 106.1846 10.80517
0.1731679 108.8451 12.22596
13.91479 64.15791 9.383556
10.74298 57.92385 8.393579
1.065429 111.1431 11.9892
-4.994274 63.33291 5.404464
-1.573301 59.0509 6.453988
-0.2940798 60.26863 7.731441
0.4526689 59.9607 8.443518
-3.950963 72.38401 6.871579
10.32833 84.25461 9.687201
6.802693 88.51344 10.06753
9.405287 85.46729 9.437489
0.128623 86.7922 9.482653
9.810482 92.94466 9.733529
1.006153 93.27423 9.845915
4.498963 99.46931 10.45041
1.137571 102.4643 11.82562
0.5120423 101.4493 11.57902
5.755091 107.5176 11.67498
8.259926 109.1332 10.54054
0.9319214 110.0292 12.10825
1.425322 104.7283 12.21628
13.17548 66.6033 8.80451
5.308408 112.9643 11.43226
-3.70916 62.03078 5.139895
12.77876 72.79281 9.753551
12.49939 74.98906 10.18618
-2.218074 76.05749 6.966695
10.73568 80.5276 9.542141
-2.446295 80.91807 7.681735
-0.7176977 85.77691 8.822071
8.142456 91.34664 9.883709
5.498318 92.97744 9.793606
7.337991 84.12145 9.89782
8.035153 95.33805 9.6056
5.53303 101.4142 10.72672
0.7563869 101.7116 11.64755
6.550652 108.454 11.32892
6.38427 110.3215 11.21787
4.560285 59.10576 10.17269
4.705684 110.2355 11.89776
-2.367265 68.34436 6.132559
-0.1465979 60.72618 7.885604
12.34789 70.09109 8.764304
-3.841369 71.40556 6.518979
7.678541 85.06161 9.807429
4.751046 85.20383 10.28746
4.108655 84.53157 10.28028
1.575772 88.49194 9.868126
-0.02216465 85.62045 9.291035
4.075714 92.75434 9.814572
2.134657 107.238 12.33387
13.21033 68.17131 9.040026
5.978616 109.8306 11.46197
2.621579 110.9124 12.00307
-1.070534 79.90656 7.845027
5.860685 86.83822 10.21505
0.2387437 83.15191 9.259439
4.339731 93.03254 9.804791
5.05464 90.01018 9.936542
6.40416 94.08059 9.727042
4.195245 94.18146 9.79342
1.552587 107.3623 12.32383
3.046456 108.6786 12.24806
-0.4842575 65.09171 7.612277
10.28452 71.06628 8.673154
2.405481 89.29399 9.889073
0.5049041 84.36168 9.494293
4.729632 99.46348 10.40616
4.630623 95.23122 9.788436
4.78505 105.2298 11.7928
3.21485 99.94226 10.8242
3.618445 104.6779 11.98903
1.451604 89.1593 9.833569
2.899135 102.4474 11.64885
2.330375 100.1438 11.0414
4.271153 62.2141 10.25104
2.753897 112.836 11.83335
-4.056353 61.43034 4.994526
-4.489822 60.31847 4.828204
12.26021 60.33376 8.040076
10.4825 58.6604 8.481948
11.63363 61.02629 8.124385
-0.7333425 72.57552 7.630544
-0.1442504 71.90822 8.209585
1.021395 75.68369 9.439878
-0.9039799 66.39314 7.20142
-1.778095 69.32565 6.521583
-0.2033085 63.26999 7.858454
1.147667 64.91105 9.105614
1.195504 64.0962 9.128952
2.367744 72.65124 10.13884
2.079514 64.73027 9.718419
3.321202 71.17833 10.37765
-1.192684 65.3578 6.888544
1.73983 67.2686 9.630828
1.344786 69.01599 9.420054
4.125856 72.92438 10.51056
5.908018 72.68268 10.33638
7.941648 73.16985 9.40998
6.524219 72.89223 10.11993
7.101647 73.7749 9.839481
4.60691 75.09837 10.53213
1.881867 78.14835 9.999997
7.698875 74.10535 9.524112
5.435223 78.3977 10.45319
3.784698 77.49794 10.49168
4.715023 76.80937 10.5182
3.715968 80.58069 10.42871
9.190222 77.06111 9.061243
7.532562 77.15369 9.598844
8.786468 79.49292 9.19676
-0.01846308 80.52998 8.888344
8.321792 77.94835 9.28354
8.711208 82.37885 9.339839
6.462224 81.18552 10.21062
0.05003488 77.12381 8.669939
13.0015 64.89623 8.443758
12.16108 63.60591 8.116975
10.66735 67.50051 8.475327
7.631567 70.50334 9.58543
7.839677 69.23982 9.500313
5.767918 68.19923 10.31853
8.088892 66.43135 9.423708
7.335099 65.52273 9.761794
7.146059 59.75617 9.864042
7.478654 66.70099 9.693466
8.071971 64.9993 9.454579
3.043872 66.96333 10.16475
-0.2013498 82.07397 8.830283
-0.3897099 78.45077 8.306653
3.911293 66.84501 10.38067
13.04579 68.77255 10.59119
11.96684 56.56572 11.05032
13.3871 62.55531 10.82429
10.83699 66.23561 10.95161
11.63003 58.60529 11.03223
11.17976 68.75379 15.79159
10.33726 80.01681 11.10145
10.64249 85.81284 10.4166
11.66736 81.41196 10.32853
8.111094 56.49934 17.04723
9.208311 56.78073 17.89709
11.95032 60.31507 17.60627
9.160313 63.24715 16.54107
8.25491 71.62848 13.90336
13.89608 60.38374 10.79737
12.55423 73.98811 10.49893
10.70323 83.86823 10.72562
11.176 79.25027 13.44395
12.79225 67.30659 10.761
9.92693 81.88951 12.75343
8.933465 77.645 11.30873
6.495057 56.0364 11.14467
11.23924 57.4076 18.45745
9.579616 59.30243 17.62824
9.236821 74.65823 10.92546
11.54883 71.54465 11.00356
10.04078 81.41166 12.94281
6.876419 58.96283 11.12317
10.27483 59.89545 17.81557
11.32604 73.42297 14.66708
8.199499 63.20415 15.84414
9.230768 68.90162 15.43287
6.489644 59.52935 11.69062
6.027066 58.72682 12.51321
8.295485 57.80447 16.98251
8.236245 73.07602 13.61377
10.38547 71.91045 10.95527
10.60388 66.09406 16.52641
8.970161 70.88777 10.84337
10.08483 65.80719 10.73079
5.879808 58.1908 13.29706
6.442671 58.0968 14.77326
6.477988 61.46293 13.53258
8.116567 61.34988 10.66847
8.814504 77.37018 12.88839
7.796787 71.08438 12.84328
10.23502 67.62585 10.81207
8.799364 67.28488 10.75563
7.740419 66.03616 11.31225
9.328677 71.28638 14.9985
7.270526 66.51285 11.7648
7.870909 67.52279 11.31462
9.120977 62.76341 16.60606
7.12083 62.37997 14.61224
7.081257 63.36924 11.69254
7.649289 58.55276 16.25079
7.716733 69.92021 13.39187
13.20319 65.71095 10.7143
10.16709 64.12848 10.77627
6.842774 62.71768 13.98263
9.189909 60.49705 10.58219
11.89524 80.05215 10.38814
12.79026 69.65973 10.65741
8.818457 78.42685 12.68362
11.47228 111.4099 8.144105
13.12367 100.9877 8.479058
11.3191 116.3816 7.500801
8.446115 112.6797 9.858189
13.19334 86.86334 10.49541
7.602622 116.7113 10.3483
10.36577 104.0655 9.663472
9.104677 117.7166 9.781459
16.95649 88.59998 8.522619
18.0374 95.23823 2.590302
22.99356 61.84268 2.541995
9.854135 115.2432 8.951456
13.69038 111.823 3.466619
10.88952 117.0212 8.165437
19.41728 89.36105 3.843099
16.57996 103.4119 2.477516
17.91083 95.10947 3.528739
9.421181 116.737 9.418313
12.42018 72.4635 12.16962
11.83249 82.09056 12.21594
12.41559 97.36678 8.967659
10.18754 107.042 9.933817
21.31386 58.27964 1.0529
22.87545 62.71125 2.233321
12.48881 115.0973 4.656336
12.41536 63.33125 16.45462
17.03198 58.23377 11.31897
19.97219 87.12255 2.963263
12.29513 89.45628 10.5165
18.32263 94.00729 2.851342
12.24516 96.09512 9.159781
10.08356 97.82975 9.349705
14.58183 108.6943 4.954251
16.84814 101.9686 2.744603
19.42992 58.32603 4.41599
21.78333 59.6691 1.146086
23.09753 60.61247 2.193698
11.71842 113.5831 7.160239
12.56153 63.49713 14.82788
14.14623 59.28695 11.82614
16.86474 59.19341 11.29694
21.81516 73.28251 1.872737
20.57897 80.14319 2.413696
19.01477 90.69699 3.957018
19.69467 86.43398 4.653071
12.54316 89.48174 10.41647
12.3777 87.45386 10.93642
17.5942 97.40173 2.350482
13.13495 95.15128 9.14183
16.44694 103.2319 3.904111
12.08929 99.15292 8.912075
16.00688 104.7818 4.422616
15.72317 106.6915 3.228081
13.47861 108.7775 7.096218
11.72856 104.912 9.226312
9.888636 103.2735 9.750583
11.00054 113.2836 8.069585
14.15474 110.4316 4.146153
21.68293 68.38906 1.427392
13.41992 110.4711 6.081101
12.32998 67.69987 13.6195
21.76858 72.20463 1.706373
21.20062 75.37012 1.689201
20.46136 81.46117 3.140397
11.98419 81.57196 12.07179
11.40481 78.75624 13.52279
15.69161 90.65809 9.002447
19.74979 85.06401 4.947911
12.12123 86.92886 11.22092
14.19824 92.39989 9.350335
13.76278 95.33331 8.934348
17.43499 92.73223 6.552077
16.78698 95.29231 6.360332
13.09406 106.7354 8.250051
16.43381 102.2726 4.548366
11.83158 110.0175 8.403965
20.90058 68.65816 1.434334
17.7576 62.14048 10.94616
10.73256 114.733 8.164364
15.72297 62.02656 11.27062
19.10734 60.57538 10.36131
20.09597 78.84222 4.403436
12.89838 70.7191 11.60433
12.42709 74.81005 11.95003
13.63702 73.82401 10.8518
19.43172 86.01684 5.507294
17.73658 86.69614 8.147631
18.9915 84.38218 6.752536
14.32209 95.59705 8.636536
13.9143 95.8353 8.76471
15.20375 105.089 6.19525
12.40194 110.2538 7.706429
16.34547 61.06879 11.24497
12.78314 68.51937 11.85462
17.02087 78.76114 9.826542
19.35081 83.57308 6.170493
15.37633 94.56897 8.191938
16.10539 96.35179 6.904822
12.27576 107.2114 8.857866
20.04916 69.72056 2.203244
15.41629 63.96308 11.17186
20.1157 71.73656 2.473891
13.56036 69.36943 11.20279
18.39907 90.76159 5.78503
14.69168 85.48772 10.04271
16.68147 85.68819 9.200775
15.73841 97.8961 6.86657
14.25452 97.46205 8.279298
12.85809 63.47893 12.26841
15.28223 88.07755 9.649158
14.43773 101.8187 7.58749
15.23385 63.42135 11.25828
16.74906 89.67047 8.475837
13.96008 82.52324 10.27213
16.76395 83.16219 9.495555
16.96469 86.93811 8.827757
17.03825 82.4478 9.443377
15.81562 80.69243 9.968823
15.49014 79.88869 10.05377
12.65685 62.04189 12.89516
19.72705 59.90899 2.010703
19.55359 61.81392 2.458176
19.39269 59.95129 4.219769
19.49189 60.87438 2.602435
20.14514 79.9606 4.369154
20.14955 81.3967 4.340538
19.63987 79.96303 5.760825
19.23082 76.24608 7.927984
18.16454 79.87768 8.985052
19.23021 79.21777 7.28931
21.22213 64.4225 1.193791
19.64042 64.19278 2.437819
19.59085 69.7159 5.050713
19.86797 61.67484 6.707367
19.45673 66.69248 9.124766
19.89185 63.56368 8.148432
19.67784 64.96592 5.889459
19.80541 64.20345 8.435987
19.75873 66.99694 7.304416
18.8967 65.61457 9.974651
19.39723 67.65466 9.115158
15.08387 70.38062 10.69649
19.3515 72.16858 8.39899
19.68961 68.71481 6.751873
19.89654 74.40016 4.255553
19.96478 60.62183 7.617
15.02122 76.81338 10.26351
17.06298 77.00536 9.957949
18.8244 77.82653 8.526067
15.99051 74.74182 10.27009
19.24146 73.10815 8.537849
13.64903 70.50651 11.06913
16.10976 69.06961 10.69701
14.48926 66.37051 11.16803
16.17048 67.64864 10.80327
16.01282 72.3855 10.44715
18.18351 67.45622 10.28063
18.36477 66.36226 10.29048
19.69887 70.59951 4.01764
21.73307 64.29085 1.23207
19.56031 63.3019 2.632794
19.63038 74.89605 5.748935
19.55844 74.82803 6.39303
19.06324 76.85371 8.262498
22.62762 58.09702 4.195323
22.95007 61.89343 2.982943
21.91776 64.06789 6.289808
22.84078 58.03728 7.969216
24.96132 73.90251 -0.7341266
24.74484 72.51749 3.907547
21.694 78.77342 2.209589
20.91591 86.8418 2.900863
24.57505 74.68735 3.317096
24.13994 78.6983 1.83643
25.51188 71.1649 0.3872635
25.3195 72.60748 -0.124433
26.16196 68.31786 -1.152263
22.97237 72.53371 5.453368
22.15033 60.70061 4.451772
21.74933 77.6204 4.055138
25.12708 73.23359 -0.4567717
23.38176 81.49236 0.9353433
21.69204 78.98499 2.592854
21.85828 74.17553 3.004721
24.42734 77.17196 0.9796436
21.55867 80.02826 2.578819
22.79396 80.62136 3.962967
22.74101 84.4762 2.079911
27.852 59.26263 -2.133666
26.54676 62.93455 -0.1660771
22.15614 76.19337 4.828267
24.4103 75.41457 3.70804
24.91888 72.30256 3.005383
26.31011 67.22089 -0.6676283
23.23143 80.45324 3.751083
25.63544 59.04917 6.113264
25.8541 58.21941 5.049278
22.19288 76.14056 4.841268
25.40809 69.45219 1.599721
25.96756 69.29535 -1.066187
24.3197 57.37237 8.144378
25.74451 57.72899 6.251035
25.96912 63.12165 1.039305
26.29568 66.84503 -0.4173854
24.50609 70.50499 4.941511
21.59503 60.98569 5.785399
25.25845 59.63232 6.858843
25.46914 61.79457 5.502573
24.14616 61.17294 7.393891
26.28073 57.46723 1.659758
21.73682 72.57681 4.360222
24.61833 68.40182 5.441991
22.92431 71.54336 5.752165
25.35616 66.89921 3.290725
25.53594 62.83545 3.94566
22.28933 71.21223 5.647243
24.47805 66.50587 6.171342
21.95152 67.67601 4.061075
25.3002 72.08971 1.000752
25.64199 63.37339 2.41606
23.95311 64.99201 6.825397
25.04941 63.4964 6.022039
22.49886 64.3912 6.742961
21.9633 64.15382 4.540191
24.69197 75.5331 0.2994057
25.33237 72.38885 -0.5425947
25.93008 64.66105 0.8562834
25.69775 63.02749 2.193186
21.60699 85.54404 3.151199
27.63981 61.1521 -3.184321
25.18139 71.37675 -1.497099
13.52865 112.3516 2.208451
23.57051 79.51381 0.1345871
19.46072 90.15769 -0.1207472
24.17224 60.22932 -1.86947
12.43224 111.4151 -2.698767
16.27312 85.41574 -9.008368
20.73955 62.10358 -13.65278
16.96865 77.21674 -9.890547
15.80321 90.29783 -8.221909
19.36741 90.11514 -1.077357
22.02228 70.17395 0.644721
10.18026 115.8746 -2.804343
12.36615 116.2331 2.641421
18.18863 90.36244 -4.555931
13.21941 113.1591 2.401299
25.5693 59.03277 -3.911903
18.67001 57.74658 -5.924179
15.25695 90.59724 -8.810867
18.23331 94.81724 1.485226
14.15576 110.9014 1.750629
20.74875 58.66597 -11.98495
21.56005 58.22348 -14.38427
11.53913 114.3133 -1.839822
24.93614 61.99656 -3.071913
26.17071 66.30878 -2.611362
17.79884 72.05058 -10.24811
15.96123 87.5155 -9.757905
19.02158 91.44043 -1.270618
13.81748 96.57522 -8.772808
17.67448 97.01705 -0.4749552
12.39336 103.7869 -6.994034
16.92603 101.8048 1.907191
18.6106 58.15901 -5.969204
20.87429 59.5369 -12.38903
19.39893 59.481 -10.01856
20.33075 60.63586 -11.66702
11.49015 115.6836 -1.160378
25.18955 59.59416 -3.552742
23.68275 73.43575 -0.5525386
23.83125 64.06315 -1.025844
19.61963 58.41651 -1.216934
16.94923 77.90966 -10.03147
16.39161 84.07207 -10.49791
16.09484 87.26043 -9.129858
13.49837 96.37224 -9.161567
17.82028 96.58434 1.425196
14.88399 92.12729 -8.812574
14.6316 103.2121 -4.582657
14.42359 103.2046 -4.923305
14.83934 100.7654 -5.609159
16.08729 104.3621 -0.1801129
16.64973 103.1347 2.020408
14.18545 110.8618 2.620155
11.45453 108.1051 -5.475567
11.83717 111.0435 -3.636549
12.72749 114.1593 1.053115
22.42444 72.95588 0.7307143
24.01797 65.2912 -1.472382
23.54564 63.32213 -0.5221844
20.73496 60.84273 0.0570713
18.78204 60.41824 -3.827335
17.48162 74.86595 -10.37277
17.36239 77.79723 -11.856
16.42378 83.8132 -9.862029
16.47721 86.15153 -7.893235
17.6172 85.75755 -6.175911
15.55131 88.87846 -9.806186
20.57485 86.22115 0.9078159
16.78493 97.71149 -3.563735
17.76306 96.84128 0.2860464
15.51643 103.4399 -2.742654
15.53724 99.76755 -4.957117
15.88509 105.3621 0.1678166
13.99676 110.0408 -0.983476
12.5832 108.7469 -4.157656
19.40091 66.92352 -11.58142
24.99714 72.017 -1.452761
18.45313 72.60357 -11.52169
16.62663 78.91444 -9.356828
22.98092 81.41751 0.4859036
17.9115 85.32604 -5.876649
18.68368 88.94744 -4.030677
18.95827 91.935 -0.7503373
15.26509 98.13512 -6.307673
16.48796 98.62989 -3.67169
14.11803 106.3592 -3.470847
19.111 66.23577 -10.95619
24.30661 73.57383 -1.212025
18.53242 71.46179 -11.2209
23.54146 74.18768 -0.366114
22.62012 82.47124 0.7379127
18.82014 90.37931 -3.053991
16.11968 100.9662 -2.988092
17.99053 95.21159 -1.279256
23.63131 65.69003 -0.6195486
20.52273 62.9582 -0.00682404
17.26886 69.87366 -7.581224
17.44286 68.16224 -7.785038
17.75322 69.63856 -9.574256
16.69225 77.24402 -9.052276
17.26342 81.29173 -6.691671
19.77358 84.26223 -2.963853
17.06977 79.14082 -6.95103
19.6217 88.98196 -0.975192
22.86623 71.96844 0.5319113
22.8168 66.0075 0.350444
20.47663 68.7569 0.03385156
16.46999 79.87432 -8.452059
19.16756 82.67232 -4.390063
18.8184 87.98715 -4.076958
17.83365 89.85862 -5.357193
20.17295 70.19135 -0.5721475
21.44822 64.61272 0.3795758
16.71289 76.17093 -8.607103
18.68786 72.45721 -5.245251
20.75807 78.6235 0.4684648
16.99747 87.56143 -6.916674
17.06141 94.38215 -5.055921
20.41383 64.90506 -0.06009614
17.00029 75.94228 -7.296374
19.4569 70.71539 -3.782327
19.77965 68.14139 -1.737354
19.52401 65.4454 -2.184386
19.52963 66.4013 -2.531761
19.6473 73.06961 -3.521675
18.74233 85.73264 -4.716791
21.1917 69.42919 0.4588889
17.59193 73.13455 -6.567671
19.1429 70.78512 -4.438406
18.13388 87.18213 -5.419296
17.80168 72.23569 -6.301326
18.54543 59.97505 -4.661116
20.23932 79.18379 -2.056355
17.26085 71.3653 -7.097606
18.68003 66.90241 -4.810191
20.2581 76.51173 -1.628695
17.95968 67.62171 -5.917532
19.69211 80.22646 -3.577484
17.96895 65.81516 -8.901738
17.85884 63.74269 -6.849688
18.23466 62.89025 -8.041443
19.50135 81.00426 -3.923413
19.75245 78.45054 -3.506353
20.46943 84.28136 0.1578228
20.19466 76.75136 -2.016809
18.24421 64.54861 -9.198242
19.5463 60.96864 -10.6457
17.25421 75.86519 -6.854162
17.08896 78.18275 -6.998342
18.5479 61.62835 -8.599049
19.39122 64.43965 -10.99168
19.14767 72.92106 -4.571742
18.9234 60.99405 -9.525827
17.09285 90.73782 -6.342365
17.18186 92.11287 -5.849316
17.02556 92.88042 -5.829978
16.39808 94.33406 -6.283327
18.27494 91.92461 -3.611197
16.45173 88.39555 -7.768994
23.24659 67.68114 0.07011955
17.08677 76.32752 -7.081586
16.15411 91.40383 -7.496572
16.74564 62.32731 -15.31367
15.87682 72.61098 -13.69043
19.24309 66.98593 -13.65625
18.74819 69.99424 -13.13375
16.90161 74.93204 -12.89951
14.37284 62.55659 -15.35403
15.42651 83.12539 -11.51763
14.34081 86.19241 -10.16144
14.82764 88.89092 -9.771637
11.76834 58.12854 -14.1581
16.95944 56.74292 -10.57172
16.68722 58.31089 -10.60545
15.92392 63.95878 -10.32264
20.13294 60.39879 -14.98879
16.09997 78.94909 -12.37905
18.62674 60.83735 -15.30815
15.34381 76.24504 -9.054073
14.23935 80.80652 -9.652369
16.38952 69.95571 -9.053812
17.78006 69.34328 -13.77045
15.17677 76.62753 -9.153684
13.8632 77.25137 -12.35771
14.05895 76.71254 -12.54261
16.3419 75.87568 -12.92782
18.26786 62.33438 -15.12573
17.14244 59.68219 -10.19555
16.42716 59.42368 -10.53935
17.10599 60.98294 -10.03034
14.39134 82.91484 -10.94329
20.88874 57.92762 -15.38096
15.05274 60.13945 -15.74934
15.05882 68.94919 -10.1744
16.78482 62.87953 -10.0445
16.35727 67.50667 -9.582722
12.93199 57.95788 -15.69092
12.68715 56.2191 -11.95196
14.32388 74.66672 -10.21016
13.75666 76.06182 -12.54361
13.4141 75.70808 -11.27138
12.64502 66.86484 -12.73178
17.34089 63.04994 -15.14215
14.46252 59.62251 -10.95678
14.32881 60.28002 -15.67637
14.47574 59.167 -15.87132
13.26503 57.42378 -11.54464
13.35643 74.22676 -12.54776
13.94511 66.68812 -14.5225
14.87998 60.29493 -10.78999
13.50506 58.81892 -11.3451
13.77102 72.43218 -13.41862
12.31332 61.86645 -14.13252
13.45868 60.89759 -11.2977
12.07739 60.87646 -13.03242
13.96079 65.09018 -14.7412
12.72488 65.94088 -11.76917
14.4348 66.03379 -14.83154
13.92084 62.05039 -11.0511
17.13865 65.64869 -14.72166
18.24266 66.47205 -14.26654
15.69201 81.82516 -11.80695
13.86174 70.52916 -13.82704
16.94984 67.38562 -14.43664
15.998 70.72977 -9.334778
12.12815 62.95259 -12.93879
1.760857 112.0382 -6.005892
17.1906 64.90281 -8.917109
4.521339 115.5314 -5.487499
4.062099 111.8442 -6.05955
6.721448 116.4031 -4.821115
6.352232 115.8012 -4.959365
10.67888 104.8465 -7.749343
7.611315 114.2971 -4.703293
3.09408 71.40276 -15.83534
5.189805 102.9562 -10.40946
2.975128 113.3238 -5.806835
6.87882 104.683 -9.327842
4.12332 113.7018 -5.688277
1.469102 110.6566 -6.407359
1.711098 112.5837 -5.880803
8.212748 115.6237 -4.208537
9.25223 114.3519 -3.934098
5.501632 113.0394 -5.546229
18.38809 57.18203 -8.741878
5.620072 77.38663 -11.47609
12.42723 89.12993 -10.82734
4.500455 90.13158 -12.57705
3.158126 105.813 -8.808228
3.60878 63.28701 -17.03042
4.19463 57.91707 -17.41355
17.30505 59.07625 -7.713924
17.27439 60.6855 -7.904029
17.0535 65.56913 -8.593733
2.677108 80.11534 -14.61659
13.16238 86.10732 -9.643325
13.24382 90.1328 -10.21091
13.04332 98.28104 -8.910765
2.691741 94.27399 -12.713
3.686047 103.0883 -10.31225
11.29178 102.2284 -8.699124
4.141316 56.5435 -11.69256
4.114032 58.29196 -16.19777
3.593835 58.4669 -12.11121
4.110162 59.02398 -16.36177
4.311564 112.4836 -5.870855
15.75714 59.46366 -7.338062
15.37928 61.75213 -7.514018
13.66587 63.2705 -8.4423
10.385 57.62746 -13.1015
2.790572 78.59111 -14.61021
3.008115 79.52328 -13.82729
13.5578 83.2396 -8.924979
2.56163 98.04257 -12.17257
13.43615 94.52377 -9.73592
3.858217 103.9433 -9.859437
4.749342 101.4718 -11.1099
7.372419 102.2339 -10.57966
5.687561 99.93286 -11.71287
9.665026 103.7843 -8.906271
12.22908 102.1351 -7.971503
10.047 110.0773 -5.394866
2.050534 106.7176 -8.337708
3.035703 109.6913 -6.798172
7.581666 112.247 -5.329324
15.58733 69.32534 -8.004622
15.06334 64.14044 -7.70444
11.68187 61.09225 -11.29846
12.10686 59.12072 -10.48527
8.538193 59.2302 -13.42347
3.081357 74.6129 -14.6501
2.748552 76.90497 -15.17181
3.154842 82.27107 -13.40463
4.427811 85.66009 -12.19387
6.176052 83.12415 -11.83134
2.502877 87.95309 -13.37727
13.3886 85.52895 -9.339062
8.36757 96.95943 -12.10291
12.10337 95.27584 -10.64411
7.895334 102.2221 -10.43063
7.222374 98.97621 -11.85577
4.033944 105.5609 -8.94318
8.338346 110.2508 -5.904995
6.201879 106.7156 -8.08628
3.472451 67.4837 -15.1137
14.84652 71.18858 -8.260562
3.020796 75.70896 -13.68969
3.050081 78.75724 -13.72524
14.16045 75.53816 -8.48807
6.386389 82.10837 -11.81217
12.39772 85.29121 -10.69785
12.14717 91.74499 -10.9723
9.290471 103.88 -9.042819
7.095935 97.08481 -12.36662
5.298328 106.5933 -8.261028
7.977334 106.6932 -7.787917
3.124756 63.64314 -12.94432
10.92523 60.13685 -12.57529
3.607064 80.01882 -12.46762
13.62819 79.07259 -8.749904
9.644341 88.51302 -11.92212
8.872095 101.8589 -10.25648
11.88403 95.45594 -10.75611
6.472243 109.5174 -6.501443
12.91602 63.6268 -9.246418
3.758999 70.42044 -11.92441
3.835698 68.50583 -11.80177
5.311729 68.26035 -11.41344
3.324733 64.98454 -12.34393
12.0731 71.06007 -10.92567
6.259834 79.90317 -11.69448
6.733206 81.20596 -11.84904
4.822037 89.4595 -12.49601
11.39745 93.32541 -11.37955
13.66565 69.49068 -8.694574
15.23661 65.52175 -7.777291
3.548826 73.32095 -12.2849
12.39254 79.72409 -10.51442
10.92762 88.11176 -11.69842
6.521276 86.54739 -12.07438
12.95268 65.04574 -9.220866
13.96176 73.03777 -8.616328
3.873058 73.50255 -11.91912
6.803359 69.0026 -11.85543
12.53968 76.50584 -10.18784
11.05202 83.80559 -11.97662
10.37035 95.29173 -11.67591
12.27039 67.82114 -10.40723
11.36924 62.57626 -11.95694
8.662796 69.28522 -12.86183
8.916199 68.50333 -12.97682
10.56927 62.83417 -12.94193
8.383642 62.69484 -13.08962
7.587582 70.0682 -12.3025
10.88651 83.87103 -12.05902
6.365049 88.10715 -12.20772
12.44658 70.46919 -10.08703
11.69384 66.32505 -11.59997
10.9265 82.79065 -12.0896
5.007747 72.70549 -11.39585
6.528183 58.33874 -11.98448
10.43317 68.73241 -12.94329
12.50749 82.51475 -10.34293
6.215582 72.10835 -11.5535
7.652841 67.54794 -12.42278
9.505017 70.6216 -12.97618
8.211215 64.65241 -12.92104
9.896252 80.62918 -12.5317
9.331632 76.56454 -12.71674
5.062985 60.73589 -11.44681
5.968108 64.05497 -11.54096
10.16014 75.1347 -12.71798
11.87683 81.585 -11.33183
7.850708 71.9307 -12.40743
4.499997 63.87248 -11.48186
7.305626 74.81976 -12.05607
3.520424 63.48042 -12.14139
5.412311 89.11164 -12.3999
6.308597 93.2921 -12.81771
5.964878 91.83057 -12.70052
6.933328 93.5666 -12.78224
8.849904 74.95005 -12.68359
6.011075 77.59601 -11.57275
4.22707 75.20844 -11.82712
4.690061 86.90424 -12.20526
9.37797 86.4864 -12.1497
11.87988 70.48363 -11.38383
3.951297 59.13583 -11.75185
4.308388 60.88728 -11.539
3.144403 62.81379 -13.28853
4.102432 90.55029 -12.62218
1.275864 70.67702 -12.02238
3.752548 59.76987 -17.73804
3.161898 58.77781 -18.28494
2.847901 63.16467 -17.51011
0.1543012 57.4976 -18.46167
2.83748 72.99679 -15.72777
0.9861934 76.23586 -12.3314
3.665306 61.49888 -10.72911
1.044834 77.81588 -14.98901
3.667096 66.03083 -10.46889
2.609432 69.9128 -11.27862
4.808079 59.7022 -9.059445
1.780228 78.34341 -15.01014
5.010554 57.68922 -9.295684
3.813807 67.17282 -9.619083
0.7165558 68.63141 -16.61023
2.790205 75.34948 -10.4342
3.258991 61.31614 -10.99063
2.136173 67.08355 -16.97834
-0.9914955 68.05229 -15.19149
1.537468 79.25311 -14.80757
0.1440236 77.5687 -13.49215
2.215161 74.68141 -15.62315
2.261952 58.27077 -18.65284
4.22034 57.55048 -10.5347
5.111902 56.90154 -9.33856
2.573693 72.96711 -11.15263
3.213191 65.7256 -10.96987
3.825536 56.73607 -18.3898
-1.467484 59.02957 -16.91516
3.139381 67.97702 -10.93415
4.194882 62.11087 -10.17531
3.839337 66.36209 -9.8017
-2.41587 56.8894 -15.41005
-0.09987362 54.74333 -12.06385
1.325949 74.04254 -12.11499
-0.1444641 75.91943 -13.4169
0.2919943 74.21319 -12.73122
-0.5039496 65.61861 -12.80433
0.5484999 61.53175 -17.94476
1.765255 58.2317 -11.5369
-1.607326 59.43891 -16.62598
-2.033069 58.10199 -16.27654
1.100498 56.16469 -11.70223
-0.456993 72.7861 -13.55381
-1.192162 66.0612 -15.41459
3.242137 59.56584 -10.96183
0.9802774 58.49485 -11.77504
-0.7996101 71.26213 -14.33531
-1.78547 60.98479 -14.23722
1.730141 59.97195 -11.56764
-1.153358 60.17088 -12.94458
-1.344875 63.76499 -15.7491
1.949 63.08185 -11.54063
-0.8996994 65.85349 -16.13496
0.2923764 63.28317 -17.50526
0.7364582 64.96663 -17.34338
2.323414 65.23013 -17.29688
0.6761906 80.44891 -13.74756
1.099478 82.98955 -12.48981
1.443196 85.15936 -13.14363
0.2131376 72.56483 -15.62635
0.6286318 80.29649 -13.75116
1.877638 68.93089 -11.71014
1.803999 62.99879 -17.84863
-4.80267 58.70641 -13.16479
4.280566 63.62841 -9.147518
-3.491945 56.57283 -12.91411
1.808344 93.42708 -12.71478
0.07742994 89.85073 -12.5765
1.839133 99.49361 -11.76123
0.6085839 106.1566 -8.647321
-14.94689 58.18451 -8.815942
-9.353473 92.31981 -12.23729
-10.76138 77.39616 -9.390582
-6.252866 105.1162 -9.156518
-12.17936 67.61267 -8.548326
-7.409614 110.4417 -6.026928
-9.981291 62.208 -8.963849
-9.183155 90.77162 -12.10073
-0.4862744 56.57809 -10.54606
-7.872968 91.58833 -12.49859
-2.00022 113.0663 -5.853696
2.96634 57.31281 -7.867032
-7.130399 56.60239 -12.05333
-10.00364 91.63971 -11.97152
-6.821891 104.9785 -9.163563
-7.214085 110.9896 -5.862891
-10.89972 57.78024 -8.12654
-15.12422 57.27913 -9.043846
-4.690396 112.9763 -5.707264
1.326081 58.99123 -8.875694
0.4892766 58.68686 -9.626048
-3.77309 58.1319 -13.0226
-9.207015 78.60474 -10.6749
-8.252739 93.83234 -12.55698
0.2163676 89.39701 -12.5263
0.5486255 101.7562 -10.92363
-8.374708 106.8004 -7.615968
-9.266994 102.9721 -9.541964
-8.077116 109.8015 -6.154872
-14.20609 62.01126 -8.934554
-10.08386 56.87607 -8.709543
-8.45774 59.3091 -10.75122
-5.589281 113.0139 -5.539478
-2.26259 112.0516 -6.0264
2.027525 60.29742 -8.453961
-1.659004 57.61584 -11.70884
-11.66 77.26746 -9.888567
-10.78325 83.36095 -10.35315
-9.191586 86.53545 -11.54901
-10.30845 94.89982 -11.76714
-7.262665 92.9634 -12.72326
1.455492 86.73341 -11.54927
-0.5313832 96.90626 -12.419
-6.898095 107.3242 -7.577537
-1.647738 103.1605 -10.26539
-0.4920549 107.7954 -7.749508
-2.60127 110.8662 -6.364427
-8.342699 59.73162 -10.91589
-12.20203 74.01846 -9.630653
2.992312 63.88442 -8.362502
2.898458 71.20105 -9.299421
-2.95431 58.11832 -12.69507
-4.416156 57.38419 -13.13379
-11.45012 77.9147 -9.658809
-12.26887 72.88573 -9.282775
1.36002 76.85449 -9.993846
-9.239607 83.83679 -11.13177
-8.553681 86.96969 -12.15512
-6.902807 84.28145 -12.7532
-9.941423 87.90178 -11.22177
0.04665643 83.51324 -11.64577
-0.7704561 88.71206 -12.53687
-7.183848 97.51293 -12.25817
-1.740411 97.36405 -12.34901
-5.39016 107.3517 -7.755849
-5.120199 108.8287 -6.964642
-3.395277 106.2242 -8.577868
-2.286249 103.6333 -10.02039
-1.621201 111.1545 -6.256865
-10.23563 70.06568 -9.070465
-0.6583454 60.17133 -10.85101
0.8806151 68.92596 -9.665656
-5.571902 59.61424 -13.07774
-0.3884973 81.02763 -11.73092
-1.471138 76.12177 -12.23021
-0.6812437 74.63921 -11.518
-7.892546 77.59849 -12.21896
-7.483874 80.68034 -12.56745
0.4776831 83.31812 -11.26824
-1.8478 92.24102 -12.73222
-3.319315 99.9586 -11.66575
-5.230446 109.1836 -6.796657
-5.392088 106.7065 -8.171902
-11.93833 67.84519 -8.526495
-7.848425 61.38581 -11.58981
-7.147814 60.81071 -12.27249
0.7821175 79.40196 -10.56521
-1.215724 75.64258 -12.01978
-4.826917 88.38866 -12.6101
-4.247039 86.69908 -12.70965
-7.918145 91.0815 -12.40814
-1.611218 93.04067 -12.75656
-6.758492 94.5731 -12.75773
-5.768907 94.82314 -12.81051
-3.08178 94.21788 -12.77621
-3.602407 98.02261 -12.23447
-3.554384 103.3319 -10.19169
-1.604544 80.29943 -12.46169
-0.4062592 74.86655 -11.26816
-9.174922 91.22144 -12.16813
-4.51436 102.2974 -10.73318
-11.71204 60.31613 -7.892279
-0.2910272 76.93636 -11.29824
-0.04351269 69.09069 -10.5724
-0.645596 85.67854 -12.38812
-5.536178 100.2449 -11.61617
-4.521483 101.7781 -10.97823
-10.41319 62.13979 -8.592735
-4.656338 73.8814 -13.20236
-4.962114 82.21107 -12.96603
-6.408928 77.32986 -12.9802
-7.241594 99.90495 -11.55558
-2.867858 99.78777 -11.71481
-2.520685 69.89692 -12.66912
-5.187797 77.89255 -13.12286
-2.959149 79.77728 -12.87115
-3.850242 85.05608 -12.78439
-0.8958592 99.87068 -11.65918
-4.259129 69.28789 -13.18856
-2.149563 71.17297 -12.49562
-0.8910668 72.99081 -11.61927
-6.876441 72.93453 -12.78171
-5.652577 73.11979 -13.15652
-3.550963 72.60845 -13.0391
-8.988448 74.74573 -10.68592
-2.782401 75.93377 -12.82377
-14.09467 61.38909 -8.383539
-9.73745 73.15653 -9.612162
1.136156 61.58222 -9.116846
-12.11333 66.79107 -8.46127
-13.03531 64.40617 -8.24371
-11.51602 62.19132 -8.046453
-8.393824 64.44164 -10.95429
-7.044599 63.27148 -12.42815
-11.5492 60.69314 -7.962132
-13.15318 62.54099 -7.998218
-7.053248 63.98852 -12.4348
-4.266094 69.22948 -13.19031
-6.686853 65.35765 -12.75191
-4.479109 68.41106 -13.21205
-2.680626 64.13679 -12.64564
0.6932839 66.27551 -9.696677
-0.2181176 61.13004 -10.44372
1.122064 65.16213 -9.254895
-1.553463 62.54001 -11.81602
-1.206449 60.70242 -11.43184
-0.9487807 62.68769 -11.2784
-1.73952 61.56139 -11.955
-6.842205 82.63622 -12.8365
-6.577727 64.37278 -12.78146
-6.395649 90.07318 -12.47533
-7.089699 72.02167 -12.63134
-4.652287 70.04752 -13.23037
-6.101198 67.70399 -13.04224
-5.724037 67.0805 -13.12087
-7.487498 71.76715 -12.33154
-9.058656 73.8054 -10.50493
-7.766942 75.07104 -12.21761
-13.14342 65.05448 -16.9534
-10.22156 65.56392 -16.83286
-12.98721 69.58297 -15.90266
-13.12703 62.49257 -17.59065
-11.82283 71.07651 -10.70086
-9.380035 78.48392 -12.78241
-12.43043 71.11566 -10.14192
-10.69284 81.81133 -13.7971
-10.52772 90.62804 -11.71453
-13.70038 65.07591 -9.699267
-13.09661 68.56065 -16.07167
-10.71322 71.33427 -16.00535
-9.740602 70.67122 -11.59178
-13.36057 60.32428 -10.30128
-13.26435 67.92173 -16.13994
-12.3175 77.82722 -14.50611
-11.26688 76.03844 -15.0619
-10.91295 82.15123 -13.70896
-12.03087 62.75059 -10.80254
-11.90283 75.13139 -10.22022
-7.639095 55.45197 -13.0217
-13.54015 57.33078 -18.57985
-11.68109 59.06269 -18.42478
-9.485714 74.02913 -11.87756
-11.0657 71.34908 -11.06549
-10.38269 79.80376 -11.30051
-11.58481 85.20043 -13.25499
-9.281268 55.11262 -11.75203
-12.20236 57.1241 -18.87388
-9.607816 75.83799 -11.82248
-9.151055 75.73651 -12.95268
-12.60809 70.10072 -10.09303
-10.24229 66.91865 -16.57976
-8.834648 55.73669 -11.97538
-7.199344 56.4665 -14.13158
-10.45137 64.13023 -17.18239
-10.07021 73.92738 -11.47968
-9.201237 74.47682 -12.52853
-11.19694 76.76916 -14.90732
-11.12103 68.70267 -11.02671
-9.437994 57.55713 -11.62159
-11.93335 61.27625 -10.84523
-7.759009 60.00815 -13.35853
-8.08045 57.403 -12.61589
-9.967746 59.33137 -11.34339
-10.6634 58.11782 -18.29014
-8.749024 71.02336 -13.98541
-8.008628 64.95129 -13.95129
-8.488021 69.22161 -13.80075
-8.945845 69.70506 -12.2585
-8.257949 66.9143 -13.92154
-8.449827 63.85369 -15.66699
-9.136775 63.4644 -16.50049
-9.705756 63.74366 -16.89887
-10.57328 59.52132 -18.02025
-8.71073 63.38141 -16.15521
-8.519949 69.58788 -13.6628
-12.71563 65.6683 -10.41175
-9.458625 63.26581 -11.59242
-7.731038 61.48193 -14.91105
-10.9283 62.31309 -11.08223
-10.01427 81.29441 -13.36664
-9.412351 79.00829 -13.16715
-9.367521 78.51223 -12.94157
-9.294916 60.10617 -11.64814
-14.25988 61.58908 -16.77027
-16.90561 57.63751 -9.384992
-11.69169 116.2993 -0.3445968
-11.98545 83.39331 -13.41075
-10.37311 96.91811 -11.31431
-22.47289 70.81177 -2.265534
-13.44236 57.59748 -13.80839
-16.57277 99.49347 -2.841288
-20.67771 83.36299 -2.180209
-24.03035 58.62206 -2.080747
-13.45022 59.03332 -13.90548
-9.665997 114.4774 -3.639273
-10.88144 116.0245 -1.936205
-18.37147 92.07375 -3.263519
-16.62154 98.85392 -3.167713
-12.72568 112.9228 -0.7531495
-11.99618 115.0813 -0.4727225
-14.70645 57.79532 -17.69584
-21.22471 71.74309 -1.037315
-15.22817 95.33954 -7.592642
-15.06263 105.4136 -2.296974
-19.03565 59.42943 -5.509135
-23.59835 62.07261 -1.718677
-23.81348 59.714 -2.404565
-14.11745 63.628 -15.98661
-14.4034 61.13004 -16.08409
-13.17217 59.07761 -12.98629
-19.12634 58.16576 -4.156816
-19.16632 89.28889 -3.575582
-11.88314 92.67041 -11.13339
-12.25554 86.49116 -12.18306
-10.98856 100.213 -9.826135
-9.204558 105.5887 -8.091551
-15.70768 103.162 -2.493849
-19.154 59.01804 -4.010064
-23.1901 64.86037 -1.758724
-19.29963 58.68674 -2.874051
-23.18793 64.60741 -1.705616
-13.24475 111.3493 -1.278071
-13.89418 63.35607 -15.12058
-13.0518 71.14275 -13.72723
-18.02635 57.71108 -8.271899
-20.15395 79.61823 -2.367164
-19.91412 82.22868 -2.890066
-12.13492 86.82191 -12.3352
-17.34583 96.01028 -3.275814
-11.98988 95.11987 -10.75898
-17.27127 97.48397 -2.230129
-10.98555 96.01062 -11.20832
-9.334206 104.6702 -8.573529
-14.88806 104.178 -3.534734
-10.57396 109.7675 -5.258404
-14.04826 110.5914 0.01256415
-22.25897 68.42241 -1.048055
-12.71312 113.6235 0.08621854
-13.24735 60.1288 -12.16551
-12.99505 74.26714 -14.18089
-15.67526 60.32056 -9.929744
-19.09746 59.23912 -4.821584
-20.37579 77.77759 -1.831036
-12.45067 79.4772 -13.77879
-19.73933 80.90559 -3.364959
-18.20437 85.41356 -5.690905
-18.82668 87.82993 -4.299435
-16.15291 86.36382 -7.841993
-15.77342 90.3829 -8.048061
-12.80891 82.25118 -11.02635
-13.53615 91.9941 -10.03019
-15.86908 97.70307 -5.531304
-12.74764 94.18196 -10.38509
-13.2579 108.4407 -3.546336
-14.61258 107.0843 -2.074936
-11.05679 105.5694 -7.110259
-11.32293 109.4551 -4.93194
-21.66778 68.63844 -0.8221473
-19.30938 66.03823 -4.46859
-13.2989 69.27934 -14.40697
-13.26744 67.10773 -14.16986
-12.76969 76.37853 -13.50533
-12.71323 75.12129 -12.67151
-13.00827 73.91438 -10.86586
-19.93887 80.20932 -2.891447
-19.75861 79.39353 -3.3337
-16.97232 87.66031 -6.983359
-17.84161 93.205 -3.95105
-16.33199 97.23179 -4.911926
-11.34718 99.08413 -10.00978
-11.53861 108.6981 -5.122334
-11.70433 106.2299 -6.263133
-19.16894 60.54509 -4.597635
-19.20597 63.16159 -5.090223
-18.49694 63.1638 -7.18767
-12.79218 69.05193 -11.98632
-17.58198 90.66124 -5.587715
-14.19682 88.38584 -9.445669
-16.04357 87.28513 -7.893348
-15.88205 92.00331 -7.724558
-15.63627 91.72385 -8.058539
-14.62615 96.9562 -7.730152
-12.99692 95.59319 -9.854864
-13.36358 95.97189 -9.412461
-13.96151 100.1032 -7.143745
-13.49091 105.7333 -4.737238
-13.34882 71.83126 -10.45145
-15.93589 90.64877 -7.8471
-16.0838 99.92792 -3.73262
-20.04226 60.57252 -1.176892
-12.97664 76.35983 -10.82153
-13.00416 84.23502 -10.58841
-15.51881 68.80814 -9.154402
-15.1008 92.93364 -8.411709
-13.46173 103.892 -5.827945
-11.14719 100.6934 -9.503527
-13.26557 78.51338 -10.1592
-16.83186 84.90192 -7.438641
-17.13357 79.70509 -7.604773
-18.21734 80.89704 -6.363968
-11.48933 102.0395 -8.631918
-14.19218 103.2748 -5.221304
-14.72467 83.8308 -8.834581
-16.096 80.88774 -8.164005
-16.07579 78.9335 -8.28579
-18.54269 76.18877 -6.38511
-16.17338 71.55858 -8.631028
-15.88976 81.3916 -8.245171
