# .PCD v0.7 - Point Cloud Data file format
VERSION 0.7
FIELDS x y z
SIZE 4 4 4
TYPE F F F
COUNT 1 1 1
WIDTH 1663
HEIGHT 1
VIEWPOINT 0 0 0 1 0 0 0
POINTS 1663
DATA ascii
8.871366 77.13665 9.02073
14.86993 77.78221 2.350484
-18.00253 77.4558 -1.08446
13.0701 103.8755 0.0446188
-14.95983 76.64523 2.134016
-13.38754 81.75137 5.624998
11.77491 113.4547 -1.051847
15.87432 84.26905 -1.792268
-14.83552 79.42491 2.43934
14.97094 87.14213 2.810956
18.58649 80.24125 -2.424415
16.6144 79.00304 -0.8647687
14.71696 95.08748 -2.219529
13.82509 100.1964 -2.182775
14.62588 95.52001 -1.017191
15.68388 90.84338 -1.11762
10.85707 120.0129 1.143562
-16.89214 77.18094 -0.5707102
-9.759337 77.11782 8.001094
16.08537 86.87735 -2.336109
11.28053 124.1596 0.4004055
7.64205 125.3175 7.167986
-9.796718 124.7198 4.465926
-1.70678 122.0948 9.125498
0.4554666 126.5867 9.127447
0.08873703 125.1935 9.174236
1.988783 126.3295 9.073267
1.970537 126.5831 9.049461
10.74171 121.212 1.872324
11.3395 117.4868 0.4716366
11.24661 120.8103 -0.497818
16.16512 82.10728 -1.330718
9.422681 122.228 5.083122
10.09111 123.6941 4.000205
5.02682 119.8687 8.751291
-3.431043 122.9328 9.065204
10.04972 125.5473 4.084859
-11.10738 120.2065 0.4630622
-10.85947 121.9454 1.578151
-4.768552 123.8431 8.846131
12.34422 109.7127 0.4890004
2.226776 81.07662 11.84911
-17.40072 79.84366 -1.544312
-16.43286 81.1786 -1.627957
-17.203 81.70106 -2.187148
-14.24638 96.39223 1.628977
-16.87283 85.20968 -2.679475
-15.35852 85.35986 0.2340677
-12.06853 77.07055 6.877031
-14.35488 96.64834 -1.301464
-9.778842 80.53287 7.987061
8.966347 77.89291 8.93317
13.95258 93.25054 3.81457
13.81876 77.86124 4.876796
16.92417 84.50471 -2.469577
17.7141 76.94431 -0.8341082
14.78768 78.31324 2.652346
18.83423 78.43192 -1.72724
17.85965 80.85634 -1.833378
-11.03766 119.0152 0.6187817
-10.81784 118.5844 1.715964
-11.10538 117.3134 1.617043
-10.70778 116.1122 2.098425
-11.15989 115.7035 1.359849
-12.40592 109.3446 -0.2995774
-11.80403 113.4441 -0.4180379
-8.509865 116.1578 6.764199
12.7586 107.5275 -1.623245
11.50526 117.3253 0.001360929
11.49471 117.8045 -0.8839952
11.30014 114.9391 0.04683673
-10.25314 123.2761 3.566348
-10.37299 119.7788 2.805444
9.739705 118.7916 4.143489
10.72329 119.9742 1.937864
10.36428 120.7914 3.018136
9.972504 119.1646 3.592427
10.61125 114.6577 1.560702
10.2419 116.2709 2.351932
-16.12491 82.04768 -1.553058
-15.38417 91.23293 -1.826893
-15.28323 90.95294 0.5501233
-15.98211 84.46943 -1.901906
-14.83286 78.55112 2.331196
-10.64008 76.9211 7.729233
-14.59345 78.03993 3.151546
-13.80778 98.98312 0.8586035
-4.908872 78.13384 7.98735
-5.910581 81.48215 8.225009
10.08402 77.1409 8.222328
1.982973 79.3785 11.89409
14.65315 95.20416 -1.501818
14.8119 94.67215 0.8925487
12.18166 79.86987 6.824653
15.81909 88.04762 -2.074908
14.96586 77.38231 2.116249
14.92705 77.11276 2.300995
15.40501 78.91287 0.3888275
14.98375 76.57329 2.243802
16.37417 80.60674 -1.094515
17.51247 81.96701 -2.073943
-10.56027 118.6108 2.626222
-9.665708 116.1296 4.618732
-11.97169 111.8928 -0.5756035
-12.82388 107.1852 -0.8856186
-11.4496 105.1118 4.434908
14.54678 96.96764 -0.6082014
12.32932 108.4178 1.34432
11.64914 115.0724 -0.7555884
12.57334 108.9105 -0.7404561
11.06299 119.3413 0.6502797
-9.566405 123.0599 4.892429
11.07551 114.0221 0.1771138
10.65246 114.8837 1.26382
-15.66961 83.37936 -1.213094
-15.10561 92.67285 -0.9743528
-15.71147 89.34898 -0.9296376
-15.15697 79.55162 0.9110053
-11.82064 76.95725 7.070005
-12.64905 78.78317 6.396738
-14.17962 77.5411 4.121296
-10.59886 77.97311 7.737125
-14.05316 98.79164 -0.106658
-15.00547 93.30776 -0.7780265
-14.08666 98.04443 -1.26781
-13.91416 99.64876 -1.152636
-3.778877 77.82767 7.879245
-4.297341 81.18424 8.052567
-4.134647 77.89143 7.911502
-1.330951 80.72143 8.679739
4.42727 80.14713 11.83851
11.16685 78.21774 7.520083
6.26397 79.59032 10.78522
15.3849 92.18054 -1.477878
15.60985 87.10569 -1.769711
14.1799 98.39391 -1.817036
14.51546 96.12395 -2.13447
14.90361 93.94642 -1.11888
14.04956 76.74397 4.38977
10.62475 78.76659 7.849707
16.04619 83.06906 -1.67206
15.85861 86.1125 -2.087382
15.13243 80.85629 1.327471
-10.18871 118.1788 3.358813
-12.76064 107.4443 -1.272942
-12.19928 109.901 0.5342214
14.15055 98.64421 -0.579219
12.0994 111.2379 -1.137113
13.10734 105.2695 -1.099796
12.19214 110.306 -0.4637383
10.92667 113.0949 1.936505
10.75597 113.5551 2.353745
11.19868 112.3507 1.920391
10.53471 113.3035 4.244389
11.67974 111.1072 1.169462
-15.42023 90.66184 -1.068346
-14.99783 93.21206 -1.810484
-15.61413 88.00124 0.05845069
-15.55019 87.9658 -0.9638484
-15.34958 84.22718 -0.338037
-15.58295 86.54142 -1.724088
-11.80236 79.95155 7.106017
-13.11575 77.87554 5.873183
-13.7429 78.37048 5.003991
-14.83376 81.15105 2.803453
-14.17687 78.70377 4.187624
-8.574465 81.7687 8.213284
-14.26319 97.00813 -0.7922673
-13.4178 101.9879 -0.5774223
-13.01543 102.0018 1.284214
-3.903384 78.43024 7.917201
-6.819748 77.3313 8.178769
-0.4549831 77.79685 9.501713
1.593235 78.0135 11.73454
2.535515 78.78831 12.05981
4.30642 77.47432 12.11231
10.64542 80.22702 7.807323
11.47384 77.8502 7.304228
8.232632 81.20277 9.260869
7.257565 79.54193 10.04299
15.63251 90.93745 -0.914044
15.53403 91.43114 -1.141357
15.6124 89.01568 0.1794025
15.30264 83.5298 0.3495516
14.54744 96.32275 -1.045849
14.62711 79.28143 3.297008
15.28251 85.60459 1.663419
11.60344 78.98683 7.221507
12.63947 78.5862 6.390623
15.43029 86.385 -0.3268944
15.3708 84.23499 -0.2959455
15.63272 82.34071 -1.081599
15.44297 86.02613 0.8314893
15.28708 80.97697 0.0004287768
-11.51272 109.412 3.264423
-10.59101 113.2809 2.808577
-12.88333 106.3821 -0.6369565
-12.20524 104.8816 3.057721
14.00464 99.48521 -1.299341
12.05611 110.3436 0.8640193
10.92457 108.8437 4.916645
10.97625 111.3852 4.098927
11.15371 110.2188 4.088911
13.48828 102.6642 -0.7675727
12.3206 104.5664 2.942772
10.03482 114.6992 5.028651
9.168507 113.6852 6.605543
10.887 112.6496 3.243587
11.45865 111.6639 1.714941
11.77773 109.8411 2.500279
-15.38869 84.9892 -0.7942215
-11.8377 79.4977 7.084297
-14.57766 81.13363 3.566082
-8.918128 80.80373 8.176929
-9.986872 82.31634 7.896742
-11.39339 79.97346 7.36287
-5.324611 80.6195 8.13356
-12.92087 105.7759 -0.6120516
-0.1181569 78.8239 9.879278
10.59402 77.10634 7.891595
15.40545 92.09743 -2.216786
15.07154 88.37718 2.453212
15.53531 90.56378 -0.179062
15.17033 92.3149 0.7035117
13.56323 99.95979 1.044118
14.07648 97.76978 1.119986
14.10916 97.03385 1.574357
12.85363 99.61292 3.768029
15.54285 88.01508 0.321435
15.27332 81.94012 -0.2017237
15.03353 84.86229 2.549774
13.50634 101.9249 -0.7584827
13.65262 99.80593 0.7887282
10.6542 112.5181 4.360755
11.88105 109.5759 2.319397
12.03326 107.2182 2.859753
11.29371 108.2642 4.338253
10.95091 108.1677 4.999621
9.630302 108.5764 6.824697
12.47333 108.5824 0.4518242
13.04873 105.358 -0.2132331
12.88571 105.1977 0.644189
12.73369 104.7632 1.436796
-9.544064 78.21204 8.072031
-8.04927 81.69594 8.28024
-7.493334 81.39108 8.301793
-6.111475 84.63235 8.343114
-5.963976 82.08701 8.251611
-6.879001 82.4362 8.326167
-7.60179 83.3964 8.332049
-3.252659 82.4029 8.076721
-3.931465 81.71493 8.058807
-5.229544 79.4705 8.077007
-5.636986 83.86614 8.283115
-15.0781 87.15263 2.537385
-13.37095 82.58235 5.642743
-6.848765 79.83206 8.251781
-12.65841 104.5122 1.772407
-12.8608 106.1526 0.03878238
15.25293 91.32239 0.9500234
14.63278 95.10944 1.422303
14.46668 90.74064 3.492245
14.77228 91.60905 2.626583
14.94352 93.83552 -0.6449396
15.07059 92.55132 1.282956
12.9533 97.61501 4.215557
13.62416 95.90353 3.476282
13.42901 99.49029 1.923032
12.8361 100.868 3.286232
11.99962 102.3789 4.506038
10.477 109.1667 5.646895
11.64801 105.8141 4.21756
12.49494 103.6938 2.617237
11.31722 106.3565 4.770802
-3.451615 83.68123 8.121315
-5.075216 82.65146 8.179597
-10.10991 84.02601 7.845287
-13.60291 80.66295 5.304493
-12.72111 83.13291 6.330478
15.174 87.55319 2.23483
14.50976 93.45478 2.597543
13.24675 97.28407 3.743382
12.24225 103.3038 3.53904
10.48762 106.7694 6.044523
12.47642 99.53829 4.603182
12.20399 96.66228 5.608714
-5.860936 83.94127 8.306388
-6.649333 84.6238 8.371969
-1.908494 83.0722 8.422823
-3.497172 84.21697 8.136231
-2.503037 81.42986 8.197028
-11.5197 85.56818 7.083926
14.40011 91.60374 3.43329
11.80889 99.40334 5.697074
-0.05177067 87.55383 9.744493
-3.028483 86.44125 8.208173
14.6528 87.15235 3.556258
14.68677 86.30918 3.504028
13.52894 89.32255 4.999836
12.99019 86.7543 5.883615
13.03991 86.76576 5.831154
12.51155 86.24829 6.344031
14.19834 89.4724 4.102568
14.45765 93.91999 2.538823
13.21765 96.4233 4.073375
13.82722 94.36134 3.638592
14.0921 93.73547 3.382361
-1.648062 84.03657 8.533763
1.169714 83.32247 11.08653
-0.8191758 85.44388 9.072218
-5.004894 85.6064 8.274502
13.11128 85.86565 5.803399
13.0782 90.72025 5.343496
12.26582 89.00179 6.330102
0.4788026 80.62859 10.5569
14.00967 83.84351 4.759896
0.08135314 79.75986 10.10725
15.25289 82.86064 0.7909963
0.1574317 82.36283 10.10304
14.10372 84.06563 4.605251
14.82638 83.91836 3.10793
15.1426 81.6217 1.475605
15.10053 84.16592 2.185371
15.25464 83.46046 1.252512
14.99708 83.64732 2.542283
14.68305 81.24566 3.334013
14.51676 80.33643 3.711993
13.88585 85.05485 4.920318
13.18404 80.12328 5.918763
14.49122 82.651 3.914698
12.90418 82.62965 6.175879
13.19952 83.69431 5.861865
10.49212 83.32223 7.811554
10.99736 82.53549 7.54134
-1.203668 125.7049 9.160459
-15.37881 82.7439 -0.3980804
-15.21059 82.07229 0.8493107
-15.17758 82.7916 1.4503
-10.46312 113.7095 2.848885
-10.1953 114.3108 3.722585
-10.10645 121.3007 3.643935
-9.668133 121.3689 4.536909
-8.900928 120.4795 5.610607
-9.4262 117.8911 4.848325
-9.831401 116.2976 3.960042
-9.686594 118.0511 4.281903
-6.062893 120.5107 8.151987
-7.687546 118.5809 7.251123
-6.381887 121.7527 7.994219
-7.126713 118.9604 7.626125
-14.66203 95.36354 -0.3471184
-14.67548 95.31009 -0.8268193
-15.45709 86.4621 0.4559124
-15.5681 87.4728 0.6254308
-15.29918 84.67532 1.073137
-14.99288 83.50681 2.703616
-15.38015 86.22289 1.470468
-14.29663 86.82623 4.173266
-14.88644 86.97542 3.039106
-15.04629 88.75631 2.525677
-15.28306 83.78551 0.4998423
-14.82847 88.67752 3.036904
-15.07699 89.4673 2.284759
-13.86893 89.82794 4.441371
-15.11677 90.77425 1.742836
-14.34978 87.48213 4.036281
-12.71956 90.06549 5.693839
-13.18639 87.17485 5.554103
-14.27975 85.38673 4.281168
-12.40383 93.11657 5.578605
-14.52306 84.87069 3.861597
-11.75574 93.2841 6.24505
-15.08857 91.9924 1.452737
-14.06154 85.88388 4.592477
-15.16532 83.78288 2.01933
-14.63906 82.94059 3.576001
-12.15777 89.779 6.273087
-12.18454 88.75371 6.343537
-14.46065 91.08602 3.371557
-14.05215 84.83257 4.639129
-14.68791 91.93416 2.664364
-10.3969 92.18637 7.482884
-12.2309 93.78153 5.666464
-13.16583 93.01241 4.754808
-14.03697 92.01408 3.802555
-14.36728 91.29504 3.461522
-10.82725 94.00312 7.049061
-11.21643 89.92666 7.009881
-10.52619 93.43743 7.313674
-13.64845 95.57932 3.498312
-8.559269 93.03004 8.286997
-9.871395 94.35235 7.743845
-6.879674 86.01439 8.420066
-10.60285 93.82068 7.232745
-11.40421 95.54583 6.355763
-9.747762 93.93073 7.832441
-7.951066 96.13635 8.445318
-9.347951 95.94457 7.951621
-10.80142 105.9031 5.321182
-12.0832 88.18606 6.481794
-9.468181 91.0481 8.012929
-10.52989 96.60371 7.098849
-12.22615 87.00906 6.477487
-8.776095 86.92589 8.260709
-8.075619 87.33842 8.3825
-12.17527 86.63302 6.557231
-11.01292 86.34992 7.354099
-9.347151 87.55219 8.073318
-10.37791 84.67121 7.715272
-11.34584 86.59669 7.143604
-12.95806 101.5463 1.812401
-13.80877 99.57446 -0.0009527804
-13.22341 100.0107 1.949643
-12.97538 101.8017 1.595902
-13.03584 101.2835 1.704462
-15.18712 92.18234 0.05835545
-15.08598 82.01631 1.777977
-14.3696 82.10123 4.127588
-15.04453 81.23277 1.822756
1.484485 81.16917 11.46775
5.613509 81.7875 11.07415
5.318734 82.68653 11.20527
10.36388 84.67325 7.821648
4.027038 81.25917 11.866
5.193309 81.05119 11.39016
3.845035 81.27829 11.89366
3.444447 83.67029 11.77529
2.823369 88.82339 11.36615
2.922987 85.66803 11.60439
1.279683 84.42258 11.11155
5.406453 80.63206 11.30097
6.102139 82.98287 10.67944
0.2433379 83.61193 10.17277
11.14795 82.09429 7.461392
-11.57271 111.0059 1.454741
-12.39193 108.3098 1.047402
-9.483307 113.0083 6.076978
-10.99294 109.2566 4.356501
10.65409 113.7271 2.999844
9.93507 116.0714 4.538551
9.751245 113.9089 5.808284
9.49225 114.1977 6.121095
8.142615 112.9797 7.664759
9.128095 111.2197 7.020857
7.20995 111.5897 8.399734
11.10024 105.5298 5.376007
-3.830261 80.45441 7.998605
-12.96113 100.3379 2.59406
12.70357 95.6487 5.057196
12.84384 96.20184 4.740595
12.47525 102.5229 3.210898
10.71798 104.2977 6.206972
12.14455 105.127 3.256242
11.74473 106.2351 3.880326
5.544631 89.91833 10.64139
11.79877 101.8449 5.092514
14.913 85.50956 2.953004
3.677637 88.99654 11.37142
-0.08801091 84.25741 9.788095
-0.242597 85.6242 9.602535
1.231301 85.39565 10.99322
-0.2152856 86.93762 9.610488
1.072579 86.80193 10.81175
2.499111 85.74287 11.54089
12.89145 88.94351 5.762269
13.33129 88.76566 5.286209
-0.5634341 80.37768 9.330832
10.44029 86.90314 7.665472
12.51409 83.06943 6.553385
10.89696 84.77803 7.52177
10.21105 83.24884 7.968482
11.9287 80.51733 7.00031
-0.8159551 123.3873 9.185247
-4.637341 123.8112 8.883835
-3.05089 119.8426 8.985509
-2.921051 123.9341 9.170037
-3.930133 123.0473 9.007878
-1.269765 120.9576 9.124677
-3.370091 121.9952 9.002901
1.284078 123.2557 9.18659
1.266245 125.3645 9.16376
-15.10657 80.42533 1.233059
-8.598671 119.8122 6.090777
-14.84165 94.35266 0.4641552
-14.65192 94.33512 1.729277
-14.56835 94.90434 1.540499
-13.81411 97.54713 2.111064
-12.38291 94.92274 5.312465
-12.83931 94.86555 4.763268
-13.84974 96.70566 2.56666
-14.34846 95.15112 2.151511
-14.33817 93.74529 2.852762
-14.65675 93.81818 1.962901
-8.955264 93.11449 8.160054
-3.994291 91.51232 8.38046
-3.646713 88.4436 8.264153
0.2851234 91.8233 9.868743
-0.1565133 88.81052 9.609168
-3.118687 88.63426 8.284894
-3.212219 87.85903 8.247779
-3.746477 88.94859 8.278479
-10.93046 85.12273 7.467077
-7.66119 84.49399 8.364831
-13.22363 98.18719 3.146217
-13.80413 98.22035 1.629689
-12.79403 96.92179 4.305015
1.05055 81.90585 11.104
5.486425 79.9362 11.31885
11.46369 93.64684 6.71156
4.053557 87.30515 11.42086
5.852439 88.26392 10.54948
6.154524 87.50259 10.38188
7.623374 84.96251 9.473577
5.623468 84.89623 10.88823
7.217685 93.77726 9.267081
9.388333 87.10735 8.246089
8.100049 87.63042 8.989174
7.71805 87.1459 9.277539
5.060577 81.25783 11.45122
6.211254 81.76152 10.67618
5.241319 83.68105 11.19256
7.818683 81.42725 9.530653
6.344818 85.42088 10.36883
8.424326 84.44028 8.959394
8.102342 83.47403 9.231047
7.980691 84.18295 9.271929
9.753293 82.53643 8.2505
8.762288 82.97783 8.82489
9.679309 80.02449 8.390335
9.497005 81.61898 8.438246
7.834044 80.75933 9.557149
5.361656 114.1844 9.051659
7.158678 113.8576 8.241573
-4.743906 118.1824 8.717456
4.776289 114.6751 9.205091
4.161822 113.1234 9.510661
8.726893 114.4273 7.006818
8.138382 116.481 7.313905
7.573174 116.8994 7.708755
7.866994 114.9795 7.686354
5.925865 113.7016 8.865854
5.63298 113.4935 9.004094
5.08655 115.9185 9.035428
5.65884 115.5732 8.83922
10.01332 113.1031 5.590626
-1.374891 82.17533 8.66273
-11.81602 106.1726 3.545674
-12.10103 107.4078 2.538439
-10.53397 107.2417 5.468017
-11.87651 104.3022 3.85161
-10.34927 103.035 6.537875
-12.65147 103.9419 1.96376
-9.278325 108.1884 6.973139
-10.58718 107.0271 5.429581
12.12776 94.06265 6.052764
12.23143 91.1986 6.199874
-8.409618 122.6473 6.49096
-7.326373 125.1171 7.437651
-5.8037 124.7802 8.362814
-7.307557 121.4103 7.343566
-5.400756 123.6451 8.615355
-6.766783 118.7284 7.870176
-4.922818 120.498 8.612677
-5.879419 120.8984 8.261301
-2.562318 117.5087 9.009656
-7.551509 117.69 7.474166
-8.734569 116.5915 6.414508
-7.180314 117.1817 7.767617
-7.804219 117.2611 7.297735
-8.765866 114.0861 6.772641
-9.11089 116.4891 5.864511
-4.230419 118.4769 8.814847
-2.09212 118.1284 9.054142
-9.083781 116.0567 5.980785
-6.254216 117.2183 8.292571
-2.308944 112.47 8.977809
-3.224322 119.2092 8.956869
-1.683893 118.8273 9.08768
-10.36498 113.3243 3.979494
-9.9062 113.1488 5.341153
-10.68101 112.562 3.461273
-9.728361 111.5404 5.963305
-10.54007 111.7088 4.59964
-9.310769 111.4323 6.520292
-6.823897 116.0091 8.095993
-10.96006 110.6049 4.074781
-0.5091885 116.3777 9.1743
-9.921947 106.9935 6.376349
-6.361889 112.5888 8.490656
-6.911115 112.5513 8.298177
-6.556004 115.1015 8.28908
-6.130673 113.5028 8.505969
-2.946937 116.1015 8.97733
-2.724706 116.0684 8.993385
-9.486211 112.7995 6.110386
-9.524725 112.1958 6.15731
-7.35394 112.1153 8.117424
-6.824248 111.5393 8.377377
-8.797123 108.6677 7.370836
-5.288887 109.8452 8.763404
-8.274462 109.1976 7.776295
-9.788637 105.8479 6.718681
-5.852989 109.4086 8.69418
-6.647852 109.3279 8.554226
-3.318742 108.8686 8.850805
-10.24931 110.4783 5.350148
-10.83057 108.5276 4.775803
-3.477875 111.0733 8.88484
-4.042565 114.599 8.883014
-5.057807 110.8751 8.779795
2.592125 94.78599 10.92226
-2.757883 111.1738 8.922256
-5.359737 110.3785 8.751626
-9.751198 108.956 6.295194
-9.286977 109.2228 6.842117
-6.451183 108.2868 8.610839
-1.030789 111.9885 9.095049
-3.695845 108.0266 8.829184
-2.027965 112.2222 8.992393
-0.6422052 109.9014 9.171397
-1.731187 113.2778 9.031831
-3.023991 112.1125 8.925957
-13.34597 96.54504 3.573713
-8.196497 87.78222 8.372833
-5.581686 89.87157 8.473628
-8.256652 90.17619 8.382355
-5.499671 86.68782 8.365497
-11.46806 99.01783 5.778599
-12.35366 101.6346 3.693448
7.473341 89.92165 9.285788
7.869437 87.87267 9.129278
8.684726 89.57643 8.54945
7.467379 90.62479 9.255801
3.196184 90.74487 11.26122
4.554349 92.86114 10.91736
5.331352 88.54297 10.84385
6.160426 90.09775 10.22626
6.844903 92.13423 9.604006
6.572208 93.05541 9.741586
8.959715 110.3789 7.261146
9.789248 109.7146 6.481586
9.194584 107.1294 7.446772
5.134349 111.6309 9.332066
8.01798 109.522 8.075493
8.554301 111.9805 7.43479
-12.10706 102.2094 4.0259
-11.74674 103.355 4.370119
-12.48473 102.1381 3.1088
-12.3183 101.0891 3.967638
-11.5783 101.7208 5.116
-11.01501 104.339 5.341763
-11.27421 101.2134 5.659561
-8.961894 104.2773 7.73282
-11.79134 99.33057 5.292786
-10.98662 102.3626 5.821096
-10.69338 101.3174 6.403382
-10.42817 99.76811 6.90539
-9.887822 97.61097 7.591
-9.924465 100.1204 7.33861
-10.42055 99.23657 6.971184
-10.88613 98.50193 6.5782
10.86255 95.7272 7.050229
11.72521 95.93542 6.2668
11.2416 96.69495 6.681414
11.76643 96.62733 6.144301
9.378667 97.77278 7.948472
11.21906 92.76244 6.960585
13.20286 93.01022 4.87682
13.18732 91.66502 5.111877
10.06353 92.47811 7.717934
11.82543 93.67417 6.378185
10.50971 97.20573 7.255826
6.568147 101.635 9.296429
11.35067 98.37452 6.397043
7.331976 92.90149 9.227174
10.16986 93.41121 7.627622
7.683772 94.65802 8.930904
10.60682 92.7651 7.386315
11.97353 91.00582 6.457116
11.86786 91.93934 6.494464
8.408411 92.65193 8.602608
-0.457498 106.1224 9.227051
4.311155 93.14818 10.9871
3.273691 93.49937 11.11122
11.27746 90.98252 7.032083
3.841632 90.25703 11.26334
4.118631 91.89322 11.10249
9.240555 92.57312 8.157468
4.434587 90.41586 11.14218
-7.297638 123.384 7.567808
-7.431687 125.629 7.253834
-6.414499 115.8536 8.29521
-5.894146 103.7032 8.745959
-7.527066 107.983 8.285374
-4.709372 107.965 8.812661
-2.737491 105.8113 8.807343
-2.616333 89.95247 8.362632
-2.527381 105.4843 8.817528
-5.343768 104.9019 8.765722
-1.465597 107.5022 9.00018
-5.793742 104.9693 8.743863
-6.725692 102.1936 8.659504
-6.836507 106.9658 8.557475
-2.363312 108.4894 8.890646
-4.965497 104.5885 8.765418
-4.100063 103.0049 8.711626
-4.554126 101.8917 8.71159
-5.829986 102.3237 8.744736
-1.13359 102.7224 8.985875
-0.8989851 104.5392 9.089974
-2.356473 104.9296 8.82178
-6.70359 103.716 8.646661
-7.312763 102.9201 8.529956
-7.628699 104.4609 8.407049
-10.26602 104.367 6.373665
-9.590761 104.5691 7.138306
-8.725359 103.572 7.950583
-9.297048 106.2392 7.2047
-7.239125 108.0101 8.408636
-9.284992 122.8873 5.36796
-9.717037 124.915 4.609617
-7.91253 92.47562 8.465137
-9.346525 90.23483 8.089981
8.509831 86.54016 8.790229
10.39339 86.40149 7.717278
10.06961 87.25942 7.862042
11.72055 88.97836 6.785685
9.261955 90.93917 8.18301
10.40544 90.64183 7.557992
10.18797 88.49886 7.753096
9.629937 107.6472 6.965322
9.491007 103.6737 7.561246
-12.43402 99.70834 4.219096
-8.340238 97.79601 8.336638
-7.793675 98.95889 8.475403
-6.703662 101.6195 8.665126
-7.58089 100.2094 8.522448
9.635321 91.79734 7.961252
10.78327 100.327 6.726027
1.019826 91.31492 10.45986
2.019878 92.2765 10.992
3.617138 93.7844 11.06136
4.240983 95.32951 10.87631
2.486003 93.44943 11.02015
-0.5991542 92.45942 9.222651
1.639952 93.0874 10.75014
0.2526244 89.27718 9.947695
1.470145 90.19917 10.85889
0.7089128 90.53863 10.26867
0.2150291 107.7378 9.428568
-0.4624861 102.5537 9.253742
-0.3842569 103.8035 9.259587
-1.878152 103.9673 8.864975
1.822708 102.6749 10.24722
-1.721958 101.6018 8.845442
-0.0812288 100.2655 9.45036
2.698325 108.6561 10.02223
-1.14345 109.6468 9.07816
0.9712395 110.1614 9.577297
3.94596 114.6372 9.427259
0.5984468 109.1559 9.506815
3.887956 109.9122 9.815104
3.695016 112.8527 9.590466
1.236768 107.5383 9.779819
2.022639 108.8912 9.901739
3.727288 111.2597 9.733875
1.145934 104.9407 9.872613
8.283277 107.3784 8.069787
0.589344 105.0516 9.639768
1.583373 105.781 9.997028
0.1141994 100.72 9.549614
3.646689 101.8624 10.48606
4.025786 101.9593 10.44572
2.182729 100.6517 10.46885
0.1945429 101.8618 9.568929
2.824727 104.5155 10.31651
2.37875 103.9777 10.31342
6.623412 105.4796 9.064334
2.94364 105.6123 10.29253
2.843266 106.6929 10.16789
3.222748 98.15687 10.76078
3.505843 100.5143 10.60508
2.223269 96.60538 10.73724
2.775471 98.37887 10.70827
4.200913 101.3399 10.45258
6.833621 96.85235 9.358508
4.745427 101.3759 10.23356
7.479295 97.85473 8.935087
7.519113 96.13656 8.971526
9.246966 98.83347 7.975979
4.250548 107.7638 9.899504
7.08266 110.5582 8.539248
3.143715 99.8903 10.65224
4.419356 97.89555 10.63787
5.021016 108.872 9.565054
7.076585 110.3582 8.554774
6.035216 108.3287 9.184261
7.067969 109.3416 8.621873
5.207275 112.2615 9.244419
4.195376 97.7365 10.69425
8.675338 107.5336 7.796203
6.208913 109.4162 9.03492
9.85109 100.203 7.546827
5.992716 97.74476 9.84342
6.814713 106.8582 8.890033
3.473228 106.3739 10.18534
5.68227 104.6799 9.596133
4.950945 106.5518 9.790304
6.052035 105.5759 9.350034
5.249964 105.6061 9.730713
7.11195 106.481 8.758276
6.068606 97.14169 9.830882
7.429323 109.8833 8.393868
11.33964 101.2446 5.97252
7.158041 100.5313 9.011867
5.187756 98.5571 10.26075
6.974333 103.3152 8.983174
5.9141 101.0256 9.705313
9.978633 102.1672 7.334093
6.368514 104.974 9.22243
8.241345 101.2822 8.404953
5.224939 102.075 9.97226
9.310658 102.3725 7.758461
10.00585 99.45869 7.468592
10.52287 101.7608 6.873924
11.17448 105.1213 5.341867
5.318692 104.2061 9.787406
9.539509 100.8936 7.699895
8.307995 99.65551 8.431489
-1.471539 101.0062 8.866458
-4.588753 100.9783 8.688038
-3.591544 98.5041 8.581675
-1.582312 99.31939 8.805176
-5.534406 97.24963 8.657971
-7.023015 100.3989 8.620343
-6.628228 98.57513 8.683809
-1.880397 99.09052 8.743888
-3.020883 98.54227 8.605027
-1.160988 97.74776 8.970212
-6.057751 97.32494 8.687851
1.572016 86.40253 11.10952
1.524217 88.40269 10.96974
3.611957 88.07922 11.45794
-2.56356 90.93478 8.410482
-1.177621 89.63994 8.852431
-3.241228 93.51071 8.421151
-6.114267 91.71295 8.562506
-0.2743653 92.98366 9.409916
-5.158303 89.9323 8.438416
-2.96619 92.64215 8.390204
-3.249217 91.69381 8.361992
-1.395071 92.32896 8.798721
-1.668481 94.21902 8.744911
-1.195418 93.31171 8.913658
-3.218913 95.38911 8.479751
0.4441824 92.68697 9.972906
0.2853817 93.58949 9.816439
0.3175935 96.38544 9.752325
0.6828355 93.65878 10.104
-0.2403489 98.65163 9.39433
-5.36454 91.55799 8.512766
-3.930793 95.5033 8.476478
-7.874187 96.63697 8.453037
-2.277788 96.45901 8.598843
-4.818734 96.33012 8.588226
-6.173507 96.00203 8.66054
-5.465122 95.31199 8.619945
-8.253748 94.11285 8.366546
-4.257305 98.65706 8.601333
3.429359 113.8296 9.556479
2.410183 113.174 9.682758
3.651565 115.3556 9.412673
0.6417568 115.3122 9.340523
3.489211 114.7046 9.48628
1.135331 113.4633 9.49236
0.5139241 110.0355 9.457071
-0.7837219 114.502 9.141827
-0.1061829 115.7534 9.230072
-0.008865231 114.8906 9.257517
0.02699465 111.6675 9.300054
0.6235103 123.3595 9.191602
-0.4293774 118.1443 9.172035
1.893873 119.7724 9.234676
-0.6668038 119.7552 9.147814
-1.153175 117.2861 9.116801
-0.1819528 119.8145 9.176178
-1.059629 122.31 9.157545
3.039759 117.9318 9.273218
-1.355595 120.5515 9.11887
-1.105281 124.1247 9.19104
0.3723504 119.9632 9.205243
0.6157484 122.1122 9.182773
5.019476 117.4286 8.941214
2.768852 118.7861 9.241891
1.745425 119.5227 9.251987
0.8922387 120.0562 9.213615
1.484254 123.9837 9.216279
2.810722 123.931 9.179022
5.054714 123.3353 8.759645
4.162354 124.2054 9.020455
-0.2889049 122.9576 9.182207
1.874919 95.6792 10.71752
3.657042 96.45499 10.87609
5.835418 101.0721 9.740249
-1.177337 95.99372 8.957367
-1.550186 116.4818 9.079446
4.070003 95.97236 10.88227
6.05732 123.4712 8.312593
9.458529 120.057 4.834986
9.160742 117.6665 5.895731
3.734493 118.7489 9.12875
3.775354 121.4812 8.986278
5.970273 121.2039 8.330228
5.104741 118.1079 8.870562
3.814015 120.4377 9.010935
6.125197 118.9047 8.389925
6.490325 120.2584 8.126054
7.056702 119.7234 7.811197
6.96995 120.492 7.820051
9.317639 119.0628 5.279228
3.278004 121.3274 9.062469
7.848382 119.8064 7.160609
9.180003 122.0165 5.467997
9.852396 123.461 4.525757
8.459122 119.4801 6.516293
9.418532 121.9579 5.058928
10.06403 123.2988 4.103928
9.509911 125.1569 4.936398
8.093247 122.6529 6.852447
8.613452 121.4133 6.219436
9.564427 124.5165 4.934246
6.935205 125.4264 7.691897
8.9757 124.4673 5.812227
19.08611 79.00281 -2.719051
17.08204 77.38291 -5.293276
18.44985 80.3183 -3.242502
11.85328 102.1799 -7.746066
18.05527 81.89837 -3.231647
17.67559 82.89309 -3.599897
14.27744 90.82515 -5.609366
14.23949 90.47941 -5.727253
18.12428 80.45264 -3.977303
12.08613 78.40889 -9.754699
9.369607 80.22432 -14.86699
15.96194 89.37127 -2.910483
17.73751 80.3791 -4.425708
15.5077 86.94973 -5.108438
17.72181 80.9242 -4.292279
-11.24824 124.9347 -5.299054
-11.46873 125.021 -2.590429
-4.081603 79.54829 -14.7317
12.60576 78.2317 -8.904909
13.82445 77.82642 -7.492422
13.93859 98.92886 -2.491731
13.10229 103.7365 -3.797584
11.3676 123.6762 -1.740614
-10.23933 84.15812 -13.39662
1.51001 121.2611 -9.319078
5.587555 124.2797 -9.705267
12.31511 110.6604 -1.75609
11.35668 123.5585 -1.1838
18.91051 79.37228 -2.839203
18.12555 78.05452 -4.548575
9.871481 121.974 -6.653987
9.178873 125.4502 -9.080238
10.18501 122.8983 -6.305121
11.46294 124.858 -1.390311
10.95278 120.7237 -3.06798
10.52751 124.1446 -6.634667
8.913937 123.9163 -8.315884
13.24881 103.8459 -2.499209
11.41617 124.936 -4.267185
-7.745893 81.74873 -15.2084
-7.893025 80.02038 -15.40832
-11.90797 80.29174 -9.795839
-11.94183 113.6606 -1.284572
-8.786234 79.35062 -15.35895
-13.12964 79.2579 -7.920616
-18.23928 81.41312 -2.905986
-16.81425 79.05594 -5.363465
-9.609155 81.43131 -14.60325
-18.26146 78.04594 -4.642241
-18.61763 80.256 -2.769873
-18.96613 79.39949 -2.871017
-15.99064 83.6571 -5.172591
12.00338 81.8923 -9.579393
-14.53379 93.96462 -3.632262
18.42755 79.85576 -3.764842
-16.3071 87.52516 -2.92744
12.15253 108.9962 -4.223886
-16.42845 79.69418 -5.475067
11.55109 83.91253 -10.36849
11.0194 120.6003 -2.686238
-11.33102 123.5049 -1.605681
-2.094841 123.2803 -9.53448
-8.657791 124.082 -8.516646
-9.858316 125.3414 -8.427755
-0.6700889 91.03461 -14.08295
-11.29963 123.9371 -3.333478
-11.40463 124.4449 -1.156935
-16.42145 84.3484 -4.812102
11.45992 124.6612 -2.730727
-13.38344 102.2883 -2.198776
11.30926 123.0888 -1.084841
-13.32473 79.99237 -7.570184
14.13438 80.5659 -6.805825
-11.14568 120.7312 -0.8074856
-12.16356 111.9556 -1.694738
18.78756 79.08899 -3.516524
-0.6451771 95.23464 -14.07986
-13.45485 101.4444 -2.402088
-4.621583 79.52726 -14.84824
13.69377 92.83311 -6.051254
14.60072 88.57424 -5.626756
10.15732 78.99911 -14.03834
5.88694 80.79705 -15.16231
13.94105 99.25407 -2.331636
12.64146 108.0909 -2.351771
2.264757 124.1905 -9.821223
11.06265 116.0855 -4.146634
8.394146 123.9516 -8.655415
10.95088 124.0942 -5.602081
9.530046 120.5647 -7.217316
8.189845 123.2446 -8.52484
8.077147 119.4387 -8.663222
7.102145 122.6767 -8.800241
-10.03583 80.25445 -14.2972
-15.12782 92.3918 -3.610013
-8.791408 96.57098 -12.64012
-13.86269 78.25214 -7.28972
-14.73097 80.7205 -6.245675
-16.54066 86.75602 -3.027156
-18.27232 79.91436 -4.156547
-17.39899 82.44318 -4.396358
-12.36664 107.6427 -4.527997
-10.34295 122.4049 -5.711898
-10.65428 122.0414 -4.519329
-11.08128 121.1934 -1.58228
-11.32604 124.1434 -3.400725
-10.16169 122.6464 -6.316945
17.2559 79.58895 -4.901517
16.77042 80.71281 -5.019339
14.51107 79.60689 -6.591026
12.43762 78.85078 -9.112954
15.46925 90.60555 -4.327757
16.70212 86.44965 -2.826666
17.34908 83.6728 -3.971086
10.86958 79.45993 -12.39664
8.360019 82.07259 -15.0849
9.313645 80.40781 -14.87972
-13.17938 103.8117 -2.629944
12.09253 112.2192 -1.73385
11.46844 114.1044 -3.63829
-1.042653 122.9116 -9.467957
10.85962 120.1736 -3.500513
11.18961 119.6877 -1.914195
11.30165 116.3297 -3.065023
4.448215 123.2381 -9.440526
11.33275 124.917 -5.038513
11.11931 123.8052 -4.755827
5.193157 122.5525 -9.159935
-9.003693 81.40357 -14.95977
-2.999668 79.84596 -14.51175
-14.45491 95.63141 -2.312466
-13.17507 99.411 -4.319379
-13.12398 78.25886 -8.00554
-13.13337 80.37189 -7.760057
-14.65827 79.80933 -6.440911
-9.86663 80.52366 -14.44107
-15.5934 88.92997 -4.424449
-17.81278 82.79498 -3.465725
-16.6667 84.00246 -4.681262
-12.15995 111.8546 -2.328658
-11.57243 113.6887 -3.148687
-13.08615 103.0871 -3.897725
-11.11256 125.0193 -5.992449
-10.20581 124.5995 -7.564163
16.55326 82.14296 -4.916505
16.28481 80.67877 -5.28668
14.69259 80.13411 -6.377248
12.96155 78.74257 -8.347362
15.02498 84.67765 -5.637831
15.01003 93.69804 -2.537246
12.89157 102.5916 -5.01924
13.6735 97.11793 -4.082259
15.42806 91.79076 -3.208739
16.01226 88.63798 -4.307243
16.81539 86.56532 -3.328923
13.483 82.95657 -7.210932
14.83262 83.68961 -5.889428
10.45745 79.14565 -13.45658
9.462495 80.1554 -14.77508
9.114553 80.22433 -14.97257
7.335603 81.4675 -15.27881
-13.19058 101.6862 -3.578934
-13.00562 105.0557 -3.379904
-13.22878 103.1834 -2.65221
-13.23531 101.2676 -3.422673
13.66276 101.1536 -2.182968
12.7465 107.025 -3.089572
12.89631 105.7558 -3.58871
12.10626 110.6544 -3.288911
11.92888 113.3886 -1.677852
12.71941 107.4562 -2.620048
12.86263 106.6859 -2.136914
12.55975 108.4779 -2.719065
0.07470139 122.2183 -9.39148
11.07053 119.3124 -2.707229
11.09464 119.0387 -2.689435
10.89194 117.9471 -4.010489
4.31795 121.4639 -9.189752
1.14593 118.7551 -9.449952
5.855639 120.2844 -9.086048
4.439306 122.6308 -9.266583
3.221542 122.8561 -9.417809
-10.67262 79.66317 -13.50201
-5.706708 79.9952 -15.07729
-8.714612 80.6044 -15.12825
-2.620201 82.15998 -14.34328
-15.24333 92.17487 -2.800203
-14.54439 91.46599 -4.947115
-15.83524 89.25634 -2.610803
-13.6827 97.44829 -3.562823
-4.225177 82.10539 -14.6125
-13.92434 81.17263 -6.800705
-14.15847 83.02843 -6.385293
-12.46161 81.3114 -8.700857
-13.13594 81.39359 -7.665013
-11.13512 80.29248 -12.1034
-16.35216 79.60587 -5.52408
-11.11125 79.35684 -12.32465
-16.9852 85.62652 -3.516704
-17.26171 84.53075 -4.015299
-14.25874 81.67847 -6.485755
-11.71629 115.0745 -1.635095
-12.04316 111.3313 -3.164058
-8.558532 122.3599 -7.897041
-11.03982 121.1716 -1.866648
-10.97472 123.6553 -5.086611
11.9446 80.55974 -9.79124
11.84629 83.01569 -9.817291
14.9448 93.29321 -3.529648
13.23206 102.0956 -3.58196
15.61078 90.96262 -2.757625
16.05186 87.5421 -4.579125
14.06284 87.55034 -6.364046
17.06096 84.0615 -4.162819
10.90594 80.76516 -12.12353
11.88464 79.53375 -9.98852
6.58916 80.70653 -15.30834
5.359983 82.04132 -14.9412
3.863231 82.89322 -14.55189
7.656909 83.77591 -15.01215
10.97121 82.74506 -11.76122
10.23995 82.30614 -13.40127
10.23511 81.60281 -13.52382
-13.12876 104.0359 -3.36768
-12.19726 106.2556 -5.760115
-13.61752 98.91042 -3.061499
13.41945 102.2302 -2.587013
13.15552 98.87647 -4.783922
11.39545 111.7401 -5.102738
12.00565 112.8243 -1.810892
12.74839 104.9772 -4.83517
-0.1579801 121.1681 -9.313422
-1.311569 122.1144 -9.347712
-0.9303614 120.5565 -9.304573
-1.387608 120.4247 -9.291549
-5.083111 122.9195 -9.244571
-5.287698 123.3982 -9.414394
11.15135 114.6357 -4.502754
11.51433 115.0742 -2.90973
6.348029 119.3331 -9.164026
3.376779 120.8502 -9.233985
0.3929437 118.9512 -9.429924
2.262783 121.1091 -9.289764
-11.46844 83.19588 -10.67875
-10.30432 82.27385 -13.65235
-8.127439 85.10474 -14.79433
-10.04331 81.47244 -14.1774
-7.044457 82.51279 -15.11175
-8.250649 81.60477 -15.15442
-0.8051679 80.67831 -14.24618
-14.66842 93.87499 -3.355616
-14.49103 92.51153 -4.674775
-11.31242 84.41969 -10.98718
-14.51647 88.76564 -5.476627
-15.56565 88.72805 -4.548942
-13.83134 99.29844 -2.096631
-14.19334 95.89782 -2.953977
-15.38013 78.8476 -6.144307
-11.49578 79.15228 -11.04948
-14.02161 84.23293 -6.387911
-17.08099 81.65128 -4.798425
-11.59481 115.2982 -1.939264
-11.65639 113.6931 -2.896646
-12.59115 107.8367 -3.181326
-11.09217 122.0505 -2.246522
-10.90835 122.2274 -3.663943
-10.43902 121.5527 -5.017626
-11.03768 123.2781 -4.347036
12.27438 82.09505 -9.068116
16.1953 84.24466 -4.915343
14.47884 93.97713 -4.080046
13.46341 97.09355 -4.650355
15.81617 90.08657 -3.86373
14.20078 89.10136 -6.104557
14.8274 87.971 -5.49892
13.77998 91.77644 -6.324333
12.73823 83.43681 -8.236849
5.610023 79.95345 -15.16553
2.244864 80.72446 -14.37553
-12.91362 105.8296 -2.875616
-12.01537 105.0645 -6.788502
-13.49995 98.96938 -3.411769
11.117 110.4004 -6.404968
10.27888 112.9488 -7.387855
12.60416 103.4185 -5.959936
11.51541 106.9916 -6.899299
-3.364557 119.6626 -9.154906
-6.699454 119.2104 -8.640339
-2.233732 123.8587 -9.704963
-6.98928 122.085 -8.457648
1.435417 121.0078 -9.306873
3.661086 119.7268 -9.300556
1.298794 118.0228 -9.516635
-3.548411 117.5368 -9.274375
-11.15476 80.86841 -11.94924
-11.53715 83.87189 -10.45198
-10.96064 83.70968 -12.05447
-11.51106 82.55985 -10.62678
-4.5323 83.15861 -14.62899
-6.209293 80.79726 -15.14089
-4.355525 84.0639 -14.56214
-1.261389 81.29009 -14.24783
-14.5774 95.01048 -2.37865
-15.17873 88.41041 -4.941521
-14.32884 88.29957 -5.812209
-12.79786 97.92609 -5.841556
-13.92714 94.39058 -4.659907
-13.23229 95.66632 -5.584145
-12.76971 96.38094 -6.426635
-13.40767 95.61118 -5.181255
-0.5550671 80.13326 -14.26939
-1.296948 80.58409 -14.28289
-10.99364 119.499 -2.372023
-11.37754 116.5778 -2.025489
-11.97676 113.0575 -2.219812
-11.59899 112.6875 -3.630476
-9.991906 112.1625 -7.276643
-12.33709 110.6183 -1.798129
-12.54839 108.5995 -2.610418
-12.53463 107.3804 -3.99546
-11.94492 110.9969 -3.795221
-12.14491 108.0829 -4.915017
-12.34351 108.8461 -3.782537
-11.0423 110.5977 -5.745564
-11.81023 106.7515 -6.26617
-11.5999 106.7759 -6.666458
-9.753348 123.1059 -7.002104
14.94009 86.38341 -5.52922
13.924 86.0379 -6.553684
15.3641 81.86634 -5.697433
13.4407 99.41361 -3.764059
12.74868 103.5921 -5.400507
12.91821 101.7727 -4.933077
12.28893 104.6918 -6.407901
14.19867 93.41615 -4.928596
4.569402 81.75203 -14.77154
10.88641 83.39279 -11.90888
12.56889 86.48199 -8.488437
11.13461 86.08616 -11.13572
9.690079 85.17207 -13.70721
-13.07342 102.1572 -4.123734
-11.95835 103.2407 -7.414646
-12.7416 100.1069 -5.567308
12.88465 105.0153 -4.236475
11.36908 108.2767 -6.651172
4.5474 119.1381 -9.316784
5.973966 121.184 -8.983397
10.33817 118.6309 -5.713321
-11.61891 85.34299 -10.13556
-10.0828 84.83489 -13.48574
-11.78453 82.59312 -9.942619
-3.600027 81.8273 -14.49748
-16.0999 88.02129 -4.215672
-13.2629 89.41248 -7.541671
-15.38393 83.18291 -5.533379
0.3805641 80.93959 -14.22167
-10.68354 119.1854 -3.95443
-10.69389 111.1431 -6.132693
-9.28519 121.614 -7.307588
13.3765 87.30318 -7.382195
12.49416 89.93066 -8.666943
13.69351 88.5612 -7.000255
13.68297 81.67063 -7.104312
14.47688 83.38029 -6.188766
12.6798 101.9917 -5.72178
12.44647 98.7198 -6.690811
13.24026 93.83949 -6.528088
4.047566 81.43931 -14.66689
10.36041 84.83223 -12.79567
12.14929 84.09166 -9.192307
-12.85521 93.93948 -7.20676
-11.79565 83.0967 -9.894025
-13.08453 87.40632 -7.759123
-16.15747 85.99077 -4.71922
-10.3906 118.463 -5.145753
-10.70509 118.692 -3.943692
-10.94343 113.9973 -4.560924
-10.63565 112.1775 -5.862785
-9.408104 118.377 -7.42165
-10.29171 120.7048 -5.336833
11.49727 87.6142 -10.30247
13.61848 87.47836 -7.056664
12.27853 82.50871 -9.035937
13.12343 84.61581 -7.63678
13.14385 82.90173 -7.656727
12.59122 92.85094 -8.144756
12.44427 88.97284 -8.733716
10.86712 84.64739 -11.85264
11.82806 86.69045 -9.681367
-12.63936 92.95753 -7.991389
-11.69298 84.42475 -10.02172
-12.20997 82.00954 -9.09486
-11.25874 89.36472 -10.72616
-13.02189 88.56338 -7.865595
-13.70163 85.31324 -6.829485
-13.39229 88.76559 -7.379668
-13.6036 86.60755 -7.029213
-10.67452 120.5464 -3.890209
-10.31978 117.1287 -5.578776
-10.72081 117.2092 -4.197968
-11.20311 115.9121 -3.019081
-11.1365 104.9299 -8.085936
-9.971371 106.9205 -8.620636
9.620056 84.46209 -13.93123
12.11125 87.48056 -9.201897
12.53837 83.73672 -8.55032
12.56488 85.47466 -8.470387
-7.008756 98.63877 -13.22068
-13.02783 93.07713 -7.216637
-13.63498 94.2038 -5.396397
-10.82977 84.56545 -12.28614
-12.50115 85.19458 -8.480215
-12.62572 84.86671 -8.287038
-11.62714 88.58667 -9.998063
-13.315 85.17558 -7.332088
-14.15429 85.10126 -6.217435
-14.05888 83.37723 -6.466602
-10.48097 115.1393 -5.428983
-10.31097 120.0641 -5.263143
-10.13178 116.6067 -6.222836
-10.12272 108.8901 -7.77946
-9.528285 106.4117 -9.212593
-10.61061 108.5193 -7.243039
11.0946 86.63898 -11.18522
-13.19841 94.83633 -6.061203
-10.44945 114.558 -5.638629
-9.525334 116.9331 -7.526288
-9.26519 115.6646 -8.080496
-10.48005 111.6463 -6.333292
-9.584694 112.7114 -7.981665
-10.37081 111.1899 -6.675711
-9.407701 111.4571 -8.462561
-10.15824 107.8294 -8.091092
-8.164629 108.1439 -10.28549
-10.95256 102.8549 -8.908413
-9.457261 104.3278 -9.927721
2.432712 116.7584 -9.648207
-9.044683 108.4532 -9.363128
10.98268 88.84246 -11.22223
11.80346 90.39279 -9.74111
-9.319271 119.6145 -7.348784
-9.35638 114.3145 -8.212063
-9.08321 114.3391 -8.544497
-11.01801 104.988 -8.20335
-11.90407 104.8888 -7.095818
-7.899839 108.7241 -10.40311
12.03408 90.61926 -9.377945
10.44821 87.48077 -12.3672
-8.751082 114.6752 -8.74894
-10.43973 103.5153 -9.32345
-9.834079 101.7576 -10.45861
-12.54605 102.9513 -6.03064
-12.73544 104.5627 -5.04611
-12.07267 105.6933 -6.324368
11.62156 89.03805 -10.0452
-8.728645 112.7058 -9.139816
-9.876882 104.8119 -9.41323
10.88074 122.1425 -3.949359
10.41456 118.9846 -5.380297
14.11355 94.70312 -4.351458
-15.83106 81.77262 -5.509709
13.21973 81.38243 -7.689097
8.312597 82.35916 -15.05794
11.10296 113.743 -5.076273
8.21476 119.256 -8.601702
10.01838 116.6015 -7.033124
10.4851 115.2178 -6.274536
11.33218 114.0761 -4.143215
-5.372595 122.2354 -8.95945
13.31108 96.48267 -5.25542
13.16311 95.51099 -5.984687
13.41254 96.90425 -4.841963
11.82248 96.94985 -8.512823
12.53314 94.73412 -7.665594
11.67504 96.01354 -9.075167
12.98993 94.76342 -6.673871
10.81821 103.5511 -9.035617
11.06459 99.56474 -9.392634
11.99983 95.27541 -8.618021
11.32213 95.18993 -9.956751
11.72351 104.4208 -7.525552
11.91082 106.119 -6.516197
9.731909 106.6681 -9.374014
0.2470318 116.3397 -9.684469
-2.430849 118.5988 -9.315047
-3.701364 118.786 -9.159736
-2.401431 120.9866 -9.217314
4.699032 118.2956 -9.414503
5.869835 117.9638 -9.418469
5.923137 114.2811 -10.03418
6.293866 116.9938 -9.553668
6.980029 119.0284 -9.092213
8.768558 120.6365 -8.07316
8.659863 120.5589 -8.157347
8.794376 121.5958 -7.966965
4.793718 116.7137 -9.633253
0.6351754 116.2602 -9.699262
3.000228 116.0111 -9.731719
3.020309 115.4618 -9.803203
0.6645172 114.3657 -9.920432
6.915974 115.6991 -9.689041
7.038703 116.081 -9.597122
7.64917 117.1071 -9.238442
-7.762792 112.3197 -9.802762
2.704789 115.0784 -9.852961
-0.550828 114.6449 -9.837795
1.788116 115.1939 -9.834431
-2.513006 111.3145 -10.13837
-12.28134 93.43114 -8.493156
-13.51726 92.60253 -6.442247
-12.35305 91.85793 -8.697456
-11.95798 94.64824 -8.813846
14.55209 85.85775 -5.87837
1.760312 81.72627 -14.26748
1.62154 83.78216 -14.1783
1.7249 86.44155 -14.13938
0.5789139 82.80985 -14.14759
-0.7663862 82.61203 -14.17194
-1.053324 84.52096 -14.124
1.490427 85.46783 -14.13157
3.259868 85.62323 -14.34834
-0.4669086 86.41108 -14.07214
-0.04435281 87.70036 -14.05066
4.310024 86.17476 -14.51638
4.529042 85.39937 -14.58448
4.126249 85.32079 -14.51375
4.446561 89.64189 -14.43787
5.723373 83.31499 -14.92685
5.140821 83.14148 -14.82129
5.294591 85.08822 -14.74477
2.796469 89.34222 -14.23325
3.553293 87.48458 -14.35694
6.436835 83.28387 -15.04177
7.43928 86.05305 -14.79304
-6.550162 90.68146 -14.42904
10.9396 93.94769 -10.76071
-10.41618 92.68346 -11.74457
2.477707 90.27055 -14.19666
1.638399 91.18133 -14.12566
4.411777 87.76773 -14.48017
2.926098 90.44391 -14.24496
1.141253 90.3632 -14.09236
6.075298 89.47739 -14.57633
6.653302 87.28516 -14.75506
-2.606078 90.42886 -14.21943
-3.576292 91.23665 -14.32184
10.75077 94.8979 -10.89121
5.236364 91.48554 -14.43864
6.025151 90.96435 -14.46789
3.963974 90.50993 -14.36529
6.047994 88.54327 -14.63971
-1.380892 90.10965 -14.11259
3.512451 92.31009 -14.3023
13.05121 93.86716 -6.902857
-13.38014 83.66537 -7.234422
-10.52433 119.007 -4.611484
-11.79625 91.17599 -9.673148
-12.23527 87.52061 -8.944762
-11.53879 90.41592 -10.14211
-11.27816 91.84483 -10.52463
-12.55947 91.73736 -8.376628
-8.454039 89.99883 -13.98114
-11.6573 88.92966 -9.962292
-11.93359 90.00553 -9.493562
-11.22344 90.63998 -10.7257
-11.00844 93.0306 -10.83677
-10.43221 85.17479 -12.96755
-10.0247 88.46939 -13.06481
-10.196 86.31019 -13.1338
-11.45715 86.85417 -10.43987
-9.943489 86.4662 -13.45311
-11.66247 94.99097 -9.291556
-11.01617 94.9399 -10.44172
-9.633979 117.3738 -7.310451
-8.530277 118.0584 -8.273511
-7.774108 120.1613 -8.252139
-7.811387 116.1997 -9.006413
-8.146336 121.1592 -8.062205
-8.25679 121.875 -7.982368
-7.671635 122.6391 -8.363713
-8.46334 116.1208 -8.703517
-3.943082 121.3948 -9.107701
-5.300665 119.9572 -8.852082
6.69432 90.84958 -14.41436
10.7188 122.309 -4.610385
9.893148 121.6072 -6.535587
10.62563 121.4091 -4.529571
10.78594 117.2538 -4.677597
9.791274 119.1726 -6.916354
10.04105 120.0284 -6.253074
10.00552 117.3064 -6.88335
12.74446 92.88974 -7.854457
11.83107 103.2053 -7.682614
10.50597 102.8715 -9.529986
10.98637 101.7738 -9.122254
9.998074 103.2941 -9.918951
3.153692 113.6881 -10.06613
11.41281 105.0585 -7.767779
6.931653 106.1027 -11.41126
10.45896 107.1211 -8.434747
8.12699 107.239 -10.62765
10.10831 108.5569 -8.578628
11.19088 105.9073 -7.783309
9.695446 108.2462 -9.121123
10.60798 110.8102 -7.337771
8.279467 108.0521 -10.40633
10.4888 108.7071 -8.032505
9.592464 108.9768 -9.102438
8.60395 107.7182 -10.21447
10.82671 108.9341 -7.439775
11.64977 92.23106 -9.879181
11.94219 94.79707 -8.861938
10.93231 92.71142 -10.94321
-0.5825635 95.49679 -14.0674
9.160626 96.43394 -12.39097
9.883633 94.39615 -12.07312
6.80971 121.0971 -8.857088
9.602048 120.8994 -7.101366
6.42248 113.3301 -10.19726
5.685817 114.1802 -10.05213
9.041244 116.4649 -8.400302
9.868763 115.0316 -7.64526
11.1561 113.0774 -5.212998
10.20015 110.5108 -8.044209
10.2508 113.6391 -7.249083
10.58475 113.84 -6.472479
7.863404 113.978 -9.701953
10.99672 113.1368 -5.650508
9.632431 113.6136 -8.222439
9.67486 113.9928 -8.108896
9.834294 110.4041 -8.566442
5.359654 112.1529 -10.4324
8.28553 110.1273 -10.05978
9.278227 111.477 -9.016156
10.99208 111.5402 -6.296203
-5.959658 116.3882 -9.153232
-1.609131 114.6493 -9.77353
-1.560189 116.01 -9.620771
-0.4649662 115.9285 -9.701306
-1.435 116.1817 -9.611627
-1.286733 114.5649 -9.806542
-3.132439 113.9897 -9.692109
-2.775001 116.9777 -9.420704
-0.08066491 112.0859 -10.19096
-5.201105 115.9444 -9.253172
-2.542602 112.3301 -9.973366
-1.850298 110.8458 -10.26439
-3.444155 110.2395 -10.30313
-4.349373 113.2544 -9.71331
-4.833479 110.6764 -10.28953
-5.632103 112.4037 -9.925714
-7.704603 113.9414 -9.493392
2.039656 111.4816 -10.37183
-1.504109 112.5788 -10.02958
-0.2553848 113.0735 -10.04416
-1.034044 108.9839 -10.65418
-4.925637 111.8116 -10.01518
-4.709157 109.6059 -10.54857
-6.855237 111.1732 -10.28394
-4.385065 109.6853 -10.49487
-6.271439 114.7553 -9.442659
-5.651534 117.4781 -9.017724
-1.174167 108.6427 -10.71362
-6.644564 105.7172 -11.52836
-5.038597 109.1404 -10.72565
-8.508163 107.2867 -10.06498
-6.139871 107.4552 -11.21806
-8.437947 106.7713 -10.20222
-5.760207 108.7745 -10.88205
-7.325271 108.1322 -10.78042
-5.671058 105.2067 -11.82428
-4.232644 107.1034 -11.19613
-5.9232 104.4978 -11.96578
-3.700124 106.7705 -11.23397
-2.300917 94.88338 -14.1501
-4.653499 101.4078 -13.04248
-3.533882 104.1277 -12.05127
6.945338 84.35064 -14.96325
8.465963 88.08195 -14.27284
-9.297898 91.98563 -13.08937
7.133778 94.35197 -13.85166
7.544821 91.6124 -14.10205
6.324207 93.83905 -14.17884
7.862661 90.06787 -14.20326
9.345963 94.83603 -12.48862
10.70837 92.36587 -11.32371
9.373812 91.96034 -12.99525
9.562449 93.63264 -12.49966
-9.598931 94.25492 -12.30061
-9.767351 92.28196 -12.57086
-10.16254 94.6148 -11.65588
-5.542865 93.26881 -14.34105
-7.105529 92.39848 -14.1117
-7.659337 91.03864 -14.13435
-8.271151 90.75011 -13.95961
-10.02876 90.44043 -12.65096
-6.105369 93.74121 -14.21366
-7.667242 94.83804 -13.56848
-3.62909 92.03268 -14.32382
-7.07486 93.66737 -13.94241
-5.096265 92.54289 -14.40175
-6.084582 90.08302 -14.49712
-3.233986 88.0003 -14.29765
-0.5788839 88.24693 -14.05906
-4.344513 91.13433 -14.39595
-1.58661 89.10603 -14.12956
-5.063256 92.21378 -14.40697
-2.135471 91.02602 -14.18067
-7.297616 90.33854 -14.36663
-3.594068 84.75431 -14.4032
-3.273064 85.33617 -14.3414
-1.569722 86.34203 -14.1369
-7.763397 84.7954 -14.88057
-5.455195 85.78665 -14.6799
-3.008596 83.61137 -14.34446
-3.986694 85.98639 -14.43991
-6.106909 85.3387 -14.78071
-6.325417 85.74108 -14.7867
-2.942972 87.25175 -14.26896
-9.416809 85.83569 -14.11201
-7.984276 86.98684 -14.61357
-0.6689285 87.01244 -14.07225
-6.178761 88.89623 -14.58302
-1.7478 86.83001 -14.14796
-5.543603 86.86434 -14.64217
-4.65414 86.99821 -14.51863
-5.904928 122.3165 -8.868209
11.1247 101.2389 -9.03815
11.06532 102.5113 -8.8786
10.5365 101.4694 -9.759158
