# .PCD v0.7 - Point Cloud Data file format
VERSION 0.7
FIELDS x y z
SIZE 4 4 4
TYPE F F F
COUNT 1 1 1
WIDTH 1664
HEIGHT 1
VIEWPOINT 0 0 0 1 0 0 0
POINTS 1664
DATA ascii
-13.26889 109.6605 6.883214
-16.44984 37.76614 0.9763213
-16.73073 74.8884 8.596603
-14.43056 63.48492 6.988575
-15.96299 67.49702 7.503821
-19.59405 69.82732 3.791295
-18.64063 88.06713 6.494212
-13.52575 52.8166 4.708083
-17.96418 95.7908 1.845237
-14.70152 55.61942 5.12125
-19.33075 67.27831 3.68701
-10.68504 117.327 8.461402
-18.46601 88.65271 6.619353
-15.2522 85.18047 9.872792
-15.7558 98.95187 6.60128
-10.54469 116.4856 8.471418
-15.13237 41.42436 1.397014
-8.982037 113.7294 9.488259
-9.002462 115.5757 9.518693
-14.82024 45.88396 2.201948
-21.10754 46.14043 -3.962076
-19.80307 65.97327 -0.1506889
-20.09907 69.52527 0.8201648
-20.4089 74.24896 0.795293
-16.49829 82.55648 9.311997
-15.29168 89.57192 9.441124
-17.08665 83.83125 8.898397
-17.08016 100.9787 1.160243
-13.36255 103.4377 8.392187
-13.18828 104.0381 8.512703
-15.29097 40.68857 1.318304
-16.58787 42.33268 1.495371
-12.51728 114.704 4.891042
-22.74677 40.04762 -4.599411
-22.11404 43.26022 -5.683052
-14.54854 45.0453 1.995097
-13.33071 50.57093 3.957007
-19.71693 50.81256 -2.789179
-13.502 55.50842 5.188073
-14.51404 57.60318 5.477952
-19.33924 53.95966 -2.22295
-19.6665 64.43307 -0.1033909
-19.29727 59.36344 -1.279381
-15.49867 69.36543 8.180088
-19.92907 67.69765 -0.4200226
-15.39254 76.57195 9.45676
-20.14759 73.24228 -1.397448
-15.90023 81.14108 9.618578
-20.65653 81.00442 0.7480576
-15.75857 77.87059 9.463519
-14.34738 91.54044 9.472426
-19.8725 88.28967 0.03850878
-14.4525 93.44511 9.049605
-13.22647 98.42847 8.618502
-17.13559 100.6993 1.606234
-14.43461 96.03926 8.466718
-16.24521 104.916 2.384072
-15.56512 106.9031 0.8649719
-19.26913 39.11645 0.8480096
-13.35298 112.7875 2.457995
-10.03519 114.6178 8.805683
-22.56577 41.03144 -4.515335
-16.98016 44.24456 1.710946
-14.77452 42.75279 1.579754
-22.0778 43.2712 -4.808618
-15.45528 48.13575 3.057509
-19.93253 48.61243 -1.843598
-16.57153 52.5475 4.007492
-17.32598 57.38843 3.698518
-19.21096 56.30364 -2.266125
-14.25144 62.80053 6.860909
-19.73415 65.20503 -0.411537
-19.36507 61.28876 -1.492762
-17.39168 66.3689 6.303315
-16.68588 66.44527 6.82576
-18.54493 68.76402 5.640626
-19.53651 67.39861 3.125409
-15.50782 66.39546 7.423453
-20.01373 70.70021 -1.343093
-19.96761 68.16624 1.223708
-18.44153 74.3262 6.912711
-17.61758 72.98803 7.608445
-18.53999 76.47836 7.131444
-19.15616 78.02186 6.388958
-19.16674 78.9808 6.443641
-20.15026 78.07845 4.11443
-20.01395 79.59267 4.692337
-20.51398 77.22962 -0.1496622
-19.62432 74.09196 4.809473
-16.36366 80.64244 9.356495
-20.56959 79.64397 2.317101
-20.60809 78.76165 0.3413244
-17.21544 88.41032 8.307057
-17.65132 88.87946 7.729395
-16.09545 89.97911 8.8977
-17.7264 90.33752 7.166714
-15.67477 87.69911 9.507872
-19.5317 89.61216 -0.7009892
-18.50223 93.78843 0.007345675
-20.18629 85.707 -0.7731658
-15.59661 94.71356 7.996634
-16.22236 94.81379 7.33369
-17.90326 93.03033 5.45173
-12.90046 99.80778 8.626679
-16.10872 99.37564 5.958854
-16.0571 100.4561 5.803752
-17.15741 99.72891 3.017725
-17.80282 96.61074 1.68459
-11.966 104.7868 9.151398
-14.54806 105.3419 7.14374
-16.48404 103.2673 3.667775
-15.08606 103.4332 6.770191
-10.38633 109.7074 9.49348
-15.38111 107.8615 2.223355
-14.40548 108.8541 5.255435
-15.74394 106.0025 4.244722
-12.61004 109.2432 7.965622
-20.91261 38.68169 -0.1757759
-22.3281 39.62626 -2.661625
-13.02546 112.5419 5.196827
-12.12007 114.313 6.209021
-17.33324 42.19466 1.465323
-21.84987 43.93614 -4.289094
-15.55655 52.99073 4.64925
-15.97927 52.07804 4.232824
-14.52097 58.60688 5.730373
-16.52185 58.41685 4.759878
-18.45432 58.0859 1.848526
-17.84307 58.01294 3.082793
-18.9075 53.63223 -0.2856695
-16.31373 63.72731 6.359825
-19.46646 63.07277 0.9745657
-19.85615 69.12807 2.561738
-17.17249 70.00816 7.374979
-19.3599 64.19111 2.193689
-20.13689 74.5714 3.333713
-19.7674 71.15895 3.67835
-19.27471 71.47327 5.020465
-17.4121 79.42767 8.550907
-20.56116 77.11231 0.9503037
-17.90329 82.49044 8.193286
-20.4555 84.254 1.905198
-20.49574 76.71061 2.024134
-20.19422 84.99589 3.316245
-16.60052 86.17166 9.108882
-19.61877 89.40735 2.162637
-18.39781 94.01674 -0.5294284
-18.52296 91.14261 5.204384
-17.14146 91.32989 7.551436
-18.39079 93.61491 3.090316
-19.86528 87.89268 2.683929
-20.11637 86.21471 2.862519
-19.31597 84.78278 6.025545
-18.43627 94.06587 0.3311011
-16.44465 99.94859 5.19386
-16.88582 100.3301 3.85629
-17.03002 100.9452 0.4912921
-16.04604 103.305 5.154325
-15.08976 96.67232 7.832671
-16.30944 104.6449 2.645625
-16.08361 102.3398 5.365797
-15.6445 107.0512 2.218986
-14.61414 108.2548 5.290087
-21.59457 41.10912 -1.460322
-12.70173 111.9455 6.350665
-18.48992 47.589 0.9472376
-20.30006 42.90477 -0.1484004
-17.38111 46.54082 1.775423
-17.3815 49.70973 2.730065
-18.1071 49.75237 1.857511
-16.58689 47.10211 2.372704
-17.63983 55.24944 3.058732
-18.50175 55.54099 0.9429464
-18.91029 58.6437 0.7503915
-17.60067 59.23825 3.775383
-16.83657 63.77386 6.024352
-20.01379 70.18368 2.219767
-19.61824 64.33149 0.812022
-19.50941 64.36648 1.652948
-19.99474 72.83636 3.352427
-19.64992 86.43578 4.767604
-20.10094 85.44907 3.519191
-18.35584 94.02587 2.587442
-17.88386 93.94218 4.742798
-17.69458 96.34138 3.116321
-16.55032 97.99097 5.610064
-15.32093 106.3137 5.268004
-21.95287 42.6669 -3.112812
-20.45734 41.37676 -0.002773901
-17.89046 54.57762 2.613876
-17.53889 53.07441 3.096107
-19.49914 51.52081 -1.79968
-17.85136 64.62988 5.343264
-19.81526 67.84819 2.171141
-19.36184 62.91184 1.463721
-19.70823 85.33815 4.991037
-21.16881 44.34689 -2.138152
-18.28282 53.80392 1.649127
-18.67057 48.83904 0.8372036
-20.48823 83.41254 2.341535
-18.37487 46.97614 1.018162
-19.24576 63.37826 2.144468
-20.09609 81.93389 4.461343
-18.45876 45.11 1.062374
-20.25981 44.96162 -0.7534458
-20.37127 80.23534 3.534128
-14.06924 106.9633 7.18833
-16.90589 99.14632 4.285712
-14.40258 38.16225 1.031567
-13.60884 45.31914 2.092284
-12.74416 52.5626 4.606912
-14.10379 38.98438 1.131014
-7.907399 115.8689 10.11863
-7.788084 114.9038 10.13467
-13.54093 73.66473 9.349322
-15.0852 79.69238 9.846908
-1.757136 117.4463 11.84368
-13.22263 93.01314 9.480117
-12.54873 94.8149 9.297082
-11.76708 100.0809 8.988574
-8.900846 50.79687 3.997203
-4.699585 116.1609 11.54836
-11.92048 98.7823 8.977504
-5.362532 37.17169 0.9295307
0.2879708 115.9753 11.84178
-3.201487 68.55566 8.323904
-8.493474 82.58499 10.18041
-3.358582 83.68562 10.17784
-1.899555 60.13586 6.342899
-13.55464 95.16361 9.038565
-2.02574 56.88841 5.554945
-0.9943963 106.1871 12.3137
-5.273339 112.7399 11.44213
-6.403276 39.97271 1.272933
-6.252269 115.4728 10.93637
-1.358987 97.33545 10.20242
-1.309331 95.35164 9.611844
-2.881857 77.98927 9.835131
-1.483351 112.7915 11.85591
-13.77486 40.21341 1.274502
-11.25406 49.29761 3.510335
-4.488111 60.45917 6.417903
-2.096376 70.09272 8.637399
-6.277087 69.01866 8.434197
-15.00384 79.10863 9.830214
-14.51098 81.53566 10.07032
-12.79787 86.58064 10.22776
-13.73964 93.4687 9.294868
-6.942919 106.7881 11.17468
-3.079555 112.7727 11.82955
-1.660969 41.01934 1.431302
-3.535762 43.7729 1.929384
-5.76722 114.6985 11.17516
-10.41655 37.65182 0.9806024
-13.7061 41.8814 1.473509
-2.037073 44.91983 2.214187
-1.550983 51.43528 4.141411
-12.97731 50.24064 3.841452
-12.72457 48.42209 3.191906
-1.982778 57.63666 5.735822
-12.06701 56.66773 5.414548
-1.88698 64.33659 7.358936
-12.49213 59.7837 6.200386
-2.671933 65.77789 7.698925
-14.31786 66.06211 7.67248
-3.792827 73.42965 9.238382
-4.51076 77.24654 9.762568
-12.41116 80.01254 10.09941
-13.49867 86.46073 10.20267
-13.6811 83.37085 10.24309
-13.73338 91.62679 9.62385
-14.25482 87.75926 10.00596
-2.122738 95.76452 9.662789
-11.8494 101.9985 9.042863
-1.543772 101.0869 11.42632
-2.187635 104.7652 12.19302
-9.28793 110.1456 9.892776
-2.444471 107.8951 12.32322
-3.296113 39.34839 1.198332
-6.701146 110.2619 11.06567
-5.405397 113.9149 11.34258
-3.305444 116.5284 11.80725
-0.9043905 111.7656 11.93229
-10.10879 37.11457 0.9167521
-5.313226 43.20803 1.795606
-2.174389 42.2784 1.639535
-11.02797 43.26389 1.729669
-3.164666 48.45448 3.24278
-10.62087 46.7615 2.613399
-5.2723 54.96509 5.093688
-5.756383 54.82497 5.06133
-11.92864 55.5594 5.217744
-4.919023 60.96424 6.541611
-11.24052 65.94968 7.750517
-10.37179 61.76027 6.733462
-3.899485 68.29289 8.269397
-4.672898 66.03945 7.762384
-6.628662 69.46053 8.529414
-8.707675 70.25932 8.705415
-2.799192 70.38529 8.696534
-11.69791 74.12986 9.397458
-13.781 65.75379 7.661361
-13.75047 73.56081 9.330375
-4.053397 80.18693 10.03097
-5.87063 76.71075 9.706339
-2.912034 75.90417 9.591408
-7.379765 81.03635 10.10314
-14.84747 78.58671 9.830317
-13.77677 82.62382 10.22718
-5.556182 86.25452 10.16463
-4.790807 82.61971 10.15764
-5.605493 81.55958 10.1186
-9.475577 82.53903 10.18717
-8.55734 78.99612 9.968949
-10.6363 82.39658 10.19359
-11.81694 81.17716 10.14876
-4.987983 89.61452 9.941324
-2.456489 92.28077 9.656347
-14.13769 88.3791 9.981556
-8.56571 89.47285 9.970289
-1.878579 98.07669 10.40613
-7.576744 97.39321 9.525713
-13.05869 96.63622 8.923541
-10.94916 101.5083 9.267182
-7.426413 95.96761 9.436437
-3.155725 102.7681 11.68823
-3.0096 100.1076 10.91795
-10.7257 105.3328 9.623435
-3.099598 105.7932 12.23899
-4.812352 105.6552 11.85847
-5.605078 109.1503 11.67975
-4.65216 106.027 11.9584
-5.287561 109.0559 11.8201
-9.604312 38.75496 1.114956
-3.863185 110.5801 12.00423
-4.859525 113.1717 11.56819
-11.63009 42.85292 1.64631
-4.648984 44.72488 2.144289
-3.078139 50.51152 3.876738
-5.047629 54.32047 4.936346
-3.927085 54.28234 4.921522
-5.03425 57.65378 5.729143
-11.64633 58.83153 5.946715
-10.46972 60.39599 6.382917
-11.78089 54.76614 5.082656
-6.680995 62.3601 6.882469
-4.886557 59.90083 6.278814
-11.42936 63.66329 7.193414
-12.90328 67.9949 8.252158
-11.04541 69.63969 8.599463
-10.11669 71.06938 8.875443
-10.84596 72.6101 9.152861
-10.28601 73.43739 9.279993
-11.04996 65.71192 7.69192
-8.002976 71.92691 9.011759
-12.7986 73.9877 9.386416
-11.70727 75.15084 9.544098
-3.898621 75.68945 9.566912
-10.93837 80.75142 10.12077
-12.5762 79.80704 10.09042
-9.94414 77.96853 9.883892
-11.83178 87.43927 10.17101
-4.655849 89.52711 9.948251
-4.607406 92.40539 9.642114
-8.959566 91.17249 9.785534
-8.506697 91.41563 9.755443
-12.37036 92.74242 9.578156
-10.26239 90.64133 9.852966
-6.276691 97.42811 9.667784
-9.697921 98.17296 9.320386
-10.43914 100.8018 9.334805
-8.181306 101.444 9.984812
-9.454618 102.7523 9.817873
-7.193799 105.86 10.99308
-8.140388 105.2343 10.56177
-5.013976 107.0845 11.93757
-9.994356 40.56972 1.337136
-6.75534 48.14929 3.13017
-7.716839 42.69496 1.674205
-5.680267 46.34345 2.571124
-5.388427 51.26419 4.113165
-4.94381 48.53233 3.263077
-4.048007 49.12553 3.452385
-7.043893 56.62508 5.476499
-7.232328 54.54594 5.001839
-9.597099 55.25492 5.168602
-7.908278 59.50261 6.164542
-9.398561 54.68705 5.047551
-3.798876 70.3604 8.696354
-10.5541 65.07585 7.537873
-11.63792 68.24709 8.299581
-9.020298 75.25334 9.537147
-8.062742 73.65773 9.297103
-7.583914 76.18838 9.652205
-5.181009 85.10062 10.18913
-7.910867 89.73969 9.940755
-7.769147 87.98655 10.0928
-9.346382 90.8354 9.826595
-8.654696 94.86739 9.408765
-10.24984 93.82664 9.474804
-8.18189 94.11034 9.46581
-5.231993 86.01933 10.1706
-4.891623 99.43763 10.31569
-9.602962 95.526 9.347924
-7.650763 101.2755 10.09551
-10.16885 94.87962 9.374097
-5.221196 104.0594 11.41805
-4.085167 109.8837 12.05526
-5.540532 44.371 2.045891
-4.350381 46.68386 2.688634
-8.266866 50.52698 3.906901
-6.945467 46.20399 2.513208
-10.04109 50.97653 4.064845
-7.703669 64.94314 7.50574
-8.424975 63.91854 7.259114
-9.709453 67.97838 8.225142
-8.649214 76.12877 9.651998
-5.437273 103.2995 11.19332
-9.510871 43.25272 1.751788
-7.786073 53.74939 4.816504
-9.312337 48.02964 3.06963
-6.705825 47.10853 2.794402
-7.542887 63.01772 7.041889
-8.023909 47.68089 2.964065
-7.125304 45.59003 2.333775
-6.671876 46.61309 2.639433
-9.195283 78.68281 9.946378
-11.03071 85.75687 10.23092
-7.99642 86.80902 10.16102
-9.083779 88.22675 10.08509
-6.787568 101.5246 10.37862
-5.831501 51.35991 4.144711
11.24461 88.92624 10.04142
-0.9649813 46.76451 2.731468
2.029541 58.67112 5.98735
-1.174796 47.27874 2.88562
10.94357 88.28349 10.09202
-0.2692236 37.07907 0.9202882
-0.8639528 73.08855 9.175686
0.1595436 79.38744 9.960826
-1.422513 86.4388 10.14316
-1.173665 93.31631 9.560122
-0.359162 39.35025 1.200389
2.060296 109.4343 12.17756
4.212058 51.17459 4.071105
1.270391 84.72102 10.17967
8.117227 55.06777 5.131831
-0.04157462 38.52514 1.096188
1.094646 114.9461 11.83396
0.06681366 73.39215 9.225569
9.548556 47.55805 2.890707
11.13907 43.66004 1.803924
10.35592 50.34732 3.835871
8.632709 98.48259 9.496696
8.547875 99.73609 9.651633
7.750538 108.5848 10.83045
4.719049 84.62581 10.18617
0.4039904 38.96105 1.151009
10.85639 86.39842 10.19931
8.459282 100.5254 9.772011
9.19602 84.06994 10.21162
6.337005 41.1985 1.447235
0.6189874 110.4194 12.06532
7.99256 112.9016 10.08226
8.001583 43.53373 1.832486
0.4005449 56.39331 5.438428
8.288078 53.4095 4.726522
8.019008 68.39943 8.302684
-0.7334976 76.29363 9.63705
0.8456997 84.66237 10.1796
-1.425779 87.91364 10.06918
7.008907 88.80424 10.02058
1.86926 104.0474 12.10511
6.184178 105.8628 11.38713
7.898197 38.33778 1.067408
11.61634 39.70448 1.225362
3.205087 113.4336 11.79904
7.32757 112.1479 10.49774
3.080404 38.76059 1.124794
-0.19923 40.60635 1.37141
10.78338 44.75924 2.043909
0.8045554 46.85486 2.756337
9.452404 47.98589 3.036476
-0.9494352 51.35255 4.116974
-1.063022 51.55672 4.176376
-0.7878478 58.28792 5.895285
1.42813 56.14105 5.378178
7.964409 55.57064 5.245818
10.2742 64.59065 7.417864
10.67254 66.67905 7.919581
-1.148263 61.67854 6.719214
-1.521748 67.44511 8.077615
10.2082 76.11391 9.647468
-0.4561753 75.22781 9.496911
10.17914 80.63477 10.09469
-0.9449947 81.56864 10.1033
11.07438 79.05081 9.981174
10.87498 90.65763 9.851758
0.1390705 86.72272 10.13286
8.895379 92.4706 9.634089
9.801392 99.4537 9.38124
0.5610894 96.12187 9.835991
9.752116 105.9014 10.03166
8.099157 104.9611 10.54506
5.826052 38.09154 1.040252
5.765227 112.7611 11.26084
4.805253 114.8937 11.52998
8.163939 111.184 10.20422
-1.095886 41.95035 1.584172
2.544455 40.7184 1.38571
3.054946 42.60704 1.697182
7.888574 43.36961 1.800797
9.399147 47.33272 2.818693
7.968893 48.44469 3.205279
5.470431 52.43064 4.438822
0.51911 48.36543 3.215948
-1.410044 58.57005 5.962814
0.7614465 57.83453 5.786569
8.019447 53.51707 4.751602
7.864697 52.30096 4.417994
9.586197 62.54382 6.919507
0.4984289 61.56474 6.69154
5.976364 61.0481 6.557399
-1.106996 70.45349 8.706965
8.43841 74.60844 9.433682
5.754406 75.09031 9.489635
8.875158 72.66028 9.135341
6.968498 77.32468 9.775387
6.107676 77.80787 9.823893
6.569833 79.69862 10.00235
0.9986827 74.41931 9.383237
2.168612 74.16673 9.347174
9.248519 81.05064 10.11065
-0.712629 81.70907 10.10967
1.916281 80.0341 10.01101
8.364771 85.25086 10.20297
6.060868 88.11745 10.07103
1.157332 87.91601 10.06979
8.078659 88.83179 10.02416
9.81156 91.44533 9.754614
-0.3680443 91.4817 9.741672
2.558038 86.10276 10.15763
5.135766 95.88908 9.556302
8.218587 94.87521 9.422703
9.760998 90.9961 9.807932
8.197526 98.79065 9.599408
6.825123 100.7684 10.21216
8.52645 97.88029 9.454876
0.5105653 100.9701 11.44063
2.279374 97.33716 10.0881
8.395771 104.5629 10.39266
5.070416 101.4702 10.84966
9.052 108.4955 10.31266
6.037827 111.8459 11.20458
2.151431 108.5075 12.27589
3.178734 113.9973 11.80346
4.957612 113.9838 11.49329
4.241637 110.8463 11.92033
1.693839 110.3179 12.07496
4.056226 110.4543 11.98896
0.4641354 41.93948 1.582866
7.421891 39.55804 1.219141
7.021963 40.89035 1.399423
6.462566 40.84208 1.39413
9.373356 48.81834 3.322984
7.755924 48.49065 3.222145
1.120709 47.77184 3.032346
0.4115936 59.85 6.274113
6.88184 51.06811 4.048543
5.113546 64.74682 7.456883
7.202526 61.80822 6.742329
9.217814 67.04066 8.000419
1.482292 67.18243 8.020042
4.034611 64.6639 7.437308
4.61277 59.06025 6.074641
8.953252 69.29635 8.500138
3.710476 76.04301 9.610854
9.734488 77.77953 9.843187
0.2085663 75.65154 9.554463
1.323712 77.66579 9.79686
6.387281 80.06763 10.02841
7.697561 84.26443 10.20139
6.674624 85.04916 10.19399
5.453743 79.16119 9.952885
3.480344 81.35978 10.09806
7.30173 83.43646 10.18939
8.132908 90.1778 9.892813
1.027901 90.39425 9.856616
3.719975 90.51102 9.847165
2.933309 89.78582 9.919023
4.899583 92.69582 9.614214
2.359333 89.20046 9.972524
2.150311 87.67474 10.08629
2.999357 93.92863 9.526005
5.762849 97.46319 9.737407
3.398067 99.37719 10.5945
0.3374212 100.0443 11.16842
1.777695 102.2408 11.72716
3.745493 95.5405 9.571192
0.6280549 104.7904 12.22189
1.058347 105.8014 12.29681
5.593455 108.3398 11.73372
2.917492 110.5715 12.03758
6.820612 43.93733 1.933348
6.362904 48.65773 3.284746
2.66812 50.93262 3.996289
6.964948 57.38437 5.663156
6.440017 55.34689 5.19301
6.794357 62.44794 6.900385
1.105161 60.44918 6.419615
4.992622 58.60219 5.962323
7.358329 68.1591 8.247629
4.823383 72.70887 9.123915
6.048246 72.96127 9.169988
3.079452 77.96011 9.831466
2.931356 70.9751 8.810689
6.836591 70.07482 8.648749
5.44626 69.1916 8.463716
4.019051 86.37164 10.15345
3.844752 83.50945 10.17551
3.028405 91.6842 9.721645
6.748675 95.63954 9.462332
6.163208 95.30994 9.475123
6.001431 101.7196 10.65174
2.619645 97.61755 10.13841
7.744 96.00596 9.425125
4.181524 102.6009 11.40524
-0.6395189 105.7086 12.28947
5.248739 108.3924 11.87199
8.320624 46.71398 2.638763
4.141427 53.76653 4.792583
3.951001 55.39569 5.200016
5.000653 55.03245 5.114019
1.338929 56.74596 5.524477
3.613528 61.97002 6.787863
3.56532 65.16683 7.556392
6.590533 58.65796 5.967416
2.014204 68.18098 8.240793
2.458003 67.25797 8.037776
3.99021 73.93362 9.315614
5.006854 85.2058 10.18292
2.741297 82.29708 10.13901
6.612625 81.77966 10.13094
5.156594 94.53999 9.48395
5.812401 103.9384 11.19993
4.75307 46.9869 2.769348
3.544937 47.30876 2.877973
1.388366 47.6516 2.99456
1.156652 49.13754 3.453041
3.604188 58.30182 5.895222
5.371314 45.32658 2.286242
3.005495 45.90383 2.468848
6.939528 45.98484 2.443085
2.392389 44.80703 2.179312
2.176079 47.04245 2.805986
19.99352 80.48579 4.791481
12.33764 45.12746 2.085026
11.74102 116.5015 6.769996
10.57322 115.9837 8.388109
21.65256 39.22875 -1.144325
12.63454 115.0078 2.984525
12.35421 72.03755 9.067461
20.0735 74.64574 3.629237
19.98186 86.39161 3.48526
11.03541 117.1481 8.026709
11.13018 95.87882 9.264434
10.98099 100.6774 9.203444
10.93005 107.7583 9.586716
8.598365 113.9554 9.695137
19.32538 62.31242 1.281141
13.70575 111.8092 3.425699
18.08799 59.03022 2.951813
20.26358 73.53822 2.259703
19.58375 67.70239 3.065704
22.47798 38.84083 -2.688466
12.47138 38.12978 1.03348
21.30985 42.87582 -1.620271
18.7633 61.36913 2.505347
16.42808 104.0712 2.601775
13.05635 113.6182 2.706488
20.24289 85.98209 2.134418
20.1994 80.09537 4.152724
16.92099 101.7919 1.416668
13.73748 38.65027 1.091903
12.29122 107.0601 8.884262
12.38718 116.3083 3.244997
22.10485 40.64759 -2.356422
17.67719 54.30793 2.984527
12.04979 64.40799 7.374639
11.3081 63.73895 7.210591
13.09104 75.00674 9.5429
13.82144 84.02785 10.22813
14.50796 92.52381 9.191738
17.84904 96.37701 1.713828
11.67455 97.54713 9.089998
15.42644 107.2461 3.874844
21.21503 37.91185 -0.4482392
21.52959 40.08149 -1.122246
21.93143 42.07287 -2.634985
11.15011 116.3499 7.742479
15.96329 39.1025 1.134731
12.79251 40.52236 1.32113
19.03777 38.48333 0.8831296
20.79276 44.03446 -1.211614
12.86918 45.34715 2.120588
13.43182 51.02658 4.106698
12.76203 48.1691 3.079128
12.87662 56.95382 5.444841
19.24861 61.54636 1.168654
11.82612 63.20898 7.081807
12.57126 60.5142 6.409651
19.72605 68.85537 2.996987
12.08364 67.32356 8.082784
20.00948 73.37653 3.487451
12.80683 75.49095 9.600823
12.34562 71.77456 9.020974
11.92207 79.72596 10.04985
20.02809 87.36552 1.947188
14.0533 87.56235 10.07583
14.63334 82.74561 10.08543
20.37711 82.7655 3.285635
18.02451 95.37724 2.387338
17.63862 96.72314 2.995492
17.1943 99.69041 2.743309
15.0032 108.2162 4.20954
21.35419 38.25083 -0.6443763
11.15077 111.0912 8.55387
11.95854 113.5221 6.71282
12.18306 114.4286 6.06442
12.09109 114.6689 6.180335
12.66037 113.8242 5.149211
13.59455 41.24302 1.403897
20.18126 43.64067 -0.1934591
19.44525 38.61848 0.8090461
19.13017 45.06444 0.5447693
18.61186 50.20809 1.063191
12.84244 46.16191 2.351798
18.398 58.24817 2.043095
15.87502 55.32581 4.781534
18.73951 61.10704 2.420657
11.70016 60.51992 6.408691
18.80068 58.1121 0.8712958
18.7929 67.14053 4.809726
17.12249 73.10829 8.03124
18.5894 66.22098 4.866722
17.64278 69.25242 6.807996
19.35305 70.28255 4.556759
15.43251 63.58141 6.733637
18.70318 62.33051 3.080787
19.7957 72.72178 4.06284
19.29976 71.63641 4.992729
20.31289 75.63952 2.908337
19.23353 77.81895 6.222948
12.68461 78.22472 9.939202
20.30606 80.77466 3.779535
19.28454 82.17918 6.324542
20.55951 79.0468 2.39902
20.10175 86.64408 2.457005
19.41322 90.11629 2.606531
15.02806 87.20105 9.792024
12.92474 92.84804 9.541555
12.28132 83.67705 10.2471
19.11057 91.60463 1.743714
18.20982 92.03195 5.357013
16.78186 95.65408 6.163057
17.42633 93.16322 6.332935
13.02672 97.33125 8.822654
17.0549 99.39201 3.702489
18.03666 95.50998 1.85534
11.5741 102.541 9.172141
16.62411 102.1174 3.938486
16.08715 100.8941 5.673897
15.26691 104.8476 6.203859
14.39904 103.4473 7.550125
14.63687 109.5879 3.512008
14.94808 106.5737 5.953336
13.3295 106.6715 8.135248
9.732667 109.7551 9.792201
12.51298 112.1086 6.586497
16.42979 40.51492 1.299774
18.67933 40.31002 1.120786
18.37378 42.41689 1.267982
14.69436 44.70243 1.907778
14.8263 43.05597 1.623721
18.073 45.47293 1.323028
18.88583 46.91418 0.5076943
18.87415 50.76466 0.3858644
18.87752 52.60898 -0.03440977
14.69904 50.38504 3.890617
18.36203 56.32801 1.514955
17.03671 61.07543 5.042633
18.07708 57.58324 2.522076
12.10122 63.0365 7.039244
13.87805 58.87098 5.890456
16.15051 69.06815 7.805386
13.31999 68.14709 8.286746
15.70049 61.96239 6.189903
18.02221 63.30497 4.702887
18.15783 75.41694 7.439453
18.91635 71.34368 5.634944
20.13038 76.45258 3.890626
15.46078 78.15141 9.582427
17.68969 71.50134 7.233833
14.97747 70.86107 8.663509
13.75112 79.52061 10.06765
19.87379 86.64781 3.839821
15.18395 88.0299 9.679444
11.90524 92.2718 9.656052
16.1777 91.62582 8.436662
16.79281 87.65874 8.814034
17.19186 96.2864 4.903022
16.83977 93.78507 6.973532
15.44341 94.18977 8.208795
11.42711 97.47704 9.132524
16.9454 101.029 3.057682
15.55115 101.1072 6.461152
16.03295 105.475 3.452447
12.97566 104.3472 8.632573
15.16607 107.1797 4.933276
15.91208 47.34602 2.67471
17.7418 47.45012 1.751732
13.99808 49.56224 3.600901
14.87504 47.25907 2.687901
15.96015 52.34 4.273996
13.56471 59.41057 6.065608
13.60478 60.63517 6.398674
17.64415 57.16654 3.17129
16.62982 67.46609 7.127865
13.96963 65.95289 7.693811
14.90728 74.89541 9.361053
17.81837 73.15678 7.399018
16.17029 75.21744 8.965242
19.07945 76.49828 6.317742
18.39128 76.04752 7.244341
19.28989 81.01341 6.323648
16.42323 80.63815 9.310263
15.4165 83.6309 9.84339
14.16932 84.60458 10.16053
16.86382 86.7337 8.877245
17.96187 86.91932 7.794503
16.74158 85.12843 9.077326
19.14062 84.22398 6.447869
18.03326 82.60779 8.057805
18.25136 83.03591 7.805764
17.18014 87.90308 8.439916
17.44715 89.81851 7.713359
14.67831 97.6081 7.979305
13.49793 102.29 8.266234
12.81981 104.9277 8.739057
17.33476 49.24231 2.650017
16.70147 56.24512 4.254882
17.07913 52.78567 3.628548
15.07685 57.12556 5.243105
15.90397 59.87091 5.53337
14.94193 57.55067 5.376508
13.15429 49.91986 3.716615
14.80778 61.21404 6.335377
14.38114 64.10313 7.155669
16.68523 76.82829 8.892515
16.14503 78.16262 9.321722
17.48962 82.1999 8.565357
17.59235 90.6068 7.226773
13.21846 101.9375 8.414758
18.26919 45.80637 1.163025
18.15368 50.66739 1.96034
16.57888 50.1916 3.416273
16.52916 48.11165 2.775115
16.52547 63.6955 6.208735
15.43994 99.32402 6.888286
18.04153 47.7308 1.477398
15.41577 98.52335 7.095015
15.894 98.3539 6.573024
11.87507 109.8668 8.426903
13.03797 108.5782 7.783376
13.83018 107.9536 7.040326
13.9966 109.4812 5.666115
13.22543 46.29413 2.377402
18.65071 88.18445 6.44758
20.04275 83.02583 4.523522
23.00415 37.53828 -4.114772
19.87072 49.97968 -4.262571
12.25717 116.4878 1.982624
19.28335 59.31056 -0.6846556
19.57624 63.42982 0.3465504
20.02408 68.55373 0.9868165
14.3788 44.88163 -10.44406
20.52291 77.73318 -0.2429728
20.65172 81.39515 1.281835
17.24263 98.90326 -0.9201992
16.20287 104.0945 0.01233232
19.15693 54.58957 -1.253992
11.46208 116.2579 -0.9165611
14.68714 50.24049 -8.475212
16.14335 56.79077 -6.73234
18.3205 67.24042 -5.194525
14.30981 70.36395 -8.416384
20.09749 44.47835 -9.23586
15.03957 39.50465 -11.93511
13.51199 49.14882 -8.772773
20.17699 70.96484 -0.2006362
12.58685 114.7394 1.422547
17.87437 49.80515 -7.830739
14.75894 85.84166 -8.46511
14.67121 78.49519 -8.120724
15.75844 93.29707 -7.564895
16.58484 89.43642 -7.166279
22.07541 42.60662 -3.573805
15.68601 101.376 -3.718297
17.42927 38.72171 -11.9845
8.69194 115.5998 -3.953073
12.38796 113.3518 -1.079415
11.08626 114.8324 -2.168878
22.09051 43.0373 -4.300571
13.97728 52.5501 -8.035648
19.13906 56.55802 -1.01722
16.84799 67.05103 -6.837631
16.33683 72.53226 -7.547457
15.7887 72.32077 -7.867358
20.43921 75.24007 0.2347335
19.75049 88.57394 -0.5936608
20.02414 87.62274 0.9762338
18.33381 94.48476 0.859985
13.75663 99.77722 -7.543814
19.3997 39.20033 -11.4454
16.30477 40.52287 -11.75285
10.24223 111.4426 -4.633089
20.87251 46.91556 -4.213142
14.36654 43.92752 -10.80266
13.8841 49.0536 -8.802143
14.04723 50.48445 -8.403565
20.44853 47.74969 -3.132453
13.39047 57.93286 -7.507455
18.93188 53.73163 -0.3669891
14.65838 62.48414 -7.576628
19.22871 58.94955 -0.4827025
20.08996 69.39292 0.1961973
14.28655 65.22155 -8.068076
20.37787 75.07355 -0.3791416
20.18413 70.62916 0.7525501
16.42292 81.63808 -7.214344
20.56604 77.24054 1.205483
15.974 83.06879 -7.531858
20.04994 87.40003 0.3690874
13.37796 93.48521 -9.997118
19.24981 90.91396 -0.4608481
13.54377 96.75036 -8.978546
16.98194 99.34969 -1.677959
13.97213 92.86349 -9.571824
12.42485 105.5744 -5.971652
16.7833 101.683 -0.1404715
14.96539 108.8918 1.399243
17.57405 40.02337 -11.78313
10.07885 111.6429 -4.620909
21.45559 45.07016 -3.95357
16.87386 43.21402 -11.02601
17.34013 47.65389 -9.122274
17.84311 50.76616 -7.338011
19.79384 48.84505 -6.214687
19.94364 49.64104 -4.398274
22.01112 43.35818 -6.453831
15.8165 57.5136 -6.843089
19.48399 52.35251 -3.277336
15.94762 61.55841 -6.805233
17.30786 63.61618 -5.910471
19.17225 58.34328 -2.303102
16.97493 67.1484 -6.749283
16.7094 65.11614 -6.731839
14.47372 67.97382 -8.262434
17.36696 68.66081 -6.520406
18.68373 70.19257 -4.975564
16.82519 70.76859 -7.16099
19.84938 66.86935 1.236784
19.77387 66.04769 -0.7222697
17.53847 72.79563 -6.590028
15.2161 75.3884 -8.10175
20.06669 71.84772 -1.398434
19.29648 76.87417 -4.178465
16.72847 77.08405 -7.140638
15.0216 81.43771 -7.932117
20.63626 79.40206 1.622593
20.41672 76.19961 -0.5516049
15.18963 87.38019 -8.399599
16.27331 83.44321 -7.349922
19.88112 83.83948 -2.705662
15.97502 90.77022 -7.788735
19.08534 91.79991 0.8117707
19.54703 89.00799 -1.293818
16.01928 87.48425 -7.704525
14.73743 97.68801 -7.270981
16.346 96.63149 -5.211634
17.25555 99.68755 0.3571999
13.48986 94.35078 -9.729408
13.34655 103.585 -6.126727
11.37396 105.9692 -6.659361
14.74471 107.3933 -1.524163
14.51584 104.2533 -4.14256
16.22995 102.5099 -1.555295
15.88386 102.3495 -2.654798
10.83241 109.2629 -5.347232
15.76301 106.1142 0.5920323
14.74954 108.7417 -0.1428411
11.64819 112.0748 -3.155006
13.79546 110.2373 -1.330647
12.67924 112.0928 -1.715847
22.75527 39.50873 -7.159157
21.70004 39.19772 -9.729589
15.86432 48.05824 -9.224723
19.78061 49.3483 -5.629179
15.08159 59.17601 -7.144082
16.38446 58.34293 -6.353439
16.46603 57.68703 -6.368861
15.47504 64.60599 -7.521462
19.23386 58.27782 -0.9091522
18.22198 63.66958 -4.808527
16.4667 72.64707 -7.466362
19.85744 68.39053 -1.35706
18.71612 69.39857 -4.815405
18.98217 65.26234 -3.740364
16.07581 76.42673 -7.611738
20.36744 73.60359 0.3927083
20.26521 76.50335 -1.522017
17.71366 82.08916 -6.214751
18.49235 76.83811 -5.416154
20.60519 79.0748 0.203488
20.27668 81.9193 -1.771661
20.25728 81.21624 -1.90681
20.05353 84.81908 -1.906804
17.60748 89.24706 -5.820015
18.65544 87.42326 -4.529914
18.58156 88.52464 -4.367381
18.80991 87.34722 -4.266464
19.03144 91.13074 -1.494519
17.36356 90.95412 -5.861425
15.72852 93.71908 -7.477078
17.51564 97.29475 -1.213391
16.04738 101.0461 -3.1116
14.75853 99.6852 -6.287971
15.36832 102.7237 -3.554249
15.12011 99.9126 -5.604023
13.93442 94.41226 -9.294513
11.83269 105.9074 -6.33991
15.26168 106.4519 -0.9026724
15.93595 105.0697 0.004199634
12.85786 107.4582 -4.540021
22.45494 40.09409 -7.976885
19.9577 47.15664 -7.527968
18.4414 50.45554 -7.043854
16.85194 61.14497 -6.042438
19.99419 71.61166 -1.700509
19.78688 68.20949 -1.675165
18.93147 65.69199 -3.891484
18.40446 73.09034 -5.575687
20.10694 78.73241 -2.319762
19.43828 81.6018 -3.923986
20.15383 83.46464 -1.947145
19.13247 76.79726 -4.451903
18.3568 85.825 -5.265613
18.13454 84.96565 -5.631926
17.41056 94.73106 -4.035278
18.32591 92.90299 -2.707943
16.58887 94.41956 -5.928815
16.13519 95.50764 -6.188614
16.18637 97.81836 -4.849723
14.6464 105.6227 -2.999909
22.20551 41.61107 -7.687529
20.8276 40.66458 -10.25104
19.87568 40.36684 -10.97056
18.16944 50.73345 -7.128479
17.77829 62.82132 -5.262051
19.3411 66.40742 -3.015258
19.64675 76.07546 -3.411354
20.4198 80.60985 -1.266849
18.39889 85.28349 -5.28651
17.84156 82.23698 -6.074299
16.98476 97.39412 -3.276758
12.12878 110.0348 -3.948851
17.94694 41.43697 -11.40537
20.53263 45.47018 -8.112933
21.42652 45.43124 -5.378217
18.37365 51.52766 -6.534844
19.74587 74.51179 -3.027601
17.86575 81.91565 -6.061711
19.69139 43.52034 -9.998901
17.99078 44.82263 -10.22424
17.36842 46.01375 -9.855843
16.85285 46.60737 -9.6984
16.76869 81.91568 -6.985255
18.9343 61.26628 -3.207139
17.95657 60.07189 -4.813731
18.14831 58.86637 -4.614367
18.37298 57.40685 -4.493897
16.72941 55.23157 -6.665157
16.22783 52.5984 -7.567806
19.57885 51.74488 -2.822587
18.26266 56.54549 -4.829518
16.83694 57.2669 -6.127594
18.99302 54.57415 -4.033193
19.22228 53.32025 -3.889107
18.84546 54.68179 -4.333003
6.340357 116.2064 -4.96816
11.75178 47.82896 -9.28174
13.59523 39.83036 -11.87541
4.805895 100.5279 -11.48637
11.63341 66.19736 -8.404447
13.71792 74.74199 -8.615627
6.19982 115.6296 -5.016259
13.05168 85.95904 -9.379627
2.258373 54.65684 -7.861294
9.626322 101.0698 -10.27485
3.203547 50.27466 -8.515714
11.64866 99.62544 -9.583753
13.94816 82.03464 -8.342113
8.603965 37.53472 -12.18659
2.485531 38.43114 -12.06876
3.337951 80.52293 -8.851592
1.969414 90.38473 -12.27521
9.329325 38.04577 -12.11985
2.2099 95.6101 -12.65329
1.866565 55.63678 -7.779132
7.287198 113.4436 -5.019181
1.595609 104.2287 -9.697208
3.023903 74.06472 -8.775105
1.921984 85.95491 -10.43528
3.950088 115.312 -5.599576
4.618236 93.87763 -12.8107
4.08578 58.55081 -7.674423
6.104571 84.97995 -9.867966
1.332082 110.6172 -6.444513
4.769033 38.83363 -12.01043
7.394972 114.1423 -4.824315
4.85053 113.3188 -5.612096
3.20052 110.6825 -6.427541
11.61795 37.97034 -12.1271
3.941959 49.21228 -8.797837
2.729478 55.49408 -7.788081
11.12029 65.04317 -8.256768
12.74796 68.64281 -8.601132
11.61629 74.50555 -8.796669
12.39181 81.42174 -8.606995
6.476468 80.1917 -8.770557
2.289741 91.76229 -12.57028
10.61419 95.16512 -11.56259
7.226651 102.879 -10.27896
8.155296 109.9503 -6.079834
2.058324 41.18594 -11.57613
1.103884 111.7601 -6.046916
14.18432 42.71173 -11.21134
6.20204 39.25551 -11.94781
3.175507 46.12983 -9.856542
2.416656 48.39854 -9.043105
12.12428 50.79751 -8.290015
1.773228 55.51221 -7.789484
11.9192 58.70837 -7.556857
1.839123 61.90647 -7.891097
13.60556 64.12538 -8.062208
1.688773 70.31928 -8.675671
12.55002 66.31464 -8.420945
1.718316 75.85328 -8.772659
12.91363 72.26554 -8.734161
1.761782 81.90401 -9.049994
13.95674 84.91064 -8.733655
1.375042 86.93939 -10.92087
2.874822 88.53355 -11.67511
1.643742 94.70573 -12.71604
12.41512 96.06417 -10.20435
12.90834 92.25313 -10.47857
2.676163 100.3426 -11.52092
2.113062 105.3275 -9.083587
1.255272 109.1536 -6.998199
4.56421 39.65988 -11.87818
5.911121 111.7971 -5.818733
7.785873 109.1292 -6.481318
3.99948 110.5368 -6.445394
7.134634 107.2332 -7.594775
13.23623 44.3648 -10.63157
3.860103 42.03012 -11.35952
3.469692 46.42726 -9.742822
4.87538 48.5472 -8.996898
8.635268 51.188 -8.254006
4.084702 53.55122 -7.978448
11.14929 49.33768 -8.732169
1.955363 57.49429 -7.694021
11.53353 58.18806 -7.552683
11.45361 55.5301 -7.675101
2.44752 62.128 -7.911228
10.963 65.17847 -8.274282
12.84838 59.46621 -7.571558
5.234206 66.80885 -8.439674
7.655501 66.97047 -8.462812
5.687179 70.04341 -8.670152
8.303879 71.67315 -8.746544
5.731135 70.96165 -8.712811
7.586485 70.0657 -8.676575
11.14606 64.78327 -8.219043
4.37231 75.40415 -8.778151
2.325448 73.90374 -8.7723
14.04434 75.06755 -8.525257
5.116165 79.29327 -8.762483
5.663294 79.01817 -8.752559
2.108829 79.93084 -8.821305
4.278213 80.59885 -8.84269
12.90346 82.1326 -8.597945
10.73743 78.29953 -8.702687
4.917235 87.44485 -11.21206
4.523227 84.4116 -9.6767
12.37265 89.26997 -10.5973
4.540296 89.32212 -12.01832
3.421275 94.97664 -12.73631
1.721868 96.73994 -12.47826
7.739256 96.59599 -12.32676
6.272934 94.50349 -12.77972
9.522353 96.97792 -11.69822
9.923352 98.01571 -11.23252
11.06332 93.56908 -11.53639
1.320803 102.5805 -10.56452
6.103841 101.5368 -11.08617
4.36319 100.8156 -11.36821
10.50649 104.129 -8.253368
4.863925 104.7196 -9.436312
7.592586 105.0618 -8.947475
0.9048961 107.8949 -7.6942
3.040007 109.2052 -6.999814
3.920869 107.2417 -7.97667
6.807866 106.8182 -7.927615
12.55865 42.42449 -11.28394
9.244328 39.98182 -11.83623
6.672557 47.50384 -9.352944
3.404926 53.30191 -8.007138
3.248176 57.6515 -7.68284
3.89977 57.14612 -7.688144
4.370251 56.35167 -7.718815
3.582015 64.17215 -8.142586
11.63344 58.41277 -7.555063
7.4459 63.96183 -8.110829
3.890153 73.05228 -8.76572
11.46414 68.87743 -8.624433
7.945352 70.37283 -8.692809
8.66808 65.24431 -8.277153
3.683357 76.28048 -8.772032
11.01033 73.66146 -8.788601
9.432607 72.74255 -8.776564
7.428466 80.36995 -8.758951
6.251135 75.36108 -8.782638
11.42972 80.62794 -8.63993
10.88285 83.26432 -8.96669
7.676994 81.45106 -8.834715
11.6243 86.31544 -10.06557
12.89267 90.47964 -10.45701
9.975821 87.91539 -11.16377
12.24651 91.45975 -10.91212
10.34918 90.73907 -11.73557
6.971797 93.79799 -12.77019
10.07617 94.08228 -11.96351
8.587227 92.39882 -12.4474
10.49308 96.84465 -11.27002
6.983364 98.33463 -12.06768
6.624012 101.2364 -11.15655
8.413289 101.486 -10.61351
2.406703 91.77573 -12.57562
3.390501 102.6771 -10.53263
9.074212 102.1778 -10.02248
7.791086 104.1169 -9.450579
10.20644 107.8504 -6.364856
10.28084 40.05276 -11.82858
9.644919 46.02845 -9.919793
7.953585 50.47731 -8.431275
5.309132 61.57775 -7.840787
10.20286 72.22947 -8.770836
9.079691 68.61087 -8.597831
8.637073 67.89753 -8.546994
7.299864 74.23988 -8.785618
7.984902 78.47632 -8.730122
6.008152 83.61368 -9.336387
7.779164 76.841 -8.765722
9.246327 85.16898 -9.79804
5.658146 88.97259 -11.93367
6.927942 87.22625 -11.15101
7.251985 90.56771 -12.38704
5.905999 91.42315 -12.62133
6.962847 91.43965 -12.58583
3.69453 97.12052 -12.44224
4.86931 99.11826 -11.96356
8.216885 103.396 -9.732848
7.191601 104.3755 -9.457925
10.80791 41.70588 -11.47371
8.424882 40.27785 -11.77906
7.163596 39.63348 -11.88888
6.754561 50.04159 -8.550263
6.886725 62.96873 -7.987097
9.88832 67.36399 -8.509321
8.397594 75.14773 -8.78984
10.81008 79.5696 -8.653742
8.533132 81.92705 -8.864329
6.431946 87.92941 -11.49826
8.412642 94.47351 -12.4891
7.320388 41.12787 -11.59882
3.855266 40.72165 -11.68269
10.75261 45.02883 -10.34207
9.610359 50.83912 -8.319112
10.22634 74.79348 -8.79829
7.260011 85.33601 -10.00432
5.560957 43.54756 -10.87239
6.169501 47.77408 -9.256315
7.79693 44.95028 -10.3501
7.798107 46.11053 -9.877258
9.089239 45.75249 -10.02829
9.480886 45.69178 -10.05517
7.071332 59.76249 -7.680338
7.764345 58.69452 -7.628963
3.956038 39.55713 -11.89634
6.591664 54.28613 -7.895439
4.111443 52.8379 -8.063304
10.3463 52.06391 -8.098667
7.975549 56.13704 -7.682636
5.32459 81.6703 -8.935694
7.656512 53.65803 -7.971392
7.830456 52.40839 -8.101969
-6.006807 114.1515 -5.213352
1.195395 46.07791 -9.874763
1.393329 56.28989 -7.739715
1.244001 83.64091 -9.480882
-2.871413 38.8053 -12.01523
-8.185156 116.0017 -4.179692
-2.304974 115.7098 -5.709574
1.436429 81.87497 -9.050835
0.7125907 97.83753 -12.24274
1.121092 89.95308 -12.1402
0.9474775 91.40951 -12.48835
0.7463364 103.9845 -9.82934
-1.221493 109.7913 -6.72275
-1.400236 116.1952 -5.770307
-10.37676 85.94805 -10.17396
-7.855777 60.32409 -7.693545
-7.055869 116.2111 -4.69874
-10.55264 70.25852 -8.696864
-6.506807 70.03143 -8.672573
-11.77035 38.48079 -12.07321
-5.465003 112.7917 -5.61537
-9.374488 101.9446 -9.996314
-8.532802 104.8841 -8.760587
-8.744358 91.12546 -12.2565
-8.340649 111.6106 -5.360112
-9.21895 81.69945 -8.810266
-10.20634 91.96605 -11.90458
-10.53829 95.69326 -11.51712
-7.205151 95.81551 -12.57054
-10.37205 40.21484 -11.8006
-0.9185443 113.782 -5.961518
-3.263589 113.1249 -5.848877
-6.476632 111.5509 -5.798814
1.050987 38.19781 -12.10285
-2.0094 40.82747 -11.65489
-7.954098 52.85043 -8.019907
-10.19775 63.34673 -8.023921
-1.007139 68.2805 -8.555664
0.4706194 71.5456 -8.724645
1.317223 76.4504 -8.768901
-5.246726 84.72938 -9.7855
-11.31677 88.91693 -11.03503
-10.08262 99.10123 -10.80289
-3.580941 103.1816 -10.27791
-0.1158171 108.3749 -7.413919
-8.885054 39.00834 -11.99352
-6.840507 112.2298 -5.508643
0.1612073 41.55497 -11.48403
-8.883451 45.12203 -10.29963
0.3579434 47.58422 -9.311546
0.4921603 45.68047 -10.03264
-9.129613 50.58963 -8.290654
0.551367 55.75378 -7.771426
-9.698208 59.80772 -7.625805
0.4977573 57.54455 -7.693292
-9.314143 66.42102 -8.417186
1.162085 61.83213 -7.885633
0.4117879 72.75671 -8.755936
-10.10162 68.46559 -8.594031
-1.083633 77.72456 -8.761586
-10.51898 84.02891 -9.19925
-10.8437 87.75955 -10.86328
-10.43422 88.92599 -11.34816
-0.2175785 91.77034 -12.56372
-9.441846 93.74296 -12.21625
-9.224159 100.2403 -10.79844
-9.24681 107.3855 -7.011036
-7.379163 107.0045 -7.697151
-9.952738 39.261 -11.95852
-9.228882 40.67563 -11.70466
-2.82862 110.5196 -6.476004
-2.162155 109.4535 -6.882273
-5.559645 110.3675 -6.311625
-6.625409 108.699 -6.833196
-1.606827 42.24603 -11.29552
-5.992615 39.03419 -11.98283
-5.209567 39.1144 -11.96881
-3.740782 41.01376 -11.61772
-6.958272 45.1298 -10.27929
-9.423148 44.62449 -10.50833
-5.681045 45.46856 -10.12918
-8.728041 49.31246 -8.716603
-0.08078301 46.15609 -9.843533
-4.611742 52.94982 -8.022255
-6.334518 51.18891 -8.259006
-0.2924879 51.7121 -8.228675
-1.890781 50.77741 -8.392937
0.02469722 49.28127 -8.770468
-1.250319 51.03386 -8.34671
-9.502388 62.1247 -7.85901
-1.734067 58.15373 -7.676404
-8.52137 66.58282 -8.430155
-5.717944 64.90405 -8.235508
-5.105628 62.40367 -7.928381
-6.954022 59.96949 -7.680531
0.7966172 65.35953 -8.281664
-0.874158 64.24426 -8.154216
-7.193071 70.60484 -8.701438
-5.067396 71.06936 -8.714486
-5.962461 71.69023 -8.738148
-4.225452 72.36852 -8.754445
-2.168378 69.86536 -8.656322
-3.099099 72.41043 -8.753028
-8.339495 73.31229 -8.781832
-0.9139344 74.84711 -8.775201
-2.697202 71.17144 -8.714231
-8.933433 74.23072 -8.790555
-2.205892 78.06863 -8.758657
-7.972782 80.97466 -8.77962
-7.636936 81.32161 -8.820675
-7.192127 84.05316 -9.4256
-5.565112 82.957 -9.170901
-7.786325 83.99937 -9.37665
-4.299211 82.77648 -9.161161
-5.688594 77.03239 -8.75714
-5.641636 77.53951 -8.748986
-5.985554 75.66872 -8.777188
-10.57559 78.90359 -8.672781
-2.282293 82.65034 -9.179127
-11.17209 88.54452 -10.99302
-10.40516 84.62747 -9.447001
-3.598018 87.73194 -11.34022
-9.175506 90.06242 -11.95776
-10.89692 92.53468 -11.64494
-8.373882 93.05956 -12.51401
-0.2315294 92.86189 -12.68613
-10.65426 97.35773 -11.03544
-7.497801 96.36709 -12.42868
-10.62517 93.03308 -11.74493
0.3447635 99.07898 -11.91415
-8.317652 100.7931 -10.93682
-7.26931 99.90217 -11.54753
-6.954973 102.8125 -10.35167
-4.687134 100.6495 -11.44942
-0.1348775 103.3334 -10.18353
-6.82233 106.8224 -7.923106
-4.201868 105.4665 -8.991952
-5.399251 105.3152 -9.078669
-1.164647 108.373 -7.420623
-9.489655 40.2452 -11.78852
-7.455904 107.6479 -7.285872
-0.945454 41.39224 -11.52401
-0.9267119 45.58567 -10.07049
-7.11191 48.49099 -9.01141
-0.7471634 55.77971 -7.764177
-2.826934 47.06844 -9.496248
-3.462129 48.9045 -8.870678
-5.740301 46.92242 -9.551349
-5.858275 49.53605 -8.651975
-8.140772 61.26009 -7.773416
-5.070547 61.5884 -7.839022
-4.216014 63.23779 -8.031729
-1.603166 61.16673 -7.820427
-8.783036 67.34577 -8.50204
-6.770336 66.93438 -8.457637
0.3243462 61.41924 -7.8469
-3.477681 74.0484 -8.775751
-1.083043 73.1975 -8.764832
-3.483533 67.5507 -8.502564
-1.221601 78.93158 -8.772263
1.105736 80.26819 -8.845746
-6.342753 82.75401 -9.092971
-7.691437 86.28038 -10.57718
-6.975891 87.28228 -11.17412
-3.480312 86.96255 -10.95674
-3.500657 86.19524 -10.55639
-0.6895625 86.11054 -10.51692
-2.704659 75.85155 -8.771957
-3.082276 81.50379 -8.950025
-0.7157372 84.18752 -9.665047
0.2155893 90.8143 -12.36836
-2.121557 88.11 -11.49455
-7.82941 93.90093 -12.65641
-4.738155 91.85847 -12.66953
-6.16422 92.85532 -12.80343
-1.569972 95.04784 -12.70403
-0.9179229 96.70116 -12.49099
-0.08815093 100.7064 -11.36821
-3.526768 100.4278 -11.50424
-3.539377 104.3582 -9.637832
-0.9502426 102.5693 -10.56964
-1.847154 102.902 -10.40861
-4.59237 101.4801 -11.1147
-9.596014 43.82174 -10.81144
-2.040336 107.0274 -8.176274
-7.491795 49.29662 -8.723938
-1.615475 43.41428 -10.91136
-2.72936 41.76872 -11.42922
-6.120387 42.05159 -11.3631
-7.637621 57.9349 -7.591306
-4.387654 60.48423 -7.747002
-1.81788 57.83295 -7.677782
-4.520459 79.10048 -8.752325
-7.448258 88.60976 -11.7904
-4.513706 84.33656 -9.641607
-3.60087 75.53146 -8.774952
-5.035052 96.4079 -12.61689
-7.451452 98.33151 -11.996
-4.959456 93.05965 -12.80296
-2.173129 98.25052 -12.16196
-5.438095 98.85696 -12.02308
-2.985387 104.8812 -9.335223
-3.389883 53.75348 -7.932982
-1.984501 63.52068 -8.068394
-2.904998 58.10595 -7.667612
-4.362822 69.33132 -8.629566
-4.190919 96.35886 -12.60198
-3.673716 91.15335 -12.50784
-3.746976 98.58617 -12.08895
-8.034842 41.62685 -11.4842
-5.805737 54.19879 -7.866862
-2.862355 69.123 -8.613446
-2.391066 65.1786 -8.264069
-2.770239 65.68449 -8.321332
-3.941576 67.25258 -8.477749
-2.591052 57.72063 -7.67115
-7.140322 54.81337 -7.788332
-4.793541 105.0503 -9.245263
-3.619873 66.0678 -8.364271
-11.53067 42.66126 -11.22107
-10.53567 48.52652 -9.053006
-11.46517 59.27916 -7.574938
-13.70357 41.46992 -11.54236
-14.18519 100.9647 -6.422215
-11.50624 68.47096 -8.601788
-20.05589 76.13449 -2.250815
-11.95058 83.0797 -8.852663
-12.49066 89.89168 -10.63598
-11.2095 98.96153 -10.16192
-10.33675 104.4264 -8.19403
-10.23904 107.3105 -6.630784
-17.19788 52.87694 -6.979413
-12.47729 79.47194 -8.565958
-12.16939 115.4496 0.4444483
-18.49571 69.55109 -5.193887
-19.86567 70.14732 -1.904305
-18.91745 60.81013 -3.249225
-17.15838 97.76882 -2.40311
-11.64026 90.01665 -11.0996
-14.75788 108.3702 -0.5865212
-14.07273 76.76613 -8.449544
-11.67769 88.45958 -10.77604
-20.05294 85.95369 -1.359648
-18.0941 79.67333 -5.868077
-16.85169 100.535 -1.091853
-18.04906 86.56557 -5.591257
-12.88844 109.139 -3.623943
-20.79478 39.4066 -10.57707
-12.35949 116.0135 2.260242
-10.60207 113.1846 -3.443843
-11.92069 115.2363 -0.4668582
-10.09297 112.4306 -4.202476
-13.10202 42.35574 -11.3062
-15.90809 39.07317 -11.99895
-20.08082 48.36378 -6.062044
-18.79024 58.38598 -3.623461
-13.22898 68.14429 -8.517176
-11.88713 72.03902 -8.770897
-11.66685 76.45901 -8.777581
-14.8521 85.49463 -8.363695
-13.1147 93.89928 -10.14345
-17.27859 98.38686 -1.303343
-16.75381 101.1649 -0.9002562
-14.35539 109.9718 0.1575815
-22.39375 40.40879 -7.974797
-11.23011 112.8478 -3.066081
-14.27565 41.46029 -11.5451
-20.94103 46.39087 -6.10553
-19.50966 48.80433 -6.745669
-11.59018 45.92408 -9.986226
-19.29574 51.04522 -5.34227
-11.14484 56.30601 -7.60603
-18.67836 56.41564 -4.181201
-11.02837 58.67037 -7.549425
-19.18145 66.271 -3.422784
-10.19929 61.75087 -7.800395
-12.19899 72.71348 -8.786961
-19.73869 68.64406 -2.060149
-13.95676 77.02296 -8.469396
-20.02374 84.301 -2.171723
-19.43864 88.33727 -2.296017
-18.80105 90.47021 -3.050318
-12.55069 91.80917 -10.73006
-12.96599 89.29344 -10.26496
-11.31991 97.49375 -10.58407
-15.78489 105.92 0.4170922
-11.5328 101.8232 -8.70564
-10.03508 105.3312 -7.851331
-20.68434 38.62058 -10.82223
-21.23591 41.03963 -9.687808
-10.74334 110.3149 -4.888889
-14.57176 45.319 -10.27388
-16.50219 44.06327 -10.75717
-19.15849 40.10773 -11.3651
-17.10347 41.96479 -11.38805
-19.63738 46.53765 -8.377386
-21.05404 45.36512 -7.215261
-19.10888 43.83078 -10.17948
-19.67578 50.50003 -4.59514
-18.49181 53.3914 -5.517364
-18.47906 54.62131 -5.054675
-19.39279 51.46783 -4.682878
-10.35484 53.27682 -7.960519
-12.75656 52.24514 -8.081955
-13.50048 49.17588 -8.820191
-15.21358 50.62012 -8.323367
-10.28597 58.61093 -7.555257
-15.45581 58.9801 -6.940083
-19.01087 64.78484 -3.5848
-17.53403 64.74403 -5.842199
-17.05552 63.45432 -6.17082
-19.25859 63.52958 -2.649041
-11.22065 67.19656 -8.501438
-19.12248 70.82032 -4.194349
-17.36464 70.17263 -6.645325
-15.63878 71.45829 -7.933925
-17.84226 70.20621 -6.152951
-17.29889 72.9593 -6.822987
-14.08882 74.20367 -8.52116
-13.96385 73.32046 -8.552691
-19.74382 69.46836 -2.250339
-13.45422 69.21123 -8.557793
-11.4757 69.57118 -8.66229
-12.06468 76.82925 -8.757483
-19.64534 82.0767 -3.489071
-18.1969 80.56026 -5.743796
-18.58831 80.03222 -5.263772
-17.38116 80.32554 -6.529159
-14.29902 81.57037 -8.198188
-17.41659 81.66922 -6.473601
-15.40996 80.13029 -7.745811
-18.97738 76.82174 -4.710627
-16.76021 77.64235 -7.075173
-18.76645 76.03257 -5.023909
-20.18493 82.26841 -2.094014
-12.72596 83.53487 -8.841715
-18.16891 88.14725 -5.187966
-11.90826 87.55152 -10.41724
-17.96058 92.24979 -4.224656
-17.50215 93.0349 -4.844354
-16.16667 93.58247 -6.927454
-16.84716 93.10983 -6.042216
-13.30267 90.9108 -10.2052
-12.36267 96.5246 -10.10627
-19.65384 87.98027 -1.719664
-15.98809 98.33698 -4.942379
-15.93511 99.98025 -4.031116
