# .PCD v0.7 - Point Cloud Data file format
VERSION 0.7
FIELDS x y z
SIZE 4 4 4
TYPE F F F
COUNT 1 1 1
WIDTH 1657
HEIGHT 1
VIEWPOINT 0 0 0 1 0 0 0
POINTS 1657
DATA ascii
21.97332 71.70472 -2.968093
8.904572 67.82121 -10.04131
4.764438 100.2511 -11.5652
4.752299 106.3829 -8.410604
13.48107 103.6721 -5.893222
14.63432 103.5908 -4.321339
14.79158 28.92959 -12.21228
14.8584 29.48549 -12.20514
5.615805 108.3057 -7.216484
16.01103 95.05511 -6.567409
19.0945 88.81321 -3.0817
16.98355 85.31924 -6.800868
18.13496 81.39381 -5.759909
19.6984 82.54965 -3.332527
8.523602 86.5594 -10.72911
5.720547 90.12194 -12.31736
9.124137 116.031 -3.591327
8.958507 113.0281 -4.756957
10.29944 118.7498 -2.286409
6.443068 119.4981 -5.315164
24.53911 34.47338 -7.448875
24.51744 41.3484 -5.911216
24.37967 50.60405 -4.251215
9.456392 32.95834 -10.88031
10.82584 44.47527 -10.90673
9.639508 45.60641 -10.55662
23.79455 56.29654 -4.017595
23.56728 54.1588 -4.681879
21.74629 72.71979 -2.948188
7.258584 64.6311 -9.776505
7.256636 58.88015 -9.741962
8.579549 68.19789 -10.00027
18.8485 75.07913 -5.216448
6.282572 75.24577 -9.606295
6.870347 78.88258 -9.573153
5.485426 102.403 -10.67892
12.04953 106.4987 -5.814231
12.42609 29.62115 -11.70427
10.38117 109.2482 -5.805902
16.85832 87.48474 -6.894764
15.54524 88.40303 -8.196568
17.70877 92.2304 -4.769041
9.152886 80.48642 -9.29351
7.251359 96.32245 -12.46433
8.382856 96.1373 -12.223
8.426768 91.36044 -12.34361
11.0171 119.6152 -1.268847
23.6905 46.43837 -5.990226
10.18051 40.16535 -10.78813
9.384556 51.3116 -10.45814
22.26118 55.03949 -5.791759
20.7506 71.91882 -3.867304
21.69132 69.36937 -3.60602
18.89907 77.23372 -4.975929
7.640657 76.85515 -9.616004
12.53748 109.7402 -3.652096
13.85766 30.70102 -11.95286
8.5185 104.433 -9.016087
9.363153 86.72554 -10.7532
9.077438 81.96038 -9.316224
10.07292 88.75227 -11.38783
21.43542 42.93563 -9.184926
23.71266 49.11573 -5.434205
15.37143 58.38177 -9.45336
7.214174 106.1464 -8.301049
11.46252 106.6155 -6.221152
12.18306 96.1497 -10.33558
12.66486 103.0905 -7.057369
13.05991 109.15 -3.318734
15.90436 98.10307 -5.205985
10.37877 86.91948 -10.65063
9.224784 89.9861 -11.90891
23.68696 37.60677 -7.81362
20.6417 43.0076 -9.781344
21.59383 42.37204 -9.160876
20.56755 60.46215 -6.057813
18.49692 67.14786 -6.405371
13.24131 105.5097 -5.147301
7.318 101.3422 -10.95938
10.02928 105.6202 -7.67531
14.62006 98.3674 -7.075133
6.049717 111.9717 -6.433753
25.28178 35.65065 -5.979517
17.49818 42.53616 -11.39476
13.39185 64.43036 -9.714018
4.98665 113.4585 -6.634857
21.24777 47.28289 -8.342445
7.840693 101.2124 -10.89037
9.625031 102.3009 -9.677051
11.74577 68.87076 -9.831908
16.76246 71.21986 -7.389904
15.54816 68.31078 -8.296467
9.105078 99.54552 -11.0997
16.18017 63.45322 -8.352688
18.50527 58.04716 -7.763955
19.73464 63.39761 -6.098246
25.54415 32.65968 -6.39031
23.91593 33.83438 -8.549941
12.84262 32.26061 -11.68576
11.86623 43.92894 -11.18614
22.69487 54.22191 -5.552123
20.41259 54.24738 -7.382602
11.31433 65.15097 -10.20844
11.96605 67.1209 -9.931601
15.00696 62.72971 -9.099667
11.3432 63.2751 -10.34578
12.82903 62.36869 -10.11982
10.12281 58.71051 -10.52864
9.895413 58.69198 -10.48779
10.42637 74.54625 -9.555072
10.14866 73.23314 -9.722742
11.23284 74.64182 -9.389319
16.35378 92.87061 -6.848501
14.9897 44.86827 -11.46597
11.46307 45.85104 -11.0642
18.67306 61.73806 -7.052202
17.63712 56.52193 -8.50265
19.50078 56.99263 -7.394731
13.73951 91.53143 -9.854285
14.01258 90.50113 -9.627773
14.85595 88.24794 -8.758736
13.55703 86.37585 -9.227355
12.95075 88.74883 -10.14788
10.24534 93.259 -11.90838
12.36448 95.41962 -10.37792
14.19411 93.50116 -9.231889
10.17986 95.97106 -11.61776
11.70794 93.67419 -11.13391
11.667 96.01772 -10.75448
10.66361 100.735 -9.797145
14.81007 97.02331 -7.436369
13.52241 98.48918 -8.332898
14.57318 96.53575 -7.943846
10.05078 110.4578 -5.198205
9.983437 111.2393 -4.862182
18.62422 72.10308 -5.738324
16.65531 83.87005 -7.063755
17.27134 84.32447 -6.553573
12.7576 80.95462 -8.561881
14.94909 82.50874 -8.003156
15.52504 82.7127 -7.751927
13.8068 76.98781 -8.488416
12.54633 78.32028 -8.719268
15.89124 80.26333 -7.501818
16.30426 80.32216 -7.268448
16.83384 76.23676 -7.076853
15.01615 72.10141 -8.344692
17.44761 78.91313 -6.470075
17.73581 72.8716 -6.506671
19.80244 39.94489 -11.07606
15.30443 44.94378 -11.4389
16.51821 54.25807 -9.490903
17.30982 54.44353 -9.047388
20.90768 50.36401 -7.881805
19.91971 50.03944 -8.59456
18.97711 48.63559 -9.454061
18.19401 51.19273 -9.269573
16.99258 59.69454 -8.357201
15.02834 52.98135 -10.4254
11.89164 50.98428 -11.02467
16.28346 51.45598 -10.10786
14.25781 54.85453 -10.45684
13.51144 49.71221 -11.17912
11.46404 57.10965 -10.75022
14.82167 57.34274 -9.870246
14.63893 49.09986 -11.11419
12.8087 56.52225 -10.66018
13.25736 50.10949 -11.1668
13.76016 56.99115 -10.35923
22.71747 36.65815 -9.298738
22.75525 33.77898 -10.06102
21.88001 36.26115 -10.26996
15.98573 35.28363 -12.16826
17.1817 29.48974 -12.61695
16.83545 30.37759 -12.51838
11.4569 40.85568 -11.10412
14.17358 37.17761 -11.77848
13.04852 39.52486 -11.46517
13.53611 43.28465 -11.52059
13.63836 46.45586 -11.39042
17.03716 39.89262 -11.85035
14.7947 37.37857 -11.89445
14.50712 42.8208 -11.60955
14.39087 51.89765 -10.80093
18.13236 45.13966 -10.63374
17.49046 43.87917 -11.15077
16.1314 51.87379 -10.1038
17.86936 44.61942 -10.85761
13.51032 67.30537 -9.395129
10.53911 73.05389 -9.671132
11.74663 44.42398 -11.14864
10.97291 98.03386 -10.62249
17.87343 78.05502 -6.07844
10.69435 81.34901 -9.025078
12.18459 83.06979 -8.872913
14.66357 71.83026 -8.537359
13.41989 69.8684 -9.207305
15.31525 73.60104 -8.140851
12.5304 73.56787 -9.160506
19.14167 39.46132 -11.45506
21.2546 33.68943 -11.40929
12.35781 35.49145 -11.45409
17.90965 37.27983 -12.02064
12.1896 42.81455 -11.27622
8.515408 71.79384 -9.858958
9.228352 69.79234 -9.992594
10.92035 89.61079 -11.30434
14.22943 85.07906 -8.611582
21.21942 35.78286 -10.97196
20.62248 34.50932 -11.60711
15.79854 37.05016 -12.06056
-9.757626 61.1678 -9.483717
-10.05219 55.50433 -9.558655
-7.499305 123.6928 -6.384323
-9.466364 62.91421 -9.387954
-8.491297 112.9876 -4.776905
-13.30367 27.67083 -11.92925
-12.20769 33.46921 -10.96006
-8.986229 115.2491 -3.836793
-11.79505 38.01995 -10.59389
-10.48898 121.0213 -2.55304
-8.081525 116.709 -4.58595
-6.797177 116.7739 -4.789848
-13.14105 127.6719 -2.060932
-9.539369 127.4367 -7.331932
-12.51176 95.5618 -10.23568
-7.469328 108.8474 -6.650146
-6.49654 116.5086 -4.896365
-23.57232 63.45975 -1.44774
-11.97166 37.28962 -10.69887
-22.94952 28.76422 -9.188066
-20.92262 75.96167 -2.248142
-22.01915 70.5639 -2.021109
-7.102032 119.6137 -5.017536
-12.55288 125.5178 -1.693323
-26.71917 38.26325 -2.07981
-17.10741 71.51978 -7.678154
-13.45995 127.8563 -0.9570538
-5.915918 118.5864 -5.349221
-13.17604 127.1151 -1.298911
-13.77011 111.7512 2.599949
-20.45469 27.84843 -12.67613
-13.50089 126.3685 1.212559
-7.923511 118.4331 -4.328348
-16.55515 92.26302 -6.725667
-21.25517 78.33448 -0.8402443
-5.627778 118.7055 -5.49939
-18.38499 94.00371 -0.4901052
-7.316364 123.3266 -6.297512
-12.70524 33.69515 -11.18832
-23.12631 28.96291 -8.425127
-17.75066 94.53932 -3.13501
-8.772449 97.47372 -11.84295
-13.18236 123.7451 3.271295
-13.52171 125.7634 2.666878
-14.69751 108.7862 -0.2294216
-7.884925 115.673 -4.808306
-23.27288 53.34029 -3.906128
-11.38765 78.74175 -9.251211
-21.10424 78.77944 -0.9234409
-14.03552 33.39693 -11.79711
-18.75128 28.53577 -12.98401
-24.25649 43.74003 -4.297638
-8.414231 110.7541 -5.676329
-26.19819 31.66379 -3.695156
-25.90824 31.26735 -3.978411
-17.42843 97.17223 -1.664407
-17.20965 99.07798 -0.7806299
-8.352494 91.91835 -12.43153
-11.77087 115.5345 -0.6362695
-9.977264 122.4531 -3.88121
-8.428476 124.0408 -6.070524
-6.451464 111.8599 -6.080707
-6.522272 109.6634 -6.48525
-12.64349 61.69954 -10.20523
-11.34287 55.56688 -10.08894
-23.3797 62.88671 -1.923312
-8.774116 76.78405 -9.456711
-9.068085 78.22641 -9.47335
-21.39322 69.25137 -3.159291
-20.78484 78.18456 -1.822966
-12.88397 37.69015 -11.10335
-17.08875 30.14411 -12.82706
-20.02747 28.47987 -12.74078
-24.61907 45.13501 -3.638362
-12.1182 43.80971 -10.60823
-6.423247 107.6549 -7.42545
-22.86925 30.31475 -9.248729
-26.53424 40.76176 -1.824978
-25.30561 28.88944 -4.737745
-18.50424 90.23692 -3.888037
-17.37947 95.94949 -3.169924
-7.305481 93.08492 -12.7035
-7.458019 90.20855 -12.2684
-8.501731 85.88348 -10.44617
-12.99709 114.7745 0.5837922
-11.50491 124.2185 -2.856575
-9.323018 110.9845 -5.265905
-10.30906 67.314 -9.676417
-10.70166 47.84983 -9.889868
-23.47394 56.31649 -3.126935
-25.18265 48.32953 -2.365157
-9.139862 64.73405 -9.295906
-9.781603 74.10281 -9.540416
-22.24452 69.9581 -1.849697
-22.80459 67.91998 -1.500765
-20.17402 84.97859 -1.238939
-12.81861 37.09643 -11.09782
-12.23109 34.18264 -10.94173
-18.90729 31.95852 -12.56217
-25.25357 44.05823 -3.033686
-14.54254 109.7916 0.928311
-16.18141 104.0379 -0.0922376
-10.02393 105.0859 -7.977132
-23.14525 29.56351 -8.291252
-22.60647 37.27697 -8.505101
-26.18014 42.70369 -1.972985
-25.66964 31.12899 -4.191007
-25.51833 29.46679 -4.493655
-15.36725 99.86036 -5.180722
-18.01987 91.66501 -4.358632
-16.63082 100.2964 -2.035448
-10.36267 91.8752 -11.83304
-9.310798 92.41019 -12.2365
-9.200655 89.14651 -11.69923
-12.99188 86.98724 -9.67498
-16.19313 80.70215 -7.340797
-8.835573 122.3773 -4.898218
-8.308463 120.9966 -4.689236
-12.01628 123.5609 -1.289496
-8.91554 112.0204 -4.957791
-9.730812 110.0517 -5.617732
-11.75043 107.9895 -5.281812
-13.12806 112.4548 -1.624622
-11.07579 110.3084 -4.675399
-12.20723 52.43285 -10.43858
-23.2583 58.78279 -2.927155
-23.9822 54.23622 -2.892571
-23.59213 54.99575 -3.229716
-22.20876 53.55626 -5.215051
-20.98878 55.69573 -6.339036
-23.44657 63.92384 -1.539094
-11.70486 65.26424 -9.99068
-22.35176 73.08327 -0.8091866
-21.23684 72.35285 -2.683747
-20.31555 68.89766 -4.659465
-19.42063 82.90771 -3.870739
-22.05628 75.43697 -0.5587548
-19.17196 83.40145 -4.28336
-19.83695 88.06191 -0.5418223
-11.96161 40.13578 -10.61638
-24.54079 46.00145 -3.599273
-14.46322 41.30537 -11.50332
-14.68376 107.5097 -1.544276
-15.8339 104.9529 -0.4768754
-14.95408 104.0925 -3.433515
-13.28892 103.3739 -6.267709
-26.27533 35.06671 -3.195705
-24.70774 32.74799 -5.034946
-22.935 32.66085 -8.518731
-18.09097 91.08519 -4.434126
-16.98298 94.31268 -5.221938
-15.02732 102.107 -4.543819
-11.77399 94.08591 -11.0621
-10.34922 94.45536 -11.77294
-15.6094 89.95465 -8.20011
-8.916619 80.41051 -9.483265
-10.38517 79.05725 -9.371377
-11.33863 77.51477 -9.383302
-10.0864 121.6983 -3.356616
-13.4932 111.0624 -1.406444
-11.9817 112.9533 -2.142772
-11.70605 61.95814 -10.08565
-14.87786 56.96542 -10.49945
-23.4957 59.94104 -2.417427
-12.74913 65.51563 -10.0354
-9.622639 71.04082 -9.521754
-19.57297 72.10696 -5.114048
-22.09775 66.34887 -2.864635
-19.99362 79.46838 -3.151482
-18.94438 77.74185 -5.17278
-12.16173 39.86749 -10.71393
-18.13422 30.94919 -12.76919
-21.43076 30.05705 -11.77637
-16.31209 101.8245 -1.813463
-12.79395 101.8832 -7.528788
-23.70369 30.24559 -6.68173
-15.57825 96.89648 -6.425704
-14.81965 102.5254 -4.63474
-11.28151 85.5203 -9.756356
-11.65061 119.5313 0.09720115
-10.46554 116.5432 -2.42139
-23.01564 56.72635 -3.603748
-13.77963 65.77796 -9.873751
-15.8165 65.01704 -9.284203
-20.28412 70.52341 -4.416833
-18.38694 80.53563 -5.553367
-16.13423 88.06541 -7.624187
-19.28755 33.59549 -12.24256
-21.2816 33.85457 -11.16996
-19.69727 44.43026 -10.26129
-13.96881 108.9471 -2.038212
-14.51217 106.4929 -2.644239
-14.29885 95.63752 -8.550243
-11.50174 94.0579 -11.22149
-17.11753 92.82012 -5.64814
-11.43194 118.0865 -0.7965199
-24.36821 48.81632 -3.338287
-17.12874 64.90485 -8.529731
-16.4516 78.25534 -7.376542
-18.30168 34.61742 -12.34003
-16.89859 37.34616 -12.13078
-13.24427 105.1493 -5.342299
-13.42418 98.44298 -8.443531
-16.51771 93.43724 -6.405169
-11.59745 119.0225 -0.03555005
-22.12304 50.47033 -6.007863
-21.21716 56.92461 -5.789366
-14.2151 60.01997 -10.32067
-15.93344 67.27198 -8.925059
-16.45473 70.16671 -8.286682
-17.08437 79.4589 -6.835054
-19.61251 34.96038 -11.96604
-12.23767 106.5098 -5.648333
-13.76262 100.3597 -7.213873
-13.2746 94.90403 -9.765631
-21.64373 50.37453 -6.705947
-18.82683 62.15789 -7.503345
-21.603 34.4138 -10.77659
-22.66329 34.042 -9.014845
-11.30587 106.1242 -6.612558
-10.13898 103.4299 -8.829689
-11.85903 101.0662 -8.750085
-18.53031 88.55335 -4.434896
-15.63774 88.35382 -8.093765
-15.0297 85.17432 -8.213641
-16.34883 91.08622 -7.279607
-22.77019 49.13216 -5.37678
-22.69095 47.27527 -5.916951
-16.96912 63.18113 -8.868331
-18.04959 61.46642 -8.315576
-20.94739 58.97928 -5.710261
-20.86856 68.25719 -4.049949
-18.45992 63.89418 -7.563173
-17.16493 68.96453 -7.954595
-18.88347 37.75124 -11.78397
-22.25892 36.95761 -9.30562
-10.86387 102.2424 -8.976483
-15.44401 89.57039 -8.356115
-23.94411 48.87603 -3.869812
-19.68285 65.17314 -6.089042
-21.05307 37.07304 -10.77088
-17.11789 90.49305 -6.319976
-20.09106 52.44934 -8.132072
-20.73532 50.05882 -7.978152
-20.75424 65.98944 -4.623786
-21.72299 61.65827 -4.231596
-20.71915 65.32176 -4.792178
-20.47261 67.34301 -4.733474
-21.63602 61.10488 -4.44348
-20.04736 53.23338 -7.999027
-18.93382 70.29379 -6.153687
-16.90707 70.68569 -7.922573
-11.27864 89.50549 -11.1593
-17.3893 55.30141 -9.719058
-17.81201 56.91286 -9.190605
-18.12193 57.46067 -8.90358
-19.8607 56.01879 -7.587413
-18.87117 60.45976 -7.753406
-16.31123 59.44086 -9.733789
-15.82063 44.56319 -11.48017
-18.12213 39.9642 -11.68969
-24.13924 36.25275 -5.503387
-16.0836 99.10502 -4.22688
-10.76594 74.09605 -9.601554
-12.45499 72.89219 -9.567451
-14.17473 78.38947 -8.451407
-11.66009 72.43781 -9.678897
-14.96026 73.06995 -8.706612
-15.64744 79.41614 -7.694648
-17.32162 81.18804 -6.511432
-17.27631 80.84068 -6.569074
-15.19885 81.98254 -7.850072
-14.72358 72.39468 -8.881818
-13.73718 80.86354 -8.395308
-13.1795 110.5588 -2.387195
-12.78042 107.6019 -4.523457
-14.98406 59.8296 -10.18437
-16.49566 43.62862 -11.52742
-16.5004 44.9072 -11.39604
-16.60704 45.96709 -11.27928
-13.32961 50.65042 -10.79409
-16.34026 49.51988 -10.98686
-12.4057 72.5655 -9.59707
-24.77034 38.40885 -4.433187
-23.39044 37.44479 -6.713247
-23.2453 41.03994 -6.382662
-8.70109 117.1791 -4.11516
-18.24086 76.04795 -6.208433
-17.01107 75.39836 -7.32349
-20.96507 50.22229 -7.685504
-10.78475 99.78667 -10.11336
-17.56097 84.11184 -6.273821
-20.89865 48.79147 -8.109707
-22.21972 40.2977 -8.552538
-20.96751 43.74283 -9.34602
-19.25375 39.72645 -11.3683
-16.54137 50.04621 -10.8673
-18.01682 49.16377 -10.39818
-20.53976 45.72661 -9.272755
-18.14493 48.63348 -10.42275
-24.04443 44.24526 -4.504478
-18.84675 82.89568 -4.83799
-17.9033 76.49137 -6.474881
-19.88804 45.8152 -9.817504
-20.5738 46.18776 -9.137913
-23.668 39.86841 -5.834091
-15.37758 83.12298 -7.824842
-23.33018 44.11777 -5.589432
-19.36582 41.56297 -11.01243
-16.97355 34.66788 -12.37739
-20.57427 42.92538 -9.903669
-4.060916 123.7355 -7.554409
8.803524 30.79055 -10.87306
-6.697242 127.1245 -8.406156
7.463513 44.85071 -9.931243
7.415774 27.56156 -10.92147
5.163008 29.9886 -10.25228
-2.336329 26.94282 -9.916636
-8.458982 64.97715 -9.095727
-2.47243 118.6917 -6.194858
4.987708 74.28617 -9.498183
3.785479 86.30303 -10.75719
4.47288 89.06691 -11.94969
-1.795157 96.23734 -12.60165
3.206037 89.45588 -12.0701
-3.988882 116.1026 -5.643976
-1.262184 123.8167 -7.688218
3.44647 124.0478 -7.75726
1.382565 125.0162 -8.116312
3.025671 122.8108 -7.304344
-8.16516 56.45789 -8.939871
-11.90965 27.83725 -11.22738
-1.785361 117.793 -6.234425
-4.695042 38.51493 -9.253762
7.809021 28.35225 -10.89958
-4.028919 113.3714 -5.728655
-2.482331 122.1249 -7.085342
-7.473659 52.81502 -8.853139
-9.413754 45.68988 -9.366615
-3.1599 126.2922 -8.596049
-4.344185 120.6167 -6.37364
-1.185782 126.4662 -8.661777
1.947228 126.9127 -8.828336
-4.751267 124.1809 -7.600569
-6.952072 91.61694 -12.61139
2.588367 121.7687 -6.938632
-5.026313 126.3093 -8.396928
-4.130726 121.2829 -6.641183
2.55978 116.219 -5.800312
9.263135 28.09258 -11.23497
-5.620977 73.35677 -9.522469
-5.960645 91.38165 -12.58363
-1.102522 101.2978 -11.14757
3.397845 97.27735 -12.42649
-3.700535 103.5072 -10.08769
-5.359991 106.4976 -8.299355
-11.02425 27.87984 -10.84234
2.661898 114.6994 -6.653358
-2.799659 116.3289 -6.028251
-3.65952 111.8859 -6.148391
-1.857975 120.5476 -6.577506
-0.8811405 118.2952 -6.022532
7.023756 35.86403 -10.17295
6.529404 48.36092 -9.656417
-1.603811 61.27367 -10.30172
4.925883 65.72774 -9.389697
-6.781588 69.28316 -9.123876
2.226882 82.89559 -9.94712
0.1661706 85.97711 -10.69975
-5.860142 94.80431 -12.78207
-2.535488 100.2353 -11.5686
0.8163134 102.634 -10.53157
1.79315 98.30489 -12.16359
-4.300661 99.79359 -11.7352
-3.711812 104.2346 -9.681527
-1.347431 112.0826 -6.160732
1.518494 107.8428 -7.721183
-11.46432 35.13907 -10.5552
1.106074 29.0895 -9.974012
-11.65739 31.88548 -10.77714
0.8203556 112.9569 -6.256709
7.141195 30.89676 -10.47062
6.803518 40.4701 -9.937897
1.871831 28.3636 -10.08432
-8.902174 47.23104 -9.164021
7.643883 47.74993 -9.90131
-8.131485 57.16971 -8.916821
3.836701 57.24261 -9.498342
-7.158728 63.79144 -8.962918
5.417161 69.93375 -9.460153
6.308966 59.92751 -9.510676
-7.229555 70.65926 -9.135898
-7.418958 78.58218 -9.504862
4.903854 82.62236 -9.799643
5.037173 77.20121 -9.584443
4.606409 88.61161 -11.77256
-5.221532 87.27235 -11.20357
-1.023622 97.15951 -12.43901
0.4871262 96.7243 -12.5196
-2.167002 108.7184 -7.293677
-1.045868 111.3887 -6.328562
2.266589 110.9554 -6.48148
-9.957512 33.71756 -10.02072
-3.203802 29.25283 -9.67877
-9.097988 30.32711 -10.04179
-0.9302641 112.3582 -6.117887
0.3364734 28.69721 -9.946007
-8.382623 49.19185 -8.977288
6.797963 49.73356 -9.668744
-8.893354 57.00168 -9.115266
6.492572 56.53762 -9.547527
6.63914 52.43811 -9.608922
5.902649 65.47256 -9.458824
4.493423 73.47224 -9.461998
-4.872501 71.61343 -9.679062
-3.508058 70.62121 -10.02513
-1.939242 72.30492 -10.19714
-6.079002 78.43806 -9.622456
-5.178891 77.8067 -9.738454
2.009579 80.75805 -9.818387
2.818521 79.66051 -9.751748
-6.213817 90.25984 -12.34139
3.296917 87.8288 -11.43365
-4.663666 88.80328 -11.84419
3.325923 92.24619 -12.7117
-4.252772 92.82782 -12.78459
3.140285 95.09018 -12.74727
-1.863404 105.7396 -8.85221
-0.5391825 103.9998 -9.806396
-2.944365 96.11926 -12.62393
-10.69232 36.77406 -10.15431
-11.30793 31.80033 -10.62562
-2.937205 30.43946 -9.616665
7.002817 28.58645 -10.70895
2.354612 29.96308 -10.00379
-9.695311 51.38104 -9.395867
7.541129 47.31831 -9.883051
8.134958 42.85616 -10.13712
3.784687 59.52087 -9.489618
3.777035 52.29451 -9.611337
4.190771 54.24315 -9.521667
3.535351 53.21629 -9.636466
-5.707534 63.62101 -9.217793
-5.866527 63.25133 -9.16529
-6.269225 61.07708 -9.030025
2.347378 72.03329 -9.685017
-3.549303 69.28 -10.00047
0.3362572 71.68757 -10.06302
-3.383114 77.314 -9.954534
-0.1784815 74.8728 -10.06403
-6.984495 83.80866 -9.959088
3.876446 84.40732 -10.15895
2.637457 77.01674 -9.709156
-3.722148 85.85846 -10.67029
0.8366189 94.80466 -12.7585
0.3496419 99.32049 -11.8667
-3.297544 94.94561 -12.77018
-1.512002 94.09139 -12.80137
-10.0477 36.74296 -9.911898
-8.37738 37.61036 -9.361611
-5.763638 30.8383 -9.537669
-1.567582 28.63917 -9.813945
6.025321 32.66931 -10.16298
-7.900711 47.32887 -8.933898
-6.673528 57.30585 -8.902361
4.528803 63.47092 -9.395484
0.2772002 62.35663 -10.19665
4.276126 64.53202 -9.41016
2.751192 57.87382 -9.708755
3.211878 50.00499 -9.73796
-4.247222 61.41459 -9.655342
-1.966211 71.20995 -10.22549
1.968364 75.58459 -9.772807
-3.155536 76.50787 -9.997063
-1.59422 78.3251 -9.970303
-0.485711 83.19528 -10.04561
-4.459719 82.70515 -9.936255
-3.182492 88.96648 -11.88939
0.549943 104.6356 -9.459437
-7.244281 38.45007 -9.180761
2.939087 31.14434 -9.99095
-7.590342 45.55653 -8.944296
-0.4961107 58.16401 -10.3034
0.269523 61.14676 -10.22592
-0.3724245 60.41541 -10.29338
0.8837886 55.76114 -10.14482
3.054684 47.61613 -9.797237
2.074033 47.44318 -9.988604
-3.654823 67.79354 -9.960073
-4.505465 78.2756 -9.828217
0.2028792 85.41029 -10.51895
-0.4720898 77.52126 -9.974953
-6.763327 38.34124 -9.156994
6.924959 34.11391 -10.21557
-5.64331 44.77963 -9.067545
-8.291224 54.36923 -8.944693
-0.6715052 69.74487 -10.23233
-2.403225 84.62509 -10.29263
3.349198 36.40924 -9.938052
4.653452 34.58974 -9.968544
-4.51511 50.69539 -9.377882
-3.025996 59.48614 -10.00147
5.821865 45.66685 -9.673396
-6.248373 40.1023 -9.064259
-1.411276 58.67135 -10.2995
-0.6439142 42.12284 -10.06031
5.25662 43.67794 -9.695245
0.5924318 44.59167 -10.16369
2.223295 35.74549 -9.97414
1.747526 42.19597 -10.07751
-3.762438 53.4893 -9.670115
5.693991 40.32708 -9.862311
-3.877522 50.24272 -9.582959
-0.6643671 51.34044 -10.24624
-3.007943 45.47358 -9.724028
-4.789215 49.23325 -9.285454
-2.898451 46.90106 -9.783442
-1.932014 48.59888 -10.04587
-4.376181 42.01667 -9.308867
0.4327457 40.83015 -10.0981
-0.2036338 49.3863 -10.2306
-3.788074 49.151 -9.589955
1.138151 49.29168 -10.13668
0.3465636 53.18536 -10.24001
0.3653811 41.53699 -10.12056
-3.969724 32.04568 -9.476027
-3.61012 40.99186 -9.474241
3.215544 37.82515 -9.947781
-5.215631 33.53278 -9.358434
-5.063251 39.39522 -9.202625
-2.477305 40.0055 -9.719532
-1.271624 37.27526 -9.858749
-4.743125 31.52834 -9.475187
-6.958015 37.00717 -9.240005
-1.939548 36.58285 -9.739097
-2.240093 29.35082 -9.722833
1.8308 30.5294 -9.955094
-3.983598 30.74619 -9.53537
0.0269237 35.37942 -9.927192
0.995532 31.60413 -9.899108
0.4050998 89.50683 -12.07925
-0.5520856 93.55934 -12.8056
2.552341 68.0937 -9.655192
1.614215 66.2332 -9.877
-2.590149 63.67343 -10.16001
-0.8075477 64.71828 -10.32417
3.382801 66.75236 -9.510991
-3.150486 61.59819 -9.999476
-3.203719 65.43472 -10.03767
1.352337 86.29688 -10.79795
-2.18842 56.67814 -10.15427
-5.76419 40.66507 -9.112516
-1.962292 91.97333 -12.65738
-2.26014 89.85051 -12.1881
-13.07842 131.541 11.11975
-27.30495 33.94526 -2.032099
-22.04747 24.60202 5.504662
-11.78141 134.9215 12.0403
14.82238 133.6183 7.14608
-23.35444 51.16907 -0.3214119
-7.937735 129.4309 12.90193
-24.45971 53.34369 -0.6930095
-20.5537 75.10742 1.167112
-13.83646 131.0437 9.828436
-14.02626 23.40424 9.165412
-20.95852 25.30559 3.921682
-2.023274 129.2151 12.64254
17.81554 95.86291 -1.308957
-13.6401 126.6722 3.471868
-13.43107 127.9349 5.543187
-14.0027 130.086 8.476619
10.65422 138.3399 9.79456
-15.96946 105.9131 1.948391
1.445262 131.9572 13.8961
-14.78125 109.4014 2.620385
-14.5715 131.2876 6.654995
-12.8608 121.6941 4.020654
-13.47195 128.588 6.417067
-12.62015 113.5835 6.205499
-14.11052 132.6614 9.757484
-27.22968 28.8956 -1.040936
-12.06605 139.8637 7.50243
-10.60181 138.3726 10.16636
-15.67695 106.9239 2.289867
-2.532121 129.8254 13.33835
-0.635906 130.8953 13.77874
-2.907559 136.6204 12.4942
-12.48899 133.1801 11.91282
-8.144919 139.7105 9.387815
-9.298177 136.4116 12.38254
-7.253304 139.1345 10.24412
-14.17945 133.1161 9.515873
0.9456948 23.44612 9.452436
8.067478 23.10636 9.283879
12.65401 121.878 5.929316
17.27687 24.3784 9.053575
-14.19891 130.2993 5.274886
15.87931 105.1271 -0.08524169
13.04994 113.5698 2.116669
12.80008 114.1878 1.76333
-12.08827 137.2546 9.69056
-10.35955 136.9772 11.47116
26.52194 25.75858 -2.944437
14.75043 131.975 6.328434
26.88383 25.82886 -4.634305
25.39599 30.80713 -1.936937
-8.224533 124.9487 10.84386
-14.29338 130.4776 6.511494
-13.08393 128.1163 7.000585
24.63153 51.33326 -3.628434
14.51886 131.1346 7.289332
-12.78702 129.4501 10.29251
2.945452 134.4215 13.6273
4.904169 134.4166 13.61701
2.73488 134.0033 13.72035
12.26485 119.7722 6.439881
9.135901 127.7808 11.41642
6.818616 127.7096 11.60219
7.255421 137.9807 12.03156
10.39307 138.5329 9.751694
11.00145 139.2058 8.682691
12.44642 139.8587 6.966884
-9.992474 137.9923 10.63409
13.06121 122.8294 4.08706
12.20669 117.5452 1.461597
14.54916 132.4656 2.816761
14.45226 131.5158 3.433327
12.77347 141.9896 4.468904
14.76734 135.461 4.976692
14.02376 138.4043 4.971166
0.2714259 125.6779 12.23817
13.17667 73.19237 9.952171
6.735713 133.4535 13.84316
-14.54957 131.3493 7.330016
-7.451656 135.3124 13.29372
12.22718 136.5996 10.19872
13.53249 126.1044 3.94466
-7.99775 127.6903 11.49461
14.55781 134.4034 7.86143
-12.31122 136.5382 10.18338
-24.17117 32.68978 -0.3466985
-20.76869 50.0539 4.60572
-1.725062 129.5722 13.14324
-0.703458 130.6738 13.74988
-1.280829 129.491 12.99602
3.00133 129.6543 13.20945
25.41454 35.93045 -2.202113
26.64346 30.01536 -3.977473
5.463967 131.7982 13.8529
12.96757 122.7114 2.960657
-22.3934 67.89355 -0.3396891
-18.58849 93.38199 1.855271
18.08881 95.01254 -0.7285092
19.98836 87.61372 0.1978921
-14.78551 132.6798 7.364083
9.248199 132.2443 13.65436
13.54117 134.2054 10.32068
-4.291123 133.3974 13.83004
12.65914 135.177 10.94967
13.00709 123.6713 5.592012
-8.341463 125.9225 10.60099
-6.664948 127.7927 11.61995
14.62034 131.6133 5.764062
-27.81968 29.34912 -2.257021
-22.84953 25.03259 -0.2773839
-25.80833 47.33859 -1.38349
-16.52629 25.00872 9.104926
-13.6792 111.5243 4.200136
5.493937 128.6876 12.24299
-0.4302648 128.8035 11.94812
-2.24771 128.9892 12.34143
1.934513 22.31989 9.365488
25.03363 47.02235 -3.439037
26.38157 31.98219 -3.499915
6.106361 130.5575 13.54123
8.311604 130.6655 13.49316
12.06304 132.156 12.27899
5.632403 129.3353 12.86473
12.37475 118.0285 3.7749
12.41083 120.399 6.268926
-21.71887 66.88596 -0.05647892
19.74765 55.95374 8.063461
17.95507 94.57342 -2.290104
18.78692 92.75137 1.519451
20.6609 80.71181 0.8666953
-17.9726 95.78584 1.366136
-17.66968 97.35712 1.214018
-17.00771 101.1203 2.357078
11.2282 125.3641 8.704137
5.930851 133.9671 13.75134
-6.109866 134.2207 13.6761
13.75253 131.0742 9.924964
-9.344337 128.3182 11.84573
-12.26784 125.8387 7.522954
-26.46774 31.40036 -0.7145967
-22.7945 28.97863 -0.290146
-18.68917 24.59628 0.9635439
-26.63421 39.43396 -1.602524
-20.74023 26.70465 7.826747
-11.17146 120.7782 8.537749
-13.11772 113.6319 3.732797
5.967957 127.5384 11.51952
-5.695334 127.2965 11.49975
-5.30338 131.695 13.88364
-2.428225 125.4849 12.24167
-3.714558 125.05 12.2113
5.267009 125.2073 11.95247
23.77016 46.99797 -1.357794
25.61637 39.56844 -3.979134
23.73908 26.7343 -1.099654
25.41448 29.03404 -1.917141
19.41816 25.71331 0.4534682
11.18142 129.7368 12.09321
12.21764 122.0246 7.189095
-20.23003 71.52948 2.224061
13.6719 112.6484 3.921456
-20.74921 81.03581 0.5994184
18.44548 93.9833 0.7954634
18.8575 90.42738 4.731003
18.80264 90.15325 5.078633
20.34116 81.12511 -1.856797
20.46797 84.19999 1.305676
-18.89589 92.38234 0.578934
-18.37281 92.5574 4.456887
12.29317 125.9442 7.490201
8.155746 127.9982 11.79158
-12.64903 125.8615 6.936436
-26.53489 37.42206 -0.9837636
-26.66177 34.23497 -0.8123977
-21.39739 67.57281 0.1392989
-25.56462 44.605 -0.7387774
-22.06329 24.51128 5.126141
-15.56724 25.089 9.153959
-12.04336 119.7698 6.96266
-13.10155 115.6376 4.183083
-13.10147 113.1359 4.073559
9.733168 125.6811 9.832084
2.822154 128.2942 11.91655
2.781536 126.6108 12.11152
-0.05940372 124.4446 12.25141
2.397955 27.9677 9.72364
21.3172 58.66451 -0.6375908
21.2335 25.34279 8.118761
13.30951 22.07402 9.141791
25.31802 43.96167 -3.017775
22.96764 25.83018 -0.8198692
25.26419 34.17163 -1.930339
9.556156 130.0486 12.94783
9.917789 131.1478 13.25302
12.44691 120.1031 6.052936
-21.19772 72.59441 0.1982168
15.17574 107.9103 0.5351716
-20.0771 87.22396 0.977507
-20.57631 82.19236 1.87933
19.03662 91.90156 0.4468943
18.49444 90.89023 5.383321
17.85067 91.1403 6.606782
20.67046 79.41726 1.062399
19.56884 89.58195 -0.05363252
-16.57709 102.9584 3.251548
12.54757 132.4711 11.92463
-12.19991 126.9538 7.678203
-21.48534 63.97551 0.09711008
-25.09877 49.44595 -0.82846
-21.88076 47.12514 -0.1781908
-18.88987 26.85885 2.108187
-17.05663 23.38755 9.038898
-10.15069 121.8242 9.700751
-14.05781 110.9878 3.254807
-4.575096 124.5995 12.13219
3.385155 21.11654 9.275671
6.935267 22.75483 9.300437
21.52836 63.10709 -0.7786965
18.20902 22.5004 8.903708
24.90976 49.05001 -2.937102
25.62419 38.95163 -4.277915
26.08642 34.1349 -2.995597
17.78782 26.52385 2.66706
7.914663 115.8228 10.14385
-22.17337 69.76675 -0.3049927
-21.98463 65.90587 -0.1385944
15.81119 106.3111 1.631167
21.64197 73.82438 -0.9256868
-20.42055 84.65867 0.9553712
-19.62195 88.17912 3.673057
-20.62454 80.98141 1.822516
-20.38511 80.88979 3.431273
-20.1504 83.64895 3.974567
18.08329 94.02745 3.996959
16.23709 91.36699 8.373352
17.33221 98.97491 2.420177
21.07762 77.78341 -0.4853109
-16.77873 100.7802 4.020971
13.30547 129.5713 9.504371
13.97309 132.045 9.935556
10.66721 128.5737 11.52929
-25.12507 35.65147 -0.4176449
-24.35778 36.10204 -0.4203562
-21.43089 55.11531 -0.06863175
-23.24399 53.0949 -0.3294445
-24.22642 44.57439 -0.3414284
-20.37557 31.06355 0.006713789
-17.15817 25.91636 9.063226
-19.72912 26.48803 8.450452
-21.6087 24.60026 6.797415
-15.6787 22.71411 9.098549
-12.40676 24.54137 9.216446
-6.737279 121.6954 11.48986
-14.32756 109.5078 4.764395
-15.08889 105.8965 6.000947
6.674839 125.4395 11.44942
2.787079 21.80296 9.323245
-2.137187 22.8473 9.393323
10.48889 21.44909 9.187676
23.60103 61.18316 -2.994285
23.75517 56.26683 -1.947688
24.44069 51.3294 -2.179847
20.79354 25.38344 8.345013
25.19997 42.18014 -2.13482
18.64054 25.22412 0.8339535
17.69981 28.18717 2.023867
12.57168 115.9603 3.236712
-21.77321 74.77501 -0.1953007
-20.37077 70.4734 1.138118
-20.83476 66.04836 0.4971659
15.36307 107.3087 0.5312243
22.78354 67.8228 -2.450382
-18.23354 89.00164 6.880561
-18.98001 90.66628 4.060416
17.06984 93.78764 6.587559
16.06694 91.01577 8.624614
16.59818 103.1719 1.303358
16.89182 101.7738 2.380036
20.51892 77.57386 2.388418
20.55551 76.88786 1.327689
20.40588 74.50816 2.5601
20.61114 79.78661 1.753872
12.7195 130.9926 11.45321
-24.4669 41.29902 -0.4263924
-21.42715 58.903 -0.01045174
-21.95328 59.24406 -0.1501239
-24.03142 48.71426 -0.3186409
-21.19473 31.05487 -0.1982384
-14.24949 34.36654 9.206239
-21.72737 30.40172 5.489569
-8.331532 22.9735 9.257298
-15.02043 105.4926 6.321829
-11.23682 112.4726 8.506799
-1.539348 121.9799 12.02331
4.511745 23.63656 9.402481
-0.02091702 23.3443 9.446742
13.70184 27.93279 9.228978
5.851866 25.05554 9.423793
7.249977 26.12635 9.395036
-6.044973 25.75131 9.420647
23.37704 58.91181 -1.724433
23.31276 55.07347 -1.472723
23.31736 54.35417 -1.476699
21.54355 24.51666 7.919942
15.12327 23.3511 9.126766
24.16665 31.98267 -1.165394
23.453 28.97505 -0.9275897
18.38466 29.25704 1.192794
-20.32502 67.92524 6.119225
21.67023 66.96886 -0.9172105
16.35921 103.4235 0.03382881
17.44155 98.66176 1.504172
-21.45739 37.86218 -0.28124
-22.54675 47.79205 -0.2334203
-22.88229 32.98919 -0.3937972
-16.44834 100.7116 4.968627
-12.16913 114.4314 6.787898
0.788415 26.14977 9.643587
3.456856 25.61888 9.547688
21.58121 61.32345 -0.7873838
20.31215 63.33423 0.2177353
21.07622 44.92353 -0.1264399
12.57168 21.92391 9.156177
22.10869 35.65168 -0.325108
23.31319 31.55416 -0.8063752
17.74328 28.67399 2.402667
14.65845 102.6196 7.330782
-20.37055 69.53871 5.787956
16.38707 104.146 2.786662
-20.80437 31.87912 -0.1098789
-21.73208 44.46885 -0.1796235
-21.59504 51.62629 -0.1362311
-18.88848 28.01292 0.7439968
-15.74927 101.8014 6.072788
22.18153 55.73114 -0.9685589
20.97842 55.48999 5.906584
19.83465 26.78776 4.80306
21.41185 28.44687 7.771524
18.82186 27.29093 3.994509
15.58622 103.8744 5.900843
-20.26177 72.30045 1.96603
-21.41437 38.90194 -0.2419437
-20.52483 46.55431 0.1697628
-19.34576 48.84344 1.838693
-24.36919 28.95453 -0.3508551
21.08355 52.83282 -0.3874242
19.30255 30.01231 8.936778
13.56904 113.678 4.382082
-20.44636 68.97839 4.369297
-20.36701 73.13899 4.218948
-19.23457 45.29401 1.458429
-19.3365 49.31792 1.493721
-20.98445 34.15145 -0.1362853
-22.7246 29.65064 -0.3002611
-13.5743 101.5267 8.213159
-13.308 100.0389 8.409068
-11.82414 100.8248 8.980199
-11.90412 98.51804 8.968083
-14.28847 103.795 7.629844
-8.78908 110.2701 10.02601
-12.99615 106.5926 8.402894
20.45529 52.56092 -0.02398216
19.90991 60.41884 0.7765515
-20.14307 68.58472 6.444664
-20.38325 72.05145 4.242728
-19.33839 48.06944 1.256446
-19.23502 44.72652 1.404526
-20.43472 50.72801 3.877245
-12.54798 101.7436 8.723814
-10.44359 105.3303 9.707877
-10.43931 112.7282 8.733013
-10.97596 113.4908 8.032284
20.56223 60.65796 -0.1603098
-19.16311 70.53947 7.491573
-20.43464 71.13544 4.961458
-20.02108 78.02079 5.118612
-19.60841 80.73908 5.668345
-17.36575 75.83416 8.521385
-19.934 75.90646 5.894457
14.78768 101.0564 7.316287
-18.93066 39.31313 1.745828
-16.43806 99.18531 5.360235
-16.2179 96.89447 6.548245
-12.28769 106.1322 8.934359
-10.386 119.2978 9.094508
20.15106 58.70073 0.3202679
19.96662 30.82724 8.799983
15.4772 98.16585 7.077406
-17.54712 35.11015 9.067479
-16.92136 34.90653 9.139907
-17.19814 96.62234 4.718303
19.58715 56.57862 1.102005
17.6994 95.34488 4.098704
-21.16207 46.19539 6.125261
-11.892 135.6357 11.41564
-8.708213 131.9467 13.72403
-7.081529 131.015 13.67911
-10.56158 132.0599 13.22601
-11.55223 131.0657 12.44017
19.83207 88.2007 -0.2525551
11.38091 121.6756 8.404979
11.17608 122.7819 8.775177
12.11806 118.4593 6.250518
10.28889 118.2418 9.038377
-11.91145 116.5507 6.475367
24.60138 41.59578 -1.6167
20.03593 36.44068 0.4263238
14.78451 109.3986 1.976017
15.96604 105.3605 3.894469
-16.51365 85.54782 9.200899
-19.67154 59.50998 1.097672
-20.67144 67.39786 0.628891
-20.04514 65.42384 1.159386
-18.58513 28.09927 8.831966
-9.265014 25.2966 9.281649
-5.237575 116.29 11.3376
-10.55721 118.464 8.782182
-3.468548 121.4953 11.97202
-6.257174 121.4089 11.5623
-8.838371 118.8601 10.14416
-5.682286 116.4396 11.17971
-3.701947 118.7131 11.73687
3.712977 123.9637 12.20205
3.959894 123.0843 12.11818
6.906516 122.5415 11.56778
23.36935 46.30399 -1.06808
21.72964 43.49701 -0.3101316
17.57235 97.80909 0.3748325
20.19443 70.2185 1.50492
-21.60266 55.53581 -0.1088382
-19.60528 53.44831 1.340497
-19.57368 55.77542 1.648667
1.411476 122.6541 12.08772
-0.540018 123.5138 12.17241
9.879144 25.56834 9.285745
20.01431 28.80529 8.757615
18.22489 28.5153 9.059752
20.6745 71.48323 0.2720827
20.37232 74.02199 1.936205
20.48374 71.38908 4.358416
20.46719 74.9595 3.593633
20.32594 74.78175 5.253928
20.45741 71.92999 4.099499
-22.38669 34.08256 -0.3933556
1.004242 25.67287 9.608576
20.71145 35.48182 0.1438957
18.71819 30.36305 0.9452255
21.46872 30.54329 6.714939
20.77651 28.86839 5.566704
21.32327 28.8108 6.218796
19.74092 31.61352 4.646757
18.05317 31.99582 3.026267
20.66172 35.66298 0.1666359
18.14345 35.03095 2.436767
18.5171 37.05769 1.354899
21.48513 37.96936 -0.06712043
18.80615 38.43204 3.823022
19.60246 36.66447 4.589143
21.39673 38.85575 -0.03841945
23.36619 38.93492 -0.8027475
20.36903 37.08334 5.242625
20.73498 25.32431 5.586747
19.00241 50.58497 2.406901
19.66537 54.62679 3.440858
19.76215 55.72239 3.547224
20.26623 53.93747 4.378674
20.3537 54.49562 4.517856
20.89466 54.24065 6.302338
19.42147 45.49993 3.867274
19.44981 58.28524 2.326358
20.74578 56.04646 5.191894
-18.95123 31.37816 1.00825
-24.97663 32.0697 -0.3908169
-23.70935 34.60841 -0.3954234
-18.79142 32.46145 2.248123
-20.64548 36.12539 0.0455787
-20.70377 34.48697 4.306597
-20.41542 35.02263 4.091395
-19.15225 31.3009 2.60421
-20.91016 36.35016 4.561303
-20.84655 31.57311 4.022733
-21.44439 39.43969 5.722848
-21.25625 33.25978 4.711714
-18.33197 32.73454 8.947111
-21.63009 31.55561 5.690152
-21.50648 28.40743 4.320732
-19.48571 30.22475 8.560105
-21.71788 27.10388 6.404543
-20.87233 30.11737 3.921393
-20.33139 31.77132 8.063351
-20.61839 29.79305 3.744322
-15.44477 35.03644 9.200719
-17.05391 48.16694 8.932845
-16.64455 32.21405 9.157413
-15.46238 28.50271 9.207195
-14.906 32.2299 9.219155
-20.26757 73.11123 2.547837
-17.88267 72.77991 8.26627
-20.09605 73.24067 5.889068
-19.4327 68.30982 7.382792
-16.69625 96.2342 6.068322
-6.350895 99.95454 10.13224
-9.747561 104.7972 9.935048
-9.627029 110.6652 9.62677
-6.6836 109.3564 11.16307
-6.372366 111.2949 11.2943
-7.998819 110.8714 10.48133
14.39098 95.70246 8.573654
19.38326 32.72552 8.901231
11.8349 31.85738 9.2672
-9.558867 133.387 13.55556
19.60032 89.26319 2.510295
20.10523 86.72855 0.1319391
19.38421 89.14406 3.862557
17.75266 87.3632 7.938825
20.11832 85.02942 3.568929
19.80166 85.94962 4.366716
12.24029 115.2787 7.169713
11.97231 115.0101 7.542645
10.19777 116.1345 9.442664
10.85937 115.4378 8.768832
9.130624 113.7423 9.709208
11.23851 112.6784 7.930932
10.70216 112.2491 8.502108
20.60232 82.43079 1.224918
-11.72025 117.5521 7.36381
14.7373 108.5617 4.583743
14.48848 88.56575 9.838037
-20.11152 66.85387 2.815196
-20.24107 64.4261 3.27066
-6.967556 25.7109 9.373499
-3.443261 25.89788 9.545611
-2.551115 31.15497 9.858999
-4.806422 26.32296 9.506983
-14.30659 29.20333 9.227972
-9.863094 25.15506 9.264555
-6.115232 28.52697 9.521318
-13.28651 30.48124 9.230639
-8.480929 28.97996 9.372471
-11.07815 30.95027 9.27096
-7.792365 30.26559 9.456244
-11.74557 33.92876 9.25998
-0.2252015 119.7153 11.87767
14.35593 27.65395 9.219526
17.37585 29.61872 9.144328
16.69762 27.22989 9.158657
13.69924 29.43099 9.231798
12.11787 27.12623 9.245203
16.78693 31.25168 9.177246
5.939756 27.90534 9.540322
12.82982 33.98511 9.253283
10.55182 35.15717 9.381332
10.87846 33.21781 9.325846
19.7053 44.27058 0.5797765
19.57786 49.24495 0.6656518
22.35145 46.50666 -0.6483818
-12.59966 93.21215 9.509144
-16.28251 90.65056 8.58417
-15.59129 95.89043 7.605189
18.11064 95.21566 1.055354
-19.58602 51.75758 2.325786
-21.00838 51.13349 5.627081
-20.81646 48.45848 7.215516
-19.84436 56.29699 2.714024
-20.3746 54.24747 7.360328
-2.867478 119.5586 11.86559
0.08697651 118.3825 11.83157
8.38828 26.7117 9.355108
20.53609 68.85974 6.121533
20.02423 72.70924 6.317517
3.032196 27.81737 9.692436
5.17866 27.86953 9.586957
5.355387 29.16162 9.635463
19.34318 30.81157 0.5306369
18.15496 31.57376 1.608991
21.32571 33.75115 6.631696
21.04877 39.72346 7.267714
19.93685 38.61048 8.615537
23.26188 43.04516 -0.8833787
20.5455 42.30827 0.1785161
21.13438 40.02193 6.464142
20.14808 40.2097 0.4516628
18.30316 39.10278 2.571523
20.0879 38.99654 4.963155
18.06309 56.59604 8.722102
13.57267 65.18612 9.722954
19.6447 58.98425 3.056487
13.41681 110.3138 6.154339
-19.89942 40.33105 3.597591
-19.78726 41.02803 3.409985
-21.31651 43.35438 5.818082
-21.12989 44.21191 5.084591
-19.43781 43.44339 8.470595
-16.69079 48.64327 8.970007
-17.71998 46.71228 8.840683
-16.33791 47.93287 9.016665
-16.32066 41.55021 9.083055
-19.66515 43.96338 8.316796
-19.16664 37.73599 8.588488
-17.90997 44.86717 8.847505
-18.00729 41.53656 8.92014
-19.64791 41.45585 8.342569
-21.22731 43.35612 6.551034
-19.53019 39.43565 3.144566
-20.80519 41.95033 0.01506727
-19.71902 38.47606 0.7554213
-21.56161 34.2244 6.384792
-8.132981 98.41196 9.55477
-10.15662 98.33292 9.265037
-9.776512 95.12246 9.407432
-8.844563 101.4205 9.782484
-8.074404 97.66798 9.454686
-14.18823 94.79192 8.851751
-13.55089 90.35813 9.827349
13.97113 98.33705 8.260654
14.26152 99.62939 7.890728
-18.20753 69.59545 8.183995
-15.08898 73.12804 9.47716
-5.939899 114.2961 11.14908
-5.135144 111.8671 11.76225
3.008184 115.5769 11.81788
17.01325 95.97881 5.562711
15.05479 87.29716 9.76792
12.03638 89.92757 9.936442
14.03885 86.36419 10.09053
12.39394 85.69934 10.25176
20.17905 81.86884 4.149846
13.50087 105.2755 8.207546
12.7915 109.3022 7.687773
14.25113 105.8609 7.361052
15.07074 106.7712 5.488958
-13.21888 82.88466 10.23486
-20.56865 65.67486 4.819432
-18.91577 64.43573 8.062799
2.286668 118.4793 11.84516
2.178811 121.4906 11.99767
1.867531 117.5243 11.83071
3.30757 114.5516 11.77869
6.486823 116.7856 11.18495
-5.05112 100.1744 10.47105
3.228505 112.5476 11.83206
7.736249 119.3479 10.73347
5.644701 119.6735 11.40734
9.440495 27.11946 9.316178
10.44132 32.75702 9.345407
6.191493 34.93829 9.811888
6.979217 31.34158 9.595485
20.91685 51.48033 -0.2571065
-10.27553 86.71079 10.2184
-16.47458 89.17415 8.757705
-13.8291 91.61372 9.5531
-13.33383 88.5375 10.072
-11.56323 90.35009 9.903993
-8.7835 90.31966 9.953652
-19.84233 54.9025 2.783874
-18.08926 48.7289 8.753983
-17.24156 51.29875 8.861295
18.93435 72.52187 7.516479
19.21945 72.33603 7.323934
16.4451 72.99541 8.979134
15.53561 72.36611 9.354948
15.7974 74.76402 9.321668
16.67335 75.87357 8.913725
17.66892 76.6406 8.268933
11.65539 72.77812 10.07751
16.22491 69.37989 9.024306
18.54265 75.07222 7.634357
10.49258 70.79373 10.13875
18.64376 79.12558 7.269267
18.09762 80.5912 7.963003
12.22368 72.02402 10.06234
10.481 70.05907 10.15718
20.7311 35.72007 8.31088
17.70679 36.27261 9.13271
19.44667 46.94703 0.827114
18.45325 40.93168 2.234902
18.569 44.08944 2.639299
21.05406 49.037 6.858445
19.07036 48.86102 2.981694
19.20306 48.13585 3.337609
20.50499 48.58473 4.927015
20.97956 48.42727 6.115702
19.40108 48.77168 8.530294
20.29312 51.5093 7.761097
-20.10913 45.10378 3.490375
-16.7208 40.8945 9.070093
-15.86014 37.26143 9.158339
-17.04585 38.81002 9.088562
-19.06548 38.76606 8.654821
-11.60548 40.83259 9.372455
-19.99693 39.62341 8.118927
-17.57498 39.15215 9.043326
-20.59789 36.80308 7.687755
-11.76326 42.41594 9.392084
-12.3364 43.79958 9.359154
-11.01147 36.03055 9.326961
-10.3271 45.45924 9.677781
-10.06066 42.03823 9.60183
-15.0717 49.70299 9.14773
-7.438941 88.69409 10.18693
-11.18543 94.3256 9.357892
-6.747721 95.06975 9.435833
-7.160177 100.3699 10.02179
2.077097 105.5011 12.26366
2.625745 98.56482 10.44102
-2.346701 116.1408 11.83384
-0.9541482 115.3992 11.84747
0.6740741 114.6858 11.83483
15.50109 84.03856 9.786368
17.55811 82.16861 8.403893
13.81321 78.35355 9.944529
13.97942 81.96696 10.15425
16.40005 82.88818 9.337602
20.36814 79.56094 3.620277
18.77176 80.07225 7.107441
13.78755 82.84077 10.21647
14.81741 106.1082 6.426925
-19.99515 61.8811 2.653844
-20.01286 60.47542 2.740449
14.86479 37.83081 9.224685
18.89564 37.22052 8.960785
18.2543 50.05807 8.916958
12.66703 37.89651 9.283874
17.13316 38.41068 9.163306
7.278621 46.97905 10.14994
6.163978 35.69162 9.844705
10.29127 34.13811 9.37878
7.137017 29.13868 9.503971
-16.7494 85.5573 9.027281
-17.62971 83.99215 8.403668
-18.25915 83.91298 7.740732
-18.79391 54.8288 8.35506
-16.22289 51.28426 9.011315
7.750226 71.16068 10.0814
3.833785 32.10682 9.863953
20.85822 39.06792 7.95696
20.31369 40.78563 5.000714
18.55135 34.92865 9.0335
20.9855 43.20506 5.797519
21.09587 43.18614 6.497139
19.696 47.7298 8.405238
19.78977 48.00468 8.326726
-13.04866 32.95519 9.223236
-11.42593 36.92263 9.307951
-8.467244 33.23469 9.485893
-10.07747 34.90252 9.382042
-6.373171 36.83422 9.8386
-4.222036 40.04714 10.09079
-8.13697 43.53675 9.90381
-7.903648 42.359 9.888302
-0.1153435 31.24157 9.91757
-4.696136 32.92759 9.813171
-9.147363 49.60058 9.974473
-12.8213 46.9328 9.366079
-10.35721 49.24717 9.802518
-13.15711 48.90424 9.359024
-2.00325 98.63152 10.56788
1.087467 97.70867 10.34561
0.4929063 99.7302 11.04883
11.58221 98.88101 9.016451
-19.40618 66.2851 7.563414
-16.66072 69.81123 8.89112
10.16942 81.77115 10.20317
13.55025 81.14051 10.17254
14.09781 80.24911 10.066
10.03022 82.5964 10.22981
12.43853 81.6842 10.19428
6.891506 81.52242 10.20141
3.164763 83.03661 10.25037
-19.88051 63.15071 7.362393
-20.62166 63.93765 5.452367
-20.39687 61.68654 3.746419
-17.29824 60.11651 8.758448
-17.32034 53.47547 8.820786
-17.76538 57.74289 8.66756
-13.63734 59.2495 9.525928
-15.52713 57.78112 9.136756
-0.07461277 113.5626 11.74001
-1.108502 112.9065 11.71964
12.15748 39.91643 9.324906
9.308922 43.5556 9.778534
10.22233 43.29367 9.633746
7.468261 38.34212 9.822523
10.38999 42.55114 9.585701
15.55974 44.22603 9.193323
11.57265 46.11777 9.51701
8.447266 40.72193 9.792092
6.627168 41.95299 10.0472
6.2202 40.20749 10.02194
4.880486 41.67981 10.15354
-19.03799 84.65322 6.535128
-11.34451 85.83331 10.2432
-12.6521 85.79366 10.24561
-13.00911 84.09752 10.25846
-14.37033 83.44957 10.12485
-11.94862 79.93668 10.11864
-20.14709 54.73542 3.425403
-20.55673 58.0645 4.375369
-19.97892 59.6292 2.76156
9.242926 73.61301 10.06636
8.439924 72.95045 10.0666
2.251287 61.64159 10.1315
4.805111 72.05872 10.06205
20.06725 45.06293 8.372802
17.21521 50.84647 9.0412
18.06966 53.71555 8.841829
14.60085 49.12528 9.19944
13.31014 55.43943 9.468752
13.87345 50.90139 9.283129
-4.410908 31.37211 9.764541
-2.949055 32.41916 9.894394
-6.027183 35.37192 9.808915
-5.089857 34.15263 9.835439
-5.958397 46.93137 10.16918
-5.957554 46.35509 10.1592
4.359817 48.15336 10.27804
-4.781227 46.54176 10.19613
-4.796705 50.37519 10.2261
-4.259049 91.35629 9.72141
-3.928653 93.44759 9.142826
-4.375042 92.40693 9.398713
-0.03398286 90.9956 9.866622
-0.05865297 97.03381 10.14278
-1.479377 92.44942 9.275237
4.918695 98.55586 10.08654
1.189168 96.80499 10.01567
1.836211 100.1108 11.08219
7.922836 86.24026 10.24675
10.6799 80.45435 10.1511
7.545505 79.61448 10.12962
6.946688 77.96952 10.08492
4.769016 74.63553 10.06257
5.451113 77.05076 10.07655
-9.808481 82.11197 10.21594
-20.56742 55.126 7.031135
-17.29982 63.17734 8.700432
-15.73123 61.38791 9.115909
0.5255729 110.5783 12.11389
-4.646718 100.5676 10.67842
-3.932497 105.3241 12.00613
-8.215582 102.3806 10.14531
2.801883 107.7 12.28642
-5.05993 105.529 11.73641
-8.200295 106.6353 10.68998
-7.774522 105.9004 10.76747
-4.817086 103.1825 11.35559
-6.407143 108.0764 11.41952
-5.036253 110.104 11.75576
-5.999467 106.6641 11.53091
-8.001249 108.4684 10.74472
-3.146866 105.0815 12.13266
-3.762553 107.4243 12.23952
-3.027058 108.2029 12.28987
-4.444257 108.0036 12.11182
-0.3273605 108.4158 12.27536
-0.1962263 107.5436 12.31078
1.676328 30.33753 9.866747
3.553145 34.02428 9.959694
-1.298773 34.05359 10.01097
-5.261957 34.77279 9.846989
2.653544 34.42622 10.01008
1.660089 34.20435 10.02006
-1.605416 37.69316 10.10594
-6.154836 36.43832 9.840322
-0.3856581 37.63264 10.12197
-3.538347 38.91232 10.08513
-5.982103 40.46253 10.00322
-1.166568 39.21499 10.14635
16.01863 42.32978 9.199954
15.84524 41.8839 9.203012
19.14779 45.7254 8.784818
17.16735 44.20682 9.1435
15.29583 46.36918 9.187075
16.60315 45.75062 9.155972
13.20303 47.20338 9.31151
10.31249 47.00824 9.750562
11.14041 47.57901 9.630087
19.37589 45.12284 8.727405
12.73614 49.29882 9.408553
9.836289 49.40282 9.919134
15.28754 47.86746 9.177016
10.86503 48.59784 9.714358
5.535828 48.91577 10.28251
6.261198 50.84505 10.28776
1.321939 50.31625 10.23176
3.90461 51.66306 10.27561
-0.4708004 48.25911 10.22138
6.865714 45.36816 10.13417
1.858067 46.98322 10.24545
6.078017 44.19281 10.15339
-0.01712502 47.19862 10.22508
