# .PCD v0.7 - Point Cloud Data file format
VERSION 0.7
FIELDS x y z
SIZE 4 4 4
TYPE F F F
COUNT 1 1 1
WIDTH 1661
HEIGHT 1
VIEWPOINT 0 0 0 1 0 0 0
POINTS 1661
DATA ascii
8.926277 84.5689 12.29375
15.01596 80.99026 6.217251
15.37974 88.06985 2.674695
15.72244 76.74757 3.917548
16.29597 84.89066 1.287019
17.19868 80.28468 1.735767
16.10449 77.46536 3.256832
16.08374 77.87554 3.116426
16.43605 80.10097 2.113599
15.69803 82.36938 2.111393
15.53671 82.75711 2.343322
15.27859 82.3844 3.172104
15.31094 79.36392 3.572034
-11.35712 115.1898 4.843018
-10.65459 114.7954 5.495065
-10.54628 114.2049 6.300523
-12.14832 110.9923 3.377973
-11.06464 112.8191 5.493418
-13.1378 104.5656 3.719248
14.56338 95.72777 3.721658
12.97603 106.7755 2.710781
11.44636 115.177 3.975555
10.78022 116.0719 5.404955
-10.60627 118.0631 6.851641
-10.62162 119.0756 6.178559
9.760573 119.1913 8.275182
10.58227 117.9807 6.596608
10.28078 119.2043 7.204124
10.78787 114.0716 7.532925
10.03155 115.6317 7.088505
-16.69637 79.34991 4.076765
-17.66252 82.42935 2.958932
-16.37439 78.47712 4.485759
-15.55672 78.51385 5.069279
-14.52135 78.24364 7.61565
-15.44651 79.5443 4.783103
-15.21541 82.5052 5.266065
-19.07069 78.43178 3.281231
-14.42079 78.64679 8.054357
-16.00256 85.90624 2.663181
-12.98851 79.88078 10.46576
-12.4573 81.21893 10.91098
-8.513412 81.43228 12.69307
-13.22111 97.99228 7.615118
-1.842004 82.05041 15.77967
-3.459384 82.8876 14.87032
8.350923 80.2142 12.5448
14.18969 78.54704 8.681013
15.60965 85.43439 1.608985
14.86941 94.40932 4.695618
14.78756 79.68032 7.043661
16.16606 86.18912 1.22833
-10.21208 117.0328 7.063313
-9.94553 116.8306 7.479282
-11.99922 110.6718 4.618459
13.35344 103.3118 2.701668
13.07142 105.6945 3.415548
12.88768 105.6255 4.506279
12.18131 110.6389 4.428394
12.02452 111.3965 3.877315
12.44808 110.0416 3.56597
11.40271 112.5141 3.914936
10.97501 113.8015 6.984299
-16.25013 84.28326 2.705366
-16.25983 81.74184 3.471246
-14.80315 77.37424 6.761392
-16.77218 78.99474 4.165765
-15.18193 92.85658 4.001177
-15.37403 84.55807 3.85075
-15.61154 88.28119 2.485996
-15.39868 90.44101 3.693769
-11.6519 79.4678 11.5145
-11.80995 82.1969 11.33883
-7.985144 79.97626 12.90739
-14.15623 97.52976 2.974449
-13.93502 98.72507 4.979712
-5.535616 80.72438 13.80132
-6.432235 83.61635 13.26166
5.715449 80.88329 12.92274
5.780768 81.70281 12.88399
5.349389 82.40538 12.98615
14.17141 80.30663 8.78665
15.2547 92.16237 2.183247
14.62475 94.78132 2.33038
14.08018 97.42406 2.625051
14.78191 78.70732 6.884005
15.09297 80.52566 5.492879
15.37308 86.15 2.645013
-10.03283 117.4275 7.453819
-13.23399 103.4685 3.135155
13.49977 100.7459 3.578689
11.78483 105.2287 8.060707
13.11332 104.7943 3.217063
-15.02858 93.34019 2.770899
-14.91895 94.03816 4.193176
-15.36883 86.02029 4.903975
-15.00736 83.08327 6.738969
-15.4425 88.13484 3.837327
-15.45329 91.07572 4.731303
-8.726952 82.16602 12.60443
-10.53321 81.88381 12.0199
-14.85194 80.94334 6.993001
-13.69318 81.86 9.508228
-12.34947 82.92407 10.92906
-7.504161 84.14738 12.87154
-14.61168 95.48821 3.350059
-13.98525 98.6656 2.866445
-13.67461 100.0006 4.21721
-5.242118 81.42426 13.90858
-4.977527 84.75423 13.8311
1.104164 83.68298 15.27323
8.321886 82.13934 12.48243
9.228794 83.22968 12.28025
4.969395 82.78458 13.08601
7.101145 83.35542 12.63601
11.6359 80.39442 11.56321
13.61108 81.97967 9.689866
15.34721 84.20981 3.323129
15.42409 89.01476 1.514264
15.15656 92.01447 1.40294
15.03957 92.87513 5.638342
14.57385 95.72359 3.878436
14.93119 93.80943 5.162874
13.9167 98.72841 2.262129
15.46817 87.15645 3.572968
15.35303 86.3655 1.967149
-12.40397 109.0803 4.37984
-11.80861 110.7564 5.210488
-13.15372 104.9267 3.234274
-12.94903 103.6494 5.204745
13.3832 101.725 1.9263
13.18266 102.8002 4.17213
12.24305 108.4827 6.322054
-14.93971 93.80153 4.944076
-15.27745 83.52077 4.904639
-14.73192 82.82075 7.585783
-14.97112 89.87179 6.837272
-15.10878 90.75455 6.270296
-12.03703 81.70509 11.19793
-7.794132 82.73867 12.85415
-7.535551 82.62583 12.93628
-8.506425 85.64838 12.503
-11.22476 84.12587 11.56683
-14.92176 92.93052 5.777578
-12.97632 101.5769 6.277374
-2.819214 82.80394 15.27244
-3.416683 84.73174 14.70856
0.3888987 83.06437 15.7204
0.8251917 82.3291 15.60067
11.0866 80.54234 11.86965
8.213901 84.39021 12.42564
15.40287 91.02342 4.022072
15.13629 92.3 5.354172
15.45009 88.45574 5.182385
15.23792 91.29339 5.364158
15.53706 88.15523 3.931545
14.32499 95.99155 6.029097
15.2112 82.1221 5.24588
15.2838 83.44814 5.211828
15.30926 84.15704 5.378086
15.42282 85.36207 4.719566
15.49665 87.63937 3.698867
-13.26742 103.1365 3.139391
-12.69473 105.8466 5.713664
12.20118 109.1331 5.652891
12.64054 107.255 5.274189
12.95956 106.8371 4.25164
-14.50314 83.50486 8.166149
-13.88147 82.2803 9.251079
-13.98444 85.59895 8.998853
-14.77688 85.99673 7.566751
-14.66607 85.76215 7.831844
-15.29837 88.06971 6.031481
-15.05552 87.06826 6.855088
-7.053973 85.00418 12.96984
-13.10271 84.71061 10.12296
-12.51758 83.78317 10.70928
-14.43979 96.05435 5.305973
-13.27244 99.68961 6.403356
-2.282024 83.73881 15.45614
-2.303396 82.224 15.61824
-4.566382 83.39444 14.14677
-4.189562 86.73933 14.10399
-6.987212 85.8405 12.95208
3.20939 82.06061 13.89963
2.866163 81.96071 14.12733
11.17086 85.64297 11.47732
9.764713 84.48322 12.11338
7.053756 86.59711 12.59851
6.53569 86.58098 12.69077
15.11355 81.76224 5.91688
-13.19233 101.3833 5.440863
-12.68984 103.5698 6.192122
11.72605 112.1454 5.702515
12.10153 109.0403 6.530605
-15.09839 85.35462 6.612247
-9.654232 87.28719 12.0422
-9.073165 84.00063 12.42437
-1.86669 83.08208 15.66147
-10.69934 85.27493 11.75013
-8.884581 86.89884 12.32859
-8.195618 87.70771 12.51061
-12.04308 91.33632 10.29715
-11.80054 86.2924 11.04506
9.997674 82.75108 12.13568
10.31885 81.99905 12.07739
10.8996 83.97894 11.81769
10.22899 88.09579 11.65561
5.652036 85.50046 12.87396
-11.18588 96.90765 10.38627
12.15051 108.1594 6.625918
11.61217 110.0347 7.306008
-14.78171 94.48156 5.272107
-14.282 93.99845 7.195517
13.35554 81.90526 10.01678
7.308303 86.94759 12.54292
8.624074 88.12807 12.22184
-12.7827 100.3482 7.617276
11.6556 108.9224 7.49666
10.14977 110.6757 9.244791
-13.24632 93.20618 8.917213
-13.88642 93.68652 8.06651
-11.66798 93.26712 10.34227
3.87088 86.79636 13.38245
9.719075 87.03564 11.93898
-13.39239 98.7151 6.779142
-13.72998 95.96254 7.508564
-12.66458 102.2557 7.013996
-9.783811 99.12279 11.27774
10.7796 109.5995 8.634797
11.57284 109.5378 7.627364
-12.61237 93.26118 9.521425
-13.66765 87.44205 9.280578
-11.8853 90.39353 10.55938
-12.07652 93.89667 9.917413
-13.91102 90.97971 8.586239
-11.00274 92.8478 10.90661
-11.0808 94.11542 10.72598
-12.2483 97.02407 9.267418
-13.06653 96.17589 8.441016
3.720393 85.92095 13.46724
-10.72054 88.94284 11.44641
-8.098943 96.9003 12.26137
-11.52551 97.302 10.00273
-11.78687 90.04764 10.67431
-10.58545 91.70114 11.32297
-10.32786 95.69086 11.16804
-10.09318 97.47559 11.19715
-12.60456 98.40252 8.516897
-9.217627 90.29092 12.07266
-8.595733 93.99396 12.18572
-9.538836 92.63979 11.84224
1.919562 121.1815 13.3383
-11.66898 110.7982 7.192494
10.01286 113.8051 9.292265
11.01622 110.1724 8.305383
11.42813 112.9853 5.74172
9.591247 110.8293 9.868111
11.27234 113.1788 6.542369
10.70324 113.6932 8.188554
9.251538 112.3836 10.04665
-11.13619 111.1839 8.090756
-9.160416 117.1605 9.612797
-9.881824 119.1948 8.055188
-9.536808 116.3013 8.845838
-10.26634 114.4378 7.218174
-9.145418 117.5214 9.41431
-7.594801 117.0688 11.44803
-7.776764 118.8312 11.21391
-8.092191 117.5325 11.01946
13.81603 98.87385 5.315872
11.77604 91.30799 10.39456
14.11943 96.81108 6.039762
13.60861 96.42465 7.563547
14.28438 96.65186 5.495956
13.32116 97.96398 7.46941
12.33217 101.3157 7.992517
12.8343 101.4192 6.665138
14.78593 94.76025 5.18753
13.76375 97.46379 6.6232
14.0714 94.51105 7.410477
-4.145499 93.91431 13.73784
13.36382 98.89712 6.759879
12.91194 97.7429 8.27406
13.43433 97.34753 7.554032
12.604 98.19596 8.592357
14.12916 92.41699 8.019019
12.72501 102.1346 6.695387
12.63073 102.6395 6.745579
13.91135 98.48602 5.351554
12.63235 103.5256 6.41889
12.29518 103.5953 7.449591
2.534765 86.39744 14.09173
-12.28422 107.3103 6.388501
-12.7777 106.2657 5.096353
-11.67789 106.0383 8.09451
-11.1314 107.3959 8.747405
3.220847 84.67096 13.75173
3.765991 85.1104 13.47408
1.11815 87.19805 14.912
0.06022868 84.55099 15.64134
14.74863 92.96335 6.443106
14.08325 81.22774 8.952456
13.70266 82.47016 9.553871
14.28564 83.29916 8.613667
15.28466 84.20215 5.63287
15.13474 85.5906 6.461631
14.75592 87.00869 7.577768
14.72383 87.94041 7.580906
13.35364 86.10356 9.763144
13.1273 88.76743 9.69584
12.60864 85.11964 10.60917
15.14671 89.21169 6.295098
14.4293 87.05696 8.238152
13.10534 87.21836 9.944624
14.84681 91.38022 6.671487
-13.26537 89.00603 9.544591
-13.23392 86.02522 9.897064
-0.3367516 82.89089 15.94739
1.149646 87.9151 14.83386
2.322045 87.81846 14.11121
1.84093 89.15263 14.31385
1.923981 88.47421 14.31123
3.337315 86.90849 13.61479
-6.79173 91.12489 12.84483
-4.439401 86.32177 13.99994
-0.9420575 88.37843 15.33671
-1.941316 84.95784 15.43324
-1.380017 89.17833 15.21027
-4.476558 88.17091 13.8698
-1.267356 85.14026 15.61029
-3.714031 88.67778 14.23377
-9.103791 92.68332 12.03434
-4.457231 88.74099 13.84805
-3.639513 90.31563 14.16907
-12.21438 84.90517 10.91378
-10.00989 89.60529 11.77054
10.48674 90.17154 11.30155
-12.26589 105.7656 7.000669
7.044186 89.03185 12.55403
4.42938 87.78632 13.13397
5.261485 89.97358 12.89347
1.45026 89.56253 14.5098
0.4509137 91.36771 14.81281
-0.4793364 89.17011 15.25908
-0.1077852 90.58598 15.08563
-2.130297 90.35474 14.8732
-14.13365 90.37113 8.333121
-13.04389 89.51197 9.713402
-12.91807 87.83788 10.07217
-12.55433 88.29303 10.31043
-11.42973 88.59672 11.06808
-4.808823 96.20098 13.38615
0.164168 123.7655 13.52986
-4.1607 122.5654 13.2109
-3.287047 123.6443 13.41143
-7.000931 119.5187 11.81215
-3.760952 119.3682 13.1254
-5.943396 119.84 12.40091
-7.254118 117.3231 11.68836
-7.17404 118.4907 11.71364
-4.579311 118.6018 12.91004
-5.186701 118.241 12.70284
0.3053403 114.7603 13.45441
-1.966711 117.6715 13.38208
-3.261864 117.4839 13.21702
-2.886115 115.7851 13.30556
-2.610821 116.7987 13.32809
-3.382461 114.1988 13.2509
-0.6398644 117.3904 13.43005
-4.540832 115.7171 12.92588
-9.470982 113.459 10.04761
-5.75423 115.7164 12.49792
-6.894326 113.8084 11.97622
-7.723297 116.3518 11.37092
2.020872 124.3931 13.56355
8.880528 112.564 10.38007
10.28911 107.4109 9.671947
8.933241 112.2792 10.35485
10.51202 109.891 8.930468
7.924863 96.72884 12.05481
9.931148 108.0751 9.945192
11.08494 104.6018 9.223515
-8.856656 118.0188 9.904712
12.65939 103.8786 6.206511
12.14815 106.6717 6.967909
11.81824 104.1426 8.200649
7.799615 89.23698 12.40053
12.76937 85.92767 10.39705
12.89864 90.27239 9.700048
14.03533 90.38772 8.438202
13.26596 88.18219 9.642333
13.4872 87.71147 9.439562
12.88835 85.45567 10.32796
12.00949 86.45575 10.8964
10.59435 89.4838 11.3252
9.781442 89.27316 11.7333
8.571941 89.41272 12.18918
11.3145 89.21353 10.96139
-9.059288 90.83961 12.11354
-7.549791 92.40352 12.58582
-7.556075 92.83236 12.57278
-8.202383 89.09853 12.46268
-6.791442 87.81303 12.93939
-4.309156 91.35126 13.77472
-7.152497 92.23199 12.71116
-6.762726 93.55766 12.80119
-3.486537 92.33147 14.12275
-4.28002 91.74152 13.76937
-3.867231 91.64085 13.97357
3.641825 91.86822 13.32902
-2.295063 91.62434 14.72344
-2.232837 93.91236 14.54841
0.4254265 93.79144 14.60894
-2.063212 93.18207 14.67275
-5.299915 94.93887 13.24478
-9.691378 100.4672 11.20739
-3.911526 97.29968 13.69094
-12.6616 105.1609 6.051536
-11.30293 105.0261 8.938836
-11.38032 104.0026 9.036553
-11.21837 106.3221 8.817328
-10.91539 109.2989 8.610995
-11.85768 108.5371 7.028254
-10.85138 111.4661 8.496996
-9.087996 111.922 10.46171
-10.55051 112.5752 8.828583
-10.58804 113.5039 7.751746
-9.889226 110.6296 9.749271
-9.426019 112.1861 10.11906
-9.126969 113.2828 10.36717
-7.258807 112.3031 11.8212
-7.831947 111.972 11.48503
-7.778662 112.931 11.45876
-8.673738 114.1044 10.73256
-9.689013 96.34393 11.50632
-9.098301 96.04405 11.86064
-9.170628 97.06623 11.77085
-7.196444 94.22417 12.65394
-7.314892 94.89981 12.60568
-6.538575 96.05549 12.82276
-5.772995 99.99414 12.97191
-10.3154 101.8524 10.56369
-3.249977 97.89758 13.92251
-6.438346 98.86823 12.79115
-4.456741 101.0871 13.36555
-6.687911 100.2894 12.67047
-9.151971 97.93213 11.72926
-5.690501 121.304 12.55758
-5.246453 122.5029 12.88129
-5.92738 122.1423 12.51008
-7.861047 122.8194 11.36329
-7.856646 121.3477 11.12897
-9.248535 123.8501 9.74639
-4.837656 104.0381 13.15565
2.29603 114.5041 13.23546
-6.339273 113.9038 12.27897
-6.398111 115.8201 12.20311
9.855538 115.8538 8.531109
9.73983 115.0973 9.559142
5.271915 119.1877 12.62017
8.997768 117.1567 10.0474
8.967253 115.8532 10.39024
8.767796 114.15 10.45381
4.978502 114.8859 12.64242
5.792168 114.99 12.33559
6.121416 111.4405 12.24187
8.160212 118.5997 10.88641
8.221836 117.9744 10.9144
9.009166 118.5832 9.211848
3.119185 112.8649 13.10187
9.41536 120.2695 9.003313
2.63752 116.263 13.17847
6.800723 118.5966 11.88573
6.204378 115.4238 12.15714
4.662958 118.5187 12.78985
6.452844 118.3695 12.05896
3.714888 120.386 13.08023
5.192772 120.9468 12.75139
2.496968 118.6214 13.2172
1.683846 118.148 13.30758
1.426421 121.2692 13.37702
0.6534137 118.7787 13.39006
6.096019 120.796 12.34739
7.631826 121.3769 11.29443
2.437519 120.2541 13.26284
-0.1294689 118.5642 13.41333
4.789756 120.3674 12.835
5.452549 112.0306 12.48176
6.792638 113.2295 11.88903
9.232644 120.2841 9.25544
6.972069 122.6929 12.03241
-0.07334134 116.8144 13.42968
-3.015922 119.6901 13.24254
-0.688813 122.394 13.45624
3.351394 123.7701 13.43107
-0.1501075 119.6982 13.41257
10.00782 122.423 8.345901
8.232942 122.1736 10.89259
3.015354 113.4685 13.11952
2.151104 109.6159 13.3306
0.728292 112.2371 13.47972
5.088109 110.8581 12.61051
1.780886 112.7327 13.33634
4.022521 112.2764 12.90672
10.5171 105.6874 9.70616
-0.5242364 94.97011 14.73359
12.60903 97.77158 8.683805
13.84565 93.23668 8.210554
12.54647 93.88564 9.440298
12.5446 95.88757 9.017725
8.894258 91.09263 11.96258
12.20474 93.5702 9.782608
10.97101 93.04671 10.70509
9.947719 97.08577 10.98741
12.57501 89.99694 9.999033
10.804 96.7879 10.42875
10.79266 91.16279 11.01312
8.355658 91.39853 12.15029
8.731432 92.65209 11.91631
9.205836 93.09165 11.67834
12.54427 90.13893 9.997823
8.389021 94.6701 11.9623
6.502386 94.53922 12.56004
12.9464 91.34791 9.468965
10.87911 86.14944 11.55838
3.018417 90.73012 13.59728
1.575693 91.82966 14.2535
-0.3045047 91.82546 15.00431
-1.112667 94.80502 14.75288
5.972138 94.14399 12.70778
4.219205 92.1554 13.13143
1.424222 93.39517 14.22301
6.463625 93.48917 12.59731
2.950131 91.73561 13.59043
6.704537 90.72414 12.60239
-6.743042 104.351 12.50279
7.110706 120.6043 11.72677
5.591836 124.0896 12.88148
7.64702 120.5704 11.23657
-1.665418 120.1414 13.37326
1.109916 117.0237 13.36496
1.053226 114.1673 13.40851
7.759201 92.33812 12.28853
12.7648 91.46387 9.616143
8.244968 96.30577 11.94784
10.16859 95.78055 10.95271
9.315898 96.29986 11.41878
8.063983 97.43015 11.95737
10.43187 97.82701 10.59109
6.626935 107.7693 12.09833
8.267077 98.62384 11.80714
10.29464 97.41629 10.72447
11.14998 98.92638 9.937935
9.820042 100.0621 10.82377
10.41183 101.1969 10.36961
10.068 102.5524 10.54505
2.729634 94.32167 13.6035
7.133493 95.27449 12.37124
6.917297 90.88955 12.55808
-9.642127 109.1754 10.18401
-9.772617 107.1008 10.29484
-7.952147 107.2321 11.72541
-4.97536 108.0869 12.99307
-5.991462 108.8187 12.588
-8.454101 106.038 11.5109
-10.28554 104.6365 10.17621
-8.614362 106.3793 11.35997
-9.553386 105.5037 10.71259
-8.234361 104.005 11.83084
-5.776482 105.7672 12.7932
-3.155583 102.229 13.74582
-4.452509 110.7682 13.06057
-9.806044 102.0819 10.95684
-5.632186 102.0726 12.95838
-5.665115 104.6548 12.87128
8.358832 104.3796 11.4355
-4.924196 111.8636 12.88332
-5.239991 109.273 12.85995
-9.790317 103.8182 10.75852
-11.62899 102.3505 9.050634
-10.87853 100.7064 10.21516
-4.492857 103.0942 13.29334
-10.3821 99.98394 10.75687
-9.057387 101.3134 11.5687
-2.895693 104.7149 13.68676
-4.577797 111.5433 12.99552
-3.988311 112.1451 13.14844
-0.6711494 111.0367 13.60647
-1.604299 114.4846 13.46218
0.4009176 111.9443 13.51686
0.6281567 110.642 13.52993
-2.1859 110.6143 13.55484
6.865668 122.3101 12.05065
7.05332 106.1106 11.97586
9.428464 104.7124 10.76137
7.611923 104.5865 11.78282
6.463629 104.8034 12.26663
7.878637 101.9227 11.79791
4.546286 104.3912 12.87951
6.377572 102.6656 12.3877
0.5789521 94.69624 14.48905
5.910668 95.12402 12.70205
6.105728 96.91228 12.62616
3.960935 97.18643 13.12145
-4.567784 100.1402 13.35821
-4.646466 102.0069 13.27602
1.190216 102.3948 13.79828
-2.915088 98.74007 14.00346
-1.88306 99.62971 14.24376
-3.305072 99.48589 13.8293
-3.324114 102.2677 13.68804
-2.713599 103.5451 13.79479
-3.679194 104.8861 13.48563
-3.843611 106.1999 13.38247
-2.994125 107.8564 13.52068
-1.876156 105.02 13.8563
-0.7844465 106.0225 13.85961
3.448119 108.0881 13.07836
-2.202943 103.6752 13.89751
-0.8995594 108.416 13.72217
0.00459333 106.6184 13.7769
-1.121989 103.1456 14.06974
2.839803 104.5596 13.29109
-0.3030026 102.3458 14.08352
2.699994 102.5452 13.37497
0.813605 109.3657 13.55344
1.880152 111.5794 13.3379
0.5506038 108.6077 13.61676
-0.921427 100.8379 14.24842
1.82147 103.2972 13.58848
3.35255 105.501 13.14898
4.499372 110.3041 12.80188
-0.02320268 100.1234 14.20789
-0.6226127 97.69963 14.5318
5.708916 104.4832 12.54303
2.298308 101.0427 13.53528
2.227155 99.99834 13.59528
6.645873 98.95215 12.42864
2.621352 103.6876 13.36748
5.614 105.385 12.54796
4.265767 100.3624 13.01318
4.281031 102.914 12.97167
5.788762 101.1963 12.62627
7.122446 101.5004 12.15807
5.216192 109.8088 12.58805
0.5919561 108.1908 13.62828
2.174018 102.6884 13.51331
7.959558 99.08552 11.92376
5.00162 108.1293 12.67408
6.980874 100.1522 12.27798
4.702397 107.3568 12.77542
9.552307 109.8035 10.04422
6.745637 111.7323 11.95325
9.101128 109.0216 10.58286
8.196759 105.4389 11.44995
8.385148 108.0664 11.16539
6.949364 108.5435 11.93063
8.836061 109.6675 10.74575
8.232535 106.3318 11.37148
-6.36327 103.502 12.67868
-7.978816 100.0108 12.18137
4.405607 93.42066 13.06749
5.091074 97.18992 12.85694
2.60523 95.55387 13.60274
1.067053 98.43532 14.05552
2.613774 99.26057 13.49452
1.365964 96.88758 14.02553
4.683901 97.57425 12.94518
4.380314 98.72942 13.00596
-6.102139 103.0217 12.77941
-2.090717 98.42753 14.2935
2.336781 97.84111 13.62704
2.516401 98.83661 13.53809
4.968683 105.3557 12.74723
-10.44286 111.093 9.035614
0.6003694 92.63981 14.64358
-10.06622 108.1127 9.899321
-12.46441 69.64334 -4.34615
15.20657 69.37273 -1.238807
10.16031 121.5119 -1.079706
10.6594 122.3894 -0.3328851
10.92232 118.3247 2.523577
-14.92737 92.87036 1.091807
17.52071 82.70696 0.913122
18.95551 78.38017 1.344763
10.62494 123.1141 -1.131716
-4.114541 119.7763 -4.479494
-12.12128 58.68068 -8.444897
-14.27709 96.58624 2.184806
14.16459 94.48596 0.1460953
8.473939 122.9972 -4.029297
8.468519 55.48918 -11.33577
8.79756 56.52537 -11.31925
12.60328 61.68596 -5.109549
16.87639 85.29408 0.259936
15.93138 88.46795 0.752492
13.48722 95.39326 -0.9946868
-11.5004 82.89561 -6.432025
15.93551 73.209 -0.9269399
11.12176 122.3894 1.824837
-6.529752 104.9707 -7.30809
10.96076 121.1238 2.769902
12.99198 105.023 0.792196
13.35903 99.60142 0.3302928
11.86612 112.2452 2.645564
11.4099 115.2384 2.916548
10.96757 121.2077 2.663214
10.66763 118.4534 1.253363
-12.06734 111.3799 2.435362
11.26071 122.8389 2.99033
10.0256 121.5136 -1.448236
9.628946 123.7112 -3.433566
8.791554 123.5346 -3.982089
14.41302 93.50587 0.1089891
-6.741441 52.77866 -11.06208
3.926447 59.76745 -10.33364
6.327345 53.58646 -10.98924
-12.59662 58.58416 -6.781403
9.991326 61.93265 -10.71209
19.23906 74.52901 0.6301696
17.43492 73.5968 -0.250569
-13.37097 66.7225 -2.468483
17.35732 75.17395 -0.3502905
-18.03874 71.41359 1.50698
18.91089 72.64423 0.5154912
18.70979 76.10869 0.3217439
-19.07255 76.70744 2.063807
-18.93642 76.90672 1.983048
-1.603102 68.38131 -9.922688
-12.84 62.09004 -3.84769
13.03087 98.24077 -1.043872
4.921616 118.6838 -4.729449
-14.43454 93.82674 0.60917
-6.0195 122.454 -4.573992
9.986578 119.9594 -1.342206
-10.84272 120.2743 2.006534
-10.98129 119.9598 3.139409
-6.651821 122.662 -4.46704
-10.2947 121.0971 -0.8637296
12.11807 82.8138 -4.643893
16.50036 86.45068 0.117893
-10.9817 122.9555 0.08692678
10.32221 123.2693 -2.013654
11.0501 121.4269 3.535314
5.364599 122.1376 -4.666562
10.05545 123.7801 -2.860332
-13.13807 104.4091 1.810296
-11.36449 115.2767 2.17785
14.73435 69.33458 -1.556573
16.45884 78.46001 -0.7947316
15.81024 77.59372 -1.057568
9.692536 121.3036 -2.193459
-17.99857 78.85356 1.436006
-11.15698 117.7366 3.162379
8.500253 121.3002 -3.751934
9.317499 119.5732 -2.88729
9.149109 119.8203 -3.110925
10.80352 120.512 2.069516
-17.93477 78.73407 1.385587
-17.83412 73.55568 1.335065
-16.78133 74.73895 0.7182846
-18.02192 73.91502 1.436053
-17.35434 70.70418 1.110048
-11.97511 111.2756 1.535413
-9.380069 120.0675 -2.896401
-11.19165 116.6173 2.320817
-11.18689 116.2634 2.02399
-11.05301 121.3083 3.566995
-11.29918 123.2466 2.043302
-10.64052 121.91 -0.021944
17.29502 83.31151 0.7628254
18.38149 79.46275 0.7254969
17.96683 79.82103 0.04274994
17.68337 72.96689 -0.1059404
18.51424 75.23158 0.1957302
16.05204 70.37505 -0.7868759
13.98489 65.79771 -2.095749
10.60247 56.80998 -10.77394
9.806567 55.30649 -11.24024
-6.255299 52.53644 -10.96591
-10.73027 61.44627 -10.10973
14.56356 93.50404 0.5704088
-0.2844983 122.1072 -4.846915
11.82545 111.2223 0.9523551
10.86902 119.1128 2.514615
11.54659 112.8072 1.264891
2.318258 119.3588 -4.701039
10.56275 122.761 -0.8809713
10.05137 120.9093 -1.150053
-12.73585 62.90533 -4.073966
-13.16845 72.59339 -2.722091
-17.60727 82.87286 1.613366
-19.31623 75.245 2.172251
-16.63465 69.68758 0.6736739
-16.74659 70.14722 0.7316031
-12.32606 109.77 2.622194
-6.682434 120.8688 -4.022557
-10.33342 123.4251 -2.182576
-7.60837 122.1079 -3.902869
-10.79087 121.086 1.42913
-10.63826 120.216 0.7711617
-7.927402 114.3815 -4.858334
-10.79607 116.7169 0.3967189
-10.94286 115.6009 0.4219999
-10.36313 115.8919 -1.501047
-11.01818 114.0941 -0.1399991
-10.40983 116.8596 -1.079091
-11.02359 119.929 3.598592
-10.81343 121.4095 1.163228
-8.837031 122.6837 -3.519032
16.82236 85.16681 0.04609436
12.95617 91.72004 -3.460012
15.12524 80.79462 -1.379681
15.51478 74.23087 -1.139791
17.43677 77.4609 -0.3540741
15.67324 67.92159 -0.8951832
14.0515 65.0563 -2.006308
12.50857 60.54097 -6.21951
12.42924 65.30589 -4.713314
12.26949 63.10909 -6.072385
7.073534 53.31134 -11.16819
7.427826 56.77211 -11.19681
2.856963 54.18576 -10.12692
-4.368893 51.91162 -10.53713
-7.181711 56.81506 -11.09933
-10.32821 56.48545 -10.72924
-12.51612 61.55911 -5.473576
-13.17932 98.09756 -0.545885
13.69371 97.74719 0.5583253
12.4853 106.8404 -0.1758108
14.15057 90.00312 -1.868325
0.3411922 119.7571 -4.687945
11.95934 110.9394 1.241888
11.74328 111.046 0.6265054
10.93171 117.8258 2.311943
10.53116 115.8314 -0.2010818
1.736888 120.196 -4.669872
3.246177 120.1456 -4.620455
0.8180777 121.466 -4.745459
3.047492 119.8268 -4.646733
-12.52697 62.25167 -5.16607
-12.61609 60.63893 -5.373694
-14.74718 66.85263 -0.7693808
-16.60075 82.03396 0.5665023
-15.86776 82.87585 0.1369198
-16.48562 87.39874 1.784506
-15.85063 87.73665 0.3815022
-16.10238 88.93268 1.692216
-18.51855 76.99751 1.716742
-18.64771 79.45099 2.328105
-18.19493 80.70463 2.006866
-13.71107 70.49928 -1.963426
-12.50005 108.1241 1.310911
-12.40293 109.2805 2.461218
-3.045314 121.8023 -4.763238
-12.25287 100.6648 -2.620043
-11.86143 112.7793 2.553776
-11.75405 113.2412 2.355669
-8.240394 123.2662 -4.08548
16.14102 85.86824 -0.6040831
14.12647 89.28999 -2.026268
16.35237 71.60851 -0.6834658
15.49603 78.9791 -1.202412
14.64087 73.1843 -1.671355
13.84022 65.87684 -2.266278
12.34072 61.58005 -6.492664
12.85365 64.52554 -3.648512
11.87466 59.23999 -8.848479
3.660942 53.66327 -10.30379
11.45585 57.77671 -9.766352
11.04237 60.46793 -10.01294
2.157569 53.12921 -10.01917
0.4937757 52.26228 -9.907368
-5.691965 52.54039 -10.84413
-11.06035 55.71853 -10.32064
-7.676983 57.54549 -11.11828
-6.22028 53.12432 -10.95608
-11.02464 56.21297 -10.30103
-12.40703 58.24848 -7.755397
-12.64965 60.02557 -5.550117
-13.65603 97.89813 0.868962
13.20346 101.2029 0.3442436
13.67038 95.46119 -0.5300031
13.51168 98.90463 0.5172716
14.82339 92.16371 0.1708584
14.40156 93.30116 -0.1595214
0.9833563 121.7482 -4.781777
-2.400552 121.8251 -4.776636
12.25515 109.2447 1.06283
11.30902 109.2523 -1.529351
11.66582 112.1705 1.139523
10.71382 113.5207 -0.6491756
11.11372 113.4529 0.4850875
13.26463 103.1191 1.455224
1.174993 120.8638 -4.68419
-3.55089 117.859 -4.708539
-13.27749 65.09731 -2.64116
-12.51687 60.84048 -5.87946
-15.03132 66.618 -0.4924659
-17.80706 80.29178 1.432969
-15.22243 86.54674 -0.2920792
-15.23388 85.88951 -0.249402
-14.10201 85.7734 -1.952816
-15.40817 91.55717 1.794609
-13.38429 77.25494 -2.307227
-15.25786 76.00491 -0.2828286
-15.63417 72.34826 -0.0496685
-16.41135 71.13018 0.5005452
-15.36469 70.42445 -0.2604636
-15.80191 70.59621 0.07386962
-17.92147 77.009 1.349698
-15.66675 67.85396 0.01704438
-12.06973 111.4305 3.05747
-12.92146 105.8912 1.204996
-12.93984 98.93128 -0.9835268
-13.24279 103.1015 1.442927
-11.73395 113.4527 2.450736
-10.83497 112.6756 -1.441003
17.03365 82.21807 -0.4152851
14.46801 81.43259 -1.823144
14.81742 86.11768 -1.50489
14.71051 88.88064 -1.400723
15.5033 89.1673 -0.5202758
14.90278 91.69865 -0.2573806
14.29336 69.78726 -1.878237
14.41518 71.2309 -1.821464
12.87691 66.84616 -3.543717
11.45116 57.18947 -9.873125
7.966183 58.4415 -11.2305
5.332644 56.21431 -10.72485
4.009603 58.50119 -10.35928
6.74449 60.68439 -11.03872
3.921476 59.31142 -10.33401
11.6122 56.90812 -9.718175
5.77662 59.52835 -10.82698
5.579848 57.91109 -10.78759
6.951319 62.2259 -11.0471
7.638515 57.28677 -11.22944
10.33918 58.69028 -10.77364
1.84664 54.50316 -9.96119
-0.1114357 53.07342 -9.897227
-9.050617 56.62649 -11.11652
-4.985344 54.78218 -10.67857
-5.710856 57.03238 -10.83459
-11.7337 59.45288 -9.140555
-11.6945 63.03407 -8.697837
-11.31692 61.19131 -9.519316
-6.425431 57.69893 -10.96986
-10.27198 59.931 -10.48721
-14.20383 94.91182 0.8083634
-14.76799 93.48857 1.251561
13.12301 99.23675 -0.5105501
12.46728 97.59064 -2.600568
15.06601 90.26044 -0.7538755
-2.70833 120.544 -4.595629
-4.483385 118.1446 -4.595854
11.48745 114.2375 2.249257
10.49782 112.4128 -1.731908
10.24936 114.7082 -1.532931
12.61389 106.0524 -0.3746172
3.944572 115.2566 -5.329252
0.6724826 117.2167 -4.965591
-12.60512 63.37169 -4.472995
-16.76231 83.01186 0.6478198
-16.42721 82.90887 0.4545046
-14.96209 90.5286 -0.09223736
-16.22011 81.18186 0.3364851
-13.50257 72.85517 -2.145494
-13.68731 100.1883 2.251065
-13.35044 99.73999 0.6254888
-13.06589 101.931 0.06429761
-13.18748 103.7281 1.274373
-10.65113 112.126 -2.066517
-9.617384 115.5067 -3.215448
-8.5661 113.9487 -4.613429
-9.966646 115.3497 -2.578517
-9.36016 111.2822 -4.348459
-8.708203 109.4478 -5.312627
-9.023737 110.3377 -4.862646
-11.31211 110.6444 -1.092918
-11.27535 111.1113 -0.9256699
-11.06871 111.9284 -1.103804
-10.48117 110.1499 -3.057059
15.04571 84.44717 -1.393282
15.88781 79.80363 -1.038413
13.95819 86.06956 -2.194689
12.93313 84.68188 -3.409958
13.44183 86.76732 -2.927265
12.93664 70.08818 -3.306762
12.43913 65.81655 -4.628421
11.33339 59.63028 -9.810434
-1.807017 58.06863 -9.992378
11.43139 64.39989 -8.92957
8.081849 62.77085 -11.13558
3.668025 53.21267 -10.30879
1.412398 55.23065 -9.906253
-6.852706 56.46361 -11.05875
-1.648913 54.88476 -9.983799
-11.46484 58.42864 -9.692656
-9.555595 61.05188 -10.73624
12.63384 100.062 -1.698432
12.43527 95.14775 -3.430996
13.51629 95.2774 -0.9759368
4.191916 113.5614 -5.725749
-6.04955 116.5537 -4.738231
-6.438249 120.0054 -4.137278
-9.922241 121.1309 -1.957807
-10.2662 119.139 -0.9710264
-8.890611 120.6288 -3.300221
-8.496929 117.8084 -3.890489
-9.638801 119.5968 -2.49028
12.65935 105.7318 -0.487861
11.76121 112.4354 1.755212
10.0435 112.2589 -2.857389
8.433925 114.2815 -4.698243
12.78491 103.0401 -1.018057
2.311086 118.4743 -4.795537
-0.6965339 119.7987 -4.678032
0.2701613 120.3712 -4.675302
0.5771856 118.8461 -4.762925
-14.56439 78.80482 -0.901794
-14.42637 73.17446 -1.073403
-14.62085 75.71333 -0.8222906
-12.81413 104.6303 -0.6853607
-13.78223 98.82161 1.804034
-13.19932 102.8378 0.9694901
-9.11762 110.9128 -4.6655
-11.28919 109.5208 -1.704688
-10.14737 108.6638 -3.955853
-9.462732 108.2075 -4.828509
-10.57647 110.6403 -2.749426
-11.71652 108.1884 -1.430467
-11.56533 109.6922 -0.9459141
-11.6981 107.7657 -1.687438
14.56116 89.73059 -1.439904
14.43669 88.12891 -1.732832
13.63814 89.3667 -2.742268
8.334711 68.10411 -10.85761
2.227959 56.30538 -9.994724
5.029749 61.79005 -10.59929
6.51186 59.36077 -10.99765
5.89739 60.79615 -10.84242
6.818154 62.16116 -11.03199
5.607299 60.35382 -10.77396
6.372491 60.01005 -10.96027
-9.612072 58.50116 -10.91644
-8.445607 56.53975 -11.16677
-10.24763 60.96287 -10.45312
-3.654532 53.69481 -10.36596
-3.933864 55.36216 -10.42051
-9.981696 121.0429 -1.793498
-8.685799 121.4106 -3.4271
-9.421296 119.0987 -2.843809
12.92037 104.7661 -0.02360332
10.49064 112.0571 -1.896213
9.607159 114.2668 -3.341597
10.38283 117.0732 -0.3316764
-15.89705 80.79192 0.1648464
-14.93837 76.79683 -0.5266195
-14.71501 76.45568 -0.7378764
-13.50939 74.69432 -2.118427
-13.16462 99.90536 0.02080909
-11.65787 93.2318 -5.395195
-12.56333 97.78219 -2.314687
-9.447041 115.2916 -3.482947
-7.009112 115.0997 -4.941543
-12.67768 107.1587 1.115918
-10.43565 105.3914 -4.536129
13.00594 90.48865 -3.5982
12.08704 72.06873 -5.138498
-6.385689 58.34615 -10.95387
-4.862949 55.84991 -10.6442
-9.412603 116.6556 -3.289104
12.75772 105.139 -0.5231218
11.32151 105.5582 -3.318088
11.79955 108.915 -0.6529436
11.46705 107.9184 -1.967018
11.09143 106.0974 -3.433939
10.44904 105.4731 -4.394073
10.2291 104.3591 -5.050202
8.866474 105.4315 -5.942742
9.633267 107.4591 -4.714786
8.811956 115.2956 -4.221455
-14.07428 74.76183 -1.430906
-13.71903 69.18321 -1.946029
-12.67309 75.6791 -3.595202
-12.16659 72.95866 -5.16245
-12.39826 74.39386 -4.309055
-12.31934 73.32879 -4.564022
-12.11293 70.16789 -5.650522
-14.7552 69.83755 -0.7814342
-12.32414 67.69562 -4.99065
-14.15472 69.4659 -1.411668
-12.31173 68.79706 -4.969825
-12.61514 68.02525 -3.979026
-12.41494 68.34668 -4.572863
-13.31412 76.46925 -2.41265
-12.91646 100.5362 -0.7474409
-11.64501 100.4442 -3.936764
-11.99332 97.64909 -3.660307
-10.73807 97.2456 -6.104771
-13.48695 94.43175 -1.315857
-9.133306 116.8181 -3.593108
-7.811814 110.2583 -5.758866
-7.116291 117.2216 -4.46988
-5.256523 114.198 -5.299268
-5.003626 115.1724 -5.096224
-7.313574 114.5046 -5.018398
-4.6113 108.8344 -6.558501
-5.925062 111.3231 -5.907936
-5.488776 111.1258 -5.989184
-11.53336 106.3962 -2.708475
-12.63527 101.4419 -1.628844
12.02497 66.96072 -6.192636
-5.091442 58.29885 -10.68107
-4.986861 56.45536 -10.67158
12.35736 103.9395 -2.185499
9.496057 106.8093 -5.012232
10.93849 108.4292 -2.567982
9.876226 105.6009 -4.970136
5.867783 110.616 -6.485123
8.725037 104.4863 -6.269342
7.602158 104.4205 -7.111802
8.954712 107.6431 -5.399557
-13.59663 78.47418 -2.034055
-13.1774 77.25302 -2.6375
-12.17029 75.55058 -4.941468
-13.82229 66.89243 -1.829264
-13.32139 67.52719 -2.512682
-12.28844 102.5478 -2.464386
-13.58238 95.58574 -0.4838619
-3.972109 117.5486 -4.724276
-7.520576 109.0447 -6.085574
-6.904765 110.2293 -6.013873
-10.97451 104.587 -4.193979
-9.668227 101.4407 -6.462257
-10.38421 105.5182 -4.549047
12.14445 67.8199 -5.410072
12.24671 71.47456 -4.682875
13.44046 73.17198 -2.627773
12.14249 102.9118 -2.81251
9.519159 101.9398 -6.378492
-13.12279 76.29608 -2.712962
-12.38615 75.17837 -4.34531
-13.0513 64.43095 -3.133252
-13.47551 91.80776 -2.567111
-13.35842 93.31673 -2.159479
-14.04676 90.70222 -1.722307
-14.75978 91.26349 -0.1828847
-12.53192 91.83359 -4.131893
-13.12984 90.83492 -3.333637
-15.77619 89.24739 0.5389789
-15.33312 90.11986 0.2748396
-6.384196 108.7546 -6.44969
-5.645936 105.823 -7.250525
-6.738089 108.5087 -6.439497
-12.74895 102.7226 -1.196285
-12.16862 104.6651 -2.347483
9.41195 104.4177 -5.723471
6.915849 104.5775 -7.384946
-11.90002 72.96557 -6.192338
-9.088096 70.77077 -10.41662
-11.99046 70.89371 -6.110682
-11.61936 91.87586 -5.639925
-13.13367 91.81261 -3.142294
-12.63524 91.44671 -4.033866
-12.28287 84.36851 -4.523015
-11.27555 90.58084 -6.277362
-11.43308 95.66714 -5.277562
-12.64694 88.22085 -4.098681
-14.22008 85.70507 -1.77319
-12.79046 104.2149 -1.060976
-12.69932 103.2007 -1.387252
7.993351 103.5406 -7.045521
-12.04371 94.65057 -4.359334
8.944362 103.0986 -6.499904
-12.50458 92.79542 -3.98032
-9.062639 97.54594 -7.960301
11.63151 98.7323 -4.186268
-10.87388 98.20103 -5.667311
-11.62484 95.05684 -5.051774
8.652762 99.88562 -7.710443
-11.11329 95.55547 -5.873521
11.19146 99.25498 -4.913163
10.58443 102.7415 -5.161245
10.45463 117.9928 0.2263835
10.76898 119.5179 1.992602
11.63437 60.74632 -9.12691
15.72031 79.94095 -1.108042
13.1354 75.5444 -2.980117
13.47812 82.28416 -2.613834
14.17391 83.21705 -1.93972
13.55978 83.66029 -2.571486
14.14511 83.05811 -1.970163
13.73233 81.60299 -2.339574
13.46611 72.79359 -2.6034
7.025935 55.52782 -11.14576
8.552689 117.5557 -4.029115
11.70149 65.17696 -8.097537
12.23205 62.74409 -6.461031
10.73601 61.83452 -10.20797
11.5593 62.59053 -9.016973
10.36599 66.28407 -10.08691
9.598313 64.33575 -10.7217
8.701786 61.84877 -11.10124
11.84043 68.72432 -6.714346
9.035038 63.62546 -10.95545
11.22781 65.53795 -9.163021
4.779066 64.30248 -10.50318
5.195993 66.10904 -10.58588
12.21471 60.56356 -7.563343
10.97902 61.50096 -9.963666
11.79372 68.22489 -7.0842
4.686522 69.48581 -10.41437
11.97375 67.77208 -6.262753
8.795245 66.51829 -10.87108
8.225718 66.1076 -10.95542
7.18207 67.65965 -10.91295
9.374757 68.09726 -10.56126
8.069324 68.52599 -10.88355
11.51306 68.11763 -8.070765
11.66516 65.04375 -8.231004
12.53264 66.21172 -4.316104
11.5373 80.79464 -6.252944
9.304667 68.50253 -10.56602
11.40774 68.61604 -8.292624
11.69619 66.58451 -7.8133
9.216764 70.78353 -10.4261
11.0849 69.21223 -8.917931
11.5633 70.9258 -7.372484
11.28971 71.92272 -8.048966
12.09031 72.80033 -5.063497
9.425162 71.78755 -10.25562
12.55309 72.18984 -3.906749
11.69057 74.36186 -6.346433
9.105752 69.54461 -10.54911
6.157384 70.27219 -10.69308
10.61329 70.56503 -9.454393
11.44483 75.61369 -7.109071
6.110568 68.17785 -10.73694
7.424418 70.9809 -10.80708
6.35924 72.11602 -10.68533
11.41225 73.16496 -7.56326
10.34508 74.1142 -9.401747
10.71015 75.16959 -8.867336
7.95786 71.96798 -10.73327
11.02205 74.86703 -8.298325
7.444364 76.80732 -10.5216
8.147076 71.55976 -10.7029
7.167399 83.77146 -10.20594
7.817286 72.36765 -10.72324
5.648333 72.51608 -10.55461
2.425905 73.49007 -9.987886
5.528788 72.94518 -10.52205
12.34996 80.29044 -4.136346
15.1554 78.36732 -1.37134
14.61952 75.48836 -1.650025
12.15518 78.92799 -4.579179
14.28645 76.72771 -1.899909
11.92026 79.59739 -5.140338
16.03876 74.95671 -0.9210166
11.56187 76.1721 -6.610076
11.73416 78.8744 -5.76727
13.01893 87.61228 -3.556307
10.5012 79.83401 -8.618637
4.588095 75.22076 -10.32854
9.347054 78.59202 -9.809009
6.083917 75.78124 -10.54192
5.473785 77.7737 -10.4191
10.58525 77.2589 -8.775052
7.864684 78.08736 -10.39097
10.3146 75.59108 -9.316287
11.14605 80.78345 -7.334848
12.21899 85.49516 -4.568407
4.821335 78.46923 -10.31234
11.07947 81.75836 -7.395008
11.0037 83.18642 -7.448054
11.57411 82.43534 -6.048242
11.06351 79.24152 -7.702357
9.635476 75.96545 -9.841893
10.28087 82.10278 -8.660868
9.655334 84.33556 -9.047067
10.87739 78.89025 -8.191754
9.421872 83.80924 -9.30384
7.776391 83.42631 -10.10915
7.577404 84.95374 -10.05446
10.71636 85.4521 -7.787005
10.96896 84.04333 -7.475269
12.55915 83.26174 -3.875458
11.73477 84.70619 -5.518085
9.518431 86.99396 -8.954975
11.09011 87.96732 -6.881453
11.76227 83.85057 -5.478426
11.49948 82.91042 -6.239235
8.682513 87.61998 -9.441311
10.00416 88.47423 -8.302001
4.790716 54.62095 -10.58242
4.728996 58.40609 -10.55398
11.99919 99.93036 -3.263816
11.63521 99.47627 -4.063863
11.16668 101.0399 -4.721176
12.70059 98.80331 -1.747274
-3.88159 58.68739 -10.38274
-2.488077 59.82333 -10.09102
-1.708544 62.41631 -9.956484
1.878258 61.21214 -9.919119
-1.334153 57.3245 -9.935344
-0.2416131 61.12624 -9.829953
1.41958 62.39748 -9.864099
-1.569197 59.43509 -9.951906
2.500923 61.78688 -10.00678
1.046283 61.3415 -9.842352
-3.638683 59.9424 -10.31605
-1.100019 59.25309 -9.890818
-1.767284 61.83586 -9.965714
-2.0418 60.7942 -10.0137
1.092427 60.3328 -9.848725
0.4795046 57.9652 -9.835824
5.792716 64.52882 -10.75772
4.572922 63.52056 -10.46037
-0.6895095 57.09264 -9.876365
-10.62452 63.46949 -9.960401
-11.83516 62.84251 -8.334028
-9.783645 67.97581 -10.21711
-11.54314 64.58582 -8.755142
-10.10302 63.77641 -10.34898
-0.4411515 114.6586 -5.357106
-1.719359 117.7392 -4.833907
-14.55815 81.25942 -0.9353617
-9.729309 58.49779 -10.88659
-9.079803 61.84922 -10.81846
10.49206 111.8759 -1.962795
8.865067 113.1928 -4.565107
8.966242 109.0756 -5.155411
8.481037 111.6893 -5.202305
7.810309 110.8607 -5.795402
3.891889 109.7099 -6.611758
7.44608 111.6459 -5.816027
7.132831 111.3858 -6.012376
5.563557 107.4594 -7.136274
6.070058 108.7755 -6.815522
5.895846 117.0344 -5.038516
6.457307 113.3258 -5.834995
4.701921 112.6757 -5.97546
6.097612 110.8225 -6.428187
6.844525 111.7718 -6.029638
11.04155 89.20852 -6.837942
9.657011 116.9456 -2.640474
9.258857 117.3092 -3.296201
8.626741 117.9816 -3.933371
9.840323 117.9103 -1.966515
7.488029 116.5482 -4.85842
8.3286 120.1326 -3.957702
6.368381 119.0337 -4.615341
8.98716 114.0943 -4.27104
5.318371 115.5677 -5.350707
4.154042 115.8688 -5.216523
-12.35734 65.30303 -5.170799
-12.34597 65.70219 -5.142319
-13.20867 66.01923 -2.739841
-12.01801 74.51343 -5.565682
-12.02062 76.9883 -5.344192
-11.84645 75.79227 -6.046744
-12.15199 79.77835 -4.82092
-11.53131 75.31993 -7.15107
-11.1062 87.4588 -6.834442
-11.77831 78.94635 -5.988803
-7.04032 106.4023 -6.801882
-6.925636 104.6308 -7.266389
-7.793487 106.8695 -6.438925
-11.93189 81.07209 -5.368863
-12.70554 81.80821 -3.662084
-13.84211 80.57983 -1.797325
-11.99643 78.07533 -5.362044
-12.62667 79.10375 -3.727058
-12.90673 79.22374 -3.167075
-13.07349 85.59922 -3.34285
-11.9952 89.61749 -5.121164
-11.63351 90.35002 -5.684886
-10.73179 89.21279 -7.260289
-12.96155 87.30551 -3.628263
-13.05019 86.359 -3.435809
-12.36161 84.82935 -4.397221
-11.48198 81.11739 -6.664124
-12.14389 89.71429 -4.889464
2.409464 75.65665 -9.987809
-11.83668 81.94875 -5.588614
-11.93383 83.57902 -5.248924
-11.19533 86.70299 -6.730191
-12.37377 83.24907 -4.330376
-11.41696 84.14342 -6.528747
3.308364 74.99918 -10.11598
-10.68569 85.8465 -7.750918
-11.95212 81.5202 -5.313902
-11.50653 88.30798 -6.004946
-7.689001 90.86244 -9.529436
-10.62552 80.92889 -8.336592
-9.386099 86.22596 -9.027799
-10.456 84.78403 -8.171457
-11.16364 83.44472 -7.222328
-11.59337 96.7832 -4.704097
-11.76215 98.86803 -3.90918
-10.50898 96.80042 -6.548195
-8.537507 98.42818 -8.214968
-9.685628 99.58256 -6.899721
10.66908 104.1242 -4.715389
10.60199 119.9246 1.064763
9.901684 119.002 -1.647662
13.96683 73.40243 -2.154782
12.10555 74.56544 -4.934148
13.5714 74.88464 -2.504282
12.37875 75.65655 -4.165139
12.6983 76.43316 -3.555338
12.32638 68.3395 -4.683053
11.51153 76.78113 -6.717745
11.28094 76.15525 -7.590832
-0.6880929 73.67764 -9.857145
4.096736 71.84339 -10.26564
5.044374 72.5798 -10.44402
5.63176 70.8054 -10.58027
2.190534 74.51765 -9.96
2.885778 74.14484 -10.05213
-0.1774878 72.89116 -9.84115
-1.7773 73.96049 -9.941274
3.600873 67.57784 -10.19546
-1.186934 76.1109 -9.89229
0.1548133 75.13905 -9.841403
5.162007 68.88225 -10.5312
4.375006 68.28092 -10.35898
3.869439 70.6049 -10.22968
2.217425 69.58637 -9.96379
1.534534 71.68395 -9.900733
-1.647989 73.95067 -9.928737
-0.08381505 76.66372 -9.844328
3.39309 68.3251 -10.1465
0.9293735 68.31768 -9.837293
0.7639554 68.88101 -9.833355
0.1968213 70.21064 -9.830966
-1.544973 72.45748 -9.918764
-1.38842 71.60076 -9.90627
-1.142187 74.93814 -9.884841
-0.465402 68.50654 -9.84414
-2.283662 71.5152 -10.00666
-4.669539 80.74978 -10.26875
-0.7248988 76.23801 -9.864758
-2.460829 73.36726 -10.02172
-3.942839 73.10149 -10.24337
-5.02016 62.02982 -10.61338
-4.314144 70.84071 -10.33145
-4.098738 69.89042 -10.30175
-5.758433 75.45983 -10.46897
-1.685251 76.63224 -9.927066
4.539971 65.04111 -10.43746
3.461829 66.25284 -10.17104
1.122538 64.16138 -9.839081
2.590192 63.90055 -10.01258
-3.591454 67.21488 -10.22848
-6.528607 70.07016 -10.71626
-4.923154 68.30365 -10.48869
-4.762851 71.04388 -10.41221
-6.548363 69.00417 -10.73272
-1.555221 77.2066 -9.914305
-2.824947 78.60619 -10.051
0.8944126 78.06783 -9.877687
2.645378 65.89166 -10.02043
-2.375682 64.49092 -10.03887
0.9086962 66.43735 -9.841416
-5.489017 66.98602 -10.62053
1.927322 63.66606 -9.920526
-5.289465 66.68248 -10.59009
-5.214516 66.91808 -10.57068
-1.680197 68.40045 -9.928854
-3.597755 69.63919 -10.20912
-6.213007 71.40449 -10.6435
-8.560733 71.20956 -10.55368
-9.878142 69.72582 -9.984909
-8.497672 69.03063 -10.67918
-8.345845 67.61837 -10.77075
-2.695272 66.72668 -10.07592
-5.146817 65.03308 -10.5887
-3.560628 65.21645 -10.24161
-1.391323 64.21306 -9.911669
-6.553247 64.73898 -10.84292
-7.213745 66.16302 -10.8795
-10.52918 66.67541 -9.774958
-9.884562 66.84019 -10.25117
-11.59089 66.69701 -8.277373
-11.80962 68.79019 -7.277896
-11.71241 67.07717 -7.93581
-11.88434 69.50688 -6.863951
-9.835067 68.69054 -10.12481
-11.91478 64.95506 -7.648185
-12.21154 63.30959 -6.657265
-12.13389 67.36683 -6.029819
-10.38232 68.83016 -9.715368
-10.40288 70.24951 -9.521456
-10.03579 71.713 -9.72472
-2.286562 79.78642 -9.994851
2.773517 78.17646 -10.03232
4.135197 76.39538 -10.23459
3.827302 76.98369 -10.18112
1.056799 81.86195 -9.89152
2.125636 79.31429 -9.963031
9.020682 81.30888 -9.785592
6.258088 80.00822 -10.41608
8.031894 80.88356 -10.16913
8.842505 80.47022 -9.927467
5.62015 78.58508 -10.41831
7.863973 78.74471 -10.34638
7.145049 79.44685 -10.42836
4.447436 79.96032 -10.23868
11.33405 79.03796 -7.030521
12.83382 88.68002 -3.861421
11.69564 86.33154 -5.594761
12.39305 87.16187 -4.373682
12.36923 86.60784 -4.385889
11.20673 86.30508 -6.748893
10.54708 90.77919 -7.377124
-3.031256 115.927 -5.048438
3.149637 110.0568 -6.455475
-1.61058 113.1924 -5.604794
-1.25939 112.2263 -5.806839
-1.3235 116.0558 -5.100136
-4.585702 111.847 -5.852877
-3.71025 112.7593 -5.649202
-1.631424 115.3769 -5.20364
0.9764162 115.8907 -5.169694
0.9825091 115.1951 -5.284999
0.3302929 112.1725 -5.84367
-2.21813 110.9796 -6.06097
-1.513541 111.064 -6.050633
-0.1121319 105.9642 -7.325817
-4.248517 107.6727 -6.863391
-1.09891 110.785 -6.11736
-0.07411532 110.7071 -6.147458
0.5595934 115.0965 -5.298148
-3.717649 102.3007 -8.42293
4.225514 114.2604 -5.570465
-4.964381 104.7746 -7.602613
-4.718987 106.9101 -7.044399
-3.916504 107.0499 -7.028526
-4.358274 103.0035 -8.159922
-5.730645 101.5326 -8.544942
-7.49284 104.6992 -7.025016
-1.311606 105.2417 -7.516048
-6.904544 101.6045 -8.141862
-6.622526 103.6869 -7.625664
-8.772472 100.1771 -7.53055
-8.687573 101.7692 -7.111153
-3.675092 103.1794 -8.14387
-1.915653 105.8602 -7.346442
-0.8488513 107.285 -6.963071
-0.4899398 107.511 -6.90798
-0.1495806 109.7813 -6.356721
-0.07230718 104.7832 -7.652613
-1.310063 109.454 -6.421657
-2.314964 108.4045 -6.677542
-5.213281 64.45305 -10.61321
6.746458 109.9159 -6.420087
4.363489 108.5631 -6.927223
6.235663 107.4825 -7.035581
5.469109 107.891 -7.058522
3.220636 107.9691 -6.986237
3.899686 110.0224 -6.537429
2.939201 111.051 -6.197429
4.064081 111.7262 -6.140933
-0.2305811 111.0933 -6.061649
4.285033 112.3899 -6.004751
2.856154 113.5285 -5.629668
5.932714 110.8446 -6.434616
5.527596 104.6871 -7.742665
5.857954 102.1249 -8.345788
0.9949405 106.2492 -7.283558
2.554522 106.1847 -7.395018
14.30425 92.40255 -1.01399
12.59895 92.90571 -3.795801
13.67831 91.72977 -2.240761
12.33819 94.15062 -3.945956
11.84681 99.09026 -3.673376
12.39969 96.14439 -3.177576
13.04221 93.24878 -2.897054
12.19466 97.18677 -3.32868
11.05848 98.56803 -5.244149
10.95075 99.8368 -5.241074
10.58101 99.72274 -5.774654
10.75911 97.19657 -6.083258
11.33672 97.75514 -4.922138
9.639744 99.34434 -6.992397
10.00502 91.84766 -7.863382
11.77736 93.89703 -5.061531
10.112 94.79186 -7.42524
10.70805 95.66496 -6.490733
8.216122 97.77357 -8.501604
8.713206 98.38244 -8.012487
9.23933 98.21877 -7.662014
5.030596 95.59412 -9.859317
7.213259 94.99206 -9.424271
3.125466 105.6092 -7.58708
6.154069 100.291 -8.847686
6.75423 94.40021 -9.65483
6.635194 97.66239 -9.26941
5.980268 95.6927 -9.716084
9.553818 90.67534 -8.450205
9.310176 92.93094 -8.379619
4.674504 97.35483 -9.685089
12.15709 90.48441 -4.880168
11.14336 92.62682 -6.324178
7.856726 96.96559 -8.899507
3.348015 103.2053 -8.242457
-10.43302 76.46483 -9.013268
-11.17905 74.04176 -8.212358
-9.092176 104.8938 -5.910903
-11.69261 79.1777 -6.243423
-12.22054 78.94177 -4.679605
-10.17356 81.0728 -8.869412
-10.53071 80.1584 -8.52044
-11.09217 80.64237 -7.657212
-9.17029 98.89941 -7.552443
11.99713 75.27546 -5.182158
-0.9903679 65.71371 -9.877956
-2.833386 66.44296 -10.10313
-1.257493 64.04079 -9.897885
0.3746628 64.12599 -9.828418
-2.003675 62.90154 -9.995045
-5.361432 63.14817 -10.67407
-4.896321 61.13148 -10.59809
-4.586139 62.15719 -10.51128
-8.712675 79.72799 -9.963832
-7.741021 62.437 -10.97787
-1.991596 103.3508 -8.078722
-2.354372 103.3173 -8.097601
0.3416741 104.0191 -7.880027
2.132079 104.4446 -7.839585
-1.220499 99.47749 -9.167262
-3.358444 103.6807 -7.992391
-3.773424 101.5832 -8.685087
-1.068129 102.4516 -8.33445
-0.7883439 101.4805 -8.61754
2.41797 102.055 -8.529454
-0.1648808 103.4059 -8.050808
-0.2844553 100.0644 -9.008203
0.3883885 101.3983 -8.642678
2.011313 95.57539 -9.807012
-10.28537 99.35936 -6.252439
-10.9044 99.02447 -5.423828
-11.9313 100.5441 -3.348448
-11.56917 101.3671 -3.98018
-11.11015 99.83228 -4.962175
-10.81828 101.0896 -5.171031
-10.5771 103.052 -5.088087
-11.58424 104.7296 -3.290889
-7.578777 60.48466 -11.02252
2.918431 106.9492 -7.220692
0.8320429 107.4246 -6.961548
1.087375 112.1518 -5.85987
4.325429 101.4105 -8.792932
5.552253 102.551 -8.274525
5.792112 102.9729 -8.128981
6.221647 92.37862 -9.914689
6.859411 87.54937 -10.03851
