# .PCD v0.7 - Point Cloud Data file format
VERSION 0.7
FIELDS x y z
SIZE 4 4 4
TYPE F F F
COUNT 1 1 1
WIDTH 1662
HEIGHT 1
VIEWPOINT 0 0 0 1 0 0 0
POINTS 1662
DATA ascii
5.196895 85.57507 -16.86704
-0.5817806 59.74024 -15.96247
8.474934 73.61147 -16.92396
5.464513 77.97161 -17.40994
4.724261 69.98058 -17.31883
7.567042 75.09174 -17.36513
16.60898 75.70405 -10.14943
10.8293 72.45734 -15.4229
11.98713 71.60052 -14.51861
11.41998 76.73204 -15.37234
13.42251 77.3172 -13.70886
8.644194 71.15025 -16.60255
11.78512 68.03186 -14.30694
14.64172 70.5061 -11.90316
16.03108 73.25613 -10.52195
15.91497 76.88037 -11.10967
10.45497 77.65697 -16.17201
11.1699 67.82404 -14.6636
11.41316 66.9399 -14.38166
8.739784 75.15711 -16.92275
13.55264 66.42793 -12.83596
18.13342 71.26271 -6.955682
14.44878 70.6443 -12.19172
19.43709 67.48639 -5.88447
14.1868 67.18826 -12.15975
20.20638 75.94514 -4.586962
12.91412 63.59941 -12.62845
19.72396 63.15191 -6.512196
20.48699 63.96532 -6.178358
15.79472 67.38217 -10.03063
19.08238 55.50502 -9.068499
15.3709 63.75632 -10.73421
14.17212 63.02667 -11.43393
14.05952 63.59503 -11.78089
5.905513 45.89783 -14.27429
3.565747 121.3708 -14.04293
3.252556 121.5436 -12.93309
3.731504 119.4556 -14.36224
7.435084 124.6136 -14.30844
19.13375 82.23315 -6.920522
19.61409 83.65241 -5.697975
17.59278 77.90769 -9.127396
18.30373 80.51201 -8.40297
19.07261 86.67541 -7.208728
16.19654 83.95574 -11.3253
16.90712 83.4985 -10.48632
15.47839 82.89384 -12.02674
16.63116 77.95017 -10.37107
18.60952 93.27041 -8.36733
17.3949 89.09023 -10.17223
16.46927 94.56503 -10.78326
16.74488 92.52125 -10.86918
7.666509 102.5734 -17.80488
8.954727 93.32427 -17.92188
10.73084 95.03403 -16.65199
9.447956 95.50039 -17.76965
4.361347 105.5323 -14.87867
11.21341 108.8435 -12.97231
14.85536 108.6266 -8.560791
11.35221 115.3641 -15.69507
10.46078 118.7596 -16.33215
11.71508 110.241 -11.41203
7.249141 113.9093 -17.15595
10.14482 113.5634 -16.91879
9.551539 108.9123 -17.5132
1.448708 64.62316 -16.48138
20.23142 52.51402 -0.6192403
18.54777 41.04562 -11.75515
16.75357 43.84867 -12.76583
17.58309 47.11253 -11.92296
18.32573 47.72444 -10.25022
18.84788 50.84618 -10.69246
20.79708 50.53748 -4.41871
20.73377 57.70041 -5.778912
11.0288 86.19064 -16.44491
9.976314 80.5149 -16.7149
11.73491 85.68192 -15.85071
11.90532 88.53546 -15.88561
12.09309 90.6843 -15.54559
10.7678 88.59444 -16.80413
14.07458 83.43429 -13.48614
14.31086 81.40858 -13.12241
12.74679 85.33746 -14.90137
15.51155 88.13538 -12.30563
14.94051 87.03217 -12.8476
15.92676 78.26298 -11.21588
15.39322 78.69073 -11.82987
14.41282 76.50108 -12.69243
9.699356 79.13786 -16.7662
9.609526 79.99605 -16.87902
5.906982 64.52242 -16.95284
20.81193 65.76373 -5.298791
21.24705 61.41792 -3.688951
7.848884 45.73132 -13.19378
7.655082 46.29967 -13.5412
6.173369 115.828 -16.69037
7.453691 119.4124 -16.67976
19.18255 86.2626 -6.901707
6.529342 98.4138 -17.28181
6.374208 104.785 -17.04587
7.576345 107.6708 -17.58308
11.19538 109.6226 -13.11859
15.56375 104.2119 -9.351273
15.04113 100.3236 -10.49402
13.8473 100.562 -11.14801
11.13938 107.7038 -13.38466
11.04172 104.0249 -15.02911
9.924593 109.2302 -17.30567
10.07437 106.6137 -16.95384
10.45663 109.8622 -16.30978
9.856742 114.1188 -17.07434
19.13966 56.65929 -1.575607
20.40788 58.51091 -3.487706
19.06183 51.43781 -10.08523
14.49061 91.3054 -13.03716
13.06015 95.29462 -13.14415
11.3513 94.94691 -15.73617
12.15736 95.92378 -14.16266
13.64102 96.35753 -12.35251
15.8009 90.02597 -12.017
9.720805 65.3979 -15.16793
7.58135 65.26176 -16.36915
5.716851 50.23626 -14.46204
5.2358 50.37872 -14.47754
8.423529 55.40453 -12.62015
5.878069 55.72921 -15.11024
12.10545 60.71478 -12.02991
7.799567 56.76553 -13.80143
2.615495 61.82161 -17.12951
6.381839 60.27692 -16.17425
8.064954 57.95368 -14.16788
5.288815 58.02605 -16.30029
10.63921 64.89567 -14.49427
12.0541 62.18285 -12.7419
10.11286 63.43842 -14.50933
14.90637 80.19604 -12.4454
7.304203 102.8534 -17.63478
13.78993 107.1742 -9.553355
11.39837 99.03107 -14.96173
11.82906 101.3871 -13.39219
12.64483 99.50134 -12.58699
10.91169 104.3685 -15.31677
10.54451 103.0329 -16.44327
9.534811 102.5297 -17.56025
21.24831 61.02509 -4.042449
15.99746 47.01106 -12.77338
15.71246 47.0832 -12.77747
11.14839 47.46074 -12.35106
13.41531 52.24035 -12.16474
12.44974 50.44897 -12.4329
10.50994 44.36228 -12.32163
13.37951 42.93281 -12.85552
12.57479 42.00984 -12.79445
8.757706 48.48907 -13.71325
14.6953 59.92516 -9.313336
18.34031 57.70753 -8.061065
13.29893 54.03905 -10.68882
13.85602 54.76134 -10.17459
15.66074 59.62478 -8.511443
13.87812 60.50504 -10.33383
17.05049 60.19844 -7.681632
11.86709 57.45864 -10.65958
10.82568 57.85658 -11.65008
12.18254 54.73914 -10.5819
10.16582 54.7469 -11.33365
19.5874 53.59401 -8.821823
20.33734 55.95789 -6.689159
9.756545 101.4752 -17.35865
9.271732 49.69929 -13.6282
12.70576 107.8647 -10.37189
19.00154 56.28448 -8.683045
18.12973 59.71087 -7.038541
17.62432 49.43615 -11.75828
16.85287 58.64938 -7.822713
18.99703 54.25479 -4.327342
19.93639 51.98503 -3.728469
18.99472 91.63359 -2.305176
12.38957 146.127 -11.0141
12.3345 148.4515 -10.17378
10.52207 151.0834 -3.050689
11.8257 145.6086 1.828758
11.56041 146.3659 1.364944
-1.863619 39.8728 -14.50719
-3.392517 53.344 -15.42128
-21.15417 77.12497 -3.225196
-20.72802 69.42448 4.841957
-7.160241 35.13839 -12.86119
-2.391709 66.15794 -13.68858
-16.34297 128.6273 -6.705947
-0.3761495 89.29961 -11.55479
-0.2233767 94.76788 -11.11541
-0.8688152 127.9989 -10.7796
-1.027772 82.43645 -12.11853
-1.136653 128.4088 -11.61564
-1.63585 107.213 -11.27411
-0.6900622 133.3052 -12.0992
-3.477447 135.3811 -11.94188
-9.468746 135.5499 -11.2547
-1.445743 92.95241 -11.68295
-4.233536 50.58533 -15.48242
-0.3814519 100.2093 -10.89131
-21.40462 78.65133 -5.909045
-3.116637 43.04624 -15.51964
-22.2474 43.36874 7.182492
-22.15338 40.73105 7.9538
-21.15497 101.1761 -5.168043
-7.667091 51.40493 -14.08557
-22.46038 39.18751 5.699809
-14.60959 135.9868 -7.692552
-2.476169 37.30881 -13.6568
-11.86405 136.2323 -10.40406
-16.0475 128.6674 -4.834573
-20.89095 109.6984 -2.851092
-20.06374 103.8022 -0.03655524
-16.9304 132.2689 -3.944162
-17.13116 127.7999 -9.23508
-20.16847 101.0059 -0.3657601
-0.1917316 124.1149 -10.14288
-22.46307 38.2024 5.660218
-17.56566 127.6099 -4.462753
-16.12942 131.4425 -4.170283
-3.119945 37.66587 -13.78967
-5.374896 37.7289 -13.75856
-4.623704 52.88341 -14.90051
-14.51513 39.68161 -13.29681
-7.204091 75.65017 -13.15013
-21.27905 96.39494 -7.977586
-2.405047 111.134 -11.99221
-12.66438 133.9942 -11.93229
-1.472746 133.8879 -11.81262
-0.7486345 132.8883 -11.80624
-22.41995 43.38034 5.779181
-22.71171 38.21048 2.579695
-22.22982 44.87746 6.96251
-17.10691 128.6757 -4.481009
-11.26083 134.9551 -12.19765
-8.031044 36.45348 -13.2191
-3.044631 56.83557 -15.00595
-2.160323 51.869 -16.21367
-4.746358 47.39929 -15.75947
-20.43307 73.26666 4.448322
-20.45066 74.54453 1.271895
-0.8210027 86.74715 -11.76186
-19.9007 94.13703 0.9399772
-20.03721 96.10401 0.08118793
-20.83451 106.899 -2.723681
-0.8925214 105.4901 -10.88279
-1.089489 103.2074 -11.06624
-1.828603 99.21752 -11.57496
-0.6193847 125.8069 -10.54286
-0.9849501 128.4211 -11.19294
-22.15434 35.48766 -9.288882
-21.5137 59.9866 6.643657
-22.59498 37.76686 4.299962
-18.80601 124.3934 -4.254614
-17.1258 132.1676 -7.351449
-16.91335 130.3215 -9.691013
-12.6013 37.57281 -13.13267
-10.33832 44.41025 -14.68531
-2.924322 58.6981 -14.71842
-5.708031 50.7422 -14.82663
-6.58638 54.10347 -13.97795
-5.76402 56.92505 -13.80149
-18.73579 34.61412 -11.85271
-21.1871 64.60331 4.785366
-20.44199 81.7142 2.76785
-1.981299 79.75757 -12.17093
-2.462757 86.91061 -11.84997
-2.62418 64.26532 -13.88431
-20.01852 96.99562 0.1286044
-20.52158 111.0948 -1.566396
-20.80104 115.2078 -3.21488
-0.03149985 115.6703 -10.19858
-0.6208346 96.87353 -11.16993
-1.5571 121.4142 -11.65044
-1.541195 124.9981 -11.81215
-4.360847 131.0655 -12.4917
-22.9132 39.812 -3.230843
-22.93904 38.62094 -6.096087
-22.92241 39.83423 -3.762252
-22.22494 36.89222 -9.190997
-21.73902 51.73639 7.988818
-22.75031 39.10099 1.610699
-16.49858 126.6643 -5.137722
-17.00932 119.8983 -8.872125
-19.19904 121.8727 -4.240335
-11.7468 132.9805 -12.86083
-13.56298 131.6426 -11.56918
-15.49447 132.8037 -4.591948
-15.21153 37.58428 -12.75865
-3.935264 54.55161 -14.93248
-21.54488 35.02158 -10.10997
-20.27344 84.47601 2.719526
-5.640479 75.87883 -12.60158
-4.240749 78.64188 -12.28615
-3.705495 85.07444 -12.19037
-3.173452 70.22656 -12.8494
-2.327594 62.58142 -14.32111
-19.97437 92.1549 1.021856
-20.09788 98.98165 -0.1511998
-20.7412 114.0126 -2.26278
-2.473644 108.3576 -11.95912
-0.164012 120.1179 -10.13591
-3.013244 129.9036 -13.44106
-22.17513 45.96526 7.10675
-21.68439 57.86677 6.407528
-17.122 130.7257 -8.324057
-18.89843 121.5585 -4.573311
-14.85138 131.4933 -10.94102
-13.39831 37.57947 -13.02802
-17.80597 36.39591 -12.13547
-3.654131 44.09942 -15.74271
-21.29437 63.2836 6.323471
-2.019159 71.64775 -13.06225
-5.625315 76.55947 -12.60862
-1.109461 92.20129 -11.50738
-4.884567 61.22522 -13.46339
-20.79679 96.48227 -3.120219
-20.63715 99.34105 -2.241599
-20.80362 102.284 -2.732452
-21.12145 105.2816 -6.241615
-21.07859 110.5522 -3.849428
-20.50834 114.5825 -4.769967
-8.106919 130.526 -12.64534
-2.871881 127.5491 -13.7587
-3.466264 129.7256 -13.45748
-6.204508 130.0243 -12.14918
-5.407627 48.1957 -15.42007
-8.825504 50.65242 -13.95275
-8.758273 54.36733 -13.58044
-6.614978 42.82092 -15.22345
-7.043787 45.02845 -15.34446
-21.13432 64.73906 4.046012
-20.96666 83.60918 -1.928383
-2.401715 91.69794 -11.95823
-21.0351 106.6102 -3.836606
-21.08626 109.4275 -6.005085
-20.18437 112.5689 -6.372261
-12.3711 130.2933 -13.83026
-4.402786 128.7258 -13.40811
-22.80911 41.75858 -1.89926
-11.10595 45.74507 -14.34503
-7.338847 45.47421 -15.19405
-21.17895 83.32236 -3.293049
-20.78796 79.36578 0.1904869
-2.559936 84.02652 -11.90696
-20.54594 88.37815 -1.196781
-19.69427 112.4187 -7.449371
-20.32914 85.75595 1.388637
-17.99449 117.4042 -7.397298
-5.607242 127.6941 -12.29603
-6.400885 130.9046 -12.90299
-20.8205 84.67558 -1.438372
-6.954143 84.76901 -13.70152
-20.32258 110.5994 -7.720435
-17.68756 117.7634 -10.36161
-19.13475 112.314 -10.55652
-18.95356 117.3425 -5.761405
-21.77342 57.55074 1.853888
-3.761145 92.23438 -12.61309
-21.0361 105.1479 -7.376938
-21.72996 58.64187 3.486915
-21.36186 81.74334 -4.636311
-5.174337 89.90627 -13.18379
-21.08777 103.5169 -7.160779
-12.60016 127.1288 -14.22042
-9.851303 127.1282 -13.20719
-21.9471 55.4516 0.3860816
-16.73365 127.5843 -8.03884
-17.32779 118.7274 -8.347342
-19.3132 105.3668 -12.41134
-21.38659 59.73857 -4.389743
-21.91894 55.71016 0.3729144
-20.17377 107.2424 -10.77975
-21.13559 102.7186 -6.44222
-21.02574 99.34532 -4.156393
-20.9581 63.9068 0.2179053
-20.67279 104.358 -9.920879
-22.18437 53.09958 3.647988
-22.27943 51.34434 3.794534
-20.91461 102.1513 -9.262362
-21.09248 98.90203 -4.555558
-14.42659 98.59037 -14.84774
-19.7633 105.4134 -12.11952
-20.84745 101.1579 -9.825815
-20.72949 100.4593 -10.34444
-20.44233 99.56129 -11.163
-18.10495 98.24572 -13.41145
-17.78838 99.79348 -13.4849
-18.81043 96.23663 -12.89817
-16.81809 133.8141 -6.150703
-22.734 41.45137 0.8421606
-22.69636 42.97806 0.7399081
-20.37189 73.87486 3.165119
-4.137098 103.3891 -13.17362
-2.520998 101.1277 -11.93538
-5.565908 100.0356 -14.05103
-3.054205 96.67522 -12.3364
-5.323497 94.02967 -13.52748
-9.55092 39.30803 -13.94557
-4.409738 40.74191 -14.79402
-10.76875 40.5525 -14.14068
-8.186028 44.40448 -15.12189
-12.34855 42.71409 -14.3766
-11.75469 44.39787 -14.51231
-14.7789 44.24535 -14.06317
-20.47993 77.55605 1.954177
-9.485551 63.17928 -13.47543
-5.975757 61.48537 -13.19935
-8.277766 63.3937 -13.18584
-4.997481 58.78839 -13.78081
-5.2768 68.49383 -12.72092
-9.588187 57.33936 -13.49124
-8.582602 57.39169 -13.40093
-15.18222 50.20651 -14.17699
-2.619022 114.4679 -12.49408
-3.336499 124.1606 -14.1147
-20.51255 70.60677 2.006928
-4.992515 71.47914 -12.55495
-6.677883 72.43392 -12.83219
-8.492487 71.35313 -13.44826
-8.285541 73.21533 -13.47327
-10.19241 69.42248 -13.99936
-8.034565 67.93113 -13.15564
-8.512066 79.26855 -14.00042
-19.13897 39.35022 -12.03181
-17.94777 38.23317 -12.32584
-20.43786 93.81688 -1.623615
-20.76251 95.79485 -3.007035
-21.1502 92.45531 -4.843474
-20.83058 90.30367 -2.97102
-21.04707 78.99715 -1.885188
-21.38792 77.06089 -6.405742
-21.25902 82.14964 -8.426169
-21.41214 81.06895 -6.815095
-21.19761 76.67107 -3.722105
-18.82453 108.1542 -12.74446
-19.17743 111.7431 -11.2234
-17.61174 110.9597 -13.35262
-17.17631 109.4927 -13.29821
-14.88369 110.381 -13.35171
-16.19209 113.9244 -13.86489
-16.72297 115.6664 -13.80778
-13.72247 108.5155 -12.87028
-17.60193 106.2979 -12.94137
-16.04723 104.942 -12.83244
-17.02588 103.4498 -12.71111
-14.51129 114.8137 -13.84363
-10.18194 105.8789 -15.24058
-16.80721 116.4933 -13.69557
-13.3941 105.9719 -13.19679
-17.97262 116.8347 -11.11557
-21.27884 79.57313 -8.101277
-21.40194 83.12292 -5.325075
-21.30121 87.45012 -5.110877
-21.22043 85.96319 -4.291848
-21.04792 83.73291 -9.422112
-16.803 126.9798 -8.604178
-22.33189 51.11973 0.5604161
-22.3852 50.24685 0.4333708
-22.36758 49.93991 -4.061944
-22.12289 53.86984 0.9422569
-22.65957 43.5037 1.449933
-14.39683 127.6273 -13.48115
-15.54109 128.6093 -12.2
-16.40112 124.9885 -12.39975
-16.92782 120.4119 -8.835801
-16.67529 121.6041 -7.894123
-17.02476 120.3505 -10.13484
-17.16959 125.4079 -10.29168
-20.86053 64.75112 -0.2732207
-21.19907 61.14973 -3.879094
-21.06557 62.96971 -5.235332
-20.88267 64.33715 -1.969219
-20.94227 64.97955 -4.387115
-20.82737 65.10139 -1.338959
-20.67508 67.85559 -1.017392
-21.20105 64.5041 -8.401676
-20.53937 73.13053 0.2393264
-21.18798 74.66937 -4.157937
-20.95488 73.05138 -2.891439
-21.26565 73.60008 -5.266903
-20.72334 73.79405 -1.114301
-21.0764 96.56928 -9.284379
-20.64554 95.36818 -10.65876
-21.33368 92.49306 -6.09676
-21.27894 97.24403 -6.868226
-21.38311 86.5512 -5.73775
-22.64775 42.28249 2.510726
-22.49934 45.91039 3.786358
-2.957182 105.774 -12.27002
-7.876504 107.7397 -15.50817
-7.762398 96.53356 -15.08949
-5.669597 88.77965 -13.36245
-8.562456 99.05447 -15.46383
-10.19846 94.46206 -15.57767
-10.10159 101.5295 -15.67444
-5.146975 101.2424 -13.82999
-11.09747 98.0602 -15.65188
-11.87304 97.37823 -15.55639
-12.81526 101.0943 -15.09716
-15.07752 102.8787 -13.44201
-12.36953 102.8287 -14.90126
-13.49632 95.69548 -15.2435
-17.42797 40.6702 -12.80982
-16.8705 45.04252 -13.52925
-19.08829 48.53383 -12.70962
-19.00702 41.8203 -12.31302
-21.54881 42.79651 -10.0134
-19.47242 45.46237 -12.2794
-21.74403 42.9473 -9.693026
-19.5767 47.87401 -12.31333
-19.89918 49.91011 -12.14388
-18.44787 49.12356 -13.15042
-14.96133 48.15616 -14.16689
-14.6238 48.27528 -14.17494
-14.98165 49.00746 -14.1715
-10.3496 50.80727 -13.82233
-11.29758 62.13904 -13.9639
-6.660408 65.21918 -12.93472
-8.806828 55.97315 -13.47284
-2.564028 112.5433 -12.24045
-3.319957 116.618 -13.55684
-22.4733 42.49266 -7.625698
-11.40403 61.27371 -13.95419
-7.641772 80.75196 -13.71182
-8.383492 84.37167 -14.35645
-10.3364 79.88918 -14.76927
-10.6915 77.93795 -14.73359
-3.3715 124.1929 -14.12429
-10.62667 111.5379 -13.04269
-12.39925 117.24 -13.58497
-13.89555 117.7901 -14.1954
-13.37973 123.6555 -14.42677
-15.48506 123.4644 -13.58681
-8.386603 118.1381 -12.555
-10.38557 117.5969 -12.45212
-10.38763 126.3537 -13.44744
-14.38513 119.0149 -14.27877
-8.93692 113.1176 -13.82228
-9.223203 115.1213 -12.76233
-7.378526 112.6606 -15.10551
-5.961032 113.3048 -15.09276
-5.50013 112.9434 -14.90977
-5.77014 110.0896 -14.89625
-2.958429 108.0899 -12.36914
-3.652981 111.2745 -13.31073
-10.26164 109.7797 -13.87278
-7.413767 106.4589 -15.42803
-3.163584 108.9038 -12.60744
-22.07757 53.97749 -0.6457472
-22.23438 52.0904 -2.719978
-22.01329 54.47055 -3.304405
-22.44818 49.10952 -2.286491
-22.21091 50.06147 -6.623065
-20.84509 49.01094 -10.98591
-21.99064 53.63658 -6.680408
-21.49684 53.74635 -9.307549
-21.88818 55.69194 -5.900166
-21.36624 59.67955 -3.48196
-21.21417 63.22844 -8.929016
-21.40798 59.0042 -8.936563
-21.66 56.33914 -8.12472
-21.42548 55.55999 -9.388537
-22.82726 41.75602 -4.408284
-22.58202 43.46215 -6.572001
-21.04482 66.1057 -5.42885
-21.25677 69.03709 -7.660621
-20.97845 68.97018 -4.142398
-16.41482 89.83427 -14.43829
-12.82825 90.17265 -15.4703
-12.57549 94.85403 -15.48034
-16.89727 94.03551 -14.0991
-21.38028 92.3573 -7.517674
-19.58807 92.64635 -12.1466
-21.19172 88.88831 -9.081231
-21.2996 88.59603 -8.567335
-19.82702 86.128 -11.86191
-22.69281 44.02848 -0.3902926
-22.70108 44.29027 -1.359969
-22.31124 49.24356 4.892539
-22.51077 47.07281 2.655149
-6.774364 90.62272 -14.13793
-6.705647 85.85817 -13.66596
-8.782355 91.89871 -15.15233
-9.73514 104.1405 -15.63676
-9.312366 106.5524 -15.52993
-17.52815 45.7481 -13.33586
-13.43679 47.03877 -14.18034
-12.58544 56.22792 -14.05711
-13.91638 53.89473 -14.19945
-12.29621 52.82103 -13.949
-16.89673 55.25573 -14.09344
-17.87046 54.08752 -13.71871
-18.703 57.85634 -13.33916
-20.02939 57.92191 -12.13673
-14.75083 60.59748 -14.52242
-14.09237 58.59242 -14.38539
-17.24641 61.92713 -14.10573
-10.30162 64.39478 -13.76276
-11.06701 47.62548 -14.07966
-3.587632 121.6333 -14.16139
-17.0026 66.87628 -14.28731
-13.10781 78.38743 -15.21677
-11.09954 82.4008 -15.1587
-14.11697 75.52745 -15.09528
-14.75639 80.76982 -15.12113
-4.774763 125.738 -13.82781
-15.47453 120.4487 -13.99113
-17.05838 122.5268 -12.03659
-5.612654 122.0283 -13.9572
-7.659841 117.9733 -13.09125
-7.065943 120.6411 -12.83373
-10.79418 119.4465 -12.9333
-11.35251 120.0889 -13.51627
-3.968717 119.5681 -14.34903
-8.831784 127.2215 -13.51628
-9.711662 123.2817 -13.78786
-7.612244 126.367 -12.42023
-21.30651 60.26617 -4.033545
-21.07159 54.16381 -10.49363
-20.40755 53.36305 -11.60151
-22.52994 45.94584 -5.641213
-21.30849 72.26088 -7.03938
-21.11377 69.51583 -9.242211
-21.04379 70.59428 -9.54247
-13.16848 89.84229 -15.41943
-13.3595 88.43042 -15.38582
-10.65045 93.27171 -15.56775
-17.82693 89.39878 -13.64264
-15.83775 82.33385 -14.84465
-17.56421 86.35001 -13.8798
-20.77737 86.2348 -10.15348
-17.04897 83.65796 -14.25284
-19.99434 82.40737 -11.61832
-20.17862 78.60448 -11.42054
-21.36668 78.69407 -7.228633
-21.32859 73.63625 -7.174345
-21.32114 73.36861 -7.358845
-22.5096 47.35398 -4.755904
-9.14789 52.79992 -13.71315
-17.4509 52.78677 -13.83581
-18.41026 61.75985 -13.54648
-14.29122 63.77922 -14.64804
-21.22199 59.52177 -9.777831
-18.42945 77.42112 -13.46677
-18.69055 71.78364 -13.38833
-19.22078 74.06487 -12.81872
-17.26459 74.56615 -14.28436
-19.79844 72.27641 -12.18375
-19.46603 69.29263 -12.68535
-19.24449 71.49912 -12.89482
-18.47853 66.43414 -13.58981
-18.51636 65.04763 -13.53227
-14.78034 65.33886 -14.70899
-12.62322 70.01109 -14.73208
-19.79523 63.21724 -12.42899
-14.24229 71.44218 -14.93603
-12.99964 71.16541 -14.85537
-13.2305 69.21962 -14.79588
-11.36302 73.41944 -14.62837
-15.9417 69.59983 -14.6702
-10.54593 74.0331 -14.41975
-19.25773 83.38394 -12.53581
-17.92849 82.01266 -13.72134
-15.68816 83.52116 -14.87084
-16.93295 85.36419 -14.29666
-18.54486 79.38072 -13.30938
-12.11765 84.4145 -15.36728
-12.13312 88.68076 -15.51245
-10.0178 88.44259 -15.26078
-8.814701 121.8889 -12.22307
-7.400903 123.6558 -11.9514
-11.08616 94.32914 -15.62605
-14.877 87.12751 -15.08766
-20.86609 73.32245 -9.912545
-21.75079 56.97533 -4.667957
-9.588493 90.36966 -15.28145
-14.91631 85.17059 -15.09408
-11.07599 149.5312 -9.689476
-11.85489 144.8841 -11.38125
-11.5781 150.9131 -2.459208
-11.96602 151.6324 -5.036795
-12.21541 143.0142 3.327793
-20.83039 44.7725 10.74237
-21.33784 47.82396 9.623095
-21.60302 54.54233 7.925182
-21.08668 64.26129 7.433455
-20.58627 71.48771 5.201854
-20.5661 70.47688 7.668158
18.55173 57.90461 14.56848
-3.231411 42.53689 19.91744
-3.883564 39.03846 21.15296
21.66657 41.19431 7.744157
-7.126912 39.09988 8.749304
-19.20374 40.53749 12.6375
-20.04675 107.3503 -0.09622199
-19.87559 102.8176 0.5928278
-17.16196 133.5004 -2.351035
-15.2602 136.8184 -2.90916
-16.24516 136.1495 -3.300883
-15.21307 138.231 -2.176548
-7.609001 141.2256 7.291875
-1.772173 141.1159 8.050999
4.129479 141.0664 7.973821
-14.38469 140.3182 4.209808
15.20513 108.8213 12.7438
-5.277864 40.4967 29.11608
2.74971 39.59373 28.03442
10.59369 39.21783 19.70601
18.07759 107.7592 -0.1115396
18.37115 39.45497 14.884
17.50476 103.9882 1.751749
15.92541 137.5852 2.302019
21.68941 57.03685 7.083103
21.71667 40.22107 7.499918
-8.83572 120.2233 13.82596
19.42244 88.60065 4.973324
-4.936627 41.17205 22.79877
20.07702 79.92544 4.374525
0.6168694 141.8082 7.464741
10.18837 140.6079 8.623125
-7.789013 38.49739 8.923794
-18.66069 39.58347 12.90636
-18.2927 44.19221 12.94135
21.06842 39.91875 10.52437
17.92484 112.8008 0.5682768
-11.3319 139.3797 8.881365
14.52973 139.6463 2.59456
21.36673 44.73476 8.965725
18.51942 130.4127 -0.8876811
18.16455 109.1828 -0.2182791
10.73397 139.9836 7.703494
16.46072 135.998 -2.150905
-20.95491 48.2006 10.25995
-17.89566 40.61858 13.15496
-21.64341 45.00661 9.216799
-0.7940013 39.86947 14.34275
18.73062 76.3625 13.1654
-1.25688 140.2211 8.849461
-16.95901 134.525 -2.521948
-18.63246 129.3941 -3.151451
-14.64588 139.7879 3.851322
13.69429 41.89187 18.09051
21.64345 47.111 7.770882
20.51801 42.5143 11.69702
17.12535 111.4928 2.492976
13.94781 140.2995 5.762645
18.80023 127.7787 -1.472126
15.49446 136.1139 -2.185687
15.8447 137.192 -0.03986978
-20.95481 48.53038 10.24764
-9.142728 40.18018 9.600368
-21.33815 44.43983 9.915701
-20.39297 74.39067 6.479458
-1.000324 40.71567 12.15764
18.05944 87.31898 8.508489
-19.50645 99.48342 2.146398
-19.63535 115.6308 0.01433157
-15.94032 136.0883 0.898425
-18.3238 130.0765 -3.639737
-3.415129 140.6502 9.033089
-3.84199 43.13722 29.86973
15.39921 40.36767 17.19607
22.06504 54.49241 6.306837
15.92201 39.55577 16.84752
18.97801 121.2304 -1.708473
18.89584 125.6058 -1.910842
14.31974 138.5408 6.955081
7.274647 141.1593 8.11629
10.64536 139.7347 9.179421
6.266682 140.8979 8.278075
18.42556 126.2754 1.157232
16.05968 136.9128 1.408027
16.3608 135.6906 2.0099
-18.79371 45.77422 12.64365
-18.68896 43.82936 12.7786
-11.82538 44.50104 11.54223
-7.357691 40.70681 8.860715
-1.825143 39.98109 10.39546
-20.10404 78.94357 6.714882
-20.22416 78.49955 5.411936
-20.75426 67.70385 7.762803
-1.115928 40.0785 15.92585
-5.285229 40.09142 23.50628
18.65743 95.17677 4.796029
17.74927 101.0168 1.758535
-19.77592 97.24196 1.190669
-19.23902 103.3679 2.671495
-20.17785 114.0424 -0.9147808
-1.035464 139.1554 10.14666
-15.6884 135.841 3.068171
-18.08109 127.1645 1.409564
-17.62466 130.2702 -0.9514973
4.559906 40.20773 25.47429
-4.300402 40.76485 30.0726
15.67778 42.76669 17.0446
20.97648 54.35077 10.04634
21.34641 47.91822 8.829227
17.8292 44.16832 15.47324
16.17542 43.41865 16.75058
17.79671 45.00923 15.50908
17.69252 109.3156 0.9494665
18.41696 116.3872 -0.402925
18.92112 123.4325 -1.250235
13.54667 137.0001 8.514153
7.674071 139.6702 10.08847
18.44298 126.9044 1.292287
16.8119 136.0432 2.693287
-20.41095 50.80898 10.88126
-11.45238 41.65109 11.18069
-10.89358 40.71613 10.75435
-4.914215 41.00423 8.66027
-3.332781 39.49192 9.14677
-1.007541 43.66905 12.37859
-20.03691 85.92188 3.509835
-19.54727 85.88952 6.822469
-20.94277 59.79175 9.083014
-19.66105 59.96375 11.2913
-21.58913 56.37587 7.548123
-1.286855 39.90554 16.40612
-4.620046 39.80445 22.27248
19.15454 92.33684 2.063966
17.57542 104.9084 1.173598
19.38481 84.81966 5.807645
18.47989 68.20255 6.475519
-19.4713 93.09284 3.818452
-19.47141 118.6543 -0.2785687
-18.29171 126.7792 1.630637
-18.76066 112.1855 2.852616
-19.48331 110.1373 1.212671
-1.523679 138.3632 9.737656
-8.882842 140.4961 8.899418
-5.935691 139.8291 9.941397
8.122202 42.3684 20.93195
4.912706 43.5475 24.28736
-1.271986 42.00485 30.32184
19.7224 65.11465 7.963993
20.56254 62.99042 8.63623
20.42693 46.73742 11.58773
17.67172 48.10254 15.63763
17.22069 113.9713 2.199842
17.54666 114.1518 1.470259
16.75825 134.8889 4.358591
18.75591 128.0777 -0.8327121
18.53317 128.3021 1.430984
-20.24445 49.89755 11.17981
-13.37175 42.48414 12.41714
-14.32102 41.86755 12.83902
-1.929291 42.77847 10.48323
-19.37085 91.61797 5.04502
-19.54176 86.93198 6.347838
-21.38421 58.79159 7.818902
-17.26138 60.93769 12.96202
-2.116719 42.68031 18.02503
17.77772 102.5773 0.5245727
18.88003 89.72977 6.395236
-19.6154 94.68391 2.453916
-19.26423 117.6546 0.4356791
-17.33313 113.2117 6.631589
-0.2019917 139.3959 9.645361
3.392752 39.39828 27.26005
-4.266723 42.65861 29.754
14.7842 43.22882 17.56942
20.66767 50.14606 10.80623
20.63254 48.7748 10.96921
19.40421 48.72332 13.43726
21.45616 58.40327 8.522666
1.773116 138.8237 10.31967
16.09756 135.9857 5.641108
16.52978 134.589 5.216146
11.30905 141.0827 6.980491
-15.33832 42.14978 13.14512
-19.55299 90.44711 4.452691
-19.70285 87.04201 5.210217
-20.20762 57.46125 10.72226
-4.30081 47.17476 21.40304
17.81951 100.4374 2.791765
17.42814 103.2251 3.145714
18.16898 91.81118 7.871632
-19.09402 104.3061 3.021253
-18.73965 119.0069 1.454557
-17.73554 114.7875 5.218633
-18.53658 107.4534 4.278175
-0.1347923 140.3024 9.361718
10.57879 41.68113 19.46421
-4.454049 44.70061 29.20945
-5.234275 43.85586 28.50721
19.88632 54.03134 12.4439
18.79804 53.87646 14.28382
12.45608 45.97511 18.43938
12.16439 138.6854 9.274759
12.87275 136.202 10.19977
-16.02613 44.28138 13.28352
-12.19664 45.30321 11.81348
-19.58611 83.41071 7.800522
-0.957454 42.47598 14.98003
-5.947611 41.76838 27.14202
17.23683 106.8214 2.345371
17.38946 109.5997 1.754134
18.86371 77.73082 6.809528
-17.90346 110.8691 5.500544
0.2874956 136.4333 10.13474
11.77493 43.30304 18.80895
9.754012 45.2839 19.52301
-3.942071 40.42163 30.33589
12.85145 43.08406 18.41639
21.26599 53.54169 9.252458
13.76346 135.7539 9.649338
-11.70448 49.04936 11.63101
-18.99442 87.32018 8.783796
-2.013719 43.28138 17.80059
17.23866 103.5211 6.40344
18.64455 84.10581 7.373857
18.66615 72.01909 6.294166
1.574728 42.73947 28.72577
7.500699 41.79194 21.57862
13.83731 46.59796 17.93658
17.59055 55.01523 15.6603
16.92505 45.88719 16.27194
-10.13808 47.45497 10.48707
-12.22312 49.91472 12.00652
-9.485492 44.45466 9.969304
-8.865614 42.66696 9.520985
19.47101 67.35592 8.697194
-2.520974 48.62286 29.38907
-4.980797 45.84208 22.71674
-3.724462 44.1256 20.60848
16.39479 47.01041 16.64145
13.60667 49.87836 17.91356
14.15371 131.9433 9.621699
-7.920103 49.42722 9.38583
-18.11764 110.0793 5.03478
0.1590617 135.8752 10.80327
-4.288886 46.72988 28.96349
-15.32535 49.30995 13.26342
-14.77632 49.72736 13.15843
18.83131 80.59334 7.028569
17.88822 85.10246 9.238553
0.2874794 137.8371 9.796877
5.288504 137.1609 11.6179
2.211047 135.5033 12.10649
13.72788 48.97522 17.90286
-6.736777 49.98186 9.052857
18.44311 75.81957 7.440864
-1.937088 47.70918 29.614
-5.585757 49.85787 24.95237
13.64795 49.54999 17.91138
-3.971263 52.2086 9.283685
3.219805 137.0447 12.17198
-5.521595 51.11176 25.73374
-5.431434 45.74237 8.806558
1.794755 134.8471 11.99487
-5.037675 48.02929 22.82461
-3.818562 51.16222 9.356676
-4.992835 47.39093 22.7204
-4.399172 50.73077 9.090184
0.1683163 134.4354 12.43234
-0.03907478 133.5032 13.56115
-4.455152 52.0235 21.55225
-3.008033 48.28465 19.27711
-4.159642 50.65865 21.05738
-1.792757 51.83308 16.97082
-1.990695 53.09711 17.34276
-1.610467 50.50367 11.22212
3.379475 133.7983 12.88499
-4.554131 48.97041 9.020899
2.872562 129.5661 12.64782
4.037988 131.4091 13.18258
4.720883 135.724 12.72185
-1.567758 45.84093 16.74409
-3.413179 43.35225 20.16167
-1.001896 51.35368 13.27164
-1.143284 47.0837 12.00002
6.45006 132.6586 13.78035
-1.463526 55.22012 16.00743
-3.589235 52.67848 20.02889
-3.067475 54.24997 19.13662
-5.093027 53.42826 23.02503
10.75545 135.8468 12.09676
6.726716 134.5547 13.4844
7.919298 135.0002 13.34336
7.912091 134.4874 13.56442
-15.76085 138.3739 5.096911
-14.13277 139.9135 6.251247
15.91585 137.2713 4.503986
-16.45329 135.1674 2.25319
-15.41382 135.9062 5.001184
-16.39623 135.3705 2.415511
-16.56446 133.2641 2.369744
17.47537 131.8501 4.51191
-19.89282 75.06702 9.274826
-20.24319 75.56499 7.445364
-19.69957 78.63216 8.942523
-19.57389 74.34652 10.2523
-18.89743 77.77079 10.98335
-19.65842 75.95485 9.787705
19.06351 92.93225 3.878083
-19.56419 96.03265 2.401581
-18.81027 98.07316 5.480327
-19.92951 80.11918 7.409271
-9.990812 140.5095 8.318576
-13.83436 139.3283 7.0931
-5.783168 137.5603 12.00037
-12.30979 136.7195 10.14809
-4.656773 139.2114 10.32806
4.794435 44.07351 24.36069
19.03264 56.36328 13.91302
20.80969 56.72049 10.56542
-19.63199 52.66058 11.71816
-18.37673 51.39589 12.63987
-14.21084 50.52753 13.02076
-17.35446 54.88911 13.01496
-1.244477 45.32248 11.67759
-19.84493 69.38612 10.32885
-17.55276 67.9425 12.74077
-19.37431 68.03054 11.20169
-15.69774 62.90654 13.30184
-20.80948 65.71037 8.281991
-17.72977 63.57354 12.72116
18.18855 97.70472 5.7484
-17.99459 106.2653 6.264222
20.20754 46.22507 12.06764
-18.72751 90.26862 8.795582
-18.08936 97.08388 8.786167
-17.93917 86.7172 11.30332
-18.71216 94.26156 7.353849
-18.20838 92.42204 9.74509
-15.63111 61.42987 13.31753
-18.60366 62.98621 12.18597
-12.09863 63.84312 12.46546
-12.52736 64.25374 12.67901
-17.49331 64.07092 12.82614
-12.46024 58.99276 12.48149
-11.02861 59.53954 11.64639
-6.886285 53.08787 9.194181
-11.4102 67.31056 12.2197
18.51275 78.15426 7.572828
18.96773 75.04053 11.87548
18.93312 73.07303 10.35163
19.359 69.59246 9.648455
19.54265 70.88531 11.06819
-17.66453 116.8449 5.093668
-17.84957 120.5744 4.234636
18.01952 53.24307 15.22258
16.7308 52.74831 16.39916
13.3869 55.22165 17.87351
-19.47964 82.50249 8.608852
-18.71738 81.18418 10.8556
-18.89773 84.14056 9.950179
-18.12795 83.75177 11.41858
-15.33286 117.3307 10.63898
0.1810375 135.8385 11.63116
7.336585 44.26218 21.29391
17.26507 103.0016 6.855773
17.83939 100.2752 5.467145
18.1165 97.75436 6.18386
17.15489 98.34483 9.53775
16.8052 92.8022 13.6247
17.47266 95.7222 9.157503
16.57236 96.95724 12.50945
15.56563 111.8485 9.75389
16.80057 105.0452 7.923694
16.67031 96.34428 12.3596
16.97836 93.91931 11.89735
19.69345 68.72813 10.11968
20.023 66.66174 12.1156
-7.071473 45.50424 8.958024
17.65092 83.50657 14.32218
18.17516 76.77261 9.679466
17.02765 92.49243 12.48863
17.50589 87.18775 12.48227
17.55423 88.40401 10.32631
16.10838 95.03167 14.65124
16.90267 92.89685 13.07863
16.97011 88.07774 14.7337
16.3786 97.91297 12.90243
17.33287 91.26162 10.70766
15.47178 90.9344 16.03935
16.52367 91.12604 14.85461
17.13395 89.29287 13.91716
13.34633 92.7887 16.94194
14.91587 94.7486 16.11868
17.95476 82.27589 11.7989
2.129477 44.59106 27.91482
-5.434483 50.81789 26.32664
1.176421 49.76855 28.06499
-5.258996 53.13642 26.25698
-2.901444 54.14766 28.44706
-5.169549 54.66427 23.3662
-1.35202 53.13519 28.73848
-4.342628 50.55523 28.19289
-5.370881 54.73819 24.52828
-0.8207109 55.53045 28.3013
-2.272058 53.43693 10.4651
-1.045902 52.97541 14.03089
3.28223 127.7116 12.86378
4.765679 127.0062 13.63488
7.198086 133.0502 13.82035
7.810095 136.2285 12.72219
-15.46376 137.4271 5.765393
-16.27884 133.2544 4.409535
-11.46149 140.4403 7.861195
16.87103 135.4587 3.408136
-16.10699 130.0707 1.589117
-15.02068 129.5038 6.913159
-18.36992 126.3379 2.043304
-17.24701 125.0893 6.047346
-15.61963 128.4455 5.13628
-17.57994 123.0503 5.204332
-16.88664 118.3717 7.041468
14.91502 131.7965 8.537359
15.92194 130.7959 6.958992
17.59449 129.8336 4.296386
15.77688 128.9298 6.693957
16.32925 130.7939 6.378381
15.73425 125.3374 5.908552
16.30276 124.3013 4.785507
16.70282 124.8123 4.260261
14.89736 125.4096 7.387434
13.43907 128.993 10.41092
16.13994 121.7361 4.698602
15.06613 123.4215 7.001243
18.12989 121.8434 0.9932188
18.18522 121.4716 0.7987478
16.22554 120.3686 4.465682
15.68658 119.9307 5.694154
16.86785 118.0759 3.067902
16.56196 118.9344 3.723931
15.53505 119.075 6.23843
13.7815 125.331 10.15975
13.63048 124.2305 11.15174
15.36556 117.2336 7.300304
11.06544 131.2205 13.4047
12.24518 125.7283 13.6119
8.282372 129.4732 14.35226
6.918061 131.6566 13.93862
12.02638 121.0617 14.67949
9.672364 130.5322 14.08551
7.142684 128.9444 14.31318
10.6215 126.9817 14.46487
15.27333 114.0011 9.78989
14.68127 117.0913 10.74856
-18.67369 102.5019 4.828313
-18.28078 95.01394 8.806815
-18.54398 99.52065 6.170179
-17.25678 92.94025 11.58612
-18.54349 102.4622 5.320405
-17.0499 97.96043 11.15478
-6.103575 137.0053 12.45724
-4.464526 136.8562 12.41291
-7.782074 135.5015 13.13556
-9.767532 135.6681 12.74161
-10.58404 134.845 12.76614
-7.362068 134.4771 13.5681
-12.30408 130.9711 12.42505
-9.811218 130.8137 13.73847
-11.976 129.9484 12.88286
-14.49201 130.5812 8.943752
-14.19237 133.4813 9.283783
-14.05424 132.0566 10.12856
-14.73584 128.9069 10.01115
-9.659986 125.2469 14.09061
-11.98385 129.0284 13.03885
-11.43237 126.8865 13.63485
-7.802548 122.8742 13.50164
-11.71991 120.0337 14.05276
-12.44368 117.6169 13.87531
-15.55687 115.2738 10.59674
-16.65039 117.1894 7.730938
-13.78621 104.4602 13.76516
-12.71267 118.0042 13.72731
-15.00234 116.3432 11.46279
-16.84708 120.2485 7.030459
-17.12818 120.5655 6.350829
-14.10389 126.4797 11.24156
-11.84663 118.4818 14.06716
-12.62539 124.5709 13.18064
-16.73525 124.4196 7.306687
-10.38251 126.1546 13.98421
-11.98669 125.2496 13.53895
-13.44332 123.4819 12.53679
-14.55585 119.911 11.60089
-13.19611 122.3884 12.93299
-15.69872 118.9708 9.600596
-15.70847 122.7825 9.166018
19.64421 60.36341 12.91962
17.01656 115.4173 2.691921
-13.7905 52.15781 12.90771
-18.36567 104.488 5.45553
-17.87784 103.0561 7.561163
-17.97102 90.46492 10.7252
-16.28505 92.31418 12.75677
-10.50671 60.0444 11.31329
-10.49128 59.3605 11.27639
-9.233628 66.22838 10.80062
-5.438649 56.57466 9.149475
-9.860162 62.9136 11.01795
-8.314244 57.64462 9.895731
-13.38734 55.55909 12.81641
-14.80857 58.44333 13.26119
-13.64407 68.09319 13.18419
-15.24755 68.09467 13.36346
-11.92887 71.34573 12.6557
18.44047 72.74158 7.017637
16.15071 57.09696 16.7313
10.799 51.87812 18.61837
19.24071 58.74231 13.5518
20.4933 62.77017 11.33674
14.31535 58.5343 17.51755
18.92182 60.16198 14.02121
16.43225 63.39665 16.43412
14.42823 59.23628 17.46977
12.30409 55.60292 18.09881
6.868478 48.45518 21.0169
8.812271 50.49102 19.43343
8.110838 49.92237 19.86307
7.261215 48.99341 20.58822
9.684396 51.97972 18.93419
10.57588 55.40355 18.45855
5.007111 50.7311 22.82985
3.078018 55.0773 25.00549
3.235178 52.64162 25.18324
2.625032 51.44798 26.2546
-19.58391 77.23276 9.687392
-17.90838 78.34756 12.15323
-16.79809 110.9462 8.615103
16.42368 102.5899 10.82674
4.989352 47.77293 23.3991
18.08941 80.87379 11.70391
18.48308 78.21057 12.12759
15.72497 98.6545 14.60564
16.43745 91.62829 14.93363
18.02345 81.93142 13.61523
18.11628 81.12684 13.41528
16.97353 80.8166 15.65998
14.22603 75.16066 17.16785
0.06439956 52.28695 28.42402
0.3979523 49.88991 28.60065
-3.54511 60.97223 19.69615
-5.012766 57.41805 22.95527
-5.142158 57.56705 25.25374
-4.60717 61.27847 21.8046
-4.105556 60.20052 20.71112
-1.898301 61.72346 16.71938
-3.07618 63.31816 18.85145
-2.465142 59.61378 17.95578
-1.22042 64.23797 14.021
-1.254638 64.11231 13.0227
-1.247019 60.11249 14.78119
-1.751319 66.88708 16.12871
-1.687592 67.31532 15.92091
-1.24834 62.7684 13.20389
-3.214932 57.14774 27.83359
-2.189076 60.06723 27.67193
2.8663 62.79877 24.03597
0.9575527 58.08576 27.01299
2.586452 129.2229 12.5064
-16.08118 133.0603 4.859885
-13.68997 140.1917 5.137242
16.35818 113.4562 4.660719
14.61138 121.4602 8.616297
16.33836 110.3498 5.843482
14.40898 113.2436 13.29706
15.18931 112.89 10.97469
14.86783 110.026 13.21364
14.54156 114.8303 12.34309
14.76816 114.432 11.79655
13.89033 116.738 13.31384
13.37502 117.0988 14.03588
15.05867 104.7474 14.34122
14.17167 105.2235 15.32345
15.08182 106.0362 13.93303
12.4269 121.7444 14.21255
16.07113 108.7504 9.188747
15.94658 110.4271 8.582878
16.39485 106.4181 9.132734
12.67535 115.345 15.03271
13.2812 121.1747 13.24821
9.656734 119.1356 15.69866
16.5571 108.5063 5.835003
12.62021 119.9183 14.34039
10.22697 120.0027 15.55999
5.191062 122.5856 14.0883
7.770939 124.0513 14.97303
7.238188 121.326 15.01722
4.360107 117.5685 14.03831
6.90937 115.5903 15.17797
-17.52968 96.35212 10.47189
-17.41774 98.52145 10.27324
-16.8478 101.6316 10.83598
-5.459056 135.1621 13.13072
-4.063173 132.6799 13.06164
-1.67698 131.8702 13.34381
-1.311098 131.4914 12.36208
-0.5484449 131.4323 14.83084
0.2243739 128.5656 14.6042
-0.8995472 126.9113 13.83399
0.927336 127.4674 12.56393
-2.688048 131.3027 12.54102
0.8127173 125.2076 13.49179
-7.506771 129.9027 13.65109
-4.047222 128.6387 13.33697
-10.47932 115.7676 14.19342
20.91981 60.71297 10.28763
-9.808108 81.95394 12.00672
-7.080303 59.02448 9.471152
-2.628607 58.95975 10.29935
-2.39121 60.26978 10.53352
-2.068196 57.46191 10.79843
-2.652808 60.28851 10.29605
-10.00745 57.35561 10.86753
-11.36971 58.07366 11.79899
-12.3193 58.89128 12.40068
-10.98617 54.93233 11.40193
-7.979045 73.1506 10.44173
-11.42171 71.1757 12.36251
-8.667178 66.08639 10.45837
-2.734341 70.57177 10.60337
-2.443911 66.13609 10.77088
-6.455296 63.42826 9.500146
19.0549 62.23061 13.82285
18.03312 63.52132 15.06915
15.77652 65.61246 16.78689
16.36588 62.89399 16.49298
6.812576 46.37401 21.44251
0.03985739 58.24992 27.54066
2.568298 58.5213 25.19331
2.130691 56.94788 26.01749
2.670196 55.41055 25.54263
1.865478 54.35053 26.73381
3.361902 59.65791 23.77042
-15.75748 77.7249 13.28701
-17.29556 110.255 7.40338
5.738406 48.72276 22.23581
4.209931 46.4789 24.78481
16.11778 101.7347 12.39225
14.77906 100.4096 15.53144
11.98103 94.91805 17.07429
11.64671 93.78909 17.07423
16.58623 82.29694 15.8977
17.7084 75.84979 15.18769
16.2752 78.41938 16.28323
18.53925 72.87067 14.30119
19.30782 72.36705 12.78458
16.14021 71.09262 16.50251
15.28722 70.40903 16.92341
15.78035 64.93336 16.79915
16.63552 69.2818 16.22673
12.99905 74.71426 17.36915
13.12052 73.02168 17.39361
-1.556631 60.76995 15.89409
-2.082595 56.96307 17.3246
-1.734064 57.26671 11.30327
-2.373004 55.21803 10.42177
-1.132917 57.55276 13.89543
-1.305743 67.89005 13.20121
-2.886928 74.46896 10.68043
-3.194453 71.36475 10.32327
12.31166 115.8399 15.2438
7.28806 113.2659 15.43589
14.00154 110.7131 14.52259
16.90918 107.434 3.942581
9.656114 124.9286 14.989
11.7023 123.0479 14.5928
0.5772261 124.2995 14.54169
-16.03019 95.06443 12.83327
0.7091303 122.0706 14.93227
-5.919496 126.3997 12.89328
-1.018442 129.7145 15.32316
-14.43076 135.7068 8.74426
-14.7191 103.1282 13.34243
-15.15149 102.6326 13.0051
-14.27712 100.8526 13.68129
-14.18638 104.3857 13.59009
-14.92051 112.5486 12.19265
-13.55419 116.1358 13.31011
-11.4684 113.7976 14.25028
-10.17485 116.8447 14.14604
-4.596383 118.9522 11.92264
-17.41085 102.9908 9.082753
-17.06898 108.507 8.490206
-16.3189 89.19148 12.9067
-13.37384 93.11923 13.84399
-6.125367 60.79435 9.331613
-3.210312 67.47266 10.1508
11.59326 55.68524 18.22898
13.25701 58.22603 17.79481
5.374298 57.66348 21.09966
7.874287 56.67736 19.24576
9.195716 57.53102 18.6367
5.761321 60.64276 20.23001
4.260612 59.46526 22.29845
9.143298 59.54976 18.48077
10.92146 60.04642 18.10964
13.75001 70.07101 17.3681
-13.67108 76.70424 13.43357
10.40976 75.60003 17.40439
-3.929984 70.19701 20.20319
12.20752 77.36926 17.368
-2.155626 52.66236 10.54573
-1.284885 71.62408 13.4934
-3.470153 71.74572 10.19313
8.418356 112.7234 15.92564
12.25074 110.6549 15.9037
12.01419 110.2626 16.05759
16.86329 106.8413 4.965093
3.034197 118.0783 13.71794
-15.67415 96.33829 13.05055
-13.15033 96.5484 13.93373
-12.1242 95.49963 13.81549
-11.24051 94.86061 13.51835
3.675843 120.9915 13.56586
-5.225117 125.5998 12.64782
-3.8294 126.3056 12.68182
-2.00765 118.8406 17.46485
-1.143484 126.7286 14.25089
-15.95982 106.7773 11.5408
-9.75329 99.76138 13.11874
-12.93216 103.1904 14.03188
-11.60467 106.7753 14.16446
-14.368 107.347 13.30339
-10.19377 107.7302 13.74544
-12.75178 111.6387 14.02889
-10.41573 108.6735 13.92641
-8.815969 102.814 12.68301
-8.447223 108.2111 12.66106
-9.753543 103.4721 13.31265
-15.48759 106.4813 12.30342
-15.44224 111.2689 11.59533
-11.83275 75.34821 12.77681
-13.52877 74.69657 13.34413
-11.47687 73.26642 12.48319
-5.813281 66.66607 9.536166
-2.864041 62.38066 10.21359
-6.053042 63.7205 9.444732
-16.54958 72.6196 13.08164
-14.67929 70.0948 13.39374
5.814373 63.48503 19.75909
3.783691 63.57526 22.32227
1.21276 66.4236 25.52704
2.93429 65.1722 23.44562
0.09689537 64.11773 26.67255
-2.712257 63.79449 27.05389
10.20544 60.46207 18.19798
15.6345 64.15522 16.89679
16.26588 66.40952 16.49976
15.47302 69.31964 16.86503
-13.39641 71.36744 13.20043
9.94269 75.56472 17.40115
-5.358314 90.52967 10.56632
5.918224 114.0568 14.79271
4.549783 112.929 14.43043
11.35213 108.0327 16.45069
1.802866 121.9741 13.18312
2.467497 111.7448 14.92353
4.150452 112.7553 14.3991
1.595621 110.1747 16.44253
1.093815 113.7856 16.55937
1.367614 109.2645 17.21058
7.731914 111.036 15.71602
7.461084 108.965 15.66979
-10.9497 94.34048 13.38201
-8.115803 95.09482 11.83794
0.7682962 123.3851 14.25689
-1.857216 119.8072 14.83447
1.70098 118.2809 14.25051
-5.760799 121.1126 12.45156
-6.589554 117.6502 12.53793
-6.913482 115.2646 12.46551
-4.284982 113.9124 11.7627
-1.832762 122.207 16.78849
-1.866415 109.9239 12.46687
-1.912273 112.1695 15.31001
-1.33597 107.7916 13.20401
-1.905495 111.7699 12.35272
-1.923916 123.9628 15.27864
-8.322384 109.6205 12.67177
-3.948514 110.8975 11.89969
-3.616877 114.3092 11.75301
-8.638278 102.5168 12.54567
-8.576882 105.7466 12.62722
-16.04549 108.1233 11.11178
-11.24331 76.88683 12.53908
10.23759 62.18298 18.08742
12.29358 72.28662 17.49218
10.85982 72.31757 17.54376
14.26558 70.10688 17.2515
6.905535 65.24292 18.79698
12.9357 82.34457 17.25229
10.62235 97.6285 16.89949
7.016593 100.2314 15.84148
13.97213 102.1206 15.92801
9.095046 108.1046 16.30366
-2.519982 106.7452 17.98724
6.810176 106.4299 15.52136
-16.84683 82.78688 12.74685
-4.042235 123.6487 12.23396
-1.721184 119.3786 12.84405
-6.079418 109.3465 11.74744
-4.302813 108.5025 12.05706
-6.715943 109.0233 11.78712
-7.603209 99.63141 11.75558
-9.034679 100.1824 12.71401
-2.376107 103.6654 12.14536
-5.562169 100.6239 11.20614
-6.734786 97.74242 11.30188
-5.587773 96.8632 10.99221
-5.921226 102.4201 11.30982
-3.795117 105.1786 11.9712
-1.953256 100.1174 12.32917
-3.811829 99.47344 11.24218
-4.78579 93.19855 10.71583
-1.42452 101.6867 13.88574
-1.599799 99.96503 15.07516
-2.742375 98.07274 11.6988
-1.591282 101.8259 14.99218
-1.46809 97.15067 13.67245
-4.107168 92.19181 10.78794
-7.209802 90.6979 11.13366
-4.60797 91.52595 10.64017
-1.899982 97.02689 15.92526
-2.550092 99.38431 17.46708
-5.207628 85.99037 10.3561
-9.707559 86.63773 12.24185
-9.933405 82.3568 12.10907
-8.722055 82.11113 11.34471
-8.017198 75.41109 10.56547
-5.261535 76.77672 9.938704
-6.619661 75.78493 10.08262
-3.752992 74.97086 10.17479
-7.014123 78.53315 10.32664
-9.44744 79.64903 11.61914
-8.907169 81.41061 11.40407
-11.80148 80.21999 12.976
-10.7607 79.65421 12.41879
-14.89331 82.23021 13.55251
-11.31824 81.30992 12.81116
-11.53099 83.00832 12.9937
-12.38628 81.13297 13.23389
10.39875 63.31615 18.0064
-1.534796 76.30007 12.70083
9.309315 105.3676 16.47383
10.48446 101.4744 16.80341
0.6290633 114.5145 17.49029
-2.078776 109.6762 16.03955
-1.70775 106.5991 15.19864
-2.074902 107.5119 12.37784
-2.303388 105.7067 12.40388
-1.397567 104.7696 14.17973
-1.792298 104.8108 15.53933
-2.542783 105.6843 17.59484
-2.767267 101.9015 18.285
-2.462594 105.9808 19.57684
-13.86637 88.53352 13.74276
-10.84245 86.18657 12.83605
-11.99746 88.13002 13.42368
-11.51163 86.6674 13.19079
-1.878748 122.3456 15.18475
-3.305788 90.09811 10.97219
-1.660371 98.05115 15.33148
-4.071124 81.05911 10.30842
-7.317966 72.12802 10.11568
-1.5592 77.50196 12.64309
-2.683741 79.12409 10.95408
-9.713861 81.90533 11.94406
10.4679 64.10612 17.9578
9.130516 68.3209 17.85313
7.260873 74.80977 17.70274
3.31471 76.81039 20.63663
5.079662 72.55296 19.181
4.863805 80.91061 18.15612
4.1936 72.7647 20.06504
6.619763 67.26569 18.73664
2.668103 99.34928 17.25855
5.478747 103.0814 15.41199
6.03073 100.1931 15.64736
4.957582 101.1078 15.61334
0.6553427 101.7029 19.97086
4.250832 100.4285 15.99171
3.430324 106.9293 15.18097
2.481111 104.6109 16.46515
6.121286 105.3534 15.37585
2.197109 102.6882 17.1756
1.912755 102.5869 17.65412
-0.4178255 95.65424 22.11764
1.872772 100.6358 18.05809
2.329042 98.26328 17.81047
0.1693003 103.007 20.41813
0.7286817 98.77694 20.40034
-1.584525 100.1109 21.632
-3.002206 96.82067 19.30886
-0.6753407 93.95859 22.49911
-2.933691 98.65989 18.77209
-2.890515 100.057 19.21395
-0.7476752 109.2092 19.96655
-2.309713 108.4717 16.80771
-2.138578 110.9988 18.81714
-1.669116 112.0986 19.42801
0.5044935 113.376 17.95332
-1.672531 124.2627 14.63111
-1.334233 124.1589 12.73343
-2.872496 120.675 11.90081
-2.150683 116.6196 17.34056
-2.172563 118.4046 15.5746
-1.670714 116.4123 18.40417
-0.297337 116.5778 18.26909
0.4759167 120.4574 16.06655
0.00326207 118.0187 17.87389
0.003255227 120.5062 17.10096
-3.937155 81.61012 10.34446
8.762079 73.55407 17.54762
-1.530629 76.63717 14.99977
6.745695 74.64094 17.91207
5.394492 71.99477 18.96889
5.310187 70.38219 19.26071
4.103698 76.56274 19.5454
3.201153 79.17557 20.36648
1.36476 76.89452 23.60788
-1.422711 80.14297 13.60542
4.606123 80.87035 18.35407
2.761472 76.1471 21.67667
2.98566 75.53513 21.39786
0.9869826 69.12135 25.2912
1.413224 67.50054 25.15106
3.556623 66.8671 22.06828
-0.8546258 69.72504 26.14196
2.01808 78.08234 22.55649
1.247438 73.17889 24.40553
-0.8452225 68.36868 26.34383
3.493198 67.6995 22.01977
6.912879 97.29765 15.93272
10.17928 93.5789 16.89323
3.017953 96.50829 17.37461
-1.841523 100.9652 21.33462
-1.574265 123.8973 14.03036
-2.115438 86.84536 16.61604
-2.993955 88.03277 11.05874
-2.941619 88.966 11.12823
-1.417743 92.91298 14.1328
-2.184965 95.11617 16.60336
-1.636803 91.5224 15.27956
-3.373842 84.63564 10.74857
-2.213583 89.92639 16.72681
-1.569359 89.22161 15.11962
-1.491946 72.3009 15.00749
-4.595195 68.11549 23.35009
-4.12297 66.57107 20.65883
3.510618 80.81513 19.57932
-3.889982 76.50227 23.70239
-0.2873543 72.59189 25.58704
3.342567 70.59827 21.72415
-4.807233 62.13516 22.47157
-4.370353 63.11286 25.64632
-4.72338 64.29924 22.34775
-4.176104 70.12502 24.53297
-3.601491 71.82758 19.48055
-4.332823 68.38005 24.49335
11.31236 91.74471 17.0866
-2.728789 98.06897 20.78624
-0.6075767 96.16459 22.15277
-3.09745 94.6516 20.42603
