# .PCD v0.7 - Point Cloud Data file format
VERSION 0.7
FIELDS x y z
SIZE 4 4 4
TYPE F F F
COUNT 1 1 1
WIDTH 1673
HEIGHT 1
VIEWPOINT 0 0 0 1 0 0 0
POINTS 1673
DATA ascii
-4.299994 104.0094 11.70091
-8.678963 102.373 10.10511
-16.37929 98.38588 -4.075127
-5.795075 123.5016 12.36266
-13.28178 124.0909 3.850049
-13.5795 126.9507 4.704419
-14.17561 77.38825 9.811347
-3.556859 88.02914 10.15127
-2.379883 106.5165 12.33001
-6.964736 110.5403 10.98232
-8.401769 110.336 10.35682
-8.161802 114.8739 10.29013
-12.84873 114.9989 1.351215
-15.47169 106.7132 0.1558069
-16.2711 104.5083 1.043719
-16.27565 102.7852 -1.113734
-10.07202 100.6553 9.515307
-16.26207 104.6438 1.331047
-16.42043 103.5381 0.4545538
-14.78996 132.9342 7.687481
-13.67732 136.2662 8.16263
-12.40382 137.4446 8.936016
-8.962967 132.667 13.77569
-6.471464 131.3547 13.70687
-20.20814 84.23483 3.599121
-19.11864 90.18352 -2.254774
-19.14153 91.23071 -0.7059823
-19.33757 87.5702 -3.009025
-19.52051 88.5518 -1.826247
-4.771398 93.73046 9.936725
-3.477994 90.12714 10.00592
-6.044858 90.74403 9.951622
-4.718552 102.3582 11.23119
-5.890345 97.13586 10.13566
-9.043226 96.39597 9.748771
-9.018263 94.36427 9.693638
-7.875988 96.2137 9.864175
-9.192685 96.91846 9.725985
-9.688874 96.67702 9.654214
-5.759424 96.57798 10.07676
-13.35094 126.693 5.861126
-13.0279 126.8314 8.276889
-2.779534 107.3772 12.33222
-10.22012 108.7147 9.771536
-6.85576 116.7383 11.14907
-8.333673 117.1203 10.4703
-16.83872 101.7128 0.3155848
-14.71762 131.7866 7.055904
-14.18019 131.8062 9.540628
-13.64791 129.6859 8.952137
-13.82383 135.1569 9.160375
-10.0068 131.2327 13.25288
-20.16716 80.96134 4.257913
-19.79491 86.96008 -1.842087
-19.81712 87.55341 -1.245957
-20.04516 87.37817 1.60923
-6.071895 90.07385 10.00063
-4.505718 89.4791 10.04326
-7.91175 92.29056 9.843993
-8.609749 92.44902 9.818928
-10.99289 94.93122 9.506706
-13.70777 123.5545 4.510498
-12.7326 125.9547 8.311183
-16.18745 79.38147 9.385274
-19.8157 77.78931 5.032789
-18.56471 78.92265 7.337862
-12.78457 108.3332 8.156809
-6.353034 116.2599 11.30846
-13.01549 128.1022 8.848181
-14.11325 135.8234 7.718471
-11.05172 131.2222 12.80978
-7.981826 128.3415 12.82405
-7.849011 127.1585 12.53532
-9.642007 125.5502 11.26076
-19.88502 88.33951 0.5255623
-20.15019 86.18661 -0.5607019
-17.90885 91.96857 6.04494
-19.81055 88.36816 2.343193
-19.91936 88.18182 0.7501357
-19.34252 90.70921 0.100539
-19.30409 89.46895 4.017118
-13.27074 88.26119 10.08372
-19.31823 90.82847 0.1961368
-19.22285 91.26439 0.9757659
-7.316895 90.52546 9.958475
-13.82036 124.8304 6.15654
-12.71203 127.2602 9.011086
-11.94666 127.6225 10.06981
-9.910658 125.9031 11.21391
-11.91346 129.2404 11.2434
-10.8879 129.5243 12.17515
-9.045444 128.3747 12.52775
-13.37421 128.8174 8.399659
-14.59239 131.2375 6.170091
-4.481854 108.4189 12.08064
-4.954832 105.7427 11.81301
-8.643817 118.9256 10.63623
-5.976853 119.3062 11.78391
-8.581408 120.0062 10.85558
-8.500371 115.5862 10.15611
-9.368208 114.4298 9.46599
-11.0382 117.3784 8.074516
-10.83212 117.2079 8.714694
-13.20841 130.2943 10.49182
-13.32413 132.5443 11.05334
-13.09654 132.5146 11.34909
-11.42202 133.3172 12.7448
-10.02886 133.7329 13.38076
-20.13517 85.5449 -1.144883
-17.07954 100.6895 0.5007091
-14.77794 91.66006 9.280929
-10.35469 124.7497 10.57668
-10.08758 125.1125 10.84311
-14.62664 132.2684 8.328811
-8.40749 108.5852 10.56806
-3.703204 106.347 12.21261
-6.086329 106.9362 11.52084
-5.257404 121.0364 12.17728
-5.082673 122.3823 12.3606
-6.86692 123.9969 12.17014
-10.89036 120.0432 8.763568
-9.276783 116.8694 9.960623
-10.34845 110.3462 9.3764
-10.32177 111.2772 9.139384
-13.31166 117.8053 4.920014
-12.89668 136.0661 9.872766
-12.16178 135.2797 11.47042
-6.62245 124.5047 12.32461
-18.56432 93.57659 0.1267837
-18.87988 92.54078 0.6217836
-17.81512 96.13336 -0.8530833
-11.17923 124.3571 9.770013
-11.14444 120.9967 8.700887
-9.506185 124.3538 10.99811
-8.515529 121.5122 11.10168
-6.763795 107.4082 11.25448
-5.721484 102.8512 11.05824
-8.824908 120.9583 10.81649
-10.65433 114.1884 8.696247
-12.15032 117.5226 6.232688
-8.995413 125.2281 11.56709
-17.79234 94.05451 4.991967
-16.69906 92.04003 7.791833
-18.09202 94.00365 4.057303
-17.6262 97.43234 2.026593
-18.07731 95.43296 0.665176
-17.73277 95.85301 -1.859508
-10.33729 93.38796 9.676826
-10.38747 122.8611 9.900437
-7.597705 122.0751 11.60729
-5.358585 104.5128 11.46896
-10.41536 117.888 9.364885
-11.77612 119.2379 7.415188
-13.90495 92.33681 9.441691
-18.47097 93.05755 3.505597
-18.86203 89.2627 5.49017
-17.37619 99.0516 0.4108291
-17.34981 99.17714 0.3612921
-7.959369 107.4391 10.80218
-10.40747 121.9971 9.561307
-10.37514 120.6356 9.378603
-12.5618 124.5005 7.104359
-12.6395 121.0244 5.769167
-13.617 125.2716 6.086492
-14.12424 121.8161 3.253001
-12.35402 119.8381 7.031736
-16.30288 92.48569 8.049959
-17.17783 99.06078 -1.031164
-17.29184 98.57592 3.103892
-17.04257 100.002 -0.7043877
-14.03113 120.861 2.48173
-12.91078 123.2104 6.109688
-12.56736 122.4151 6.589008
-18.00485 92.84142 5.35105
-15.95202 92.12962 8.43829
-16.60799 93.81622 7.256567
-14.99558 95.20437 8.334337
-17.50992 98.20013 0.2727994
-17.40004 99.06427 0.9361684
-17.79656 96.69939 1.27225
-14.15546 121.4432 3.608938
-14.05447 120.9202 2.576098
-12.25487 92.9586 9.591692
-14.6805 94.88663 8.595997
-16.11751 93.88796 7.777221
-14.55334 93.93041 8.86097
-17.65295 95.06781 4.569183
-17.72753 97.10176 1.248227
-16.87864 90.7308 8.058845
-17.79525 95.83192 3.228432
-17.41489 97.07916 3.696172
-17.20991 100.0781 2.207208
-6.198941 137.2588 11.84572
-9.536157 79.69389 10.05206
-10.09811 139.6986 8.92058
-8.891006 139.6879 9.473949
-8.714708 139.4971 9.704585
-9.200487 138.7107 10.30099
-8.873293 135.1998 13.24497
-8.697021 138.1947 10.9248
-9.625852 137.658 11.1151
-10.14728 135.3528 12.83405
-7.489051 135.9178 12.93258
-11.45712 136.9331 10.68553
-5.594797 126.8329 12.88671
-5.718628 84.17231 10.29712
-5.531073 85.36075 10.28011
-7.179317 87.21104 10.23141
-4.787614 87.69877 10.17643
-5.548326 85.99 10.2665
-6.327315 85.55915 10.27248
-5.946913 78.36594 10.00986
-15.044 108.7891 2.2442
-8.936935 97.82437 9.705698
-7.387072 101.4062 10.36102
-7.051155 101.68 10.49343
-9.189129 100.5903 9.768411
-9.83769 100.0894 9.571222
-20.16446 83.34701 4.058983
-20.44249 84.35233 1.990967
-19.95114 83.97717 4.618306
-19.81668 84.4948 4.912745
-19.40767 83.95852 5.936931
-18.10531 88.15573 7.343199
-19.58521 84.92984 5.418421
-18.66901 86.65154 6.813789
-19.46373 84.65926 5.756792
-17.60038 82.5453 8.4798
-18.57507 87.97091 6.679259
-17.45345 81.07318 8.562796
-10.61975 85.11801 10.2657
-13.99779 77.644 9.864861
-15.24856 81.221 9.872353
-16.17227 84.07805 9.465631
-18.33663 82.82844 7.667347
-18.17319 83.3772 7.88669
-18.40004 84.45939 7.526268
-18.87123 79.05879 6.942533
-19.07651 80.29941 6.645916
-19.21058 81.83896 6.473192
-19.99373 79.59826 4.69829
-12.74572 120.3177 5.552832
-13.10599 119.3472 5.845699
-12.96083 119.1165 5.166662
-10.37804 106.7712 9.850899
-9.798366 109.2211 9.877645
-9.544289 111.2454 9.656764
-7.56262 110.9016 10.68817
-8.538253 111.2559 10.18764
-9.432956 111.0036 9.758109
-9.178105 111.6913 9.792823
-11.22475 112.053 8.151969
-16.70047 102.7781 2.483009
-9.653478 112.6919 9.334393
-13.61893 114.9687 3.263229
-12.4134 114.4358 5.907091
-14.00001 111.2838 2.095753
-14.75634 109.5593 2.373817
-12.16122 108.0112 8.801395
-14.43469 110.2476 2.104813
-13.54299 110.8772 5.818169
-12.89724 108.8324 7.792665
-12.68804 110.3514 7.31255
-13.86399 110.9978 5.290649
-15.88306 104.12 5.180869
-11.63024 110.0933 8.525167
-11.26964 107.3784 9.421123
-9.329687 105.0548 10.16336
-7.778607 104.4541 10.66061
-12.32643 109.567 8.099666
-15.29498 108.0113 2.985997
-14.40739 109.4918 4.578058
-15.8401 105.5467 4.308224
-15.30815 107.0387 4.555011
-14.26357 110.367 4.61993
-15.9946 105.625 3.286833
-16.87688 100.5617 3.699804
-16.19185 104.9184 3.00605
-15.51718 106.7138 4.223464
-13.38058 106.238 8.196934
-10.57071 100.4649 9.356885
-12.06551 104.5307 9.10429
-11.40644 105.7905 9.400137
-9.762822 102.5699 9.781034
-15.71239 104.6211 5.352625
-15.27649 106.2939 5.361613
-11.31696 102.0256 9.225136
-10.69377 103.8014 9.592881
-12.6442 101.6824 8.697886
-12.42367 100.392 8.805509
-13.5313 99.57989 8.340114
-8.585401 101.7686 10.05623
-9.233096 102.0094 9.892404
-12.53631 94.99062 9.295975
-11.99046 95.77482 9.280532
-15.43848 95.49551 7.903095
-12.71905 95.88186 9.110238
-15.87077 97.42428 6.848911
-13.73571 98.14935 8.446959
-16.47157 96.55275 6.328854
-15.3551 97.02625 7.566826
-16.78336 95.79733 6.152269
-15.3938 99.7315 6.846726
-14.48533 99.7337 7.687045
-13.79432 103.0453 8.092513
-16.24531 99.73936 5.623849
-16.49217 99.55247 5.198197
-16.62815 102.5408 3.530505
-15.43047 100.2386 6.691746
-16.75184 101.5184 3.760216
-16.86041 101.6296 3.10524
-16.28567 102.1715 4.885533
-14.71914 104.5374 7.086274
-13.08127 118.0901 4.228176
-12.28683 121.5055 7.876342
-12.35105 94.4827 9.358104
-7.990054 78.13776 10.01577
-11.71931 79.4742 10.06733
-10.96588 79.45697 10.0613
-13.95694 78.91931 9.98915
-13.06433 77.93317 9.932421
-14.55134 80.00806 9.965798
-8.207481 86.46987 10.24186
-5.547981 83.03095 10.2926
-8.601719 84.84851 10.27825
-8.632923 84.0403 10.28645
-14.79017 88.01273 9.79636
-7.705057 87.83329 10.16916
-9.212146 86.7929 10.23769
-8.496003 89.94884 10.00099
-10.36552 81.1889 10.21081
-9.739427 84.68834 10.27407
-11.97671 86.61174 10.22536
-9.742872 88.45454 10.09474
-12.05525 91.57094 9.768955
-13.68345 90.51211 9.786579
-15.37832 89.39617 9.38414
-12.57393 88.01965 10.14086
-12.47369 89.6506 9.99858
-10.48826 89.42433 10.0277
-10.48501 90.86467 9.865704
-13.33567 89.75774 9.923229
-13.51938 112.2508 4.217911
-14.0995 113.2378 1.325352
-12.92259 113.7185 4.188081
-12.6797 113.9871 5.033559
-12.53669 115.6901 5.015057
-13.85322 111.5715 4.332437
-12.154 113.4934 7.519989
-19.95209 86.76113 3.357408
-18.32986 85.99306 7.423313
-16.10778 85.86346 9.433366
-17.32887 88.57645 8.16954
-16.91095 88.34784 8.580186
-12.49534 118.4864 3.618028
-13.80065 111.7611 2.12715
-16.46177 103.4557 3.567757
-17.00385 97.56184 4.735853
-7.855313 79.34371 10.0441
-8.30962 80.41222 10.1187
-14.74099 85.74352 10.01978
-14.95273 86.636 9.892633
-15.51969 83.97543 9.792567
-15.32619 85.59528 9.81167
-13.77885 84.90855 10.23528
-12.62753 80.91313 10.15431
-10.04319 81.88705 10.27446
-11.96483 82.31148 10.26064
-9.000495 81.77409 10.28233
-12.82106 82.5235 10.24884
-11.84373 83.04118 10.26503
14.1021 111.6113 2.472081
-0.3715846 76.24275 9.837698
-0.7922583 90.73202 9.981207
12.72964 134.9472 11.0445
1.395571 105.6874 12.2722
0.4510694 99.69235 11.05035
-1.152807 85.75635 10.28981
3.776091 76.02106 9.808124
4.910566 77.98706 9.968912
-0.7190164 95.102 10.09858
3.015209 77.32977 9.916897
15.78997 103.6405 -1.90319
14.3064 130.5508 7.733543
2.414793 108.9072 12.26169
20.50022 77.7991 -0.5430654
17.51149 98.21013 1.748569
0.6025246 111.4077 12.17371
12.87927 114.4861 4.458862
0.5149533 117.8486 12.36322
6.443634 76.34954 9.823123
-1.239389 80.08211 10.14071
13.68403 111.2414 -0.2447289
7.004952 135.419 13.20778
2.52933 137.2949 11.30627
-0.6312647 80.04094 10.14314
2.437938 137.5363 11.11228
1.382128 82.35763 10.26401
4.437997 141.9848 7.42109
7.452371 145.1217 4.80083
2.994648 75.56136 9.774385
0.9951853 78.98661 10.05938
17.45456 97.62265 -1.210148
-0.9479173 86.27773 10.27213
19.99401 77.60404 4.749632
20.53553 76.85394 2.316709
19.14711 77.18742 6.630235
16.00506 103.911 -0.9748011
16.54276 100.3303 -2.308521
15.85852 104.8879 -0.4934399
20.26303 75.93105 -1.929841
0.4151074 113.973 12.20019
5.15872 110.1087 11.76996
18.44565 94.01258 0.1562429
19.05242 89.30658 -2.974734
7.910177 143.2067 6.54208
19.86936 84.60287 -2.598722
14.05757 130.1506 8.285026
12.66368 136.1411 10.11421
-0.3382922 81.40044 10.22669
12.71512 126.4221 7.398114
0.06846034 76.09988 9.825899
20.00277 79.35812 -2.704351
-0.9564598 76.59348 9.86623
13.18365 113.1994 1.744999
13.94517 131.8969 10.02348
19.7331 78.75661 5.316552
20.6831 77.10686 1.227386
12.73517 120.8865 3.480134
13.25397 125.1118 5.275511
3.308833 118.2473 12.08373
10.6504 77.41145 9.893983
1.484228 125.8889 12.89133
12.79099 119.5605 2.941133
3.136416 134.5789 12.91299
1.256734 129.8036 13.30124
3.683389 140.7824 8.404331
5.992977 137.8663 11.26432
5.345938 143.5204 6.175277
6.347345 145.334 4.643107
18.50009 80.65022 7.513771
20.84986 75.78226 0.5300606
19.8007 81.09798 -3.216755
20.04891 76.70306 -2.364398
20.28151 78.97282 -1.75476
13.36444 125.8918 4.984674
13.25349 123.5404 3.762071
14.15683 111.3633 2.067614
16.05353 105.1157 0.7043658
1.008676 116.2805 12.25469
1.634582 114.7903 12.14087
0.02479111 102.9308 11.94091
0.6072452 104.7805 12.21608
0.4784958 79.69183 10.11833
-0.4147983 81.81618 10.247
3.510312 80.32745 10.1733
3.847128 78.67567 10.03146
5.238548 76.69979 9.857774
9.354188 77.81057 9.937252
5.036523 98.86046 10.42142
10.31021 78.59347 10.00349
18.82286 92.14754 -1.294324
18.92956 90.99783 -2.223325
2.559485 127.3641 13.01766
13.99231 134.3668 9.433111
13.66533 130.653 9.919568
2.201284 135.9603 12.21449
1.554553 132.5562 13.35706
2.837205 131.3306 13.40656
11.38788 139.2011 7.938085
3.432753 141.285 8.057078
3.048429 139.599 9.390369
5.991049 139.8111 9.499707
5.239991 137.5728 11.36247
6.36342 143.5501 6.194659
8.32587 142.4304 7.190828
6.801435 141.6151 8.01158
8.083389 145.0438 4.533887
20.15833 77.16852 4.46718
16.88345 79.01083 8.918927
20.35065 85.15977 0.2018645
20.41255 76.7983 2.853905
20.56694 79.08963 -0.2333694
20.30547 77.19696 -1.471927
13.7881 127.9518 4.226192
12.89803 126.6658 7.09274
13.74728 128.8635 6.899014
8.005014 129.8083 13.20839
12.65616 127.8325 8.720072
13.26494 122.8763 3.270192
13.96732 110.845 0.1799058
14.86228 109.1308 0.788134
15.86154 105.6072 0.3775308
0.3667308 115.8138 12.27297
0.3564407 118.1697 12.38257
0.1215165 111.3002 12.1825
0.2388337 108.5876 12.26098
0.01354928 105.7818 12.25895
17.04402 99.59921 -1.160656
3.712048 96.98417 10.25582
1.099909 81.93123 10.24937
1.598092 83.25303 10.28691
9.955924 80.66164 10.18026
-1.04239 87.06866 10.21954
1.01688 92.11889 9.942156
11.18971 76.74625 9.82915
19.29478 89.69763 -1.816747
18.51946 91.84575 -2.952428
17.94261 94.2894 -2.75387
18.51654 92.48656 -2.405151
18.00276 95.30566 -1.036646
17.65136 96.06198 -2.061006
0.6909192 123.6243 12.70953
1.530826 129.1395 13.23391
14.30199 132.7746 9.350959
5.228863 135.9245 12.57279
4.401875 132.4593 13.51157
1.915234 132.826 13.31503
12.11721 128.0039 9.771072
4.00364 136.5216 11.94745
5.643772 136.4753 12.33636
20.64346 81.2562 1.185585
17.11582 77.69524 8.711638
17.25531 76.69544 8.633794
19.53883 86.95183 -2.669165
20.63193 80.88014 0.2943318
13.59297 127.5851 5.267116
12.94542 125.7875 6.412082
12.5783 125.1584 7.266486
12.71009 119.1125 4.81001
13.21789 112.7729 0.8157714
13.60127 115.0057 0.765172
13.82558 112.6669 3.935189
14.11035 111.7774 2.884017
14.67447 109.9347 2.665343
14.62213 110.162 1.576287
14.47616 110.202 0.8568991
14.22396 116.4203 1.245123
13.57332 116.9111 0.9274967
15.44914 106.2754 -0.4864727
-0.1893042 112.4364 12.1824
-0.2345814 112.9346 12.1918
2.428839 115.3521 12.078
0.8879089 118.1448 12.35672
0.7606071 122.1524 12.59987
1.078405 107.5272 12.29444
1.397503 104.3784 12.1547
0.5405074 106.8773 12.28646
-0.9471054 101.2721 11.51297
-0.6607472 99.59199 11.01867
2.329968 100.4279 11.14035
0.7563018 83.3754 10.29092
7.770347 79.11417 10.06212
1.627536 88.90015 10.08155
1.230188 87.10515 10.21132
3.122458 91.81707 9.930036
2.802556 91.46197 9.943075
0.964277 93.46597 9.970169
5.636559 90.85682 9.956337
2.253902 90.4545 9.997101
3.410047 96.14925 10.16398
1.935675 97.22095 10.39241
-0.3101673 93.5451 9.974987
12.48817 78.97066 10.02471
15.95607 79.88857 9.521666
12.28911 79.36237 10.05977
17.60383 96.70288 -1.272798
1.186211 123.7824 12.70827
4.276633 128.6254 13.14591
13.60765 135.2787 9.407196
13.07254 135.7565 9.882276
13.11456 134.3006 10.88383
10.9558 134.9345 12.60122
3.790295 129.5542 13.29388
7.210771 136.3972 12.61855
9.207575 140.1926 9.002252
7.187422 140.6752 8.913083
8.353688 140.0937 9.557166
20.62904 78.70552 1.251541
20.61884 78.82214 1.59356
19.90828 80.75598 5.00496
17.80586 79.11674 8.151142
13.23673 79.9783 10.10313
20.32997 81.96769 -1.565275
20.42026 83.39895 -0.7308854
12.1394 126.1154 9.314595
13.10419 122.6684 5.812075
13.88621 119.42 4.600781
12.91658 114.5826 0.985657
13.76079 117.9841 3.313401
12.73091 115.1913 1.796584
14.20316 117.6568 2.0908
16.26519 104.7699 2.690468
16.65906 102.7688 0.8076067
17.10764 100.8075 1.246782
15.98194 103.3787 5.304689
15.90349 105.5012 4.051988
16.03948 105.7169 2.641981
2.385221 111.3907 12.08819
0.9527432 121.9011 12.57798
2.870718 121.3276 12.3742
1.690933 107.9781 12.30561
2.570579 109.1296 12.23496
2.829688 104.2166 12.04376
0.3795364 96.60802 10.3128
1.474954 85.9491 10.31848
0.6163672 84.46822 10.30804
3.215238 79.21804 10.07981
6.671677 78.44526 10.00498
3.447794 88.0768 10.12408
2.241791 89.14809 10.06768
13.73332 76.03978 9.720141
19.67876 88.95376 -0.116247
20.03201 86.78661 -0.7507659
17.44986 98.50372 2.023051
16.98507 100.8839 0.09022466
17.47406 97.58477 -1.146762
1.464881 124.1334 12.7233
8.553106 130.6877 13.48803
6.292229 130.0634 13.40354
7.312648 131.0281 13.69194
11.96233 137.0966 9.928455
9.846841 140.1407 8.506301
20.51234 77.14668 2.42852
20.2085 80.55293 4.176539
12.90063 119.7902 3.180153
12.37086 118.0782 5.147803
13.04017 113.9298 2.982279
12.38663 117.2127 4.465994
15.48414 107.3021 1.22394
16.62344 101.6635 -0.902072
0.7680697 118.5691 12.38808
4.341275 119.3646 11.96457
3.526764 122.0275 12.34932
3.911676 108.6989 12.20219
2.909534 110.2207 12.13612
2.01271 103.1874 11.91554
2.478265 100.7224 11.20723
12.93727 98.02281 8.771308
3.982731 106.5147 12.18327
6.223361 105.9002 11.38786
5.797472 106.0219 11.56381
0.545967 98.4021 10.68682
3.676916 79.9903 10.14715
5.150989 79.91178 10.1367
2.916987 82.08423 10.25754
2.662572 82.70255 10.27145
6.596216 84.28552 10.28597
16.79323 101.4738 3.509082
16.96534 101.4657 2.492276
15.86626 105.0515 4.64068
15.14938 105.4404 6.149953
17.16008 99.02809 3.458764
16.75588 97.41865 5.406702
16.68852 98.82274 4.990072
17.02394 97.58853 4.635865
13.69819 131.478 10.28744
12.37869 130.4949 11.59478
7.138913 132.7086 13.88331
6.389326 136.9149 12.16171
8.577997 138.6853 10.73063
9.150648 138.9108 10.43524
9.005795 135.8617 12.85316
12.0359 137.586 9.203111
8.416924 138.6198 10.78078
20.48991 79.76273 2.942766
19.50486 80.87495 5.868558
1.773897 86.10849 10.31353
9.864016 84.82839 10.28961
13.73196 130.0672 9.232412
8.647519 129.6362 13.01934
12.50014 128.4764 9.722376
9.366879 130.9037 13.39038
6.154503 131.4934 13.70345
5.373438 134.2661 13.35979
5.388498 133.308 13.56781
10.10702 132.3997 13.43053
9.629701 133.9139 13.51027
9.11288 137.2635 11.75929
9.895524 137.1315 11.62149
5.248578 138.9292 10.15223
20.18932 82.2979 4.113279
19.83529 81.65909 5.165257
20.43753 84.33264 1.757231
19.08032 81.97722 6.679964
13.69689 120.9073 5.063839
12.58894 120.4429 6.13395
6.6459 83.13227 10.2721
12.35964 131.2535 11.90623
11.05376 128.124 11.37347
12.5848 125.17 8.839563
8.585823 127.846 12.29363
10.8042 126.1373 10.50729
7.258051 126.076 12.1908
7.68341 127.4982 12.45106
10.60963 130.3701 12.71886
13.13393 129.545 9.915286
6.130919 127.6724 12.80716
3.933146 123.7826 12.48012
2.964847 125.7369 12.79664
3.573587 125.6572 12.74667
4.280028 134.5357 13.05001
8.767694 133.7198 13.7238
20.41327 83.12555 2.984382
19.54877 84.23614 5.613259
20.54551 82.75925 0.437999
19.54215 83.65943 5.705317
4.808714 84.42097 10.29693
11.43127 130.6389 12.4123
9.11598 132.4326 13.74279
11.9644 127.3683 9.324698
9.248596 131.3458 13.52603
20.52773 83.55946 1.479175
18.76679 81.5218 7.147883
12.45094 124.0012 8.640537
6.683336 124.8435 12.08332
8.087048 125.2588 11.67856
11.24209 123.81 8.932573
9.325336 124.9541 10.81282
18.00792 80.95305 8.067881
10.24095 124.9259 10.0955
10.48297 124.0013 9.716043
4.86913 122.8295 12.20622
7.902115 125.5651 11.82131
12.88527 122.718 7.787211
7.842892 121.8053 11.15244
10.84362 122.2256 9.106874
12.59311 121.6012 7.26324
11.68272 117.875 7.224666
11.72963 122.1241 8.058145
6.554873 122.8821 11.76029
12.59893 123.1791 8.112621
8.106855 78.27864 9.984508
10.32523 76.22747 9.78879
18.42087 94.13147 0.546128
18.9343 91.91264 -0.7591447
17.99897 95.73013 1.316417
18.7292 93.00223 1.191883
20.25064 84.83033 -0.8902623
4.124163 109.4436 12.10115
3.088101 110.059 12.13837
4.941865 111.1076 11.71654
3.352075 112.0044 11.95189
12.23884 109.0366 8.391356
6.515889 112.1986 10.9812
7.561364 109.7639 10.79513
6.093456 111.3237 11.24321
3.2282 115.4951 11.97223
1.608417 112.4602 12.11757
7.784292 110.2277 10.61786
8.285484 113.7321 9.970513
6.438735 113.8087 10.9609
7.123574 113.8926 10.60614
9.724349 111.7787 9.345657
9.945856 111.1624 9.407762
12.26898 112.5136 7.098755
10.0628 115.5048 8.87334
10.67246 113.9899 8.512703
9.113874 116.9656 9.712354
14.0921 109.2497 5.639769
11.58839 110.9682 8.22588
12.54234 114.2469 6.818665
10.34152 114.5026 8.724967
11.40074 112.2094 8.018987
6.045053 79.59264 10.10926
6.353325 87.01921 10.21235
5.056593 87.56946 10.15519
4.454807 88.56464 10.09803
5.021718 90.81534 9.96455
8.133194 84.04427 10.27592
4.483298 82.56454 10.26761
7.676641 82.85903 10.26752
9.739709 83.21172 10.26124
8.77715 81.06837 10.20614
13.39329 88.13132 10.1183
6.948041 80.09238 10.14727
8.538887 81.46775 10.2285
10.493 81.81458 10.2353
10.56731 80.0484 10.12701
10.83195 80.53978 10.16312
13.8514 85.93631 10.1876
9.72707 77.9911 9.95163
10.41563 84.80588 10.28932
9.227836 84.81745 10.29541
6.85676 88.72834 10.09186
12.71342 85.45625 10.28285
11.00165 85.62746 10.32047
9.941357 87.07983 10.189
6.633757 90.06335 10.02146
2.874793 127.6691 13.048
17.15209 81.05249 8.812783
20.59615 80.34464 -0.2123258
15.16697 108.4442 2.153701
11.73597 111.585 7.825799
12.35203 109.4483 8.106686
11.50275 110.3265 8.566157
8.854978 110.3221 10.10307
9.78236 109.1452 9.904595
11.65862 109.5179 8.726003
10.22678 107.9416 9.874386
12.54121 105.9811 8.810378
7.288617 106.7418 11.04874
13.09488 110.8911 6.431846
13.43797 113.3613 4.122304
13.56926 111.1647 5.202455
12.4014 115.5414 4.893989
12.299 115.7153 7.115723
11.94773 117.8853 6.608918
7.907992 105.5621 10.73032
11.79222 117.0294 6.750841
7.095741 105.8002 11.04982
5.8151 117.3516 11.36569
2.18654 118.0844 12.23809
7.301744 115.4117 10.59034
3.781485 116.7601 11.9169
4.729858 116.7133 11.6797
5.931518 117.9368 11.38354
7.233821 117.8265 10.81783
7.411375 119.4499 10.96894
6.341981 117.658 11.19569
6.996044 122.423 11.55759
8.000278 115.4462 10.20165
7.779116 117.42 10.47523
8.165786 117.8457 10.34244
10.11248 116.3494 9.02424
8.161111 115.5452 10.10455
10.36412 117.4552 9.476414
11.63435 118.6547 7.460602
11.29617 116.815 8.526359
11.3418 120.6077 8.315699
10.39517 119.5697 9.23457
12.13964 119.3918 6.611891
10.78884 121.8942 9.12612
11.58408 119.2527 7.706471
19.33477 90.55344 -0.4620182
17.82569 96.18964 -0.645022
16.43015 103.4712 3.733535
15.47504 104.7385 5.84093
14.16427 105.7694 7.480124
15.12934 106.0723 5.873618
14.51139 107.1046 6.410597
15.24427 107.8127 3.778575
15.18668 108.0956 3.524317
15.94541 101.2033 5.878709
13.56207 104.9118 8.223106
15.93243 102.5857 5.613049
12.55013 104.9823 8.866553
13.31552 102.5743 8.380013
15.70479 100.0153 6.399699
16.53628 98.75166 5.354259
9.930788 96.19657 9.606959
17.17778 95.97977 5.234082
14.54347 98.77791 7.83414
15.24366 98.22159 7.331034
14.36614 94.72746 8.7963
16.26668 95.72353 6.922234
16.30429 97.16295 6.353345
17.55395 96.05732 4.035701
15.36384 95.08958 8.058984
16.27716 99.61143 5.581717
9.008813 99.32603 9.775821
18.55537 93.65996 1.433904
18.10228 94.17748 3.781245
17.45432 93.02228 6.343309
15.8145 93.67098 8.098397
17.79488 94.58644 4.545716
16.77793 91.21016 7.990793
17.77621 96.84892 1.133128
18.1308 95.20122 1.118244
6.066758 89.90244 10.03141
13.77343 100.7581 8.115219
16.86375 91.85652 7.661584
16.51575 94.99335 6.904745
14.2999 91.8692 9.415147
9.796586 90.56338 9.921252
15.41073 92.61198 8.703044
14.45804 90.87035 9.544608
13.03029 92.4934 9.596395
11.57521 128.9335 11.19923
18.4141 86.44239 7.258397
20.17364 86.58928 0.4331392
14.96138 82.85632 9.983806
9.187815 78.23855 9.976478
18.53792 91.33221 5.019214
12.38358 82.87318 10.25915
14.90133 84.05423 10.0079
14.55344 81.43357 10.067
13.33679 86.32242 10.23143
4.441741 94.03066 9.937722
3.766197 98.06477 10.43045
2.245342 99.16778 10.80147
14.34995 80.38198 10.05846
16.78485 80.91817 9.099463
14.93138 81.4249 9.980961
13.92444 84.02831 10.19268
15.72416 84.46145 9.674011
13.76324 82.98856 10.21523
15.45172 84.59607 9.7773
15.93203 87.64352 9.370657
18.6757 84.4507 7.175183
14.5041 87.93745 9.931666
14.6667 89.90739 9.630566
17.97837 87.14618 7.711705
18.32131 83.33057 7.705371
13.30089 90.39856 9.868052
13.3314 90.18127 9.895582
11.62932 93.13084 9.620927
11.4791 96.74394 9.258097
19.48783 83.23835 5.834003
19.33025 86.35008 5.610562
17.66729 84.79794 8.33628
9.621956 91.78905 9.782862
7.753212 90.66142 9.945291
7.551936 91.16199 9.894169
4.439849 92.42694 9.899069
9.088858 87.99269 10.11735
11.0757 92.29899 9.702882
19.81958 85.37867 4.629902
20.2657 84.01705 3.331922
19.68111 88.80936 2.71833
19.37725 89.67845 3.427077
16.34123 90.74057 8.544655
18.77296 88.97082 5.858248
8.102415 88.81458 10.09429
11.73684 90.60114 9.876165
11.79263 91.59582 9.751919
9.38735 89.71627 10.03274
19.04788 91.53442 2.561397
15.85004 89.43446 9.134858
18.18698 90.78481 6.183563
17.79712 88.9788 7.538123
14.9617 87.8112 9.786024
17.69725 90.68125 7.076146
19.05607 89.55322 4.80454
10.14897 86.17599 10.32489
10.00475 91.65768 9.785184
19.07619 90.13655 4.199484
19.88189 87.43822 3.093478
20.16315 86.7009 0.5690811
16.6957 90.76369 8.210874
19.57187 88.33638 3.894582
17.42837 87.6862 8.246078
18.99859 90.6797 4.028937
9.164535 95.75951 9.677178
13.83509 109.7113 5.83566
2.716439 117.6675 12.14279
11.18456 121.6416 8.680132
13.95275 107.057 7.29215
14.65309 108.0476 5.394968
11.59425 100.1404 9.055228
11.95362 99.41222 8.970996
10.79515 98.73909 9.324746
11.75612 95.00356 9.365825
11.04897 99.46155 9.24336
9.721407 98.16264 9.473313
9.642822 100.628 9.640209
10.11239 96.34319 9.57268
9.182245 94.69738 9.669545
12.04541 95.82922 9.27959
11.17071 94.2449 9.532261
6.085951 94.61369 9.900466
10.69043 95.35787 9.48019
8.676596 93.83175 9.75963
8.167899 97.46648 9.825199
7.045908 97.56403 10.0023
3.394109 99.57843 10.78689
6.666079 101.3149 10.52396
7.327296 102.2888 10.48033
3.38043 102.1966 11.4768
6.759975 103.2276 10.80915
4.821474 101.8358 11.06791
5.216304 102.1474 11.03507
3.317943 100.7353 11.08866
5.386097 103.8194 11.33844
17.49589 96.49702 3.880653
11.19566 101.2046 9.205749
6.801276 108.22 11.24748
5.736417 107.1167 11.6655
7.599356 104.0231 10.67994
12.94126 103.7304 8.646705
6.263027 92.55875 9.850576
4.987607 94.28421 9.92902
11.03013 92.74881 9.671638
10.85387 106.718 9.660535
10.37526 105.8761 9.798205
13.15887 103.9717 8.517288
12.91875 102.6728 8.633574
9.765684 105.7196 10.02875
11.48886 103.1648 9.256047
11.555 102.0015 9.142212
12.91467 101.878 -7.428662
7.318959 105.1534 -9.049003
17.88912 80.43638 -6.069681
19.23773 84.41474 -4.076094
18.88405 88.5545 -3.72863
19.3832 79.07935 -4.035135
16.96276 79.00994 -6.871198
18.47039 89.84779 -4.149547
13.57659 75.31064 -8.625908
10.12226 117.9674 -2.620064
4.461549 100.769 -11.40722
12.3997 121.0447 0.2287687
3.129976 115.4221 -5.714722
15.27399 104.9746 -2.115838
13.77279 107.8966 -3.090171
2.181876 81.08363 -8.907417
4.040074 75.60457 -8.784148
1.539399 115.6236 -5.728672
7.383151 76.23017 -8.777702
12.39141 118.4546 1.882827
4.562501 123.595 -7.433906
13.74374 127.3712 2.33856
2.541629 121.392 -6.848739
12.96199 123.5574 1.756294
3.908857 121.4325 -6.692419
4.010664 116.415 -5.85475
19.47827 75.06579 -3.751227
4.969981 123.515 -7.298705
1.543078 98.83365 -12.09747
1.871912 96.49591 -12.65756
18.39222 83.69233 -5.422278
2.833708 83.74468 -9.433411
2.263895 74.40094 -8.777975
13.35677 110.384 -3.910773
2.529975 85.57025 -10.23639
1.407865 88.7141 -11.89008
1.509628 80.90513 -8.888803
1.537961 121.8538 -6.99414
10.43718 124.0013 -4.279891
2.211155 123.1626 -7.456162
7.111181 123.8535 -6.685413
18.06186 78.45483 -5.904
19.36058 77.36916 -4.068201
3.305979 116.3037 -5.998856
1.70229 107.6175 -9.9499
16.96328 81.99702 -6.826293
1.839733 83.67967 -9.415885
3.248579 112.1465 -7.339084
7.080505 83.15385 -9.152242
18.74565 77.94008 -5.072188
16.86993 87.23922 -6.882558
7.22332 86.49847 -10.72463
4.578253 91.68184 -12.68791
16.20316 96.92932 -5.347659
1.836969 103.7058 -10.28184
14.45473 99.70798 -6.694416
9.39903 106.3873 -7.663843
2.409089 111.4986 -6.624387
12.5553 107.4608 -5.768344
3.988728 113.1775 -6.005944
10.23733 123.8517 -4.435256
8.260804 75.85027 -8.787865
6.203114 75.59755 -8.786561
2.19801 77.549 -8.756701
6.963802 122.9225 -6.323038
4.843643 123.3243 -7.256316
18.4398 84.70734 -5.287714
18.34372 87.0916 -5.103435
19.20124 81.09303 -4.372357
18.43926 76.96516 -5.476974
18.2305 76.09139 -5.737773
18.02634 78.19928 -5.944341
16.96031 79.31297 -6.856924
18.47608 79.79715 -5.381622
14.24939 76.26132 -8.396508
12.91849 75.87811 -8.714064
11.20183 76.68734 -8.765265
11.48811 74.79101 -8.810485
1.314735 91.64439 -12.72034
17.94038 91.09776 -4.770504
7.413391 97.52826 -12.19539
2.442251 101.308 -11.19094
17.33711 95.03554 -4.027031
1.408438 109.6663 -9.846693
2.658046 104.6962 -10.17226
1.358194 111.1233 -7.669787
2.99166 111.9571 -6.910235
2.907611 111.8747 -8.282986
13.63844 111.2836 -2.7444
13.70645 111.501 -2.537707
13.65761 111.2107 -2.513539
1.634707 117.7128 -5.871366
2.158051 113.0779 -6.061673
12.35739 116.3333 0.1564389
12.77579 124.1776 0.3270547
13.488 125.9088 1.842249
2.728628 80.4362 -8.841473
2.505676 78.3246 -8.754269
6.919483 77.04078 -8.761913
6.490028 123.1752 -6.646399
11.67107 125.4701 -3.615638
17.77813 80.89435 -6.149787
18.36188 86.67232 -5.158218
17.98364 89.14143 -5.261685
18.89063 80.86552 -4.794954
17.85427 82.01031 -6.06579
13.67721 77.24648 -8.516482
7.63435 77.68543 -8.748433
3.265904 82.92984 -9.195396
2.015893 84.68691 -9.795644
2.387737 93.18387 -12.86989
1.535886 97.46191 -12.41048
4.669145 94.65761 -12.83241
15.93451 101.9111 -2.810813
16.21498 99.72228 -3.57835
1.462222 105.5249 -10.13735
2.490781 102.1601 -10.76676
2.375512 111.6783 -7.9448
13.51436 111.7491 -1.861337
12.3653 117.2221 1.073191
14.71313 107.0982 -1.807726
2.106337 117.7577 -5.986491
4.412734 114.7619 -5.989409
2.562927 113.8663 -6.406992
13.1017 116.0012 0.03070085
12.35642 125.2171 -1.906237
12.71978 124.9702 -0.7381549
13.10048 123.558 2.301608
13.1809 125.0116 1.077575
5.384379 83.62928 -9.357998
5.740804 82.43819 -9.0481
6.353633 81.233 -8.865743
8.030107 84.42224 -9.567661
6.070119 84.67735 -9.743446
4.736004 80.47491 -8.824375
7.707423 84.15852 -9.47155
8.687436 84.71793 -9.656768
12.3672 80.98279 -8.579064
4.523242 79.9236 -8.796395
4.40467 76.27894 -8.773364
3.469597 76.97923 -8.761615
4.42008 77.79543 -8.752574
6.467041 80.88524 -8.832797
7.915324 121.9834 -5.39744
9.218111 124.0871 -5.531913
8.865445 123.3665 -5.423111
17.83376 92.38132 -4.463893
17.60688 79.64854 -6.330941
16.87035 81.34844 -6.906672
14.13136 78.35739 -8.31422
2.175916 85.548 -10.22468
2.194896 88.53933 -11.82722
4.612102 89.18661 -12.05962
4.844032 91.24603 -12.61125
16.77492 95.849 -4.822359
16.84631 94.18315 -5.560373
2.811311 97.59361 -12.38522
3.162358 93.98363 -12.86878
1.981301 100.3041 -11.65573
15.46921 103.8084 -2.556265
15.9899 101.2768 -3.096088
13.92593 104.6271 -4.789728
15.36618 99.11169 -5.613508
16.12724 98.49097 -4.575676
5.649836 101.9531 -10.91015
3.420229 112.0889 -6.586302
5.037172 112.9791 -6.871346
14.06808 106.3615 -3.538029
12.9501 108.5551 -5.028813
12.29984 105.6959 -6.477149
11.97354 108.6426 -6.073781
4.277354 118.4007 -5.860175
5.240652 118.3451 -5.534631
5.951515 119.3379 -5.483303
4.971044 116.0353 -5.659091
3.807914 115.4125 -5.769369
13.14993 122.0983 1.412881
6.046204 87.61832 -11.36503
5.918169 80.2816 -8.792855
11.22669 122.8591 -2.357183
18.25362 86.03854 -5.399218
18.42835 87.80424 -4.837435
17.46474 92.91189 -4.980029
15.2663 89.38019 -8.542246
17.20694 90.26112 -6.253299
12.90651 83.29794 -8.752495
3.575597 85.13222 -9.987911
3.528084 94.62174 -12.84692
3.47738 92.04546 -12.76039
6.757028 105.5053 -9.379678
2.906147 104.3166 -10.21653
12.8968 107.684 -5.245661
11.3989 107.8369 -6.53277
12.629 108.4944 -5.480758
10.66526 108.3162 -6.289727
12.49153 111.8767 -3.611071
13.31345 112.4004 -3.160709
4.551172 121.7807 -6.724344
11.40071 119.0814 -1.421159
6.49868 116.8556 -4.952313
12.68599 120.8186 2.022768
12.28006 118.841 -0.2838115
11.37033 116.2142 -1.138549
9.064293 118.8434 -3.593976
10.36976 120.8915 -2.684744
11.34374 118.0298 -2.681386
9.191774 118.6042 -3.422878
6.40114 85.84935 -10.34305
6.30737 80.32804 -8.788565
11.63702 78.00675 -8.704329
7.063944 79.07701 -8.73961
12.15631 122.8379 -0.4008709
11.77659 123.5481 -1.842139
18.26043 84.84314 -5.489737
16.57071 87.88355 -7.184552
16.56674 91.67131 -6.905174
4.049378 106.529 -9.770013
12.39422 104.6187 -6.628043
14.80407 103.0614 -4.377146
9.608759 109.6278 -5.796404
9.694841 107.7941 -6.723923
8.838648 114.4756 -6.117181
9.766552 109.4362 -5.815488
4.750383 120.0482 -6.108199
8.791069 120.7725 -4.277848
11.22169 122.0175 -1.882289
11.64787 117.9339 -0.3737046
11.1583 117.1011 -3.277564
5.987163 86.90956 -10.9715
8.117504 87.15372 -11.1106
10.00467 78.89104 -8.692714
8.344476 81.71005 -8.869563
12.1819 83.4043 -8.884838
17.41224 91.17077 -5.724825
16.02896 94.24047 -6.884464
15.00198 102.1995 -4.552821
14.08095 101.2427 -6.417966
5.656003 120.8034 -6.041902
8.688285 120.2177 -4.198112
8.692219 122.1598 -4.954015
10.59545 119.7775 -2.024613
9.753108 116.0781 -4.848079
8.105459 85.21377 -9.942765
8.054547 80.57875 -8.770088
8.387601 81.40938 -8.836037
12.93201 88.29691 -10.08954
14.92817 89.05439 -8.805231
16.16528 90.38641 -7.601418
11.74999 98.62157 -9.887361
16.01964 96.18406 -6.062914
14.96485 100.4423 -5.577365
11.93428 101.6641 -8.446475
10.36323 115.4202 -3.936577
9.868644 119.9181 -3.003141
7.189776 119.8336 -5.029009
10.64601 117.0292 -3.790136
9.930172 86.65615 -10.6338
15.76311 84.90483 -7.734685
14.34098 81.91628 -8.208123
15.37942 85.19843 -8.027321
14.3689 87.53664 -9.024877
12.98136 86.83315 -9.697496
16.17507 89.82206 -7.627025
15.19806 98.82703 -6.060178
15.2834 94.63364 -7.743242
13.41184 100.2416 -7.702126
12.09687 103.8598 -7.313521
13.43408 102.0332 -6.800562
9.477652 113.8106 -5.249793
10.72503 116.5752 -3.943248
15.66304 97.91879 -5.75816
12.62687 100.1844 -8.51563
8.174423 102.728 -10.09467
11.50049 100.5274 -9.303086
13.06325 98.8463 -8.665952
13.49765 98.75243 -8.259413
10.26316 102.846 -9.095176
11.14036 102.0826 -8.852356
13.84241 103.8717 -5.323989
12.5039 105.0747 -6.309875
7.905898 110.5712 -7.302118
8.007128 112.2622 -7.096017
12.31922 113.6777 -2.027686
10.48712 113.7843 -3.261384
8.084727 113.77 -6.856623
10.64371 99.62174 -10.28686
13.94102 102.7098 -5.858196
11.37361 114.3222 -2.144293
8.920197 114.2586 -6.069602
7.754186 114.3758 -6.121287
5.908427 113.0953 -7.64262
14.7226 95.89658 -8.017068
11.37071 96.85516 -10.7412
8.971575 110.6233 -5.727674
8.854991 108.5302 -6.617679
10.59416 114.0737 -3.042228
14.85883 95.40965 -8.023902
7.753148 111.6381 -7.416801
14.25151 94.43436 -8.9672
6.381648 109.4791 -8.70924
6.125033 107.5096 -9.293825
3.123248 110.0066 -9.448175
5.740835 106.9267 -9.552232
7.856771 106.5012 -8.151727
10.14336 101.8117 -9.650002
7.684714 103.9418 -9.601671
7.913169 104.7633 -9.062853
6.570147 104.0587 -9.866368
8.562605 105.8408 -8.206143
3.615046 101.6025 -11.04096
9.355564 107.2964 -7.111135
5.520344 100.1371 -11.6407
4.600437 100.1216 -11.65684
6.052501 98.75587 -12.07405
7.122716 97.97593 -12.15636
11.02151 107.2158 -6.975551
17.88692 83.96706 -5.970862
6.489409 91.72742 -12.65268
4.669142 89.49252 -12.15318
13.83447 94.15242 -9.451486
7.702306 91.09981 -12.43544
8.085358 88.69134 -11.77462
3.248168 97.75755 -12.34106
4.230734 111.8122 -8.621643
6.802322 113.2235 -7.554489
5.770391 110.2873 -8.680222
6.418773 110.6516 -8.404424
8.303424 107.2101 -7.595128
4.111255 95.79749 -12.73828
8.048555 117.0918 -4.209426
8.573221 116.1095 -3.946856
8.017945 114.5466 -5.827428
7.886447 78.05653 -8.740007
12.0675 87.07689 -10.16697
10.40315 86.27603 -10.36199
10.36054 86.0291 -10.24508
13.22898 85.3681 -9.119619
12.95042 82.77042 -8.646544
15.79354 81.95423 -7.574505
12.34378 80.16962 -8.577584
13.99827 79.78003 -8.263608
14.97428 81.26482 -7.936262
8.20714 112.6712 -6.884874
4.542145 112.7494 -5.983642
6.363617 113.9129 -5.226832
6.325401 115.1938 -5.129102
9.713367 100.985 -10.25846
9.119625 95.74887 -12.11494
9.327767 87.46409 -11.11679
9.670622 92.26774 -12.12962
15.01452 91.90366 -8.684865
13.4284 89.69386 -10.01737
13.46772 90.89487 -10.07321
12.2668 91.80076 -10.89885
13.39125 90.28186 -10.09723
14.12315 90.09528 -9.545767
10.00141 90.69327 -11.84835
9.515504 89.93819 -11.84685
12.91202 93.51141 -10.32662
11.48781 88.70442 -10.89792
8.373412 89.05811 -11.83512
6.669822 87.84101 -11.47307
4.024175 112.466 -7.507075
7.074174 116.4411 -4.690244
11.02576 81.24232 -8.692939
10.10103 101.4437 -9.839356
9.579279 100.4866 -10.53881
11.98546 97.93163 -9.946071
10.80209 97.16593 -11.00584
11.23092 96.41341 -10.94883
8.292067 97.75439 -11.92517
6.880606 98.52435 -12.04033
10.62832 93.90302 -11.7152
10.42734 97.29455 -11.17712
11.50434 95.29465 -11.03443
6.944183 100.4529 -11.40354
7.892078 101.0737 -10.95852
5.003337 92.92151 -12.82257
8.347133 93.16708 -12.51686
10.95115 93.12012 -11.59913
8.632788 93.94761 -12.44776
11.74918 94.5788 -10.99115
10.19912 94.2551 -11.88591
12.41175 96.85899 -9.957224
9.182037 103.2645 -9.466861
8.21139 102.1184 -10.38958
7.766025 94.25636 -12.62948
6.723612 95.00021 -12.72132
-9.086238 84.42681 -9.508391
0.963347 75.36274 -8.782909
0.8194286 84.53305 -9.735077
0.7699487 85.74924 -10.32567
-10.05884 80.78475 -8.727556
-5.08651 83.5783 -9.354825
-10.63008 75.10513 -8.792051
-11.73634 74.91623 -8.79637
0.3202554 87.3335 -11.20872
0.7522773 95.79032 -12.79121
1.175126 97.03412 -12.53215
0.5025961 77.57463 -8.75511
-1.729889 95.96379 -12.76536
-0.004309181 106.2404 -10.15301
0.9512917 123.253 -7.492175
-0.567358 95.15125 -12.84294
0.0725017 74.87619 -8.790648
-5.355726 122.8334 -6.929782
-16.92255 84.26072 -6.862737
-4.222973 76.96046 -8.761582
-0.8631642 122.6723 -7.28773
0.1484497 124.4056 -7.914839
-11.646 105.2733 -6.868901
-0.5636507 114.5567 -6.427589
0.7185475 106.0219 -10.14612
-14.29015 74.84107 -8.455544
-6.402697 88.52928 -11.75624
-17.84938 75.17056 -6.245305
-2.345285 74.66707 -8.793109
-18.17352 83.65307 -5.678894
0.5042382 78.01642 -8.757927
-0.1585856 78.08621 -8.757681
-17.24737 91.81271 -5.828876
-11.64648 123.5487 -2.105043
-10.76 125.3265 -4.847244
-2.677094 82.29295 -9.062741
-11.84743 122.0546 -0.6198179
-17.47094 82.94994 -6.411394
-13.70967 108.8442 -3.367314
1.266516 114.0461 -6.450196
-12.284 124.4801 -1.457064
-7.444388 117.6168 -4.540675
-17.87241 79.49419 -6.061169
-1.603012 121.1081 -6.743851
-10.69069 83.69714 -9.120988
-12.20789 122.3675 0.05184847
-11.25067 121.6715 -1.628346
-12.60146 123.1726 0.5941944
-16.82526 77.34494 -7.046499
-4.471693 87.07352 -11.03478
-5.951029 79.18634 -8.759668
-0.1150753 98.02763 -12.27602
-16.36483 86.57819 -7.37094
-2.328799 110.3728 -7.678036
-14.99234 99.56699 -5.994263
0.779471 116.0338 -5.899496
-5.421542 123.5512 -7.169122
-6.66064 124.2487 -7.040286
0.3578138 121.0387 -6.736972
-16.64731 74.67828 -7.289509
-17.80083 78.24459 -6.189263
-18.22602 77.48702 -5.747423
-15.42106 75.67168 -8.001575
-11.47293 120.1595 -0.5352056
-12.14277 125.75 -2.933834
-12.00252 123.7716 -1.53435
-9.920599 123.7142 -4.731239
-2.094827 83.98077 -9.503857
0.4714025 83.46487 -9.360021
0.5585455 84.01228 -9.53131
-0.34478 83.66553 -9.410698
-2.059958 93.91796 -12.87636
-6.83564 77.0031 -8.76147
-16.50853 86.04738 -7.237128
-15.86868 85.22116 -7.65801
-0.5119975 97.14034 -12.48858
-2.75263 96.91154 -12.53522
-0.07126985 96.31423 -12.70163
-16.89261 93.03125 -5.971881
-15.85835 98.18032 -5.285842
-15.85868 94.24579 -7.121115
-14.54416 96.59119 -7.96835
-1.880727 105.9298 -10.20973
-0.4953621 116.1636 -6.052325
-13.6911 101.9755 -6.532712
-12.82148 110.8691 -2.586004
-12.07663 113.4668 -1.965319
1.159607 115.2797 -6.323112
-1.501736 117.3396 -5.854981
-12.67573 118.0486 -1.187846
-13.12047 116.6284 -2.407829
-7.170589 123.4751 -6.483904
-6.729837 117.4607 -4.876658
-9.660851 76.34846 -8.773336
-14.682 77.73822 -8.165813
-12.01731 121.4582 0.1369291
-11.57145 119.4203 -0.1722787
-10.42124 123.9861 -4.34505
-11.82137 118.3552 -0.2455097
-0.0987358 81.43771 -8.95122
-0.9152026 76.39567 -8.766762
-0.514845 86.46231 -10.71336
-0.5353934 92.42767 -12.82129
-17.7473 86.20567 -6.001018
-18.11977 81.08837 -5.801543
-17.6134 82.3572 -6.295477
-1.306769 91.53081 -12.71148
-0.4797648 102.1826 -10.72877
-16.85514 90.83193 -6.652358
-13.41431 90.9215 -10.10922
-14.3752 101.6218 -5.830874
-16.22818 96.30267 -5.639427
-0.327821 103.1229 -10.41364
-0.5049912 110.1232 -9.275548
-2.135027 111.3303 -6.313712
-13.99549 101.6355 -6.324559
-12.2531 111.3125 -2.977826
-12.7178 106.9548 -5.166468
-12.57478 114.991 -1.887074
0.970158 112.3472 -5.849246
0.6601918 118.3988 -6.087021
-12.55544 118.0132 -1.030302
-6.445669 124.1177 -7.073144
-9.770742 125.0725 -5.712164
-0.1269011 119.3587 -6.327406
-16.38 78.37785 -7.299605
-8.793298 83.92244 -9.351975
-11.09059 119.696 -1.174661
-10.81668 120.6228 -1.919313
0.2430924 80.71674 -8.877521
-1.615214 79.14845 -8.77714
-3.155185 82.06449 -9.010898
-4.903383 80.07789 -8.80667
-3.348419 80.94571 -8.879224
-5.130568 81.44611 -8.91904
-3.0596 77.97917 -8.756378
-6.417208 84.91087 -9.846945
-4.011309 78.99704 -8.762858
-1.094864 75.52194 -8.779796
-2.016452 83.69262 -9.409233
-0.04974813 91.57723 -12.72163
-5.442233 75.46877 -8.782031
-7.706584 77.08391 -8.759446
-10.01801 74.45747 -8.808108
-2.066488 91.74649 -12.7328
-1.496733 90.29027 -12.43819
-3.420995 94.06232 -12.84552
-8.237702 95.93646 -12.32522
0.7120908 100.0092 -11.78464
-1.232001 103.5039 -10.33967
-14.38522 94.6438 -8.772922
-17.11321 90.80379 -6.284424
-15.40518 90.5989 -8.406031
-14.89276 97.48952 -7.140252
-0.7122372 109.9981 -9.786774
0.5682046 110.9302 -6.713623
-13.92997 102.304 -6.077225
-12.07471 111.6002 -5.136058
-11.72262 110.5196 -5.584183
-12.16196 108.941 -4.510367
-12.77894 104.9694 -6.085215
-13.21919 104.4738 -5.831187
-12.74918 115.4389 -3.613273
-11.50862 113.6331 -5.201657
-1.566691 117.9597 -5.988257
-10.70336 117.1261 -1.891636
-9.863745 118.477 -2.807653
-10.10661 117.6793 -2.549547
-10.57297 118.1859 -1.952301
-12.53381 114.9814 -3.973634
-7.561986 122.8325 -5.991319
-1.80951 121.3858 -6.836759
-2.245284 120.926 -6.691778
-2.428722 121.6871 -6.94419
-12.41557 76.20312 -8.762684
-14.01874 78.91776 -8.304932
-9.62538 120.6585 -3.439373
-8.634092 120.2875 -4.210254
-2.069609 77.27339 -8.758454
-6.482779 83.6821 -9.363334
-1.82839 87.52254 -11.29556
-3.490182 87.79896 -11.42929
-0.1789584 89.01531 -12.02391
-9.088567 76.69975 -8.766056
-4.859934 93.75488 -12.82871
-6.439772 97.89273 -12.27028
-1.563775 96.15802 -12.72415
-0.5494143 99.8758 -11.84979
-1.224293 104.4656 -10.22307
-2.179333 102.6507 -10.56616
-15.60465 86.69183 -7.993279
-13.7668 86.72804 -9.233274
-14.853 100.319 -5.816888
-2.144311 107.0734 -10.1853
-3.196685 109.8782 -9.600028
-2.729676 110.4192 -7.269108
-12.05803 110.395 -3.800436
-11.3437 107.8648 -5.86157
-11.49416 109.2578 -5.104633
-12.42603 106.5545 -5.605518
-2.060868 115.6389 -6.279659
-9.052843 118.3936 -3.568417
-3.229993 78.11643 -8.756449
-3.046391 76.56299 -8.765186
-2.32162 84.99293 -9.91867
-2.998282 88.509 -11.79474
-2.652621 97.02763 -12.51004
0.09817734 104.6639 -10.19715
-15.19612 95.60177 -7.516957
-14.59755 95.69836 -8.226704
-0.09056062 108.603 -10.22482
-2.353816 103.3701 -10.406
-4.391192 107.9705 -9.613663
-11.19445 107.5275 -6.256833
-11.06772 104.0673 -7.913509
-0.7825486 114.5283 -6.357584
-7.307164 120.1717 -5.083229
-2.924138 85.57986 -10.22285
-5.555007 104.8696 -9.892063
-8.335709 108.5887 -7.97972
-12.57988 103.4383 -7.011495
-1.724443 116.2577 -6.038889
-6.342157 118.5169 -5.158155
-3.490754 105.3048 -10.16529
-4.695867 110.492 -7.16495
-4.292289 119.5996 -6.139774
-4.45206 118.7914 -5.892272
-8.884265 85.70796 -10.17492
-2.670571 104.9939 -10.19721
-5.645226 110.4954 -8.519535
-7.054716 122.6485 -6.166502
-6.034228 83.69771 -9.376966
-7.653509 86.69831 -10.8285
-8.030695 83.38943 -9.221032
-6.640467 86.73843 -10.84272
-4.659932 102.7002 -10.59447
-3.92674 108.234 -9.764433
-5.516336 107.4662 -9.266753
-7.594513 106.7671 -8.829378
-6.876009 105.7079 -9.358899
-10.90664 106.7146 -6.870438
-10.96112 108.7819 -7.213132
-5.216696 109.032 -9.055125
-7.166098 108.3845 -8.348482
-5.62497 110.7368 -8.370609
-6.051946 122.9202 -6.711478
-5.72554 88.14113 -11.57547
-10.42342 106.5758 -7.881546
-6.264794 107.4935 -8.948255
-6.106507 87.89641 -11.45116
-9.128712 107.8489 -8.270632
-9.228447 109.8741 -7.306046
-10.21519 84.27423 -9.352743
-11.06702 89.78568 -11.30982
-2.455371 88.52421 -11.80763
-2.954275 89.60246 -12.22675
-9.749397 110.5139 -6.986742
-5.579016 110.8864 -6.702213
-9.966465 78.19738 -8.725332
-5.614576 89.17598 -12.03075
-10.38926 85.32809 -9.816051
-3.406429 91.08134 -12.60002
-9.797171 111.355 -6.551867
-9.591166 111.1301 -6.673363
-10.21386 114.7591 -3.109127
-8.642853 114.4131 -4.237363
-9.577907 115.9625 -3.314396
-6.494104 112.5971 -5.470368
-9.471464 81.8952 -8.866748
-11.98424 78.58324 -8.647312
-12.0544 81.35526 -8.63194
-6.917471 87.49055 -11.28042
-7.235484 89.62241 -12.13209
-9.861196 88.32762 -11.31993
-9.687123 87.07379 -10.8695
-9.754148 113.8369 -3.942505
-7.188809 80.29795 -8.791212
-9.543633 78.7897 -8.711995
-11.16444 80.92727 -8.673216
-9.334951 80.39684 -8.735076
-13.32895 78.86459 -8.469923
-14.62913 78.70955 -8.108194
-14.72915 78.32071 -8.097343
-13.15551 83.21397 -8.680905
-15.1197 85.76673 -8.237804
-6.852067 86.50948 -10.7066
-14.94213 91.99034 -8.752483
-9.73971 85.1484 -9.80309
-12.03776 85.2383 -9.445664
-6.389242 116.0097 -5.012644
-7.581043 115.4893 -4.51043
-6.930479 114.1296 -5.000733
-7.662103 113.0761 -5.022802
-7.853482 113.1279 -4.944811
-4.298675 117.3757 -5.689855
