# .PCD v0.7 - Point Cloud Data file format
VERSION 0.7
FIELDS x y z
SIZE 4 4 4
TYPE F F F
COUNT 1 1 1
WIDTH 1680
HEIGHT 1
VIEWPOINT 0 0 0 1 0 0 0
POINTS 1680
DATA ascii
5.276044 154.6954 -6.75154
10.95195 144.9801 2.590976
10.25073 148.2196 0.2902567
2.603862 154.9168 -8.610432
6.749361 153.711 -5.742892
9.874372 149.089 -0.2825566
-18.72647 84.15733 7.112736
-13.61131 134.0854 10.22774
-18.55352 91.38251 4.960162
-20.34626 84.50613 2.734022
-19.89425 86.2158 4.00561
-18.43517 92.64034 4.202283
-17.69566 95.93114 3.963837
-17.51312 98.68083 2.946235
-18.10345 94.23633 3.75755
14.71032 84.271 10.04
13.28725 131.7131 11.00092
-13.9779 136.3231 7.373344
-15.58803 83.30163 9.761462
-19.1794 86.45229 5.885601
-16.79007 102.4016 4.264939
14.83 132.5252 7.044747
13.30099 122.4597 4.738018
3.144944 81.75581 10.20397
-12.26259 83.81558 10.26176
-20.32218 82.15888 3.628909
-14.78163 112.5319 4.582366
-19.80448 86.42393 4.216394
-11.96939 119.5056 7.448968
19.77364 86.75579 4.101233
-16.80239 97.99771 5.13955
-13.96531 125.0536 5.277956
5.505338 87.7201 10.3044
-13.32528 130.8149 10.57129
20.28567 85.03992 2.783314
-3.664239 130.4555 13.60199
4.370176 123.9159 12.46113
-14.43302 129.9283 6.66489
12.76903 114.2229 7.340529
-14.48727 132.821 8.865667
-8.78951 138.6343 10.65579
-10.17561 123.9869 9.763909
-14.37188 131.2264 8.488523
12.21027 129.5321 11.13639
-2.585621 134.0187 13.21708
-1.906847 134.3996 11.70723
-7.396453 83.71165 10.26099
15.21316 82.14075 9.868493
-19.86769 81.71204 5.060643
-18.68973 82.85448 7.233233
17.03114 81.69375 8.918438
17.84204 81.88007 8.262332
19.2599 81.71075 6.355115
17.36607 99.71452 3.203151
4.663906 80.91138 10.17074
9.449716 81.14448 10.17425
-17.42125 94.44634 5.627268
-14.81041 81.0723 9.97543
18.40941 93.12005 3.754199
-18.60232 85.33795 7.163421
-13.07211 137.8341 7.324156
15.65955 106.4332 4.905511
15.73571 90.37326 9.047237
-19.2915 83.39922 6.25704
-10.82507 139.2299 8.155593
-18.26324 92.38011 4.98407
12.18726 112.0717 7.22975
12.00708 138.524 7.860459
-6.318552 137.3866 13.16661
17.14396 98.84875 3.774005
9.768456 139.3448 8.768862
0.6032839 133.6096 10.89043
4.148883 135.2839 12.60499
-4.701563 137.384 11.33874
2.806274 136.478 11.31703
11.84359 137.3283 9.77765
-11.98386 139.1973 7.003188
19.77191 84.34731 5.057829
-13.25415 136.9411 8.180141
-20.27174 84.52486 3.138711
13.68862 123.4631 3.871729
6.80356 139.3944 9.635185
0.9759325 81.20175 10.18395
-10.9244 119.0427 8.554021
19.57721 88.97703 3.296849
14.25066 128.7132 6.489182
13.76962 106.8896 8.037762
16.62564 103.9847 2.46472
7.224591 83.82413 10.25773
-4.599393 82.75179 10.2362
17.30534 100.4528 2.609993
19.33131 81.95841 6.234503
20.20982 84.76752 3.366957
20.35096 83.35969 3.280906
18.81905 84.77416 6.91303
14.04799 136.6924 6.704111
13.40335 136.9065 7.91222
5.240427 139.1292 9.847702
-15.91967 101.0074 5.956168
-18.01993 97.11473 4.255046
-18.53852 92.10798 4.316769
-17.50094 94.75799 5.230544
-13.79825 81.1748 10.1314
-8.483929 83.91441 10.26429
-1.658661 82.31297 10.22236
-17.95879 90.46531 6.750024
-19.32079 86.68406 5.532762
-17.10096 81.67942 8.856486
15.89592 105.9672 4.103635
12.09298 110.0537 9.020004
-14.19565 110.6444 4.42974
-10.24592 112.9906 8.753468
13.51165 117.0866 6.278516
12.96247 123.822 6.232813
-12.81137 123.0135 6.787315
-8.482044 139.3178 9.407729
-5.086662 135.9472 12.59938
-2.759979 134.1528 12.56406
3.176415 136.7672 11.31148
-13.24691 125.5401 6.385025
-10.24434 137.5638 11.14974
-8.574457 137.8093 12.03374
-7.695254 138.9071 10.37565
-6.535788 139.7699 9.220049
-13.47077 135.1895 9.801035
-13.37236 137.4203 7.345915
10.78474 82.85728 10.23942
7.95025 81.84233 10.20839
-2.429041 85.44429 10.27059
19.67784 87.74994 3.813617
16.94334 96.2053 5.787626
17.73586 84.1439 8.287509
19.52341 88.42908 3.947235
17.74691 86.34122 8.072458
11.92214 127.1964 8.773131
14.54158 133.1658 8.585488
13.51927 136.8729 7.741936
12.54067 138.0901 7.776759
10.11303 138.983 9.069942
6.133161 138.817 10.28703
5.610492 137.6449 11.36914
-17.29516 98.40455 3.870649
-18.14186 95.04892 2.995102
-17.08286 100.7176 4.660261
-18.17089 93.88866 3.845997
-15.24595 82.06389 9.864367
-14.22168 84.81775 10.13042
-6.541274 81.64094 10.19862
-7.853205 82.25629 10.22748
-1.438888 80.82108 10.16731
-18.96423 85.68391 6.497582
-14.46468 85.60291 10.06757
-16.40207 84.44122 9.330066
16.17562 105.1048 3.83175
14.15247 111.2844 6.105757
13.9089 114.3929 4.223234
-13.82412 111.6224 5.02457
-16.04435 104.4304 6.1821
-13.20841 117.2448 3.947116
13.29619 124.3468 5.509825
13.44897 122.9907 4.212507
13.73603 119.532 3.976678
13.21284 124.8633 5.387892
-11.85366 120.8837 7.788674
-13.00191 123.4231 6.435291
-13.80802 120.844 5.463189
-5.442224 137.1598 11.76632
6.491907 137.4561 11.70357
-0.8481042 133.4693 11.54971
0.286075 133.0818 13.32037
-0.2056676 132.1342 12.85986
-14.31233 130.5994 8.061782
-14.04748 127.4974 6.135859
-12.33353 137.4216 9.010116
-12.89774 136.3582 9.553528
-11.67057 137.1284 10.2257
-9.928154 136.875 12.07409
-10.5794 137.2981 11.04973
-9.077529 134.9406 13.42161
-11.77924 134.7253 12.0848
-11.06738 135.8584 12.00694
-12.74838 133.6388 11.57716
-8.219465 137.6958 11.94361
-13.31746 136.208 8.99196
-7.825339 137.5379 12.51396
-5.554511 136.79 12.06254
-5.025585 138.7419 10.23536
-6.146775 139.0033 10.10363
-13.16594 130.6308 10.71114
12.14928 82.06614 10.21443
15.83293 88.97755 9.249712
7.485319 81.10906 10.17551
2.683758 83.26305 10.24901
3.73199 81.0304 10.17662
18.43069 93.9825 2.764704
19.32661 89.62978 4.80707
17.82673 96.70044 2.78227
17.90708 97.87096 3.962055
17.06312 99.81202 4.141232
19.72505 85.30602 4.928369
14.20317 131.3791 9.24402
13.9386 132.8795 10.05496
13.51968 132.9489 10.73276
12.85727 136.6424 9.233606
12.82175 133.6782 11.479
7.167275 138.2929 10.90384
3.141399 137.9933 10.27276
-16.65468 103.2803 3.1475
-16.53433 101.7635 5.835448
-16.12555 103.19 4.967647
-18.04889 94.93097 3.408623
-16.96401 94.35946 6.506102
-16.94535 95.55704 5.972945
-17.22627 96.93636 5.70283
-16.95037 99.96635 4.163164
-18.91804 90.41082 5.000903
-17.38136 87.61011 8.293719
-16.60734 89.2262 8.663643
-17.70688 92.34885 6.259353
-17.7263 94.20646 4.96058
-15.98399 87.88113 9.323106
-16.40519 94.63656 7.182127
-8.831721 83.11201 10.24922
-14.56938 82.33931 10.0809
-13.94035 87.42332 10.09692
-5.376168 83.16475 10.24772
-5.391235 84.80651 10.26482
-5.756789 83.01163 10.2452
-8.52459 84.92354 10.26321
-11.89377 83.14184 10.24927
-10.81946 83.8854 10.2636
-9.859509 82.49234 10.234
-18.6211 88.05189 6.547948
-19.23186 88.63258 5.137854
-18.54469 88.4765 6.730629
-17.84534 85.76128 8.049777
15.89367 106.1897 4.269296
16.39139 104.0396 3.534646
16.05756 105.7751 3.275471
15.06692 111.5219 4.181622
14.86395 110.0482 4.741599
14.49876 111.0075 5.704446
14.66383 115.3596 3.586926
13.18512 113.1884 5.03471
-14.5467 110.6221 4.050412
-13.72614 111.5409 5.055596
-15.24017 109.2136 4.903714
-14.76971 113.9887 4.096616
-13.68499 114.7744 4.737011
-13.66164 116.3891 4.186428
12.67816 125.2011 7.071999
14.11204 119.0064 3.89923
13.19975 125.832 6.273211
-13.24558 123.8322 5.569651
-13.76792 121.5345 5.022658
-6.546523 137.3539 11.81905
1.206765 135.1662 10.75144
-3.208697 134.8144 13.47901
1.642425 133.7493 11.87328
-12.95912 128.7308 9.1681
-12.16837 131.1829 12.01325
-13.35389 125.8969 5.934
-7.310797 137.2931 13.4821
-14.5566 133.5239 8.482326
-14.39741 131.9726 8.868146
-13.03545 134.4814 10.96268
-14.0516 130.973 9.331668
10.64347 84.14806 10.26319
11.96948 83.54826 10.25517
16.05095 83.40087 9.539445
19.16568 84.31643 6.363887
18.44211 86.58771 7.203392
16.81123 87.91112 8.747817
16.89098 84.71079 8.992496
15.38854 84.65752 9.836673
16.24664 83.64592 9.435516
14.44037 83.53255 10.13055
18.71431 84.87316 7.065753
16.58435 86.36439 9.104691
16.86827 86.41453 8.894569
12.99138 87.72174 10.15519
17.83116 86.91786 7.931924
13.18747 85.55624 10.24509
3.674874 83.0405 10.24326
0.202917 82.44607 10.2264
18.65114 92.7094 3.212732
18.04151 94.92265 4.748653
17.6025 89.05892 7.759748
18.51424 87.5381 6.874958
18.10681 97.34126 2.750764
16.69912 94.91273 6.688535
17.50999 96.16407 4.331555
17.07235 102.1792 3.223856
16.59676 104.258 4.2472
13.90109 132.2139 10.11947
12.52169 137.1831 9.054248
12.37367 135.205 11.29423
7.36086 137.1511 12.03636
-16.93024 102.4494 3.915529
-16.27692 104.7812 3.895477
-17.61714 99.16194 3.311923
-19.23598 89.99931 5.135624
-18.2336 93.08204 4.482234
-14.5002 83.82065 10.10877
-4.857428 82.27234 10.22306
-1.993475 80.81946 10.16663
-2.668587 83.73299 10.25557
15.91365 104.9863 4.635088
15.15357 110.122 4.193285
14.27022 117.5179 3.479815
-14.76668 109.7301 4.652377
-13.99074 109.0905 7.176025
-14.05958 112.0262 6.176291
-13.99533 112.7489 6.682472
-13.66869 113.2966 6.473999
-14.35015 113.4916 5.934191
-15.13694 108.6397 3.92381
9.519933 119.4842 10.02099
14.06064 118.8044 4.150136
13.94385 118.0358 5.002773
-13.86439 120.2516 4.671976
-12.98875 117.2542 4.058343
-4.966099 137.1902 11.58982
-3.816931 136.0504 11.97418
2.384286 134.9361 12.46156
-3.142304 137.2913 13.56223
0.2327884 133.6621 13.4525
-0.9365708 133.0375 13.28694
-0.2026996 133.1379 13.30408
-10.43892 136.0144 12.25369
16.23226 89.69039 8.865121
13.42813 86.35975 10.214
7.052798 82.68874 10.23422
9.778892 83.36701 10.25141
9.679683 85.08299 10.26602
5.407758 84.87961 10.26652
17.66302 88.8304 7.766985
13.45801 134.4535 10.30932
12.4061 134.4745 11.68349
12.17916 136.0487 10.82096
11.25265 137.3481 10.41203
5.475638 136.7313 13.84193
6.680127 134.8097 14.3384
6.915719 136.6366 14.41707
9.970483 137.2807 11.75015
9.194498 136.9625 12.29696
10.6038 136.0477 12.19459
-16.21152 102.4714 5.808795
-11.50404 85.797 10.24709
-13.13695 86.30036 10.22872
-11.94328 87.07809 10.21037
-0.6181057 82.18867 10.21897
1.312344 83.65507 10.25425
13.7691 116.1774 6.946772
13.42781 116.8768 6.558321
13.04486 116.4802 7.060558
14.55554 115.8507 5.599256
12.69383 114.2533 7.950861
-14.09029 108.4855 6.70399
-14.7449 108.7163 5.511467
-0.5177017 98.42538 12.24525
-13.2432 105.3817 8.739871
-15.95157 106.1865 5.357974
-11.7221 109.0026 8.851339
-14.07893 103.3799 8.036079
-11.41892 107.3192 9.900123
-15.42124 106.1472 6.847106
-12.95369 106.9723 9.274008
-13.32014 111.2786 7.001688
-9.290377 111.677 9.555202
-12.25053 114.6224 6.000212
-13.84992 114.2975 4.997969
-12.09122 115.1944 6.05538
-12.61504 117.3622 5.180117
-14.92262 108.2704 4.420826
13.07061 125.8724 6.525507
12.73858 125.6801 7.137312
12.3739 126.8772 7.598846
13.21206 119.4248 4.113278
13.70544 128.8904 7.941087
13.84231 130.8137 9.71059
11.71765 128.2315 10.67069
12.23707 128.3815 9.985667
-13.07484 118.6307 5.002915
-12.39425 116.8952 7.4516
-12.06566 116.368 7.083158
-12.17515 116.525 6.625523
-11.92437 114.4821 6.538739
-11.6369 120.649 8.088078
-11.86288 118.4556 8.261401
-12.15816 118.76 7.886607
-10.75791 115.1153 8.581752
-9.942663 114.3389 9.318151
-11.54949 113.3285 7.439499
-13.2859 112.5957 7.668466
-10.65814 113.4657 8.355636
-12.45836 111.4805 9.231398
-10.99148 111.0746 9.439758
1.187511 133.1206 11.64199
1.9308 134.102 13.76015
2.081064 134.8521 12.05904
3.586658 134.6429 13.42569
3.348947 135.3053 13.66807
-2.144071 135.5656 12.99898
-3.890558 135.3859 13.39454
-0.4506171 134.7798 15.00187
-1.981781 135.3073 12.96493
1.31107 133.902 13.56608
15.86586 92.05647 8.544888
14.79126 86.25169 9.968475
14.26844 87.6413 9.996331
8.958288 87.1139 10.2445
1.391759 83.24865 10.24838
1.697535 84.05486 10.25889
1.811815 84.06892 10.25906
2.058064 84.9084 10.26683
4.95767 85.12125 10.26817
5.512513 135.35 14.85804
11.56109 130.4605 12.22728
8.548062 136.109 13.59221
10.76544 135.0419 12.6975
11.49766 136.1283 11.41712
9.987185 137.5235 11.30267
-4.311423 83.16367 10.24503
-2.114826 84.34489 10.26291
12.98319 114.539 8.715959
10.583 112.9978 8.817266
12.65112 114.1386 8.612025
13.00965 112.3763 5.493152
11.06651 113.5279 10.76779
11.30642 113.5595 8.551628
12.09229 113.8528 7.611812
10.28806 111.9858 8.902584
11.70346 110.9479 8.538301
12.62963 110.7726 8.255889
-15.45325 102.8874 7.312854
-11.44048 110.9931 9.922359
-12.1765 111.3304 9.415536
-13.3342 111.5895 7.837631
11.97801 132.1031 12.39131
12.57689 132.6239 11.85697
11.90854 130.7265 12.07565
12.50524 132.1298 11.90516
10.08023 131.572 13.3239
11.25217 131.7322 12.83403
13.62522 130.8525 10.15866
-11.32716 120.3477 8.404509
-12.54739 119.3179 7.309791
3.357355 135.7232 13.59326
0.1719253 137.1264 13.74156
-4.017677 134.9723 13.39738
-0.9628667 137.1245 13.76471
14.88895 88.45229 9.756257
10.76631 86.80476 10.22985
12.91372 88.79064 10.08596
12.71343 89.4749 10.01792
11.57352 87.09915 10.20766
10.71149 85.8868 10.25611
9.055882 84.68805 10.26675
7.91772 136.0573 13.98173
8.66783 135.4205 13.60373
6.797571 135.0529 14.33625
6.00232 136.3169 14.82088
9.413553 133.4006 13.61184
7.691048 132.698 13.93048
6.102814 135.0238 14.56179
4.88311 136.7054 14.12108
5.377714 134.3296 14.52368
3.369504 136.9684 14.50054
4.642978 136.0098 14.95109
2.932072 136.9987 14.0014
1.181469 134.2568 15.01967
0.3219581 134.7581 15.04667
-0.04720284 84.06918 10.26012
11.78991 119.1006 8.390989
10.34505 112.484 8.778028
13.27068 111.3792 7.054414
-16.17238 102.5832 5.498377
-11.32463 109.4611 9.772822
13.06318 121.7084 6.452106
12.38457 120.2907 7.561917
9.118818 130.4558 13.2727
-11.30941 118.2925 8.303537
-11.8848 120.526 7.511467
-5.981585 136.2397 12.93357
-2.576331 136.4107 13.0224
-5.231514 136.9416 13.51882
-1.100928 136.7905 14.64302
17.96792 92.51997 5.63508
14.57361 90.24718 9.604673
12.16364 90.77 9.905418
1.260902 95.28481 9.51893
5.202527 86.12516 10.28117
4.48114 86.60997 10.29534
4.225697 88.10799 10.32995
6.766923 133.1932 14.06104
1.41834 129.8692 13.25087
0.8238991 136.3009 14.93837
0.7268692 86.22209 10.29587
-3.436218 86.58302 10.29224
10.55845 112.9167 10.46775
10.82864 111.3637 8.694195
9.447779 102.5062 9.651814
12.66815 109.1488 8.564421
13.71133 108.53 7.357323
13.08807 113.5786 5.075352
13.86281 109.0575 6.630244
-16.5755 102.3588 4.924363
-10.15343 107.2071 10.69147
11.21747 126.8882 10.213
10.31336 129.7868 12.56103
9.827412 128.9752 12.25572
6.005132 128.9565 12.66476
10.81238 131.2569 12.96789
-11.16011 119.5025 8.353037
-10.22768 118.4148 9.128407
-9.7431 116.7635 9.457277
-11.59346 121.5615 8.621951
-11.98525 123.1176 8.378299
-12.31348 121.2165 6.857738
-12.6984 121.5127 6.084574
17.17937 92.12373 7.191756
6.39318 86.92179 10.28182
4.540307 90.17776 10.04289
2.567215 129.7508 13.20711
3.650409 133.5367 14.58415
4.284796 135.0925 14.98817
0.1241623 130.6847 13.69133
1.176593 136.9496 14.42301
-1.575182 137.0142 13.40193
-0.6938744 132.236 14.36008
1.676446 86.03292 10.2905
3.147784 89.39477 10.25041
11.6563 117.2073 7.050349
11.63705 118.4805 8.219181
7.116044 119.1378 10.93429
11.33162 108.4933 9.913522
12.66384 108.2311 8.311953
13.41191 107.9926 7.936396
12.11612 106.4854 9.094278
14.99932 107.8454 6.034738
15.35195 106.2867 5.578625
14.84502 107.3021 6.721524
15.29622 104.3181 6.461778
-11.28794 106.6741 10.4428
-9.564395 107.8106 11.25676
11.70204 120.061 8.640022
9.197171 131.8041 13.64493
6.769794 130.0236 13.29245
5.879917 122.2959 12.30622
-10.45925 119.0451 9.076525
-13.35827 123.9125 6.321259
8.990452 91.0201 9.895518
4.173826 133.3241 14.43897
2.020979 134.2451 15.02715
3.475842 129.7633 13.2096
-0.606927 136.5778 14.79529
-1.553717 135.0588 14.96467
-1.031957 132.9612 14.60996
-6.906132 134.8855 14.04772
-3.284538 135.0165 14.79229
-2.594905 131.5643 14.06649
-1.63864 130.8941 13.80387
-2.775743 127.2775 12.16685
-1.979203 86.41152 10.29469
3.588095 87.64394 10.32967
2.320173 88.36263 10.34513
-2.948898 87.32503 10.32502
11.46473 117.7905 7.685775
9.292437 106.7115 11.01624
12.48253 106.0317 8.891427
14.07907 106.6492 7.720589
-9.958165 105.8113 11.26462
10.81042 124.8089 9.178745
9.621149 122.1135 10.13198
6.574699 129.134 12.79012
11.92513 127.9207 9.957793
12.17833 126.7419 7.87073
10.75342 90.44328 10.00647
4.771022 132.1244 14.09295
5.115808 130.6096 13.60404
4.765778 131.0322 13.78397
6.19683 130.7405 13.63905
5.726688 127.4996 11.86359
0.7496665 130.5412 13.61989
-4.056542 132.5285 14.26185
-2.575783 86.0761 10.28199
-1.347314 87.05619 10.3238
3.525745 90.24415 9.984066
2.13785 89.5201 10.21961
-0.09399263 90.80742 9.623073
1.972364 93.38868 8.851399
0.6460435 93.90372 9.061255
-4.752761 87.77515 10.31609
-4.568353 93.5218 8.781834
-4.431836 88.75265 10.31477
14.68795 105.1795 7.337009
15.26052 105.121 6.648296
16.02714 98.9228 6.32568
15.77377 104.6813 5.992815
12.43168 121.1005 7.690526
11.61987 125.0483 8.38367
5.503345 122.92 12.52363
8.258801 127.7492 11.74435
10.6208 125.3915 9.439056
11.20366 123.9859 8.851984
12.34115 124.7474 7.576118
8.744198 126.8654 11.48873
9.424029 124.0393 10.35321
9.157084 122.6055 10.48415
10.29352 121.5499 9.555537
7.770841 122.9328 11.45328
9.234954 119.806 10.11155
4.108434 91.57507 9.360409
2.855157 91.95841 9.035504
2.247061 128.8434 12.53988
7.330807 127.7358 11.87743
-3.785851 134.1587 14.55311
-5.617862 137.4023 13.99997
-5.265126 135.0628 14.44075
-5.695607 135.5197 14.41433
-7.626864 131.646 13.82812
-5.674744 88.95269 10.27243
-2.538897 90.72453 9.731515
-1.328793 91.66293 9.088347
-2.12896 90.3335 9.964849
16.905 101.7099 4.663138
15.60417 102.9882 6.102756
8.720952 120.6995 10.56328
1.691126 92.46361 8.786056
2.805705 95.26014 9.289314
4.112242 131.0773 13.81843
-6.037407 123.4455 12.61553
-8.699006 135.3223 13.44989
-6.270098 132.9628 14.10111
-6.408387 130.9452 13.7453
-8.944143 128.8992 12.42064
-2.426527 89.19768 10.28877
-3.150773 90.87074 9.669785
-4.309194 91.38849 9.47362
5.540267 121.1841 12.00983
3.865982 92.10966 9.093493
-0.2111904 95.30914 9.570488
2.84474 127.864 12.06588
-7.241012 134.0638 13.97079
-3.369415 128.296 12.23836
0.7471141 94.55434 9.29478
-1.215757 90.61432 9.768845
-11.6863 105.9371 10.34632
-12.30564 93.66175 9.465568
3.231981 94.7896 9.04984
5.229191 94.75262 8.798828
8.562126 96.64202 9.446612
-1.533682 89.85155 10.14889
0.4262893 90.328 9.914062
-2.392124 94.21785 9.018562
-10.95598 90.6203 9.981729
2.993518 120.7888 12.68358
6.089686 91.60812 9.503428
6.966607 90.47272 9.988332
5.3489 89.80067 10.13857
14.08307 92.58921 9.344085
4.328998 93.73055 8.747624
6.204327 93.33465 8.90632
-4.101772 94.31879 8.880533
-0.6469645 92.42579 8.822472
-2.102759 93.79435 8.903531
-5.411209 89.58546 10.22806
-7.460876 92.17614 9.356167
-5.918646 91.37138 9.623339
7.069537 117.0194 11.41931
8.29645 117.52 10.9657
9.18383 117.4345 10.6928
10.72808 117.2209 8.525026
10.08317 117.0874 9.637261
5.990998 89.35531 10.2434
10.84017 88.83519 10.14812
0.2013811 96.73645 10.53691
-7.406339 88.81522 10.24372
3.425776 116.1362 11.9409
6.14571 115.8688 11.75553
6.67728 115.1043 11.42848
8.858405 115.6581 9.957391
8.408756 88.41442 10.2377
9.978354 90.14747 10.06999
8.115073 114.5157 9.964127
9.953903 114.6927 9.252945
8.868264 86.90318 10.25001
2.596934 95.84106 9.634025
3.699952 96.06166 9.789044
10.36607 115.8598 8.790802
7.836567 115.1276 10.35305
8.746881 113.9967 10.37766
10.89978 114.0224 10.57655
10.74677 113.0454 10.16076
-16.88706 84.98951 8.997405
-8.213068 125.9656 12.14455
-12.23327 125.2007 7.759749
-8.312712 133.2871 13.84305
13.12772 83.36411 10.24796
13.90461 83.56918 10.22124
16.6879 99.27779 4.878876
17.52287 98.12824 4.330033
17.07792 96.35275 5.822605
16.94236 97.54524 6.668242
16.31772 99.56534 5.530774
15.53825 98.46921 7.020861
8.507968 97.99001 11.03905
16.41246 99.91002 5.322662
14.44024 99.87047 8.62499
16.88141 100.4528 4.244551
14.69807 100.2082 8.332356
14.78298 101.196 7.315939
15.47384 99.90868 8.025048
13.07564 100.8977 8.533217
13.54138 101.786 8.225983
13.78307 102.6305 8.08151
14.50894 103.3684 7.443349
13.41358 103.5704 8.369985
14.18884 130.2839 7.805495
-14.51989 94.22051 8.824926
-17.32593 99.06998 4.597761
-16.4668 101.2293 6.010846
-15.00268 99.62862 7.271655
-15.02444 92.60637 8.93629
-7.969476 86.5353 10.25537
-14.02935 130.8084 9.282816
-13.0084 130.7474 11.0475
-11.89168 131.7047 12.37848
-12.25776 131.1755 11.93046
-11.69873 133.351 12.59172
-11.19057 132.6095 12.91228
-10.79716 129.7808 12.34505
-10.20257 132.3461 13.40043
-8.117227 134.3288 13.79538
-10.08018 131.4145 13.29027
-10.79901 131.6415 13.04945
-10.96403 130.1833 12.48623
-6.622569 137.2888 13.78764
16.9459 93.20393 7.316107
12.07175 84.91171 10.26588
9.156038 85.54851 10.26471
-10.80546 86.26967 10.23967
-9.91143 87.1065 10.22859
-14.66468 89.20341 9.743889
-12.86769 87.94085 10.14549
-14.39193 90.05318 9.683241
-15.33903 87.96886 9.62765
-15.53695 89.71375 9.285
-11.59072 106.1142 10.40675
-13.66864 105.6381 8.608565
-13.91129 106.803 7.862168
-11.69178 104.0572 9.225387
-2.362364 110.6841 13.05387
-10.46546 110.585 10.59324
-9.024242 111.4045 9.777649
-9.603113 110.5896 10.36171
-9.697151 108.5538 11.46565
-9.218115 106.4669 11.81039
-8.54069 109.7255 11.64195
-6.525207 109.3073 12.27112
6.911398 136.7508 13.82863
-9.472956 120.2698 10.26367
-3.844384 137.2308 13.97647
15.62372 95.41251 7.791032
7.473365 85.65146 10.26745
6.969072 109.8339 11.35785
10.00026 112.3112 9.177747
9.035308 110.5232 9.915516
6.416041 110.9661 13.33748
8.752023 112.8933 12.2965
0.8549716 114.5592 11.68078
6.960552 112.4703 12.9945
5.414488 109.5685 12.97083
5.694356 108.2506 11.75058
7.739494 110.9872 11.49534
7.974063 111.1429 11.93724
7.810287 107.9876 11.05649
5.224215 108.3155 12.05975
6.778281 108.9165 11.12085
10.49149 107.2227 10.34573
9.569823 107.6921 10.85223
9.602151 109.2875 10.19914
9.304701 110.285 9.825768
8.81969 111.5783 10.38156
-4.572447 115.1471 11.56271
-8.704279 119.2212 10.62424
-8.469504 118.2339 10.55907
-8.019331 119.0296 11.00479
-10.15801 115.2288 10.54553
-9.810735 115.4261 10.92303
-9.813767 114.7809 10.68297
-5.906556 118.8882 11.66076
-7.981832 118.4649 10.846
-8.711292 111.842 9.843171
-6.793421 112.0243 11.30636
-9.423965 115.3203 11.12077
-7.859632 114.7101 11.81012
-6.914804 116.5751 10.65283
-7.645787 110.5478 10.65425
-6.236674 112.2233 12.09155
-7.564696 112.5791 11.21876
-4.874527 117.4065 11.4678
-4.938762 112.8569 13.12857
1.554425 111.4362 14.14437
-3.749618 111.6611 13.23467
-7.487226 115.1993 10.89479
-5.070158 113.6215 12.58374
-4.070757 112.9134 12.93321
-1.610801 112.7734 12.31281
-2.777012 111.5597 13.54207
-0.8518772 112.6413 12.89658
0.05606176 109.6019 13.85451
-2.821536 110.9616 12.9965
-4.27447 111.2792 12.6532
-6.118959 112.2489 12.26189
-6.159206 111.1986 11.27882
-4.26264 110.6906 12.23767
6.546836 88.42127 10.28593
0.07894573 130.1879 13.47
1.14104 128.4459 12.3378
-0.4118535 129.7874 13.19664
-4.352846 85.78939 10.27111
-8.970147 86.11695 10.25307
-6.275213 87.65911 10.28817
-7.30323 88.47493 10.26757
-9.062643 87.53911 10.23074
-7.29455 89.58606 10.18608
-11.52151 89.42661 10.05701
-9.529546 91.17482 9.878443
11.04211 106.2961 9.566019
13.48385 104.5657 8.408676
12.17579 102.0247 8.922441
10.60239 102.5353 9.413935
7.709354 103.1163 10.30931
9.069165 104.6827 10.16741
7.912721 106.6639 11.56873
8.416373 106.1698 11.35325
8.56504 104.3652 10.33988
5.187132 104.0312 12.03974
12.21034 122.5863 7.637288
10.75791 123.3363 9.261818
7.977957 122.7841 11.28449
6.773749 123.3495 12.22235
-1.57134 126.1774 12.15038
5.434201 122.7441 12.53797
-8.041862 125.0829 12.04564
-8.439419 131.5935 13.71685
-8.722543 129.8234 13.03544
-6.753161 130.4004 13.48349
-5.423371 128.3268 12.24692
-12.64368 96.03082 9.104456
0.4252552 98.40221 12.22695
2.107746 96.78993 10.96441
1.127834 98.22942 12.20316
0.9294291 98.78851 12.14407
-2.340535 96.70238 9.949763
12.30652 95.30483 9.250658
14.05894 95.3153 8.903564
-9.917103 92.53069 9.471208
-8.221828 92.50452 9.331409
-10.7784 93.29357 9.415061
-6.260163 93.51991 8.902434
-7.873541 96.55224 9.101337
-6.650588 94.94683 8.927564
-9.206557 94.44746 9.130565
-10.04172 91.4462 9.821545
-11.54794 91.81935 9.774414
-12.65032 90.81509 9.862938
-12.33284 96.4413 9.094104
-13.75205 95.54762 8.892237
-15.2863 95.49563 8.081824
-11.15106 93.73776 9.419608
-15.35614 96.94234 7.580458
-15.83032 97.37131 6.99876
-11.89509 96.10809 9.199202
-8.757558 96.13761 9.104015
-10.21736 94.66124 9.274511
-9.483573 93.93509 9.178499
-7.430698 96.03841 9.04139
-6.115099 95.45644 8.976977
-5.633985 94.54715 8.888433
-11.0719 100.2661 9.543841
-11.36332 97.7991 9.131884
-6.727427 90.34291 10.05896
10.52022 90.21634 10.04694
9.028194 90.01164 10.10465
-12.33683 126.4763 7.653504
-12.45413 126.8343 8.039183
-11.83914 126.9067 9.146518
-11.38522 124.8914 8.742499
-9.164504 123.8742 10.46501
13.21914 93.56929 9.384051
-16.93235 96.87788 6.382578
-17.25502 89.71976 8.016623
-16.16765 88.03989 9.185946
-15.2759 90.07638 9.334811
-15.7598 88.50256 9.358294
-11.72223 127.4635 9.99185
16.46686 95.43895 6.798678
15.76778 93.22895 8.268918
-13.07287 103.3558 8.572009
-13.18641 103.7716 8.51211
-11.75766 102.9734 9.229231
-4.725521 109.5731 12.3141
-9.365908 105.2843 11.14231
-10.97303 105.2606 10.32756
-8.537778 120.8022 10.81749
-8.18004 119.6232 10.9603
-10.27534 122.6506 9.756386
-9.830401 122.2629 10.08508
-7.12653 123.1917 11.89973
15.69419 92.9213 8.422331
15.18004 93.28125 8.644431
13.12166 92.49938 9.556884
14.76998 94.01965 8.749827
12.9227 93.20773 9.475004
12.00914 93.35366 9.518867
11.65955 92.8428 9.546171
13.51252 98.56477 9.627992
13.70376 95.96011 8.823589
7.354793 96.6423 10.09435
12.57207 96.78186 9.045515
10.79961 92.88957 9.477169
13.84281 91.78574 9.571632
10.3398 91.61714 9.755427
7.691927 112.8618 12.36093
-0.8354459 114.2267 11.67747
-0.4406998 110.7094 13.81799
-3.038112 121.7146 13.058
-8.438071 123.712 10.97941
-9.015983 125.4196 11.49068
-7.278508 122.3494 11.61308
-4.830641 122.8575 12.83405
-3.930209 123.9377 12.76191
-5.293258 124.3439 12.70124
-7.469117 124.8045 12.2479
-3.476126 117.5486 11.75919
-6.844825 127.3836 11.919
-2.559917 121.4341 13.08087
-5.586192 124.0464 12.75189
-5.608484 124.975 12.49991
-7.326345 126.4003 12.03301
-6.256538 127.7969 12.06063
-6.819921 115.8186 10.70405
-6.001563 116.1417 11.03568
-4.945702 114.5926 11.48033
-5.288232 109.3415 12.36959
-2.954764 109.62 12.75638
-1.860253 111.7121 13.9235
-0.771725 110.3884 13.5592
-2.670663 108.606 13.72651
-5.025539 108.256 13.36696
-1.633466 109.9462 13.23897
4.468663 110.7576 13.99852
0.7906637 109.7481 14.02691
0.2063371 111.4801 14.08819
1.331385 110.8105 14.18376
4.954397 112.3071 13.24967
4.508792 112.2354 13.4983
5.028038 109.8347 13.54404
-1.249921 108.225 14.34526
2.160749 109.7846 14.45372
1.875993 112.4014 12.83819
3.731128 112.4646 12.32927
4.948154 114.2856 11.69303
3.893816 117.6012 11.75692
3.625281 114.1339 11.88387
2.112256 114.6626 11.88782
2.361016 111.8599 14.11414
2.723525 108.4564 13.7297
6.076954 110.1602 13.10287
1.520259 108.425 13.9929
-0.7121952 114.7527 11.70878
4.036216 114.4409 11.95348
6.003469 107.7644 11.59471
4.67645 108.1997 12.26704
6.049127 106.3899 11.92188
4.672771 110.0999 13.89983
11.98461 102.5655 9.022975
6.707881 98.35931 11.36781
6.178791 102.786 10.9021
7.711034 123.3383 11.69329
6.07552 125.5603 11.92001
4.963143 127.479 11.93196
4.340001 124.7006 12.24933
0.9561987 127.1232 12.08198
2.997015 125.0842 12.28862
3.211892 123.3072 12.68298
-2.187795 129.3624 12.90529
-0.4186608 125.0483 12.30141
-2.442122 125.1166 12.34264
-3.742732 126.1356 12.16619
-2.376333 125.9569 12.20228
-3.293286 129.1706 12.7678
-1.239282 125.1805 12.28874
0.4906054 126.3633 12.12209
-0.9152862 125.5014 12.23006
0.840695 125.3168 12.25604
-0.4123594 124.8991 12.32304
3.623518 127.6362 12.0612
1.0011 127.9459 12.15608
-9.500347 128.9213 12.29838
-9.364169 127.6773 11.7605
-10.03229 128.0968 11.65359
-8.808282 125.4983 11.76457
-11.02621 125.7326 9.142083
-10.55831 126.4658 10.59518
-10.03754 126.2974 11.16249
-3.725212 100.8302 11.26834
-1.210402 98.39688 12.35424
-1.531498 99.78472 11.5664
-1.681694 98.43743 12.34575
-4.24647 98.9996 12.0691
-5.225336 96.94256 9.400236
-3.22573 97.60565 11.07107
-5.335758 95.98408 9.137867
-4.980656 98.32233 11.43097
-4.679221 98.44771 11.60509
-4.229625 100.1512 11.78333
-4.102196 97.28085 9.818902
-2.25533 101.0963 11.46324
-4.93646 103.1955 11.33452
10.04183 95.06914 9.233364
10.28639 93.10156 9.375154
8.961253 95.11768 9.085739
7.986825 95.98512 9.026757
10.15921 98.88532 10.46162
8.988899 99.70308 10.11354
6.903881 95.21772 8.876779
6.38468 98.16423 11.40937
8.792979 96.36909 9.101192
12.78117 98.25655 9.460129
10.15699 100.0116 9.51813
10.56167 97.28416 9.809633
8.685269 97.39593 10.71843
7.874747 99.22194 10.76507
7.160537 100.1227 10.22831
9.895867 99.58059 9.996716
11.78154 101.3403 9.018245
7.548108 100.7706 9.886031
6.96173 100.9847 10.06256
6.810351 102.837 10.6065
6.156085 103.7112 11.40746
6.609704 105.2282 11.95988
0.9314784 100.5863 11.40599
3.088765 100.2448 11.12031
3.70646 98.39713 11.92187
2.811634 98.50584 12.04293
-4.827243 95.37942 9.055889
-5.596048 94.96095 8.931679
-8.401571 104.357 10.63607
-10.97332 102.7785 9.369383
-12.29832 101.4217 10.21843
-8.960206 101.7489 10.33736
-4.983516 101.8213 11.00716
-7.233024 101.2595 10.87206
-7.054655 99.88039 11.62284
-9.504451 101.1765 11.06215
-7.34685 98.87415 10.85098
-9.781663 99.90147 10.7298
-6.196438 99.07206 11.58971
-6.916896 98.48357 9.861079
-6.480738 98.51287 10.73932
-9.507624 99.0683 9.483703
-4.002797 97.78963 11.02458
-5.121096 97.69571 10.08515
-4.417155 102.4403 11.30119
-5.64531 97.16074 9.356249
-6.043126 104.4358 11.51452
-6.377657 101.0401 11.11832
-7.423197 102.486 10.31167
-12.34282 97.73818 8.967049
-15.53496 100.8594 7.292615
-13.04427 97.19155 8.839885
-15.73864 98.81542 7.093098
-15.6852 101.9617 6.888863
-14.13832 100.9289 8.978817
-14.64891 101.1434 7.69669
-10.89811 100.0426 9.400759
-13.26413 101.9478 9.344137
-14.00969 101.9052 9.197437
-10.68553 101.7888 10.25592
-10.90277 100.5344 10.65859
-11.58838 99.31924 9.038659
-11.92562 97.66551 9.051453
-16.94831 92.58986 7.283085
-15.09707 86.52732 9.856632
-15.50931 104.2131 6.969178
-8.630896 107.7564 12.25758
-6.633889 105.474 12.26287
-5.926059 107.6458 13.408
-4.256378 106.4867 13.56099
-5.884815 108.5466 13.03513
-6.891355 106.7244 12.91255
-3.796817 107.754 13.90482
-3.411188 103.8245 11.86435
-4.406708 105.4836 12.81842
-0.94192 106.9672 13.63395
-2.021162 104.5466 12.51617
-0.2400288 104.7129 12.93319
-2.588944 100.4742 11.38011
1.299662 103.4761 12.13456
0.2113851 99.8623 11.47383
2.787827 101.6742 11.45438
0.5285631 100.5164 11.39125
-0.7682264 103.4597 12.03583
-0.3409905 104.3575 12.64432
-2.896966 104.7518 12.56278
-1.53995 104.4333 12.43189
1.491346 107.5812 13.31443
-0.008793668 106.7775 13.36918
-1.168511 106.4049 13.63369
2.42612 103.0918 12.02773
5.103701 104.9064 12.36475
1.215194 103.9023 12.36776
3.053035 105.6892 12.74652
3.87322 104.6583 12.60853
1.873928 105.7108 12.95565
0.903897 107.3619 13.31138
3.129139 107.2275 12.6133
2.652383 108.4907 13.76213
1.973726 107.3888 12.96418
3.902516 106.0976 12.41652
13.06244 99.02648 9.558249
14.30864 98.51645 8.148543
10.96181 97.3181 9.302726
12.21544 96.33121 9.138147
12.68852 98.26206 9.972207
6.422396 114.3144 11.08768
-3.4407 118.6357 11.95153
-8.711033 129.1403 12.65956
-6.383219 128.5639 12.4003
-4.404482 127.0623 12.06665
-3.203456 116.5046 11.82476
-0.950006 115.1619 11.75949
-1.572747 116.8024 11.84961
-1.939704 117.9342 12.0516
-4.190506 118.9703 11.99227
-4.292 116.7655 11.6456
-2.065864 116.5715 11.85448
-5.850048 120.6559 12.07857
-1.056163 120.8246 13.07975
-0.6247946 117.0357 12.17867
-0.5295938 121.1014 13.10294
1.622409 116.0285 11.85461
-4.757667 118.2199 11.57016
-2.178736 119.4324 12.64393
-1.032403 120.0454 12.96322
-0.1893197 119.3043 12.79165
0.910029 122.8766 12.87225
-0.6898072 123.0601 12.86966
5.512482 116.9745 11.65103
2.635411 118.7653 11.96572
1.362945 121.514 13.0832
0.5177667 121.8277 13.06542
2.803097 124.2461 12.48471
3.126053 117.427 11.81068
4.557003 121.0637 12.33236
1.417214 120.9779 12.98562
4.763341 120.7423 12.10585
3.532161 120.103 12.20134
5.377372 117.6841 11.45847
3.613532 119.2646 11.85935
5.681295 120.5715 11.70356
2.613548 126.0331 12.18569
2.776277 127.9306 12.0887
5.715551 97.08529 11.13282
4.443381 96.43549 10.43335
6.402539 96.24135 9.683859
7.357768 99.6247 10.55852
3.811752 99.83693 11.15279
-10.96054 102.2525 9.599393
-14.97071 101.5289 8.228393
-11.97378 100.2612 9.673464
-5.612638 102.7623 10.98883
-5.245545 104.4004 11.68709
0.2478295 99.51055 11.76356
2.629407 101.2325 11.34658
9.997339 97.01471 9.395957
-1.894186 114.3445 11.77765
-4.689705 118.6848 11.78105
6.419165 136.1495 13.29383
11.34592 106.7875 9.417358
-15.82115 107.0777 3.147939
19.58634 89.80383 1.119387
20.31645 85.6227 1.638997
18.855 92.59264 0.6111232
20.42183 84.63706 0.3593125
-15.00848 110.8602 3.328486
18.12582 96.0181 2.049921
19.5396 89.56181 2.95566
18.08922 95.57672 0.6299676
-16.73961 102.189 0.4058862
18.00851 96.92176 2.047214
16.70285 102.8074 1.132441
13.44106 120.7358 2.166482
15.40751 107.27 0.1851738
-16.48277 103.0492 0.09160692
-13.89755 115.3039 1.414902
9.621293 75.81584 -9.003885
-18.85081 92.37301 2.358746
2.038934 72.76668 -9.217603
4.335676 73.70718 -9.209387
1.735269 102.0519 -10.77097
19.80256 84.41797 -2.845374
20.34457 82.09804 -1.926828
13.68426 123.6945 3.553761
-17.93933 96.88434 2.614048
14.21467 116.8059 2.206946
3.460915 102.4927 -10.57711
18.59606 93.54009 1.234899
15.84617 107.1854 2.200816
15.26088 110.5987 2.795212
15.45697 108.6389 1.714728
14.68323 114.3482 2.683427
-13.10403 118.3338 0.9834072
14.19631 118.3278 2.902026
17.62707 96.87898 -1.079688
13.57355 124.3897 3.380134
13.68787 126.4067 3.693935
-19.98285 86.96177 2.996204
-19.66018 89.42088 0.892967
14.83398 132.3569 6.69864
13.78449 120.3976 2.645048
13.04747 117.4114 -0.3478879
15.40319 102.3219 -3.720074
18.95227 91.95734 -0.7758132
15.86941 106.6579 1.652244
13.81693 121.4846 3.221631
-18.83241 92.26852 2.782584
17.82994 96.78988 0.3981079
-18.85638 92.54955 0.02062851
13.62461 124.8578 3.527646
-13.64616 118.3068 2.199849
14.17109 128.5431 5.198165
13.71955 125.8952 3.891747
13.29103 121.6613 2.094451
-13.44062 118.4039 1.731089
-20.20986 86.39359 0.4625192
-12.32422 74.97217 -8.787653
-20.30707 85.77097 0.7939315
-16.88772 77.6276 -6.976412
18.50354 93.88587 1.688434
-14.35646 77.40053 -8.311801
-9.749912 104.0671 -8.695372
-17.44813 99.6236 2.684707
-2.845223 102.1704 -10.7416
-20.3573 80.68436 -2.350179
-10.43667 103.0848 -8.830765
12.00052 103.5069 -7.478788
-16.49272 79.58131 -7.186312
-20.57592 83.13974 0.6919308
-20.3961 84.43489 2.346828
-18.52839 93.71883 0.9300091
-19.83888 87.71103 3.074978
19.32709 90.52898 -0.5884853
-19.07008 91.26285 3.17068
16.50306 103.6326 1.083432
-12.66208 110.4932 -3.23772
-13.30164 114.0899 -0.5863525
-16.19215 105.0072 1.56163
-13.8722 118.8951 3.251322
-19.89799 87.36264 -0.99663
-5.010922 100.5957 -11.47203
-13.75209 121.3154 3.491199
20.46703 84.15299 1.733114
17.39822 99.89239 2.219639
-11.16765 106.1012 -6.733462
-13.52727 111.3185 -1.539062
13.02734 122.9366 1.804272
-13.89046 114.1812 0.7642263
-13.31557 119.3848 1.904908
-8.455506 103.0191 -9.83849
-16.93587 99.00645 -2.022101
-14.30535 114.0479 1.961395
14.3703 117.5183 3.151387
14.33773 115.0191 1.626464
-13.20954 122.5864 2.517429
13.61346 118.9036 1.889222
13.53641 119.5949 2.001537
-13.46329 121.2876 2.846141
20.01784 87.28226 -0.1873648
14.14189 116.2617 1.808865
13.6616 116.6229 0.9310254
-16.4332 104.1601 1.999691
14.29923 116.3559 2.279935
-14.74765 108.8335 -0.4161259
19.93592 88.08334 1.379099
15.43944 106.3944 -0.4532521
-13.52626 123.3133 3.28965
18.33237 94.53799 0.8708717
-20.12184 86.95677 0.5732896
16.65161 101.952 -0.4056199
17.41477 99.10156 0.7387648
17.19037 100.4755 1.268776
18.52748 93.76437 0.8087105
-18.22729 94.65228 -0.279353
-19.73261 88.86508 2.215145
-19.96286 87.77593 1.983165
-19.32258 88.30688 -2.728175
-16.98621 101.6418 1.781009
18.55908 92.59109 -2.057774
19.76048 88.63575 2.240396
16.33656 101.0466 -2.356645
17.46859 98.23614 -0.2134144
19.53697 88.59684 -1.759294
13.84702 97.33406 -8.459684
15.9999 103.4731 -1.428526
16.37556 102.9461 -0.6234347
17.53526 97.43513 -0.9358211
16.37239 102.1188 -1.410062
18.33484 92.32284 -3.181013
19.54033 89.50778 -0.7725055
18.93344 88.9694 -3.453596
-13.42706 123.2676 3.04227
17.09989 79.17713 -6.815712
-4.006083 101.1025 -11.24392
12.34344 112.9008 -2.674562
13.56293 111.0662 -1.81582
14.26067 115.2141 1.554666
-17.94123 86.23186 -5.759663
-4.932449 103.4941 -10.11413
-13.33076 116.0895 0.4063624
-13.42717 111.9917 -1.371675
-14.61824 111.0612 0.8942314
-13.38717 113.5914 -0.6603114
-13.95227 111.9454 -0.3712865
-13.74202 116.2588 1.476884
-20.04746 84.81268 -1.863241
-20.48354 83.61315 0.01018411
-20.39584 83.90012 -0.6259363
-20.41924 81.95168 -1.331456
15.26889 108.9539 1.159395
14.98772 110.3826 1.20661
14.24692 110.2407 -0.955248
-14.7386 107.9096 -1.127776
-15.72724 107.3052 2.7609
19.96803 86.27352 -1.512283
14.54417 105.7862 -3.090134
-19.2137 90.68948 -1.18166
-16.71975 102.7106 1.389214
17.92323 96.0339 -0.1171671
-19.27713 89.13779 -2.387248
-17.50823 98.8804 1.631958
-17.2086 99.9875 0.4420873
-17.24057 99.14831 -0.6313335
-17.17354 96.38081 -3.480949
18.43124 93.92971 -0.4011374
18.35758 94.34161 0.3019491
16.49226 96.14167 -5.215106
14.98723 100.7753 -5.355311
16.89307 101.2654 0.160952
17.01006 99.52405 -1.373319
16.71653 99.0069 -2.805163
16.94258 98.52181 -2.476295
15.82126 104.2938 -1.215838
15.85211 104.6833 -0.7213519
15.37814 104.2079 -2.479676
19.29068 88.90481 -2.494135
13.5366 95.68248 -9.286632
-6.227428 74.37546 -9.097405
18.57523 78.66166 -5.623971
20.44353 81.36516 -2.182821
19.70342 81.49738 -3.671849
-8.782937 97.29366 -11.89064
10.32372 102.8199 -9.044739
12.07437 108.8857 -4.590322
11.11174 105.8395 -6.906591
12.3383 109.8759 -3.844676
12.83103 113.0397 -1.97459
13.73975 114.2808 0.01672414
13.88995 114.9554 0.639892
-14.78161 79.16839 -8.046874
-19.81167 80.84913 -3.427481
-7.548382 104.0684 -9.701917
-12.84154 105.4782 -5.631472
-19.44647 81.62802 -4.014916
14.72976 110.6023 0.3863887
-14.72177 109.3281 -0.1096049
-15.42921 107.3757 0.667904
-14.54424 108.4699 -1.207523
-14.37066 110.4058 -0.317486
20.3043 85.28118 -0.1840818
-18.33786 94.4043 0.6196589
-16.64206 103.2454 2.025153
-19.49066 90.01487 -0.0955637
-19.34052 90.37614 -0.7788731
-19.51459 89.68088 -0.6453125
-19.6037 88.46353 -1.591326
-16.58789 102.4651 -0.1182945
17.90765 95.85918 -0.6553136
17.17028 98.16399 -1.995216
15.45851 101.5237 -4.0968
14.9557 99.95676 -5.832298
16.64488 98.70515 -3.209982
14.69431 100.8669 -5.765289
11.80993 100.1207 -9.213246
13.99833 101.3294 -6.466774
12.61422 102.1173 -7.609316
12.78373 101.2345 -7.863145
11.57667 102.0441 -8.555075
14.20971 99.6637 -7.04671
13.88239 97.83503 -8.228309
18.16193 92.34813 -3.637282
18.43102 89.78313 -4.249155
19.09825 90.36723 -2.131305
10.43505 77.38466 -8.921004
19.84785 83.29106 -2.841247
20.4452 83.29998 -0.6685978
17.37484 77.15041 -6.691674
12.37749 74.92569 -8.813517
2.26179 96.49279 -12.6004
3.859687 101.6333 -11.02077
10.85272 108.3978 -5.763841
7.007483 102.5813 -10.47086
13.13565 114.4798 -0.9446025
-17.10058 82.6811 -6.728703
-19.18504 80.1157 -4.593791
-18.68495 79.77351 -5.253626
-8.712633 104.984 -8.798223
-10.61923 105.4167 -7.463055
-11.51273 106.1102 -6.480068
-6.193933 102.0537 -10.84199
-19.9176 85.72866 -2.021971
-19.91741 81.56653 -3.054018
13.80621 109.3045 -2.29554
-13.99245 108.1091 -2.590532
14.94706 107.9433 -0.726034
14.81758 108.3457 -0.7849398
-10.97577 93.75767 -11.55412
-16.90093 87.24119 -6.882476
15.2322 100.9958 -4.817727
15.8922 99.94956 -4.138162
16.49688 98.55476 -3.684501
15.6169 97.89808 -5.857594
17.05541 95.67608 -4.294925
16.06415 96.86153 -5.616498
17.15194 96.11295 -3.695583
17.06202 95.19196 -4.600938
11.48439 101.062 -9.094043
10.40574 103.8241 -8.476954
10.17118 101.4679 -9.798033
9.511053 102.8511 -9.478654
11.52753 102.7388 -8.258441
-12.20035 77.38256 -8.725949
3.429349 76.13641 -9.276459
19.20303 85.75845 -3.880237
17.88951 78.05351 -6.239556
12.87205 75.16977 -8.746907
8.153252 73.452 -9.085782
3.056354 103.619 -9.921305
1.18273 101.3252 -11.13334
4.353446 101.71 -10.99518
10.22056 107.7592 -6.418798
7.821743 104.2573 -9.354706
11.18103 108.181 -5.648942
-13.69458 77.34856 -8.500798
-16.38777 79.08448 -7.265966
-18.29751 81.74824 -5.611147
-18.8155 78.78679 -5.214633
-8.176341 103.7904 -9.533007
-14.71584 106.1184 -2.494347
-6.754088 103.5669 -10.0266
-5.158823 102.2485 -10.76703
-5.560969 101.3832 -11.15026
-3.242767 101.8347 -10.91145
12.9257 110.1656 -3.097281
13.38674 110.8167 -2.194637
14.33867 107.9218 -2.10799
13.45519 111.8 -1.626172
13.95944 111.8861 -0.6887013
-18.27956 89.4304 -4.651241
14.24142 97.03261 -8.134779
17.58261 94.1142 -4.005338
-5.778105 75.95071 -9.144188
-6.487689 74.86889 -9.093156
3.103725 72.43235 -9.199699
4.184615 78.53401 -9.326707
19.63383 80.31654 -4.163615
19.97069 85.21056 -2.047491
16.83903 82.7965 -6.942537
18.2264 80.29059 -5.780723
16.32712 84.28939 -7.32734
15.87988 79.36527 -7.550599
15.58818 76.1274 -7.872652
15.2301 81.81023 -7.857922
11.26865 75.769 -8.885058
6.99968 72.61602 -9.118447
5.594361 74.80481 -9.191726
4.024136 103.4481 -10.06328
7.195211 105.0829 -9.248471
7.884625 103.0902 -9.985518
7.322893 102.1349 -10.62395
-14.63726 75.92567 -8.316446
-16.13442 79.79555 -7.412362
-5.831386 78.24483 -9.204527
-19.838 83.76411 -2.843035
-19.35976 83.88009 -3.921197
-17.63722 81.84777 -6.29808
-9.470584 104.5044 -8.59633
-9.724468 102.5695 -9.505515
-10.30317 104.1977 -8.341495
-13.16442 101.2283 -7.491676
-11.53762 107.6826 -5.62154
-2.252197 103.4075 -10.03167
-1.391086 100.491 -11.48746
14.12169 103.9837 -4.915958
14.21839 105.6643 -3.709189
14.58897 110.7486 0.1055334
-14.19981 90.98564 -9.476649
14.27627 97.98251 -7.701534
9.102913 96.12008 -12.05027
12.94429 95.59682 -9.851253
12.71342 99.61898 -8.676605
12.33239 99.09671 -9.233582
17.94153 93.41544 -3.512656
16.47759 92.92076 -6.681199
-8.921557 74.13557 -8.972776
-4.720146 72.71141 -9.121934
-2.971347 74.14078 -9.204585
-9.703648 74.48836 -8.933913
1.440051 73.3075 -9.234464
1.519201 72.38052 -9.208864
20.13577 83.58045 -1.980618
18.53507 85.94128 -5.014192
18.75546 88.86507 -3.906455
18.9736 88.26686 -3.634742
16.50272 77.89922 -7.254487
10.043 76.77728 -8.962961
9.151774 77.85674 -9.04321
8.92856 78.66249 -9.072104
10.18902 74.38924 -8.987038
6.612881 72.77551 -9.132295
5.441303 75.0756 -9.201321
3.870135 96.47438 -12.6032
6.700041 101.1038 -11.17863
10.23816 104.3571 -8.284431
-10.92095 74.74111 -8.870461
-15.12979 80.36075 -7.872128
-13.42918 75.8763 -8.635382
-19.55418 84.82518 -3.307765
-19.34446 83.67735 -3.96942
12.08687 106.449 -5.816211
12.40111 108.6235 -4.385553
14.41488 104.6332 -4.051816
13.32268 103.583 -6.156093
12.06935 103.9417 -7.194741
15.61944 104.1933 -1.889757
-17.34302 92.07065 -5.550801
-13.47927 95.9185 -9.320479
-19.06233 88.90999 -3.14332
16.88867 91.91669 -6.367867
17.6917 90.04301 -5.53138
16.30969 95.69096 -5.814866
15.82799 94.39396 -7.115423
-8.837125 75.49847 -8.980389
-6.566917 76.32059 -9.114762
-2.324769 74.95737 -9.238005
1.490619 76.32961 -9.301576
3.120397 74.32263 -9.244083
19.52365 86.01938 -3.07129
19.85653 86.19071 -2.020449
15.30583 78.01773 -7.895783
11.13598 76.28236 -8.881433
4.013906 102.6216 -10.52965
-12.12802 78.52905 -8.673237
-14.38456 76.62847 -8.358223
-18.98594 87.53918 -3.865178
-18.83543 85.68167 -4.549504
-16.98714 84.55077 -6.806848
-17.89268 89.38769 -5.359423
13.23023 106.6279 -4.572185
16.48395 92.24871 -6.858017
17.73481 90.95408 -5.228214
16.70873 93.52801 -6.103097
-8.140994 75.02374 -9.015569
-6.895009 77.04787 -9.112871
-5.182569 77.84923 -9.222343
-4.168907 77.60081 -9.252175
-6.030329 78.95161 -9.221907
-1.483358 73.7101 -9.224551
-4.111304 77.74369 -9.259465
-2.657634 78.54678 -9.329542
-1.70911 76.81705 -9.292706
2.24254 74.85588 -9.266148
3.602774 74.21532 -9.234204
14.2085 78.26077 -8.296607
13.75121 79.30582 -8.352579
6.209946 75.13599 -9.174098
7.400158 76.30334 -9.137533
6.252439 75.62227 -9.179732
-10.92689 76.5573 -8.851145
-8.784441 78.44971 -9.01151
-11.73204 80.23484 -8.686411
16.06386 85.95878 -7.589389
15.51088 94.37021 -7.541582
14.59186 93.68925 -8.807612
15.40685 92.732 -8.109994
-8.408231 78.50428 -9.040331
11.62683 78.65736 -8.770948
13.7536 79.51925 -8.342127
12.77459 82.20001 -8.634024
11.69355 81.67389 -8.802361
12.02616 80.68373 -8.68675
5.141863 76.84034 -9.247639
8.622781 83.38929 -9.505621
-17.69088 87.34624 -5.977671
-17.82973 88.99081 -5.539659
-16.83747 86.52918 -6.938149
-11.4535 87.91873 -10.70283
-12.31082 79.71998 -8.600034
17.50001 89.2197 -5.998659
9.294967 87.03906 -10.93361
11.65515 82.48167 -8.889038
-17.21259 85.00223 -6.614393
-10.42362 86.58765 -10.51025
-15.41556 87.58705 -8.240248
-9.835903 86.32001 -10.46565
-11.49846 81.45152 -8.769865
16.06713 91.43397 -7.590488
15.89099 86.73373 -7.746582
15.32934 89.8372 -8.501164
15.52204 86.67006 -8.044824
8.787115 81.37566 -9.20934
10.82825 81.56723 -8.943164
11.52549 83.75543 -9.125983
-14.72199 82.52379 -8.117778
-14.31452 79.11529 -8.201118
-14.96872 82.93731 -8.0439
-17.48273 83.79015 -6.387702
16.67248 91.36716 -6.815226
12.0927 83.63769 -8.983198
14.88789 92.59873 -8.720377
13.42581 94.99406 -9.593288
13.41113 87.76569 -9.70072
5.666256 79.46697 -9.315518
11.15382 84.82407 -9.541902
13.44092 85.81023 -9.138545
10.37459 84.99731 -9.748686
14.0593 84.43177 -8.611383
15.95509 85.24665 -7.632594
7.085426 84.41137 -9.955888
12.20246 86.81366 -10.03361
8.818851 84.25799 -9.724581
-14.40043 82.52708 -8.225066
-13.34788 85.76619 -9.174819
-16.31662 84.67833 -7.353486
17.00548 87.04622 -6.752113
16.28603 84.72624 -7.379917
19.37737 84.47948 -3.816535
15.39063 89.1846 -8.415915
8.87719 80.35587 -9.1321
12.87361 87.04008 -9.805205
15.18937 85.85579 -8.200212
9.323546 85.839 -10.29818
1.505225 77.4268 -9.330784
6.079831 85.25183 -10.29707
7.742695 82.44205 -9.434762
0.9703311 92.88695 -12.81214
13.1433 92.67319 -10.27306
12.59888 89.53441 -10.52029
15.1944 87.39135 -8.363064
14.57911 82.98378 -8.21807
14.38644 82.18861 -8.216782
7.459586 84.93884 -10.09851
6.070546 84.23339 -9.959371
6.04382 82.93468 -9.647373
1.658892 86.33389 -10.83633
15.11224 91.99922 -8.586978
12.5866 88.21677 -10.26895
13.23247 89.9661 -10.18542
7.507203 87.72295 -11.3996
6.787097 82.90736 -9.585356
6.570634 81.87887 -9.456736
5.792151 81.71254 -9.478148
5.400683 84.94532 -10.20852
4.344324 84.13627 -10.00026
1.050377 88.26278 -11.69379
10.52784 87.88751 -11.01949
