# .PCD v0.7 - Point Cloud Data file format
VERSION 0.7
FIELDS x y z
SIZE 4 4 4
TYPE F F F
COUNT 1 1 1
WIDTH 1654
HEIGHT 1
VIEWPOINT 0 0 0 1 0 0 0
POINTS 1654
DATA ascii
-10.17507 148.7651 0.7429295
-10.76641 143.6211 4.129831
10.16493 151.659 -3.311982
1.743455 122.0824 12.04821
-6.52205 134.2907 13.6201
-8.969896 147.5048 1.648193
-6.344484 143.5888 6.040259
5.696082 131.8572 13.76433
9.561408 122.0563 10.17478
6.054685 140.3875 8.860613
8.709294 148.8815 0.654096
-7.355636 118.9661 10.8105
-14.43606 131.7289 1.234347
-13.65716 126.5835 3.263549
-2.669778 119.809 12.11482
-2.395989 138.1359 11.04134
-6.136385 144.6036 5.393913
-7.4047 146.7891 3.076506
1.845799 123.6403 12.16873
5.544159 127.9116 12.40493
12.69879 118.6035 4.239068
13.40336 125.5064 4.617961
14.63673 137.8897 3.42229
10.80881 143.4859 4.100925
11.693 143.0869 3.926434
-9.44419 119.0285 9.821644
-13.41276 125.0095 3.609963
-14.22984 130.4106 2.518232
-14.05952 138.2016 4.827245
-7.720001 120.2153 10.94224
-4.287316 124.6463 12.20431
-11.99503 140.7938 5.448009
0.7577177 126.1231 12.29824
1.446841 129.2736 12.9884
9.498732 121.4156 10.15963
0.8519082 134.0879 13.55683
12.84855 120.4969 4.574277
1.467173 141.6656 8.096059
2.41078 143.2549 6.788667
4.162858 142.6838 7.231769
10.40269 143.7476 4.242228
-13.79513 127.5929 2.841224
-0.5349705 131.4312 13.65292
-13.85131 128.1291 2.977002
-6.488369 137.3731 11.7855
2.369309 123.8355 12.18789
9.628712 119.7963 9.859844
1.072964 137.1714 11.83662
13.24115 126.7598 6.34587
10.4798 124.0826 9.531964
12.92667 122.0238 4.848507
12.47805 124.0666 7.169712
14.96362 135.2186 4.424324
14.35574 130.6678 4.404881
6.683101 144.1882 5.564713
-2.95077 129.5887 13.11181
-1.568738 134.7098 13.34603
-2.771978 140.093 9.345082
-3.561993 137.3524 11.72343
6.60243 121.8975 11.57545
6.353772 123.5075 11.78613
6.380072 124.1522 11.76995
6.299015 129.4643 13.01261
3.721091 129.9748 13.23565
3.20039 132.9217 13.76874
3.14061 138.6241 10.62373
10.82635 120.267 8.884889
3.956582 138.3063 10.9066
10.16326 141.1763 6.394556
-13.14398 126.2596 6.035286
-5.214039 138.3423 10.85369
7.948253 123.1365 11.17543
8.933817 129.354 12.75436
7.988552 134.3637 13.64388
11.01402 128.6961 11.44734
9.469906 138.555 10.0261
-5.153399 132.6569 13.77478
9.867095 128.0123 11.54456
5.373115 134.1526 13.59397
4.513972 137.4142 11.6878
7.368825 136.7929 12.30997
6.739221 130.3096 13.39557
13.55775 137.7466 6.46699
-8.342778 128.6559 12.42844
7.121697 132.0066 13.86391
10.7062 135.7486 12.2933
14.03483 130.5919 9.036433
13.79331 133.916 10.0316
14.03727 135.2463 8.513452
9.340341 125.5636 10.68712
11.11286 130.0076 12.27301
9.84579 133.9458 13.40426
-5.751918 129.2577 12.93321
9.137918 127.2716 11.40488
10.11409 122.6149 9.79205
13.98919 132.4072 9.915174
12.41548 132.1424 12.03511
12.5168 135.8289 10.60456
13.96209 131.1645 9.704851
-5.011497 135.4986 13.03109
-9.924613 138.157 10.31406
-14.31563 130.7617 3.063389
-6.796747 122.0941 11.54075
-7.16249 120.7128 11.19972
-7.899491 123.5917 11.1792
-11.83813 121.8631 7.833893
-8.636726 130.0745 13.21215
-10.79691 127.2175 10.33076
-14.51317 131.1316 7.532677
-12.62387 127.8558 8.699071
-12.88477 128.4408 8.843256
-13.27152 131.0502 10.83728
-12.94857 123.3317 5.519076
-10.54381 137.238 11.0518
-12.91896 132.747 11.51808
-14.40569 130.7418 7.548522
-11.62847 131.886 12.54015
-13.89331 136.0347 7.918466
-14.60203 134.1621 7.954238
-14.70992 134.7057 7.061705
-14.51556 137.9237 3.864553
-3.806068 142.2604 7.533362
-8.113933 141.2662 7.491369
-8.360084 141.1383 7.501942
-6.168567 139.782 9.405458
-11.07788 135.5316 12.17443
-11.71235 138.1254 8.8339
-13.27383 138.2047 6.367894
-6.964343 138.8678 10.28126
-11.30271 136.24 11.4866
-9.358766 142.2725 5.80148
12.16365 140.5403 5.565747
13.07283 139.3167 5.470691
9.785489 139.2278 8.941757
9.187525 139.5448 8.831325
8.141128 143.9085 5.037471
4.670099 122.2036 11.95636
-13.57726 128.0155 5.696619
-9.063474 138.0899 10.78688
6.376128 133.6518 13.74175
14.54785 131.2596 5.669719
-5.572971 126.8604 12.10403
-5.65884 127.9081 12.37362
-8.800816 126.1832 11.05035
-8.85952 123.4384 10.65754
-8.258037 132.9014 13.8471
-8.50865 136.0496 12.80511
-14.12222 129.8984 5.984887
-3.06625 141.6344 8.070273
1.5936 124.6727 -8.027165
15.20857 135.8485 -0.4211612
-9.820835 149.1459 -10.52784
13.19126 124.3894 1.994418
10.46807 150.2527 -10.00778
0.248264 133.4749 -11.32532
-9.538182 149.82 -9.90894
-9.629283 145.3976 -11.86175
10.54884 152.1875 -6.734839
9.701676 152.1778 -6.271733
8.319611 138.4196 -12.5174
15.16858 134.8172 -0.5188378
9.226999 143.0177 -12.32362
-10.35923 148.8981 -10.93538
-1.169917 119.7936 -6.449637
-1.147282 132.9915 -11.17986
0.0551593 123.8642 -7.735833
-10.98155 151.6757 -7.465814
12.01555 123.1124 -0.9335337
-15.16176 136.3083 -1.828572
-4.590019 135.6143 -12.0593
-9.39103 140.0962 -12.38728
-10.58774 144.2697 -12.06155
-10.79533 140.8391 -12.00457
-11.11408 146.395 -11.6209
-4.863179 132.8535 -11.25763
-10.95463 151.3222 -8.423733
11.05615 146.0582 -11.73677
10.98717 138.9234 -11.76271
10.2859 138.1861 -11.89268
-1.204332 129.9377 -10.03351
-13.2227 130.3619 -5.120787
-6.637309 138.491 -12.73011
-11.94314 136.8977 -10.72593
-10.70444 142.8387 -12.19991
12.51828 122.17 1.1727
14.76438 134.048 -4.545588
14.27286 131.8613 -2.312059
5.439368 119.4334 -5.709383
4.634424 133.6388 -11.49631
5.49655 135.6452 -12.05376
-5.158382 118.6545 -5.657125
-0.709877 129.2947 -9.780374
-3.462322 134.2843 -11.66962
-10.92754 131.1896 -8.561282
-11.79083 118.5688 0.5611824
-11.42021 121.2789 -1.127577
-14.62945 132.9165 -0.4572545
-13.1172 133.4025 -7.94206
-7.320101 137.6072 -12.50172
-9.739258 143.0418 -12.22543
12.06058 118.721 1.384275
9.090228 119.2413 -3.622193
14.43341 131.96 0.2629691
1.485548 125.0173 -8.151894
1.561397 135.1454 -11.8658
5.443285 131.438 -10.7036
1.691978 127.2069 -8.966019
2.53647 130.3099 -10.19957
-0.8894917 124.7018 -8.03622
-3.842791 121.556 -6.794241
-0.9810829 122.1241 -7.125418
-1.300884 127.3063 -9.004122
-11.43772 118.752 -0.3591751
-11.1812 120.0919 -1.113355
-14.07734 130.0593 0.2054557
-15.09947 135.2465 -4.858861
-13.83241 131.433 -4.608067
-10.05726 128.5499 -7.668528
-11.95773 132.9047 -8.742514
-12.84746 133.2948 -8.166027
-7.962629 128.6952 -8.833729
-9.45099 130.4986 -9.082439
-11.76032 136.3069 -10.56959
12.91058 124.2222 0.7255589
12.84862 126.1629 -1.515316
11.40294 119.2604 -0.4424179
7.70362 121.5435 -5.35103
13.98345 130.7123 -2.203974
5.581398 121.6624 -6.399026
1.598254 128.0254 -9.280724
-2.907711 123.7795 -7.683109
-8.106572 123.9721 -6.240562
-0.6108986 128.264 -9.373715
-6.231936 124.074 -7.1326
-10.13541 120.3029 -2.758886
-4.803158 129.6603 -9.927453
-2.285351 133.2526 -11.29866
-12.58389 124.8362 -1.028639
-13.6434 133.4285 -7.271317
-11.71112 134.3282 -9.69207
14.13008 131.2009 -1.911272
3.779593 129.7182 -9.964553
5.735686 130.3959 -10.22086
6.716604 133.298 -11.23416
-0.9350829 127.7427 -9.171767
-9.354707 123.7106 -5.242309
-9.368038 121.5466 -4.095628
-5.353292 129.4809 -9.821763
-5.979053 127.3387 -8.700865
-13.79361 128.429 0.2786467
-11.90875 127.8314 -5.295276
7.872962 133.9898 -11.2236
9.446899 135.7689 -11.40765
4.813371 121.7986 -6.686335
-10.21839 127.036 -6.625248
13.6649 129.3709 -1.902906
7.712733 130.2183 -9.663848
5.140828 123.1837 -7.122485
-9.51556 127.4445 -7.375423
-7.564783 129.7466 -9.511048
-11.82884 127.0409 -4.725469
10.55096 123.3365 -3.739227
13.55947 133.2943 -7.253881
7.276268 127.447 -8.392855
-10.47252 130.8997 -8.709939
8.078104 125.3194 -6.970121
9.099455 124.0843 -5.656396
10.46781 122.5831 -3.371157
-11.11663 139.0222 -11.72939
-14.23143 131.7771 -2.692396
2.715139 129.6537 -9.93127
-11.44836 123.3022 -2.300219
12.93316 129.0582 -4.423719
10.96924 129.5072 -7.569569
11.28258 132.6179 -9.066466
10.2563 126.2857 -6.087915
11.50088 129.832 -7.251631
12.09767 129.3882 -6.263049
-13.34772 128.9831 -2.968506
11.94244 115.8786 -1.109618
11.98498 116.1311 0.2804233
11.63907 113.2575 -2.361479
12.14389 116.0848 0.9182868
8.726209 117.6488 -3.79228
11.58536 114.6691 -3.380261
-10.3742 112.382 -4.423936
11.74325 114.727 -1.263865
-12.98587 113.5023 0.7066117
-13.18859 114.6063 1.092192
11.90708 112.2647 -2.938367
-1.270244 114.2066 -7.25259
12.68651 118.0761 1.781691
11.33615 114.7509 -2.122371
-0.6361936 116.9712 -5.949613
-0.6651595 112.3468 -5.915124
12.09062 113.8509 -1.577278
-12.16176 116.4228 1.260489
10.77496 113.7938 -3.537398
11.98652 115.3628 -1.98188
-13.55783 114.0539 0.2981871
-12.021 114.6915 -2.242671
6.260454 117.2026 -5.047287
-4.920132 114.0431 -6.794885
3.357203 117.9076 -5.961799
-0.3899738 114.4588 -6.927459
-11.57937 112.6254 -2.860522
10.29908 116.7095 -2.500259
-8.368936 112.4406 -5.042713
-2.830887 115.5445 -5.759639
0.6443073 114.6073 -6.743287
2.672402 114.3496 -6.773726
3.477262 115.173 -5.701887
-11.23839 114.5678 -2.709047
-7.812314 114.1364 -5.929807
10.75871 117.5419 -1.711235
-3.885279 117.4318 -5.815876
7.851461 115.0807 -4.478052
4.380068 112.2807 -5.910047
7.26682 112.8372 -5.287592
-8.09087 114.2098 -4.626441
-7.604529 113.6936 -5.539192
25.52534 10.6923 -6.890434
25.86018 8.152539 -8.009495
24.00898 22.9262 -5.80784
24.14989 9.054603 -13.42693
3.449658 105.7092 -8.860229
15.68172 11.97513 -13.1877
22.86476 39.78305 -5.931722
25.83208 9.057532 -7.75344
22.20651 43.83862 -6.936762
22.14688 50.5318 -3.241133
15.03088 108.4497 0.6844581
-22.87739 37.00842 -2.306144
18.15987 81.90333 -5.756144
19.7313 86.81376 -2.107228
17.31007 93.1631 -5.12498
-20.57509 65.60125 -2.515649
20.18964 80.30129 -2.180794
12.64284 111.6789 -2.149855
-0.8454264 11.03362 -8.009583
25.72174 8.520133 -6.554857
-13.92738 10.1584 -12.96598
15.69432 103.6331 -2.146241
13.553 104.6443 -5.270826
15.23571 106.7464 -0.7076525
16.53787 102.2455 -0.669551
-20.56212 78.5976 -0.138394
-22.14226 28.43588 -11.64148
-18.79795 83.42488 -4.881399
-23.30999 33.65197 -3.397712
-15.19354 89.08971 -8.565917
-17.75959 96.94421 1.153621
-17.15672 100.2485 0.5357015
-8.406631 109.2643 -6.293016
-24.84596 20.00537 -7.843877
-17.89296 96.17424 0.05327345
14.3741 78.87183 -8.201634
-25.52783 12.76391 -5.627801
-18.77487 92.89014 1.173868
-14.30638 96.67787 -8.205574
-26.06537 9.800544 -8.381544
-15.08495 108.5441 1.326145
25.75034 9.765535 -9.541337
25.73828 11.41488 -9.384183
24.55195 15.18754 -7.217418
24.23388 15.02386 -6.560917
20.11537 10.77733 -14.52066
18.09653 39.67857 -11.72699
-20.64423 66.95416 -0.7541274
-19.43237 82.93903 -3.839313
0.2526495 107.5267 -7.912987
10.7437 110.1692 -4.970071
14.46929 110.1373 -0.1602101
13.81769 110.6996 -1.389287
15.92146 103.5032 -1.628441
-21.80524 49.08038 -0.9085495
-24.76632 20.06564 -5.296558
-25.58476 11.29715 -4.893863
-25.61456 12.64908 -6.452256
-17.64895 97.21062 -0.3237992
-11.4686 109.4307 -4.831179
-15.7672 106.5696 1.553489
23.62482 11.4623 -13.3682
24.14215 15.54386 -6.545579
24.44371 20.73584 -7.071746
19.15269 12.64098 -14.26572
22.86994 38.76877 -7.082715
23.34763 34.51001 -5.547656
8.782497 12.6645 -10.14167
-20.88569 63.34814 -2.369277
18.24968 74.72898 -5.784835
-20.22243 86.06311 0.378756
17.93679 84.6404 -5.893517
0.3339441 110.5034 -7.176859
18.7009 92.01495 -2.150142
12.15932 108.8044 -4.545802
8.945539 109.8495 -5.919423
10.44076 107.1798 -6.580812
13.225 106.1175 -4.84431
16.27582 103.0656 -0.8667179
-23.2121 35.92123 -5.161717
-20.23295 10.31587 -15.04973
-24.73957 20.00067 -4.624964
-25.16932 12.56071 -11.47039
-25.46326 12.40319 -4.559422
-25.37005 14.80058 -6.196281
-15.55818 106.292 -0.07399991
-7.039204 110.6071 -6.115724
-12.34842 110.2937 -3.545782
-15.36342 107.03 0.1007924
-14.67451 109.4256 0.7526746
24.41346 22.95571 -7.043561
21.59634 12.6603 -14.2184
19.55117 11.16273 -14.4357
22.34915 47.02942 -4.715137
23.03951 37.63321 -4.503846
11.31312 9.792579 -11.27102
7.115987 10.0533 -9.458766
-21.96854 52.33223 -1.617204
-21.34354 60.28057 -1.290966
19.10482 69.96214 -4.139488
-20.64789 80.63406 0.9204711
-20.49862 83.89326 0.3861231
-20.35207 84.60748 -0.3513301
20.12795 83.07677 -2.113348
6.217066 109.6847 -6.548585
-4.72421 110.5424 -6.508246
16.40869 101.1502 -2.100928
18.1354 93.72658 -2.509672
14.05077 105.362 -4.163661
-24.08555 26.30846 -4.450075
-23.10019 35.56039 -3.089173
-0.07538863 9.719564 -7.922293
-15.76041 14.43391 -13.58656
-24.56802 22.08485 -5.509394
-24.78046 20.47315 -6.534224
-23.99257 9.905187 -13.81215
-25.41979 11.57206 -11.18863
-16.99397 96.31901 -3.931146
-18.98392 92.14547 0.2673678
-4.633702 111.0379 -6.226142
-10.41701 107.7953 -6.271489
-14.63988 107.1294 -1.961145
24.71371 13.32803 -11.9717
20.6596 44.92121 -9.031026
21.3846 57.29832 -3.927665
14.47631 16.24237 -12.56726
-21.64203 55.06699 -0.2520363
-21.79255 52.30057 -0.5996512
-21.99562 50.52428 -1.371604
-21.54746 58.00624 -1.038676
19.01723 65.87168 -4.871992
21.33342 58.5524 -3.664553
19.72672 79.20517 -3.368811
-20.40009 75.92916 -0.5534455
-19.89472 79.80529 -3.000327
19.9709 83.06829 -2.602931
15.00775 85.92744 -8.332703
9.184563 108.634 -6.382663
17.67464 93.1362 -4.407897
15.41213 103.274 -3.078552
18.60803 88.73359 -4.263818
17.2162 94.32049 -4.748416
6.460423 108.2788 -7.101825
-24.07264 26.59861 -4.812404
-23.21793 35.26156 -4.143235
-3.900698 9.882991 -8.587167
-20.37064 12.08246 -14.88401
-13.75534 13.4292 -12.76972
-24.38045 23.55506 -4.773652
-25.12833 17.52982 -7.740194
-24.86247 17.31471 -10.27548
-24.67629 14.62261 -11.82353
-24.71925 17.85694 -10.48559
-17.68335 95.57858 -2.469612
-17.78789 96.07582 -1.244336
-18.6952 91.73317 -2.443322
-9.521535 109.6687 -5.799051
-15.20077 105.8513 -1.604358
-13.98407 103.8406 -5.170486
15.65694 10.88021 -13.20049
19.37672 15.66311 -14.04078
22.58464 42.8989 -5.790888
20.64764 45.47029 -8.857072
22.09178 41.76395 -8.111527
21.13796 48.5102 -7.245769
21.85545 53.58712 -3.735255
23.65454 28.71858 -9.527052
9.044239 12.71065 -10.253
11.47855 15.47625 -11.29369
0.7679643 12.45171 -7.959201
2.952393 11.97026 -8.185078
-21.12747 62.56229 -0.4990307
-21.36513 58.56396 -3.025878
20.17742 61.9818 -3.744475
19.06262 68.31641 -4.601483
20.1025 61.82271 -3.849911
19.1576 73.4716 -4.274963
-20.03526 72.67912 -1.765421
-19.98114 80.908 -2.775275
19.76641 81.18343 -3.287347
19.24756 81.24317 -4.279761
17.71715 85.12048 -6.097972
16.987 79.41246 -6.864455
19.62996 87.64316 -1.887747
-1.192807 110.0752 -7.16688
-3.286335 110.5191 -6.909074
15.79088 101.7155 -3.29647
1.524494 107.1563 -8.113996
-23.97784 27.86306 -5.76154
-22.4488 44.36212 -3.228556
-4.56307 13.82117 -8.79774
-12.66202 9.682273 -12.39939
-8.020411 13.97741 -10.10793
-16.12789 101.484 -2.590505
-16.20011 94.92938 -6.340353
-12.57247 105.8236 -5.712646
-13.44808 103.909 -5.812765
17.95872 16.50943 -13.78075
24.08482 22.95306 -10.62775
23.96422 16.50258 -12.17811
24.16722 15.71877 -12.12611
22.44645 39.97406 -7.988461
19.81664 42.85803 -10.41606
24.01443 27.90657 -7.872632
-4.110416 12.85519 -8.646021
17.67854 66.53121 -6.245743
20.3218 78.88889 -1.592695
-20.32639 73.14803 1.418213
-18.51222 75.63312 -5.413097
17.74032 86.1121 -6.017069
13.56631 103.6331 -5.832088
14.94507 98.32158 -6.683569
9.80392 106.5976 -7.195626
-24.03389 27.31425 -5.786761
-24.29594 24.44778 -4.95252
-4.241811 11.32949 -8.682189
-14.0635 12.64055 -12.93761
-9.559305 13.51037 -10.80541
-15.97853 101.1021 -3.195631
-16.19255 102.3629 -1.7068
-17.70779 93.15191 -4.313498
-8.879833 108.5025 -6.532335
18.83175 20.36475 -13.61518
22.16163 20.37834 -12.93059
22.61805 21.18305 -12.58724
21.68618 54.95541 -3.888056
19.4036 55.34266 -6.904739
18.87052 72.12906 -4.783713
18.268 61.47344 -5.125329
19.69209 77.18127 -3.368129
18.14054 85.96362 -5.560756
5.585831 106.6651 -8.176565
-24.17687 25.79913 -7.724016
-22.45672 46.76935 -3.778021
-8.608189 12.47178 -10.40365
-2.613187 12.65645 -8.298604
-16.6108 99.02517 -3.076503
-13.48513 102.0407 -6.746897
-9.243705 105.9332 -7.864079
-14.53921 102.9918 -4.837561
17.39843 22.21883 -13.26839
17.74283 68.33739 -6.21404
16.85839 69.76346 -7.081206
16.77275 63.99433 -6.826556
17.47115 72.2965 -6.641026
17.8756 60.07348 -5.863923
-19.53214 71.96098 -3.333064
-19.00724 74.96341 -4.658074
17.78297 87.99009 -5.776178
4.544754 105.9683 -8.680659
-24.55714 22.57769 -7.562602
-0.8809572 15.93116 -8.098715
-15.88144 15.59799 -13.5774
17.40394 17.32259 -13.59783
17.78717 22.90894 -13.27316
15.46714 71.45002 -8.001501
17.75623 62.29808 -5.667807
17.5519 75.09075 -6.5438
6.392754 105.631 -8.781709
-21.86481 23.18605 -12.88276
-18.8841 85.9744 -4.441882
23.57751 23.22883 -11.25739
14.46106 43.86883 -11.63663
16.7592 78.2122 -7.053753
-24.02691 26.24474 -8.59974
-18.6639 86.52954 -4.715894
14.64833 22.00376 -12.46903
21.34956 21.87446 -13.07681
17.09456 43.84466 -11.36775
-18.24267 75.10751 -5.783507
-23.15478 26.9173 -10.82962
-16.24629 88.83454 -7.549061
17.24171 20.65571 -13.34438
20.79994 26.14369 -12.69771
-13.98951 90.18502 -9.641558
24.5263 23.36995 -9.279175
-16.96835 93.63026 -5.591684
-6.818443 74.32299 -8.828941
0.1876023 101.1148 -11.20985
-25.78481 10.41518 -6.029882
22.93217 32.31803 -9.728033
-8.207999 108.3244 -6.791593
-22.83797 41.29535 -5.158029
-22.01662 40.29985 -8.858719
-22.45651 43.77443 -6.398974
-22.66868 39.78838 -7.376975
14.16248 14.6363 -12.47546
12.78605 13.53674 -11.89175
16.69139 14.49306 -13.50762
-20.52445 68.2487 -0.02824508
-18.94842 66.92244 -5.127141
-20.04646 63.06213 -5.072093
-18.89085 64.19888 -6.252227
-19.86916 63.14737 -5.350151
-23.35831 31.53664 -8.711888
-23.05283 33.15364 -8.979902
-23.00241 38.19725 -6.490658
-23.08179 31.42584 -9.585111
-23.53495 27.15553 -9.992804
-22.11911 47.20202 -5.957884
-20.5104 50.53139 -7.9176
-22.11434 48.20705 -5.597313
-22.07525 50.62732 -4.419657
-21.83883 52.28751 -4.787529
-22.89094 13.53718 -13.9618
-21.35514 14.43189 -14.51571
-23.9195 16.44271 -12.41624
-5.522284 106.9208 -8.02549
-4.84344 108.697 -7.069724
-3.312852 105.8688 -8.780647
-1.093262 103.6377 -10.01035
25.18557 16.1476 -10.50965
19.59323 45.54459 -9.890948
19.13818 39.9453 -11.38114
22.14496 34.33191 -10.37694
22.04529 34.62283 -10.44202
24.03581 27.35092 -8.522286
16.7353 84.76057 -7.030037
12.63981 102.467 -7.424765
14.65088 100.1568 -6.161672
12.64619 99.2537 -8.886418
13.16677 99.22858 -8.413391
15.97703 90.75755 -7.761181
14.97213 93.02736 -8.558276
-11.31687 11.87753 -11.68031
-4.329686 105.5244 -8.958826
20.3024 51.42929 -7.341372
19.07858 48.44199 -9.413455
17.83251 46.94708 -10.67229
18.12901 49.89378 -9.699472
19.7631 57.45898 -5.875882
15.72756 88.61448 -8.054564
-7.447724 102.6343 -10.36158
-11.5893 103.9474 -7.588117
-7.838329 103.2847 -9.908339
-9.48786 99.52039 -10.9183
15.24944 67.72488 -8.134147
9.994417 83.33617 -9.087271
15.89574 75.66196 -7.745655
12.4039 71.16606 -8.743009
16.62918 74.87865 -7.284261
-1.30887 21.04992 -8.193658
0.9947829 22.02344 -8.138568
0.7037689 18.14552 -8.049057
1.491022 15.44519 -8.031397
3.47934 15.94549 -8.375422
2.914205 18.27503 -8.299605
7.775192 20.30392 -9.755919
4.666757 18.49681 -8.718151
7.591489 15.85303 -9.665625
8.02756 17.30193 -9.838563
11.68697 16.31335 -11.37875
10.81587 17.63715 -10.99758
2.128444 21.95308 -8.241861
9.769562 19.89436 -10.54993
2.489305 23.70922 -8.357661
5.457903 23.0434 -9.023201
4.832674 25.61792 -8.895376
10.82389 19.73262 -10.98871
11.90373 20.83026 -11.42761
13.65436 26.65633 -11.99527
10.51938 22.33776 -10.84903
14.84568 26.19995 -12.40545
14.85664 24.75496 -12.45858
12.64806 25.62695 -11.65707
8.779958 24.10912 -10.16663
12.49394 27.67081 -11.56372
17.49173 27.25668 -12.89332
20.99575 27.47538 -12.48565
19.01077 27.08315 -12.95113
15.05116 28.73045 -12.35266
15.33014 30.30997 -12.34047
9.92015 28.09621 -10.61645
-18.73953 85.22623 -4.773587
7.508278 105.9523 -8.376732
3.703411 97.0263 -12.46675
-22.15558 43.29984 -7.468157
-20.18023 16.34064 -14.38425
-20.67898 58.12964 -5.775977
-18.64115 69.92411 -5.046053
-12.95266 68.80973 -8.614479
-17.75634 70.5052 -6.274129
-17.45949 72.93772 -6.660887
-17.70785 69.0046 -6.245591
-18.70901 34.66212 -12.3201
-19.81025 30.71074 -12.58706
-18.70972 26.48391 -13.32044
-18.3165 33.92569 -12.45775
-18.18517 31.3318 -12.78874
-19.75036 25.60209 -13.33637
-20.35378 25.10169 -13.25543
-24.06732 16.86077 -12.11423
-24.42733 20.13546 -10.26083
-23.71602 17.06878 -12.53682
-18.05601 17.36904 -14.09003
-20.52392 21.06723 -13.81202
19.43131 36.39899 -11.79847
22.2006 38.67822 -9.033734
19.74084 40.54908 -11.00563
16.49415 40.53322 -11.83232
22.168 28.75731 -11.57629
23.13645 26.45443 -11.03456
21.44731 28.67514 -12.09699
14.08594 84.60681 -8.621641
8.099792 105.5639 -8.49217
18.94001 52.81306 -8.104753
17.32211 89.37791 -6.21076
15.36605 90.28805 -8.429795
11.89836 84.787 -9.360678
12.93933 82.90464 -8.670382
-7.731139 98.90375 -11.7657
-13.62534 98.63275 -8.170595
-14.36911 97.73453 -7.691763
-14.37106 98.52489 -7.28628
-15.32372 94.46407 -7.750732
-15.41648 92.49644 -8.142227
-15.74059 95.26147 -6.909533
15.48057 66.91341 -8.012187
14.84042 61.75395 -8.064648
15.95332 61.48064 -7.245825
15.43392 54.83194 -10.02173
15.61335 55.90184 -9.481175
13.70259 56.18986 -10.64997
15.51544 60.333 -7.573822
13.68815 17.52283 -12.21053
11.94599 79.73079 -8.610831
11.56012 28.63981 -11.21508
9.248258 28.4384 -10.37816
7.196728 29.9595 -9.7124
12.44092 29.91584 -11.50061
-18.32821 81.88835 -5.537632
-19.20082 81.04864 -4.362229
-18.89872 81.62698 -4.776454
3.889232 99.03552 -11.96891
1.087163 102.6042 -10.54362
2.488009 98.50211 -12.10009
5.873653 99.59588 -11.81629
7.60192 96.32981 -12.40705
4.162107 101.3139 -11.1678
13.24695 97.35474 -9.056036
9.719333 99.36067 -10.8753
8.735653 104.8931 -8.684667
11.19014 99.53504 -9.946689
5.235112 105.1863 -9.16569
14.35237 92.23145 -9.306778
13.5542 93.03446 -9.904282
9.894021 92.65903 -12.04623
10.3159 103.0565 -8.931952
-14.10892 89.06952 -9.453225
-14.33314 85.8741 -8.730776
-20.97281 57.12841 -5.466424
-21.04982 56.44002 -5.522672
-20.08819 53.54894 -7.621791
-20.15211 60.11852 -6.0475
-18.76088 54.81661 -8.013029
-16.64891 54.40924 -9.158239
-14.43936 56.89835 -9.500199
-17.28487 62.49791 -7.419893
-14.4539 58.52914 -8.97614
-16.45458 72.27732 -7.469142
-14.20966 71.96281 -8.472089
-14.86376 73.58622 -8.274091
-13.40825 69.17606 -8.555567
-10.22168 73.37881 -8.813465
-11.03893 62.19712 -9.727107
-9.140715 62.06049 -9.998564
-12.52948 68.03929 -8.622971
-12.64905 64.05883 -8.644243
-12.86597 80.23015 -8.517068
-15.81057 77.50564 -7.690165
-11.08893 74.49805 -8.799172
-6.35977 76.04066 -8.812677
-10.02336 20.19207 -10.85447
-19.027 29.10555 -13.00216
-19.86314 24.40644 -13.49046
-12.76765 16.12831 -12.20645
-10.91761 17.22718 -11.31874
-9.185633 17.88675 -10.5361
-14.5199 17.84704 -12.91186
-6.124558 16.94072 -9.312179
-18.91062 22.1884 -13.82072
-17.74096 24.46245 -13.50266
-9.50838 19.65603 -10.64134
-17.8914 26.07817 -13.36366
-16.41299 27.14959 -13.04874
-8.995934 18.82142 -10.43719
-19.45142 50.41681 -8.813671
-20.61158 23.67906 -13.43187
-23.55052 19.919 -12.05957
-20.78928 23.74415 -13.34485
17.42995 34.08021 -12.37774
17.83474 30.8122 -12.6528
15.77541 39.59148 -11.92651
23.31182 27.54879 -10.49288
13.02579 94.43613 -10.10349
13.49149 88.89555 -9.860319
13.62352 91.76754 -9.958131
1.105962 87.61941 -11.27173
9.243093 82.1544 -8.89222
9.67821 85.18925 -9.819029
12.59894 82.49555 -8.660622
7.025493 79.00645 -8.769813
8.431524 76.60845 -8.779955
6.683461 75.17172 -8.818978
12.06894 86.77209 -10.06491
13.24441 88.03939 -9.85667
10.12868 89.44474 -11.56288
11.08284 92.66434 -11.55347
-13.71263 100.4318 -7.280535
13.69693 58.55971 -9.884625
7.487665 58.01868 -10.33786
11.25238 63.92514 -10.02077
11.34629 65.40065 -9.528636
11.76803 67.20749 -8.894314
12.56863 69.76009 -8.684375
12.25791 62.90535 -9.757872
10.2199 60.22449 -10.64226
11.51388 67.35828 -8.917664
10.63645 66.92422 -9.174246
-5.423373 75.54292 -8.822341
7.523613 69.57162 -9.014677
7.925365 75.19426 -8.813479
5.678068 67.07228 -9.404063
10.85998 75.44942 -8.79641
12.83768 77.52208 -8.632451
5.553131 103.7042 -10.00041
-12.50571 86.85593 -9.914358
-13.085 83.51369 -8.753462
-14.14003 84.21676 -8.517697
-17.93411 82.39525 -5.979445
-14.87387 81.4948 -7.977791
-10.94777 83.65579 -9.084702
8.089887 88.18901 -11.57318
6.442909 90.43005 -12.40607
-10.90782 87.71954 -10.83665
4.790661 90.33479 -12.34052
5.29349 94.04736 -12.83095
-7.970655 85.56902 -10.17238
-11.93789 88.05768 -10.54393
-10.52565 79.53867 -8.690909
-12.28561 78.67886 -8.630378
-7.772451 84.92715 -9.841029
-9.475454 88.39427 -11.4392
5.151098 89.23704 -11.99896
1.272069 88.41341 -11.61671
1.972752 90.68934 -12.38953
5.454718 88.29568 -11.62776
3.879176 90.78275 -12.44175
3.614483 87.17702 -11.08396
-9.209046 90.11954 -11.93112
-6.823396 94.10528 -12.77532
-4.900942 87.69982 -11.34626
-4.971336 94.02641 -12.82455
-13.43073 93.25233 -9.96571
-4.226683 92.09971 -12.69588
0.4564086 89.33043 -11.97319
-9.171165 97.37001 -11.73607
0.05275424 90.68765 -12.38128
-12.67609 91.50289 -10.62884
-5.749447 95.60683 -12.69585
-8.136826 97.7515 -11.98099
-1.620653 87.21484 -11.08646
-1.979868 88.24464 -11.5507
-7.559838 97.3533 -12.20203
-2.530575 91.97746 -12.63695
-16.85333 53.06385 -9.474059
-15.09997 52.50156 -10.36689
-13.8191 53.53673 -10.57358
-16.99197 36.80053 -12.20153
-16.81415 42.84155 -11.53831
-12.80287 53.82539 -10.70843
-13.14504 74.19139 -8.714266
-13.53096 65.31236 -8.34246
1.325356 77.11317 -8.829045
-22.30439 39.90139 -8.435894
-23.2534 34.87179 -6.78195
-22.92824 34.38776 -8.879449
-22.54805 37.3942 -8.693498
-16.74659 31.86583 -12.71755
-16.13497 37.81273 -12.09543
-19.25844 35.59701 -12.00572
-13.65226 22.24664 -12.35422
-10.05576 21.12156 -10.85225
-12.99587 22.36115 -12.07749
-12.89196 25.46732 -11.9485
-9.909828 21.12638 -10.78983
-15.22228 29.94187 -12.55293
-12.58694 32.25313 -11.67424
-13.44641 30.6636 -11.99243
-12.83432 32.68319 -11.74547
-11.83167 29.24989 -11.47019
-10.30378 30.98221 -10.88476
-14.81214 21.74053 -12.8347
14.86435 31.57757 -12.1708
15.64156 36.00221 -12.08911
12.74231 33.94299 -11.47664
9.277915 76.25951 -8.781676
9.962527 61.32144 -10.51317
5.454329 28.91976 -9.147468
13.18391 33.4517 -11.61629
12.10192 36.84568 -11.25016
13.83881 36.81458 -11.67061
-6.285223 84.32816 -9.692317
-3.634051 80.28382 -8.945103
2.870342 94.46779 -12.76501
1.577166 97.86091 -12.2548
-2.042355 92.72803 -12.71907
-1.504699 96.23981 -12.5826
1.781587 93.30519 -12.74604
-1.274166 92.39315 -12.67409
-14.8522 90.31879 -8.944421
-15.88414 61.69576 -7.787064
-16.24333 59.68494 -7.718135
-21.76723 39.46495 -9.538709
-19.67791 35.85079 -11.81322
-17.18877 35.98851 -12.30601
-11.84279 35.76063 -11.3548
-12.89469 36.18689 -11.63436
-11.14051 37.73255 -11.1027
-9.945652 36.26517 -10.74266
16.16775 32.76638 -12.36945
9.474225 60.20899 -10.56611
4.664228 27.24669 -8.896438
1.785412 25.29564 -8.284718
-7.176395 81.75596 -9.000513
-4.195745 83.47359 -9.495872
-3.063389 81.80399 -9.145956
-4.524973 79.47545 -8.869839
-3.262675 77.76531 -8.829193
1.945797 81.4693 -9.087976
3.712958 85.59134 -10.31597
3.872181 78.38155 -8.820662
3.260472 78.76908 -8.846026
-0.6333512 79.8138 -8.927135
7.122845 82.1781 -9.029249
4.69416 80.71197 -8.937385
3.268618 83.01917 -9.383985
8.034404 85.92228 -10.37339
4.891328 78.57204 -8.808054
4.110322 84.02563 -9.665613
2.094396 84.69544 -9.965347
5.637862 77.12968 -8.796709
-0.122194 77.46774 -8.83334
1.018132 87.02113 -10.99931
6.822985 77.24216 -8.783485
1.197719 85.13997 -10.14703
-14.3078 59.21318 -8.839747
-17.83618 43.20197 -11.2615
-5.265101 74.54113 -8.834343
-17.74253 37.73321 -12.07726
-17.13203 41.82694 -11.62586
-18.42295 45.64154 -10.5206
-18.12474 44.60315 -10.86989
-15.28938 45.5063 -11.39601
-15.2098 42.07004 -11.69846
-13.80196 40.81418 -11.60522
-12.96194 42.23215 -11.42207
-13.58074 46.63007 -11.33841
-9.777042 47.95252 -10.63856
-6.205858 37.63071 -9.443248
8.19653 59.97456 -10.38113
6.725304 60.20275 -10.12962
-9.530205 64.32113 -9.697246
-10.52103 68.49378 -8.865767
-10.77143 57.32354 -10.45056
-12.20282 56.25528 -10.46125
-11.96891 57.79316 -10.28669
-9.147625 54.49744 -10.40913
-9.08764 59.87142 -10.18409
-7.667327 59.22271 -9.954591
-5.956406 55.76872 -9.580165
-4.161241 61.99595 -9.157079
-4.692402 55.31409 -9.251911
-1.143785 59.66401 -8.831497
-8.656975 50.33891 -10.33247
-11.50235 48.96756 -10.98264
-12.64109 51.34122 -10.95853
-9.470992 50.39416 -10.54784
-9.608782 69.82423 -8.877255
-11.35803 50.81888 -10.91606
-8.791795 71.10377 -8.853245
-7.148887 75.03693 -8.819141
-7.504939 66.55434 -9.353741
-6.240444 47.65231 -9.602727
-5.109361 50.45682 -9.314479
-6.726829 43.99242 -9.702442
-4.485098 47.94818 -9.099447
-3.836428 45.99238 -8.917371
2.848109 24.46413 -8.444479
0.1440548 27.11258 -8.219574
-4.61735 85.34011 -10.16975
5.374233 73.69107 -8.849781
-15.11148 44.50363 -11.51398
-9.327356 40.37593 -10.52731
-9.068713 40.99052 -10.44284
-10.67078 40.74142 -10.93211
-7.138463 25.20044 -9.650126
-6.119492 18.90767 -9.30088
-8.975899 26.06472 -10.36801
-6.008768 24.56275 -9.239964
-2.066821 24.8763 -8.326788
-6.45939 22.53444 -9.406575
-2.940357 21.67135 -8.426094
-5.091265 25.27532 -8.9498
-8.473703 32.59848 -10.19828
6.44323 57.65312 -10.17152
-7.456613 55.42083 -9.981342
-6.042861 51.41962 -9.587584
-7.9061 70.77132 -8.885316
-7.529378 69.27643 -8.990733
-5.894954 68.58181 -9.06097
-0.888279 73.04359 -8.88206
-5.171575 62.51428 -9.332392
-9.690626 67.51376 -9.11518
-4.751276 63.16653 -9.250072
-1.75695 61.43286 -8.882904
-5.888339 72.01661 -8.876557
-1.510134 66.44744 -8.996576
-5.991026 28.00996 -9.251712
-2.455492 23.85153 -8.360267
2.939671 71.09354 -8.958683
-1.930228 75.69614 -8.833819
-9.791268 36.08372 -10.69238
-6.395898 36.92097 -9.498006
-5.297102 36.66466 -9.133246
-6.063932 27.34687 -9.267814
-5.151975 29.166 -9.002512
3.886958 61.60547 -9.59443
-1.692486 57.36279 -8.799364
-2.545629 53.13913 -8.791464
3.88279 67.70684 -9.238348
3.640979 62.96977 -9.517189
3.165124 68.15848 -9.169905
1.124236 68.3608 -9.063535
1.405734 66.2732 -9.139949
-0.1807458 64.4515 -8.989331
0.4969283 70.05682 -8.989328
3.230572 63.46159 -9.436197
-1.015412 70.86281 -8.948136
-1.967372 50.26046 -8.686798
-9.340282 38.19853 -10.52897
-4.653009 33.47194 -8.90246
-0.4230995 29.21266 -8.247045
3.52691 30.5873 -8.717963
0.3414006 30.84895 -8.280917
-1.35559 31.71844 -8.344203
4.796526 33.58171 -9.120319
-5.322607 41.2639 -9.226464
-3.010049 43.68397 -8.701592
-5.532502 40.58334 -9.276117
-3.172987 37.68317 -8.625023
-1.125661 41.01033 -8.480483
-0.3394845 55.07082 -8.768508
3.818206 66.04516 -9.37359
-4.508727 36.13216 -8.904229
-3.501687 34.6877 -8.651411
-3.569173 32.90331 -8.649502
1.224546 49.45135 -8.818428
-1.63763 47.01461 -8.613851
-1.534754 47.87177 -8.620525
-2.042681 60.98057 -8.887158
1.073606 59.87357 -9.020102
0.4060811 57.43505 -8.875342
-2.819292 36.45475 -8.551141
1.079586 33.2702 -8.394501
4.480716 34.9161 -9.082061
-0.2575867 35.83701 -8.377206
3.019456 41.94478 -8.96205
4.512175 35.61313 -9.115999
11.75888 36.91278 -11.16521
7.797049 39.60154 -10.1642
8.682992 34.62103 -10.29285
9.305341 38.22998 -10.53918
6.742225 32.39201 -9.636024
9.742486 37.80622 -10.6486
11.70821 42.11589 -11.24142
9.18444 35.11254 -10.44898
-2.990714 44.73473 -8.716029
-0.3202102 46.7486 -8.626669
2.654354 45.18003 -8.968328
0.4049059 44.98275 -8.636548
4.143575 42.37905 -9.246069
2.752755 47.75972 -9.071528
8.625462 45.16973 -10.56243
5.842023 45.62686 -9.813649
6.4059 46.38547 -9.995302
3.434987 38.75244 -8.953704
5.246596 57.63256 -9.921805
5.711606 48.03225 -9.853839
3.708249 43.10341 -9.159309
-0.129774 52.91797 -8.742618
6.557621 55.49587 -10.21999
-0.4089746 59.79525 -8.855849
14.7479 42.5592 -11.70564
9.76798 41.48879 -10.75059
5.323709 44.36693 -9.629815
9.205233 42.42055 -10.63134
2.643994 40.78862 -8.851701
-0.6490657 39.53421 -8.448178
9.656666 49.91174 -10.88427
12.08754 54.96456 -11.0112
11.28621 52.4433 -11.04527
16.95691 45.36885 -11.20116
11.01274 48.87467 -11.14496
15.93196 50.06916 -10.8666
11.89478 43.62609 -11.29766
9.685898 46.97195 -10.87751
13.22386 52.27881 -11.13086
17.33367 50.60018 -10.04885
14.72198 51.45753 -11.00774
12.56231 43.58834 -11.42753
7.759776 47.70823 -10.41034
5.23018 52.17953 -9.842114
8.882072 51.37613 -10.73473
8.131577 49.95598 -10.55948
-3.880884 105.0659 -9.220524
-5.190391 102.1716 -10.7954
-6.714096 100.7115 -11.35263
-2.52437 100.0918 -11.61559
-5.252975 102.9327 -10.42667
-3.352695 99.55108 -11.80666
-6.005454 97.30766 -12.42239
-13.8386 111.4673 3.34913
1.512932 118.5038 12.29173
14.19478 112.0484 4.844941
-12.35307 117.9875 5.236741
-8.041492 118.6316 10.4882
13.12575 113.5041 3.441489
-12.36739 117.3326 3.396064
-12.15115 118.2076 6.159052
14.48139 111.8051 1.599078
2.011889 118.0551 12.0202
-13.01133 114.7118 3.399764
12.42657 117.2402 4.413481
-12.39536 117.1425 3.94234
12.95927 113.4237 4.550781
-7.044797 117.7635 10.72611
3.424792 113.9158 11.7969
11.6774 114.9679 6.968184
11.37577 116.7261 7.440647
12.49997 112.6363 6.553582
12.33994 116.7005 4.831624
13.33377 112.8376 5.506222
-8.088078 112.579 10.05386
-7.918488 117.9295 10.40831
-6.043072 117.5496 11.09351
0.5546579 116.2101 11.83356
2.752115 118.7795 12.42295
4.880063 117.1547 12.03648
8.875279 117.6204 9.888957
-9.513404 112.5535 9.30679
-11.41157 115.8204 7.428441
-8.58433 117.6505 10.04774
-4.604326 115.1305 11.58267
1.660347 113.1754 11.80613
4.315979 115.8333 11.65626
0.5627573 114.2123 11.8224
8.80486 115.8966 10.74245
9.23958 113.9962 9.403529
7.582271 115.6654 10.93664
-7.162896 114.1043 10.48816
-6.694245 116.9117 10.98804
2.860342 116.2044 11.85622
1.791144 116.0266 11.84378
-25.43577 10.64165 -2.930567
-25.18913 14.40131 -3.349044
16.73158 16.70565 7.80449
-23.91721 23.40303 -0.07725836
-17.04461 99.14613 3.719864
-12.12307 9.726961 6.213021
-9.079808 9.527923 7.850638
-17.64394 93.66923 5.60174
-15.01087 108.2075 4.100708
-21.61694 45.47457 -0.4845627
-12.00248 65.98433 8.584986
-25.41335 8.018051 -1.77667
22.19089 12.70909 -1.571977
-20.59053 81.54074 2.184245
-17.36895 10.17817 5.07071
-4.198182 110.5455 11.95637
-22.68996 37.93334 -1.577363
-13.06644 110.4754 6.706811
-14.00891 110.4947 4.490857
-9.86707 111.2356 9.335187
-20.36081 68.49113 1.797996
0.4427224 21.38516 14.97101
6.877848 111.373 10.83114
22.67834 9.326118 0.4475904
20.34867 37.54795 3.567484
15.28222 107.8594 3.270732
22.40372 16.08578 -2.616556
21.81925 50.4312 -1.07204
20.55626 67.42046 -1.255055
-15.68895 104.0382 5.604409
-10.59495 14.66721 6.724525
14.45877 110.4138 1.422377
-25.62636 7.795753 -3.142203
5.245652 108.9783 11.81555
-4.82945 99.91371 10.44957
-25.36768 7.526087 -1.399147
20.55213 78.38641 -0.1692586
-23.4915 23.91306 1.262611
-10.50539 93.56278 9.427284
21.31601 30.39042 1.61096
9.602521 110.837 9.583257
6.169989 10.27009 13.42471
16.08317 105.1048 0.9049542
15.99003 105.7408 3.188576
-25.26786 10.42192 -1.5902
-25.00013 15.39169 -2.199719
-20.98033 8.194148 4.035957
-24.70968 18.85113 -2.324689
-18.24518 47.9447 6.74504
20.52439 47.61681 3.032533
20.50124 80.81727 -0.8853981
-19.90887 71.71403 3.337297
-16.5013 88.33377 8.897462
6.975374 108.6063 11.1598
-9.307652 110.2417 9.859926
-14.43142 105.716 7.189955
-14.23456 106.7743 7.037242
4.755144 12.10966 14.17004
23.24961 17.30842 -4.649841
24.74904 10.35298 -4.650724
16.49516 103.6442 1.232075
12.14367 111.9353 7.163621
15.74044 106.5446 1.377652
-25.26839 11.78245 -2.148707
-19.61919 9.202002 4.573327
-23.18731 30.24385 0.1922631
-16.99118 7.62559 5.020594
-11.64702 8.524794 6.43728
-21.37737 44.12679 1.518535
3.225631 9.877211 15.12378
22.16629 45.52824 -1.960546
20.38739 75.39442 2.277892
-19.99988 82.4326 4.710338
18.13158 94.80844 -1.030414
-18.9453 92.25021 1.530687
-16.90315 101.3079 3.178427
6.761161 110.5802 10.997
-16.12244 104.0326 4.506704
-15.94795 101.1813 5.817684
-4.878899 109.1033 11.93018
-10.76352 108.652 9.530494
21.43934 35.48443 1.046312
5.793713 8.688036 13.7494
22.43602 8.184195 2.054908
23.53041 14.37484 -4.892131
15.97677 105.7741 3.243337
17.52563 98.2306 1.107023
5.730616 111.4642 11.36663
-24.50857 15.38027 0.2535445
-22.74047 35.50093 -0.09694365
-23.95761 25.72801 -1.716356
-12.84809 11.35693 5.942137
-13.17569 11.06163 5.858396
-22.01304 42.02796 -1.055903
-21.29571 55.67397 1.059897
22.38902 42.38155 -2.494049
22.35567 43.1984 -2.484884
21.6051 52.16599 -0.3711747
20.97022 59.66213 1.146144
21.66634 57.05993 -1.800482
-20.16171 72.39771 2.386218
-19.82448 66.76942 3.977875
17.87053 96.03817 -0.4448466
-18.26223 93.83453 3.456804
-20.06006 85.93075 3.423207
-14.80547 100.2603 7.349221
-3.501303 110.4184 12.05279
-3.661266 109.5516 12.14509
-10.05394 104.5023 9.855838
-13.92493 102.0855 7.962646
-7.20536 107.322 11.1227
-9.669022 106.1402 10.0975
9.725129 9.385956 11.36936
18.93234 8.748457 6.204114
11.79757 9.012422 10.24364
20.52824 9.590273 3.455076
13.88117 109.2593 6.056613
17.79509 96.67696 0.3108347
-24.6018 16.55661 -0.3850868
-22.10996 10.45437 3.605349
-22.32743 39.43636 -0.2181611
-23.13808 32.5708 -0.7982796
-21.31093 46.66029 0.3583825
-21.51232 54.78473 0.3215863
-2.120741 9.221011 15.75669
22.53429 41.20496 -2.969018
22.14435 48.84689 -2.431228
20.22241 70.14502 1.073151
20.27051 67.63065 2.236745
20.54703 79.24693 -0.359121
-20.548 78.90559 2.291817
-20.32841 75.56216 2.750695
-20.32305 75.82677 2.873588
-20.45627 63.56275 2.780627
-20.86095 57.82924 2.276463
20.0734 86.33649 3.016523
-19.32915 89.87096 3.452004
-17.82594 88.71326 7.516222
-18.92681 83.95875 6.819002
-17.11032 95.28119 5.758976
-1.648346 107.8673 12.32009
-9.578038 103.1701 9.904285
-6.945991 110.6618 10.8622
-12.11222 107.4077 8.924543
23.04439 29.34562 -3.204125
22.82196 31.10263 -2.622199
6.412863 11.78257 13.18736
18.8797 10.75702 6.309221
15.21068 107.2927 4.623493
16.74297 101.4604 3.844347
-24.80869 16.66168 -1.514882
-24.90446 13.24763 -0.606096
-20.42196 9.158727 4.264417
-22.59072 36.54945 0.2234764
-21.49711 43.20865 1.587749
-20.68711 48.55882 2.493277
0.1713209 10.58179 15.98975
-6.365464 9.613779 11.10431
-6.262975 10.57131 11.12932
21.05358 52.80649 1.420887
20.08293 70.67982 -0.8670141
20.3629 73.74382 1.254383
20.01853 71.20412 2.654928
20.5964 78.32029 0.6780879
19.99068 85.47927 3.920432
-19.85631 81.59207 5.124368
-16.48735 72.88614 8.435194
-18.99862 67.56982 5.381527
19.12447 91.35948 2.292135
19.82512 88.64893 1.05812
-16.76778 94.0377 6.90853
-14.18052 96.28645 8.565485
-7.492268 106.6484 10.99931
4.055838 10.10991 14.70094
2.695479 10.71831 15.32562
15.15244 14.13493 8.617518
15.71813 102.1365 6.091355
-23.61753 13.60581 2.42446
-24.78292 12.49321 0.08261206
-20.6714 38.99713 4.53228
-21.19866 43.02387 3.086728
1.775838 12.60941 15.51389
-6.715105 10.22444 10.50192
21.14152 51.60317 1.206634
21.20221 61.13719 -0.006475325
19.15339 69.92458 5.003644
19.5283 71.89917 4.459363
20.78925 59.09772 1.778885
21.01909 55.70995 1.346862
20.77726 61.10175 1.622914
17.96345 56.63184 6.561456
-19.64277 79.55054 5.581542
-19.42118 75.99128 5.586905
-20.47046 56.82402 3.385883
19.90535 88.00578 2.030586
19.13406 84.724 6.381795
-18.89457 85.0854 6.736374
-17.10376 84.44528 8.845192
-15.15897 87.84185 9.655564
4.650535 106.3515 11.96137
16.09705 10.08689 7.987428
-21.77495 38.48275 2.603405
-3.681856 14.46942 13.98378
21.42749 48.57183 0.5291353
20.54657 48.98952 2.924612
19.96825 66.55962 3.337831
19.87202 59.45212 4.026712
-19.97157 75.2036 4.141747
-18.40752 65.89819 6.162847
-19.82043 57.63185 4.645422
-19.5739 58.76649 4.940309
-17.77912 92.74033 5.904391
-18.62039 81.83763 7.376098
10.988 109.8021 9.100417
19.71936 16.7409 5.043476
19.90241 14.1663 4.669208
-23.72351 22.35769 0.9580608
-21.05776 38.55983 4.020436
22.03313 37.53647 -0.690384
21.17959 43.61988 1.524554
19.02442 59.29333 5.393656
19.10214 50.61847 5.474011
-18.84132 77.92533 6.844205
19.58764 88.8028 3.253414
17.82047 89.79318 7.230317
-16.70211 91.43129 8.01551
-9.7644 94.86626 9.275857
-23.74142 21.473 1.109965
-23.20618 19.45228 2.507397
-23.20226 27.3034 1.191552
19.71785 46.81829 4.653555
19.77587 63.78879 4.035115
19.57132 56.16339 4.633252
-18.57833 63.12276 5.985816
-17.24314 89.20876 8.087623
-15.69498 89.25555 9.278497
-13.27394 93.3351 9.4187
-15.98143 95.18307 7.479539
-19.73594 40.97305 5.572531
19.27752 48.06847 5.285844
-18.01346 75.74178 7.629974
-16.03343 64.30736 7.665226
17.62545 91.10938 6.908228
-12.71822 86.19979 10.23721
-16.14358 84.00387 9.507831
-13.26704 91.05706 9.739287
19.03021 18.72708 5.921241
-22.25875 23.21997 3.564501
-21.49571 41.41523 2.772938
18.13127 51.18573 6.460677
-10.32552 62.16389 8.458923
-17.70395 82.62866 8.387369
20.07854 15.85403 4.413948
15.95759 19.22965 8.240281
-16.92922 75.52926 8.539738
-16.47335 61.22678 7.482191
-17.18774 82.42007 8.806745
-9.829911 88.56441 9.921606
20.36865 13.90132 3.145135
-16.18028 78.58915 9.323659
-12.33755 69.18821 8.731521
-19.30924 71.25122 4.905064
-17.46146 71.43255 7.444001
-14.87058 83.40659 10.02532
-4.917006 87.42176 10.13313
20.39177 17.64162 3.752511
19.17319 22.69164 5.620239
-13.44739 66.07816 8.417624
-7.459039 87.82423 10.0485
-5.690989 88.33104 9.827278
-9.815658 88.23602 9.995998
-6.765776 95.62461 9.311324
18.45403 19.6677 6.476667
14.55716 18.46778 8.934528
-14.71291 66.70366 8.139071
19.13786 81.57113 6.585844
18.05194 18.77015 6.845942
-12.47854 68.59481 8.658814
-17.03476 73.58433 8.18878
-7.83673 92.10046 9.967351
-6.228438 94.55563 9.201689
18.00035 22.31328 6.838017
-14.37722 70.38122 8.709949
-4.276989 84.50257 10.46111
21.34569 16.90052 0.6982071
21.36518 23.04807 1.503173
22.08662 20.06703 -1.002345
21.12873 23.35 2.16202
22.35375 18.53772 -2.089933
20.19816 25.95939 4.133434
19.82547 28.01076 4.684695
21.46159 26.08008 1.327526
22.88357 24.23051 -2.7904
22.71766 25.7025 -2.259054
23.91954 11.5984 -4.066133
21.14369 12.38841 0.7888787
20.96032 13.36019 1.112891
21.52337 16.17291 -0.08242159
-14.93923 14.61946 5.581138
21.36133 27.47788 1.592279
22.32899 27.10788 -1.11565
21.86417 30.63996 0.1326796
21.74658 31.65115 0.4095569
22.66034 33.06533 -2.24735
17.55313 97.50883 2.501441
-20.69268 11.32132 4.326776
-11.49771 13.7026 6.363513
-8.388747 13.7352 8.235937
20.37826 78.24893 3.273203
0.2450194 108.8218 12.24527
-7.541878 99.8303 9.830043
-4.320164 107.2031 12.13185
-19.84476 14.34398 4.853549
-23.75649 11.99368 2.336622
-20.68961 53.75954 2.868061
7.622888 16.04947 12.20917
10.97143 13.61939 10.57864
10.23527 13.75938 10.92843
8.230244 16.38777 11.85141
8.669659 13.96261 11.73427
2.985483 14.83798 14.88051
3.53775 14.57081 14.64256
3.881559 11.60254 14.689
15.30969 13.17695 8.515059
17.7421 68.5767 6.722221
19.72038 68.51172 3.741056
-19.36501 53.36234 5.559234
-20.1514 52.52935 4.166874
17.66298 12.94671 7.198357
15.39247 13.77022 8.488738
0.8627295 14.22925 15.58647
3.011693 17.35188 14.68002
3.291155 18.62468 14.45367
0.9486991 18.83791 15.17089
-2.949488 13.43325 14.76205
4.81146 19.23808 13.66611
6.012507 19.41577 12.9586
-19.62529 57.33941 4.926803
-18.74184 54.17301 6.095681
12.34601 107.7835 8.68451
19.46462 53.97205 4.870736
19.14618 52.34536 5.352459
18.26651 50.64503 6.341539
18.13982 49.9561 6.47747
18.20153 93.87168 3.691379
-22.90697 18.58866 3.003868
-22.87042 26.73836 2.166722
-20.16451 27.13569 5.251091
-21.79424 28.84663 3.776958
18.84713 64.31229 5.557405
17.52993 65.77699 6.85934
16.11736 64.05535 7.593886
21.85072 41.26797 -0.3287002
17.08492 95.05938 5.952229
13.50372 94.4416 9.136964
-14.18837 82.36777 10.17101
-11.92034 79.68154 10.09765
-20.81195 32.30571 4.778161
-9.899946 59.59999 8.228192
-13.22635 58.45441 8.321153
-4.534368 88.8009 9.754537
-7.584361 90.40414 10.08733
12.02164 21.99855 9.957488
-16.43896 70.73875 8.044277
-7.266141 91.25443 10.15257
-12.7772 69.71715 8.752728
12.21707 106.8889 8.93425
22.54227 34.40063 -1.990399
21.76501 34.08791 0.2357147
21.94533 38.89233 -0.5017893
21.74257 40.11454 0.06809799
-20.816 24.70096 4.802126
-15.90209 15.19849 5.508439
-6.041575 14.17853 11.0415
-13.27583 99.21611 8.485441
-9.802129 96.71604 9.293137
-10.96723 101.3995 9.251098
-8.999146 96.64771 9.347189
-7.380077 98.33133 9.578746
-6.62662 99.81384 10.01904
-5.001547 98.50171 10.01087
-5.914618 100.9343 10.46526
-2.53242 100.6052 11.14855
-0.1281147 105.1795 12.25499
-1.570248 104.5908 12.18597
-4.513073 105.5116 11.92108
-0.5820816 98.80558 10.76513
3.126841 105.9133 12.25786
3.908799 106.2316 12.16733
7.004408 107.8737 11.18676
0.9069867 100.8316 11.37982
4.426832 107.1064 12.10424
-3.197788 107.8056 12.29281
-20.16962 17.20216 4.897819
-20.90512 14.79096 4.471639
20.1255 79.69259 4.370031
20.05919 84.27843 4.215341
20.38288 84.38537 2.415118
16.23507 85.57216 9.38201
20.38389 79.70491 3.441271
10.96515 14.25322 10.5619
13.29324 14.16355 9.503061
-19.24082 55.74163 5.505747
-19.25699 48.35891 5.899984
-16.90191 50.09438 7.382735
-17.74275 47.24764 6.988848
-18.90742 43.15104 6.258731
-13.8663 40.41666 7.186934
-15.35443 39.51709 7.152574
-1.972609 18.30361 14.72585
7.416168 22.66943 11.98921
6.591822 18.94415 12.64611
7.63351 24.82783 11.77962
4.577785 23.03785 13.51622
2.164098 24.68992 14.41082
1.027623 24.69228 14.60649
6.545508 25.43378 12.31025
-14.67112 38.94728 7.110404
8.338488 18.00553 11.71255
8.177395 20.51752 11.68461
6.939548 27.7423 11.98034
8.169834 26.49949 11.44116
9.074486 20.27283 11.26225
-4.404319 14.94577 13.19558
6.900799 107.3095 11.25142
16.76882 96.93357 5.619226
16.76552 98.97408 4.738081
15.12399 93.40128 8.656761
16.41305 93.35326 7.658918
-21.36961 32.49058 4.10304
-21.24124 33.74349 4.220115
-21.18232 35.1538 4.171195
-19.67599 37.45427 5.72018
-18.51241 31.24873 6.210104
-18.81073 38.22093 6.27697
17.19987 65.79131 7.076199
-11.06133 77.8189 9.909929
-9.382857 76.39899 9.728564
-7.240789 76.35301 9.717386
-9.37648 60.72266 8.2822
-8.072788 57.3274 7.997523
-5.627566 61.03142 8.562774
-6.042557 57.70188 8.395213
-5.210828 56.91135 8.663608
-10.67435 56.20691 8.042835
-15.19153 59.0865 8.017161
-17.68505 57.65586 6.823945
-15.82814 55.81067 7.803396
-14.27614 62.09476 8.238214
-14.90434 51.13229 7.844349
1.91004 52.89129 11.47848
16.45877 22.75822 7.902252
17.14792 31.30884 7.376647
19.11481 26.72447 5.631823
15.53092 30.84513 8.279984
18.42666 28.13784 6.401224
17.13797 29.02067 7.429348
19.75202 32.41209 4.77731
-4.907878 90.89841 10.30288
-3.104373 93.23148 9.311773
-5.197254 94.27789 9.183793
-0.4767635 90.62986 10.42325
-0.9141887 89.98522 10.16562
-0.1849131 89.51923 9.912504
9.266335 107.2988 10.30717
15.75954 103.4825 5.685473
21.39285 37.42742 1.113323
-7.939081 11.65854 8.834646
20.09952 75.00787 3.636456
