# .PCD v0.7 - Point Cloud Data file format
VERSION 0.7
FIELDS x y z
SIZE 4 4 4
TYPE F F F
COUNT 1 1 1
WIDTH 1659
HEIGHT 1
VIEWPOINT 0 0 0 1 0 0 0
POINTS 1659
DATA ascii
6.681689 54.12138 11.76002
15.03886 101.0443 7.774627
14.40904 98.73528 8.510905
14.78235 99.47919 8.286807
14.92706 97.36926 8.613179
11.21335 112.3748 8.035585
-15.29252 102.7801 6.890472
-12.51432 119.5385 5.103572
-11.60227 119.597 7.717851
-9.958176 120.446 9.656461
-10.47699 122.7114 9.45856
19.78294 55.22849 10.32669
24.46074 54.61741 4.892393
-25.96127 58.76371 -0.01201984
-25.21933 71.08639 1.192612
-24.74295 72.24558 2.299422
-19.92591 80.113 5.003425
5.090748 53.99067 13.9728
13.80113 104.0338 8.092152
15.05603 94.20667 8.980071
14.97383 99.76013 8.185158
13.21715 95.37794 9.213893
12.97891 94.52843 9.347315
8.690354 115.8214 9.701024
-13.57529 103.1964 8.489023
24.67839 52.58094 4.910799
23.57458 59.64828 4.817947
26.52864 55.72409 3.123095
-24.53338 62.18026 3.017772
-22.61288 63.58874 3.468029
-17.5288 57.75306 12.32252
-1.56289 54.32672 15.5422
10.04646 111.2809 9.221649
24.45451 59.85511 4.596797
20.40235 58.79826 6.164445
-22.59646 60.95922 3.537551
-2.398347 50.78217 15.67183
18.15845 90.49562 6.403012
18.50529 57.44402 13.22632
-23.56016 62.31396 3.249542
-21.65552 80.28568 3.300346
-12.63203 57.94862 8.223003
-1.786865 52.30441 15.62955
14.86022 92.53487 9.321903
-23.01627 63.43981 3.356533
-21.6032 62.41912 3.922451
-19.72089 81.53727 5.431745
-19.69481 84.35062 5.240463
-5.522161 53.00658 14.65906
18.84398 58.68872 12.94285
17.38054 85.25398 9.151892
16.89937 56.32714 13.19348
16.16688 89.68952 9.158101
19.01412 57.5989 12.81854
13.53052 90.82427 9.788539
17.66607 64.40616 12.4824
17.12238 58.08966 13.10221
19.78011 54.4773 11.78551
19.486 64.47064 8.388975
17.39164 60.85839 12.83569
15.16331 52.56926 12.25001
18.71765 65.07397 11.81895
16.83449 57.60615 13.07402
15.61 53.91352 12.67829
19.66648 60.95291 7.858874
20.42728 63.12005 5.950553
22.02798 62.38102 5.103211
25.50541 61.1256 2.879138
20.96217 65.37186 5.480232
19.5739 64.01205 7.705835
19.73904 58.52853 7.659729
24.51926 62.65957 4.44804
21.97921 63.71838 5.081655
24.88907 65.54095 2.678218
-9.723708 151.5261 -3.961563
0.5746109 138.7319 10.39579
0.8085079 139.1421 10.01086
3.047667 139.4754 9.705338
2.254146 137.8121 11.24863
6.032493 139.2748 9.900503
4.68672 140.1134 9.101419
13.89174 132.719 10.12129
6.651635 141.7348 7.466848
-1.146273 137.4373 11.59688
-1.018337 136.6368 12.25008
-3.155639 136.1037 12.65473
-4.895268 137.7821 11.33153
-3.649366 136.0164 12.73004
-2.833206 136.5184 12.35533
-5.544194 141.8165 7.428235
-7.355694 141.0861 7.959072
-4.927983 139.7555 9.406415
14.76554 132.6422 7.625498
14.79882 132.3866 6.556733
13.96145 129.9682 7.901778
12.61308 127.2826 7.39692
12.81239 127.9079 7.613707
13.17997 133.3082 11.10778
-25.52004 56.05708 0.1217983
-26.55956 60.57679 0.4094269
-27.98804 54.65907 1.602565
-27.59881 56.37157 1.889573
-23.26479 57.54499 3.376624
-25.04953 55.27172 2.987887
-14.90103 132.9785 6.042115
-13.90585 135.3687 8.725795
-22.39088 76.58883 1.262945
-23.52973 79.08587 1.251666
-16.31266 57.65665 11.59663
-19.19009 58.55031 12.08285
-18.67626 60.24091 12.25426
-18.25613 54.44968 12.87987
-14.68426 60.4598 10.13855
-18.93421 57.22211 12.38592
-20.0979 58.55288 10.4976
-19.23649 61.32618 11.67168
-20.26661 56.35533 9.879782
-20.30825 53.35133 11.31328
-19.97623 56.54042 11.67216
-6.668975 50.76786 13.60583
-6.467907 51.82349 13.87021
10.83007 106.412 9.649086
-7.500625 140.5846 8.439215
-7.68268 138.4997 10.62697
-8.309383 131.1601 13.6588
-6.661638 127.0899 11.50505
-6.982517 131.4597 13.74084
-11.48342 134.7353 12.32631
-10.27764 130.7021 12.99108
-11.40926 133.8365 12.64339
-5.08833 136.1693 12.65281
-10.15433 135.8275 12.51421
-4.010091 125.9148 12.11431
-10.25916 132.5731 13.39916
-8.763123 135.9529 12.83834
-1.400511 136.0179 12.6839
-5.902103 133.206 13.77331
-6.514765 135.0913 13.31867
-1.946509 136.2022 12.55212
1.586882 131.7423 13.6859
13.72847 55.65318 10.58332
13.81952 58.03189 10.73115
22.50951 73.13272 4.63941
20.71739 70.82372 5.54066
20.15554 72.58444 5.880958
19.03804 73.90623 8.000925
19.54864 71.9356 6.40716
18.31971 75.01229 10.13114
19.10669 74.11182 7.533859
20.49729 74.34175 5.590007
19.15722 66.93533 10.16407
-22.34423 80.33838 1.049144
-8.151452 111.9269 10.10415
-17.177 97.94974 5.073134
-7.98739 52.68155 10.70273
18.54105 91.87002 5.21139
18.22504 91.22944 5.973381
-17.53254 97.65366 4.308851
-18.88832 93.09936 3.834781
21.31352 70.54443 5.222254
19.82302 64.53796 6.857392
19.57047 66.7169 7.254454
19.38712 69.11967 7.633626
18.8523 67.10335 11.05491
18.67166 69.57314 10.69429
12.87684 68.24535 9.801274
17.85999 68.21435 12.08416
15.44067 66.23758 11.89839
14.08284 61.64114 11.02456
12.25604 61.9738 9.101657
11.02099 63.89527 8.31005
12.40361 65.16345 9.309685
12.6003 65.37087 9.490392
12.68081 62.76511 9.522427
-15.66815 100.6347 7.033844
18.41847 81.2907 8.24419
18.35825 87.01907 7.260247
18.85242 87.50346 6.242286
18.04251 83.72102 8.59269
-6.680106 122.9752 11.66283
-4.279133 124.339 12.16169
-10.41029 121.2854 9.371747
-7.607711 123.5237 11.30413
-7.525345 121.6559 11.24762
-0.4081709 124.7596 12.23073
1.408013 120.4189 11.92785
0.4631284 120.7834 11.94886
1.311906 121.4695 11.99712
8.171531 128.2367 12.0312
-1.972333 125.4459 12.23984
3.136744 121.905 11.99863
-0.4640468 120.2611 11.92046
7.611814 115.333 10.22823
4.388863 119.2714 11.65194
2.314736 122.2528 12.05919
-0.2236206 118.321 11.83899
0.5988836 112.4894 11.83654
5.621035 116.5938 11.208
3.185121 117.7549 11.79
3.35048 115.9119 11.77091
-20.7331 67.10786 4.453254
-19.34628 62.4982 11.41889
-18.3717 62.10087 12.1618
-23.25164 72.50546 3.051641
-20.14196 59.30527 8.515774
-17.84819 72.12694 11.23125
-22.36372 70.26955 3.413339
-22.29681 68.03365 3.52903
-20.06998 61.28709 6.926976
-19.96273 61.34365 9.942851
-21.06256 70.9305 3.947257
-21.21307 68.09293 3.912987
-17.95294 64.11076 12.13488
-23.20309 66.33376 3.314291
-19.88125 75.35382 5.435374
-19.81376 67.49187 6.88051
13.17358 102.1135 8.633555
11.67414 100.0504 9.029035
11.3758 102.7533 9.228095
13.2722 103.1039 8.492963
-23.6207 79.89886 1.973583
-12.1699 59.66236 8.030853
-18.78157 89.28704 5.6799
-18.91076 89.39021 5.306871
-18.82314 88.87526 5.788139
23.05414 66.83105 4.77905
8.713647 137.0764 11.93201
9.133155 136.5614 12.28528
12.05265 135.8501 11.13487
9.054854 135.5902 13.00962
5.284548 134.2316 13.53517
6.334945 136.1173 12.73799
12.95397 133.2224 11.40824
13.3502 130.9898 10.62528
6.659646 135.5596 13.1033
5.785192 131.6695 13.74501
-2.59272 130.6947 13.42202
10.35364 130.1634 12.70704
1.058919 132.2137 13.71129
-1.818112 131.6866 13.65648
2.268567 135.1868 13.16062
2.284498 130.3442 13.27839
-0.7107609 132.9342 13.71286
-1.089771 131.5316 13.61928
-1.018696 127.7151 12.13886
-0.3865259 126.6534 12.16129
-3.091833 128.4864 12.38258
2.987166 125.143 12.25066
0.775398 130.627 13.40424
-8.297986 137.3778 11.72874
-6.047434 136.7956 12.2173
-25.90693 59.63487 2.689456
-21.59621 77.49596 3.487427
-20.93465 76.82398 3.857934
-21.73773 78.41212 3.366514
-22.33583 74.7154 3.339136
-19.89209 78.0391 5.133365
-20.16644 75.52575 4.86191
-18.78448 79.83054 8.294481
-19.35684 80.39671 6.392443
-19.34164 74.95686 7.627949
-18.7525 76.27474 9.314551
-15.49122 62.91037 10.96964
10.85227 107.0809 9.632588
9.453562 106.2408 10.30324
8.567345 102.6613 11.10834
3.027573 100.0176 12.79481
10.21981 99.921 9.336136
10.60431 97.81458 9.192842
9.021908 100.2614 10.22361
8.298018 97.49132 10.93034
15.11752 58.69402 12.07257
15.77998 59.87105 12.46921
11.24079 59.68664 8.241771
11.84621 59.60823 8.672644
11.60777 60.35131 8.507727
-13.17802 109.7527 6.944648
9.631337 57.71429 7.506432
10.26751 61.27554 7.840593
10.47603 60.15952 7.856074
-18.74795 90.4736 5.098293
-17.63973 93.30666 6.274548
15.52931 69.02427 11.80082
13.46299 66.89545 10.33015
10.0474 68.23499 8.15097
10.97474 63.45943 8.271499
9.254984 61.26488 7.757398
11.11094 61.54598 8.269072
7.983841 66.05103 8.835657
7.652242 64.67223 9.309326
18.33415 71.01969 11.00323
17.84388 73.673 11.17029
-12.07009 59.49697 7.957507
-9.254541 105.0983 10.31641
14.14022 86.48964 10.28456
-9.938427 116.6177 9.010546
-9.413728 115.9001 9.292374
-5.992047 120.526 11.45985
-5.522837 119.0174 11.359
-4.254531 121.3546 11.87148
-2.546775 119.7314 11.86735
1.236863 116.2827 11.83264
1.514624 113.5397 11.80536
-4.315582 116.7378 11.6191
-4.333447 116.1765 11.63141
-3.693782 125.5221 12.20398
4.904462 114.1137 11.50928
5.225212 117.0001 11.3424
2.118628 113.8253 11.80398
-0.6537289 115.523 11.82737
0.4174999 114.6639 11.81662
-5.069426 112.1118 11.55608
-1.385618 110.371 12.04984
-19.93741 65.75557 6.485187
-19.61499 69.51535 7.568789
-19.89503 62.56945 9.701648
-2.404339 56.36477 15.40016
-0.385393 55.79431 15.47313
1.974007 56.97243 15.23827
-13.09493 57.76078 8.538749
-12.91972 62.63743 8.717745
-18.48512 89.38874 6.260173
-18.86208 85.62104 6.757465
-17.35853 89.45329 8.057472
12.97693 131.1954 11.21573
8.07691 130.0979 13.25924
2.130149 127.9955 12.24363
5.905516 128.8896 12.56375
9.700806 127.8073 11.19606
11.69342 124.8649 8.284819
11.43393 127.9024 10.15093
10.27044 125.5751 9.475038
-1.2359 127.3235 12.08775
-18.96642 82.01046 7.281118
-18.409 79.27506 9.191937
-18.96851 72.88066 9.741162
-17.44446 73.22041 11.22121
7.746636 107.4441 10.88466
6.729786 98.98517 12.19598
6.527066 97.56345 12.35247
5.975742 93.5173 12.84051
4.860975 93.38496 13.20667
9.235003 96.98895 9.360166
10.42549 96.75259 9.216798
4.179621 96.28175 13.06736
3.649681 94.76715 13.24544
5.369312 93.56546 13.08127
-3.674456 109.6107 12.11967
3.741227 101.0084 12.66605
-11.82561 108.475 8.895955
-3.54184 99.37959 12.82188
-7.330764 102.4196 11.55989
-5.045113 114.5735 11.42941
-17.85436 91.3993 6.642117
11.13481 68.95733 8.595286
7.756365 70.87057 9.172637
7.320965 67.37502 9.869347
8.665664 63.49531 8.088041
7.946319 62.20798 8.832843
7.228638 58.06047 10.31583
6.987099 62.44045 10.7533
6.224488 65.99889 12.40636
6.979785 58.07466 10.92584
7.309452 61.03783 10.03327
5.733429 62.62134 13.24266
6.791157 58.06111 11.39155
5.416469 57.8637 13.6329
7.447587 69.50014 9.600248
4.232211 64.75871 14.43088
-0.347559 60.01086 15.2855
5.178774 62.32557 13.86863
3.294751 56.73269 14.91012
4.008814 58.10078 14.59832
1.166266 61.31091 15.17941
-0.6002507 62.18158 15.17294
1.226067 63.3145 15.07844
2.284753 58.78263 15.10864
1.516246 65.63174 14.96841
-3.613599 63.95244 14.90495
-1.067304 65.47939 14.97991
-3.61109 65.66721 14.82035
3.722134 67.34115 14.61955
6.090981 67.26765 12.52326
1.387725 68.14642 14.83353
2.705049 67.30819 14.79863
-14.7614 100.9189 8.088983
-16.38273 99.07505 6.416807
-16.85244 96.97126 6.306089
-13.82657 99.30028 8.914756
-5.507748 114.3798 11.2801
-7.861538 113.8709 10.09321
7.360136 123.5785 11.40003
6.442168 123.4281 11.75051
5.687252 123.9519 11.95292
8.49255 125.1003 10.67222
2.529158 126.4241 12.17837
1.481541 127.0975 12.11755
4.61662 129.139 12.70557
7.142726 126.5708 11.14801
6.542642 107.3228 11.36272
6.837905 104.4302 11.53736
-19.87712 71.14563 5.973942
-18.82392 70.93423 10.47661
-19.75091 71.70341 6.339202
-18.70795 72.71885 10.23306
-12.3893 69.42518 9.001117
-18.64245 69.8774 10.96367
-17.50839 67.94873 11.72621
-12.27629 63.36668 8.37961
-14.08494 65.14261 9.822908
-12.61862 66.34276 8.861489
-13.38065 67.95436 9.498895
-13.01751 64.89937 8.982496
-16.69822 71.45778 11.47174
-15.85829 74.47609 11.11008
-17.72318 77.01154 10.49732
-14.01363 63.11744 9.623356
-14.98701 74.78973 10.84792
-14.21215 74.6732 10.47574
-17.77489 78.12306 10.23925
-13.12261 75.80067 9.995119
-16.08647 77.56709 10.97376
-10.75016 78.03728 9.284518
-12.13123 81.57395 10.07191
-13.55879 77.43227 10.31403
-16.31657 78.97471 10.84728
-16.30371 86.99201 9.598032
-15.93526 87.7373 9.69265
-10.35621 77.60918 9.113884
-6.15241 95.20107 12.67065
-12.52038 90.09843 9.923711
8.425949 128.861 12.50366
-20.16397 70.97942 5.216796
8.2967 105.8603 10.82351
13.3902 88.13211 10.11555
8.920861 92.2597 9.376141
0.3357134 96.38852 12.97369
-3.258772 98.52042 12.90298
0.8458599 101.4669 12.66034
-1.792074 100.5789 12.70804
-4.301528 98.3331 12.90833
-3.266662 96.14747 13.08102
-3.482082 101.1721 12.68114
-5.533257 96.21443 12.82551
2.171592 102.2799 12.61467
-6.386426 101.542 12.04689
1.414248 96.60184 13.0192
2.931198 96.55119 13.09279
-1.536364 92.67338 13.23018
-5.198915 112.6731 11.47364
-6.448718 110.8746 11.09248
-4.81739 108.0167 11.96364
-5.642726 107.3437 11.68764
-4.522379 109.0668 12.03496
-0.5337031 102.784 12.55722
-3.803355 107.3368 12.23281
-2.758808 107.7178 12.31136
3.856414 113.5287 11.73381
-1.639144 105.8358 12.36565
3.678934 111.8904 11.86716
-5.245829 104.7512 12.01762
-5.728342 104.0826 11.97845
-6.256965 103.1447 11.91962
-10.01078 103.885 9.73068
-10.38026 105.4299 9.755277
-11.85437 100.9168 9.108708
-11.45259 107.3323 9.316354
-13.47919 102.777 8.592863
10.26275 71.48036 8.460225
6.639171 68.2488 11.41476
7.240911 70.71731 9.978836
-7.679472 77.4526 10.05684
-3.434019 68.80807 14.70211
-5.677867 64.51903 14.15808
-7.050059 68.32314 11.74173
-6.489043 65.73799 13.17733
-6.738086 68.54344 12.56678
-7.251329 64.97076 11.45169
-4.605894 69.70845 14.38853
-7.458124 67.8714 10.69816
-5.556781 62.93644 14.27746
-4.333273 59.1875 14.93737
-14.62448 95.53344 9.067524
-7.060304 93.86229 11.8608
-12.00146 92.12104 9.670634
-12.74077 89.97701 9.951161
-13.88116 96.14079 9.213156
-14.35158 98.08877 8.838228
-8.544686 114.4535 9.72636
-9.374644 112.9405 9.292871
-10.48198 112.2362 8.707794
5.791757 111.4411 11.32555
3.467023 105.3291 12.27445
7.577981 105.0882 11.19177
5.839502 104.2606 11.87766
3.976978 106.9058 12.18293
3.329464 104.5139 12.37205
1.070835 109.1386 12.18784
-0.6625559 106.1696 12.36567
0.9215474 103.9904 12.49439
-19.50485 69.24941 8.792306
-12.18189 68.16648 8.775934
-15.29737 72.85285 11.0002
-11.00937 61.59078 7.930602
-8.487885 61.05825 9.190028
-8.477469 62.50326 9.181238
-8.115093 62.04921 9.638005
-6.173682 69.55621 13.62149
-15.17776 83.32354 10.46235
-15.48867 82.55508 10.50842
-17.4073 86.20532 8.89931
-11.85018 83.08261 10.07334
-17.3228 81.95098 9.948105
-12.2972 85.87206 10.19347
-13.75751 82.70767 10.4401
-9.969411 83.57465 9.465621
-7.328775 54.70992 12.15008
-9.096445 53.60206 8.533955
-7.843026 54.49742 10.87493
-5.511076 54.9236 14.59828
-8.428754 53.77637 9.580168
-6.090153 58.93709 13.94925
-7.929812 58.42469 10.23373
-11.40638 59.5136 7.790717
-5.305166 61.32391 14.46533
-7.447573 56.88254 11.67465
-9.974499 59.13014 7.985718
-7.417509 59.83439 11.48042
-5.895016 62.43114 14.08003
-7.025262 63.17286 12.28096
-7.745967 62.45993 10.35008
-18.53219 79.40343 8.960556
1.77862 93.0492 13.31613
11.23705 91.6617 9.600079
11.17843 89.80816 9.759418
11.92458 88.9774 9.967395
12.48171 84.40557 10.25573
10.7109 88.50655 9.740387
4.631846 90.38962 13.47067
7.812079 92.7122 10.6829
8.066976 90.00739 9.727544
-7.067216 98.12343 11.94917
-1.871704 97.77242 12.90295
-4.887838 96.76873 12.94349
-12.15341 104.4124 9.057586
-9.560323 72.12206 8.64185
-9.008975 70.79102 8.778927
-10.15103 73.73187 8.693798
-10.0347 70.97752 8.458292
-6.99553 75.30512 11.56936
-14.4395 70.42355 10.42633
-11.24267 77.36461 9.362883
-7.969669 78.47237 9.597551
3.155747 92.03394 13.48512
-7.798763 80.76286 9.746404
4.579113 89.19106 13.55646
6.903696 84.06744 11.26427
-9.165646 87.13103 9.427968
-11.08898 83.15477 9.878455
-11.05657 82.95728 9.851602
-7.56773 82.97389 10.27571
-5.658327 84.35757 13.46364
4.897611 88.11214 13.53482
-7.858532 81.42119 9.656817
1.356195 75.82684 14.40295
2.466831 85.85527 13.91383
4.572193 88.84569 13.5921
-7.653334 74.64233 10.01644
-8.235136 74.85947 9.242594
-3.876157 69.86773 14.58731
1.169679 89.59915 13.5229
2.434718 84.67952 13.97731
-0.6759854 90.58424 13.34154
7.065773 88.80328 11.4314
-6.996652 72.59145 11.56497
-5.356389 77.43354 13.77359
0.9375357 91.81223 13.33532
3.573782 86.84364 13.83441
-6.560312 77.25275 12.71914
-6.494371 79.48465 12.82048
-4.93573 71.50676 14.21749
-2.937286 92.31795 13.34819
-4.857349 83.71826 13.73537
6.443992 83.90546 12.32532
8.540867 85.88537 9.367485
-6.626063 69.63317 12.73506
-6.067003 92.97992 12.7613
-3.495216 89.09512 13.56602
2.40742 80.06673 14.19916
-3.620751 78.73688 14.20131
1.100474 79.54457 14.17883
-0.4124907 79.77626 14.10027
5.097972 81.47956 13.71164
-2.039026 77.30656 14.28964
-2.93747 75.61927 14.39882
-3.043458 75.47215 14.40036
-5.75117 75.34141 13.67085
-5.670743 71.97582 13.9468
-2.376623 71.69348 14.60994
-3.032098 70.48488 14.65453
7.644005 86.40428 9.607048
-1.566247 86.82222 13.62282
5.319444 80.89613 13.53335
1.314487 69.46301 14.75863
-0.08199218 69.73009 14.73452
3.168411 69.19626 14.67491
3.643421 70.53821 14.54589
-0.3203939 69.40498 14.75277
7.45112 81.93853 9.672547
-4.695801 87.76507 13.54766
-1.487309 68.59469 14.7927
6.290318 79.77686 12.20387
9.381059 79.99021 8.896772
-3.067771 85.04233 13.8056
7.831336 80.46037 9.297068
-5.416687 85.13847 13.54
-5.973131 81.06769 13.33891
3.264409 76.20032 14.34515
3.217215 77.15158 14.30893
4.880406 75.67253 14.00856
-8.665842 54.28952 9.13918
12.06372 86.86708 10.1384
-6.127568 97.3201 12.53983
-8.826214 69.16389 8.911727
-7.606124 72.33488 10.14307
-7.639582 71.00289 10.17431
-6.682045 90.83112 12.38439
-3.802321 92.2177 13.36456
-4.398832 79.94043 14.02289
-6.433362 89.38847 12.71271
2.31973 74.29429 14.48692
2.840064 72.81137 14.5237
6.009366 71.43257 12.62319
-7.238376 89.99815 11.3727
-6.159615 86.49672 13.02155
10.78395 80.8035 9.564204
0.445333 83.76138 13.86142
-2.103192 82.92007 13.92144
15.75615 73.04008 11.61018
9.574166 76.60162 8.655631
8.070115 76.6247 9.090322
11.03144 71.61205 8.744182
11.27754 74.95735 9.13215
16.66568 76.0969 11.29691
16.57752 70.61981 11.92478
10.70752 80.09435 9.476506
14.96274 74.22495 11.24785
15.45309 72.45166 11.52585
14.52258 71.68838 11.09841
17.70435 75.9949 10.84447
17.24842 71.82108 11.82489
15.09453 76.58563 11.17655
12.57671 77.08502 10.05568
17.61236 74.62643 11.20641
16.9265 81.5518 10.38932
10.65937 81.47504 9.578145
14.91327 78.89485 10.94416
11.1295 83.70685 9.897227
17.22142 82.31966 10.09646
14.76537 82.21169 10.71896
10.91542 83.42899 9.824094
13.67037 83.41634 10.50225
16.19187 84.72068 10.09923
15.50801 86.76323 9.965528
6.467203 77.59868 11.67076
5.485177 75.62945 13.42653
7.426805 76.94415 9.547427
-9.632205 100.2556 9.591567
-9.547624 99.43584 9.614918
-7.159934 97.30579 11.88232
-10.88247 91.20032 9.575801
-9.877184 97.71247 9.319934
-12.21177 94.12688 9.531965
-8.051271 84.93603 9.615023
-6.891581 87.93835 11.89437
-7.449026 91.43209 11.10924
6.290579 70.90893 12.09354
7.573459 71.16795 9.452614
2.063998 83.12959 14.03479
-8.013319 99.36771 11.05226
-8.594991 95.47023 9.937604
-9.073375 95.58741 9.582663
-6.617453 89.09241 12.41042
-8.483522 90.58002 9.668638
-8.864388 93.87913 9.582126
-10.51433 92.17146 9.44083
8.053825 74.40446 8.939812
-11.12689 124.8972 8.842237
-8.861084 124.0707 10.6073
5.873304 135.1437 13.24039
11.44406 93.05453 9.490363
21.92581 49.96681 -0.4116053
22.71338 50.40304 -6.589211
25.04038 50.6281 -3.305499
8.973631 144.533 -12.14471
7.787312 144.0566 -12.3693
20.77927 69.93665 0.1386698
25.0561 51.31856 -3.388438
12.60508 51.46121 -12.37748
4.252531 50.53718 -13.00414
7.205327 52.22872 -12.44073
12.71299 120.7043 3.71285
-10.39215 124.0243 -4.372199
21.777 51.74818 -15.11015
-14.28789 131.6626 -0.6424513
-9.010929 143.2811 -12.3173
19.16566 93.77694 1.449778
9.613285 142.3154 -12.27402
14.31419 130.863 2.691068
-22.10827 54.20667 2.370104
16.84792 61.28996 -7.333641
12.53206 120.2507 2.885741
12.64137 122.2398 1.621586
-8.389625 140.292 -12.59475
7.109648 143.7807 -12.47444
10.70202 143.6294 -11.89979
10.94941 151.6291 -4.506174
9.361837 147.0719 -11.38786
9.9966 151.9421 -6.350378
14.32103 110.5057 2.47974
-11.76911 50.50716 -11.94844
-8.191024 51.64982 -14.77217
21.75093 80.83183 -1.963136
18.04282 58.50323 -10.96706
-19.66675 91.42908 0.9551935
-20.39746 49.52562 -8.069247
-10.56781 150.5148 -8.9701
-20.23695 49.30377 -6.829883
25.7487 49.41502 -3.899568
22.10891 51.93881 -1.016233
21.63773 57.37723 -0.8916813
23.53705 57.26515 -2.250785
-20.22546 55.89263 1.087442
-21.03196 70.23907 2.053539
-20.19979 50.72858 -7.558592
7.252042 100.8807 -11.17526
-14.22512 132.1075 -3.593547
21.46605 55.15067 0.3237996
-9.010964 135.9662 -11.60276
-19.76721 52.02654 -5.286209
8.711975 142.336 -12.45196
-10.97901 151.7643 -5.208409
-10.02053 145.3256 -11.78464
7.655638 103.4666 -9.835313
-8.835336 142.1722 -12.43335
-9.815038 136.4692 -11.51811
23.63628 50.92987 -6.367278
4.190877 141.7325 -12.7019
-14.2605 131.3306 0.06615472
-19.64314 51.8494 -1.419922
22.50682 49.20379 -1.237583
10.78577 137.7519 -11.56066
-10.95545 60.50121 -13.41007
-16.90759 54.19811 -8.890204
-20.101 49.39884 -4.328366
-20.90015 49.37667 1.945292
-11.79577 134.6289 -9.7706
-8.851029 137.2126 -12.09937
-14.36652 133.047 -4.945937
-11.09925 135.2054 -10.42673
21.50461 55.56296 0.2079915
22.30683 49.43912 -0.9382076
25.74945 52.2216 -4.391035
11.77045 98.15679 -10.01952
22.7581 68.89043 -2.340864
18.32251 55.39932 -11.21346
-16.27439 104.7183 1.191977
8.55994 54.04649 -12.17724
14.19718 132.9934 -5.310236
13.61624 128.8101 -1.296095
13.71131 127.5553 0.8575444
-16.56915 100.8125 -1.82579
14.70423 108.8136 -0.142166
4.860498 141.5274 -12.71566
10.43669 135.4114 -10.85145
7.028437 140.0006 -12.76792
-3.8021 60.38616 -13.75347
-21.34341 53.42443 -12.00263
-20.33247 61.16343 1.427898
-22.5713 53.90799 2.352205
-20.02604 49.27938 -3.048618
-20.28365 52.31169 1.107217
-12.66482 133.8652 -8.695098
-5.843325 141.9219 -12.69201
-13.73193 128.3555 -0.08735756
-13.11436 133.008 -7.597101
21.16302 61.18123 -0.4309297
22.3053 60.54651 -1.548395
22.98588 50.25517 -6.553738
16.48673 96.49097 -5.020446
20.77943 75.76839 -0.8043221
15.54667 50.73535 -9.586002
19.60619 54.39952 -15.55687
-18.60438 91.37913 -3.185408
18.70248 93.44897 0.2500009
2.546527 51.87938 -13.30985
9.058022 136.0732 -11.61282
12.90685 123.5694 1.5383
-13.65242 110.0237 -1.800006
-16.89602 100.8987 -0.7992268
12.29475 118.511 2.834084
13.29745 112.638 1.053139
11.8224 119.5396 0.5277656
11.72941 118.8985 0.3672023
-12.03699 118.5049 1.401099
3.616807 139.4094 -12.71057
11.07853 136.5985 -11.03342
9.579309 137.1617 -11.84223
7.148717 136.8875 -12.31397
-13.04984 52.36093 -9.30303
-10.20079 52.23946 -14.33008
-20.32474 72.76875 0.2596262
-20.49867 82.79421 -0.37344
-21.21163 58.15463 2.077257
-20.13377 56.27295 0.8721605
-20.55498 55.91877 1.735756
-19.69327 52.54082 -4.965716
-19.97864 53.75406 0.3730038
-7.687644 139.0679 -12.65401
-13.80137 129.5146 -1.204467
-7.8645 120.0428 -4.683523
21.26636 58.7305 0.4545963
18.20104 95.5266 -0.01569838
20.77042 77.93456 1.053352
20.64389 74.3298 -0.3252571
21.02527 64.74144 0.2780482
16.62749 50.81085 -8.179405
20.15081 51.08564 -12.95244
11.65785 50.26796 -12.27308
-18.96328 93.29311 0.4667667
-20.09554 86.53204 -0.5084885
18.54967 95.67931 1.066228
11.43601 50.4687 -12.22414
-1.00701 51.80496 -13.65923
13.80504 131.2349 -4.310072
11.81148 120.7987 0.02302492
-15.32992 107.188 0.2028372
-12.79851 114.1017 1.465287
13.65192 112.0204 2.944559
14.86952 109.2186 2.009657
-10.92664 120.7733 -1.772582
-0.2413017 139.2834 -12.67531
-3.41565 137.7791 -12.50107
7.87206 139.1344 -12.63484
-13.24899 50.27666 -8.84689
-20.68371 75.19326 1.663074
-20.60039 78.95121 0.424893
-21.01032 53.06051 -10.59848
-18.24586 52.17088 -12.58582
-21.07111 59.09838 2.001289
-20.60632 57.0892 1.738774
-19.88717 51.24231 -5.731611
-19.79863 49.89441 -2.07281
-19.52241 55.56851 -5.552106
-19.44603 56.90942 -5.527045
-10.18124 137.7973 -11.8181
-8.348835 142.2945 -12.51365
20.02146 87.96766 1.634368
20.84946 83.69115 -1.106207
20.58193 78.21134 -0.3480825
23.39494 69.58653 -4.203099
15.94681 53.11378 -9.548848
20.50493 52.55468 -6.677182
19.65524 51.0491 -12.55883
20.11875 52.18113 -15.84979
9.73136 49.69723 -12.23295
-18.57874 96.28492 0.1856579
-19.50706 89.89809 -0.1141722
-16.67189 103.0825 0.4439425
18.15222 97.2064 1.041949
16.16184 101.763 -2.270327
15.97921 105.1232 0.3901847
3.192023 50.20856 -13.16366
-1.501014 51.76855 -13.72204
-6.217345 50.6295 -14.61828
13.00593 123.947 1.614963
12.14316 121.1859 0.7244279
-9.616449 112.7832 -4.754176
-16.91449 102.3284 0.2141713
-11.74159 117.0657 0.2774453
11.332 115.5376 -1.447459
-11.28882 119.3049 -0.6566461
-0.708954 137.8469 -12.5138
-17.76437 52.77394 -11.21656
-10.16051 50.66242 -14.42874
-20.64504 80.08811 0.8765542
-20.23431 84.48989 -1.176071
-19.04397 86.46363 -4.009723
-19.80752 81.59612 -3.079962
-19.71795 79.83584 -3.328232
-19.75722 79.48891 -3.232995
-19.10109 52.44004 -14.25701
-21.50399 66.17605 2.26704
-19.54478 54.86979 -5.139586
-19.86394 59.40949 -0.1096018
-9.334048 138.7718 -12.29105
20.70054 81.8325 -0.7477549
20.86191 85.58287 -1.129047
21.07291 79.32613 -1.259145
17.80216 54.36211 -11.05906
17.15021 54.83606 -10.67638
16.14084 55.94638 -8.315748
24.89379 56.51673 -4.847612
9.905032 52.5519 -12.07136
-18.0192 94.81291 -1.823864
-18.92295 91.95732 -0.9164957
-16.26579 101.751 -2.020142
-18.12636 99.47527 0.4398791
-16.75827 99.2402 -2.43407
-19.73576 86.91006 -2.088952
17.45897 98.70225 -0.2775435
16.74835 99.92209 -2.178256
15.41925 105.047 -1.644035
16.37357 101.2312 -2.103588
7.713262 52.09937 -12.34655
-6.184216 51.98291 -14.57021
-7.820468 50.18203 -14.80235
13.28342 125.2913 1.3149
-14.72437 108.7573 -0.1909668
-14.71393 108.6294 -0.3673555
-11.94098 115.9577 0.1559357
-10.91451 116.8483 -1.62819
-9.352716 114.4821 -3.809028
-9.056788 117.2006 -3.518057
-9.195335 110.9124 -5.335093
-5.460391 131.395 -10.66272
1.187708 136.2996 -12.21794
10.35989 128.8155 -7.573162
1.623102 135.3152 -11.9729
-15.42099 53.08286 -8.335071
-15.21797 53.68165 -8.313496
-12.13174 53.02574 -10.91615
-20.47523 75.00098 0.9633708
-19.35496 80.91225 -4.085493
-21.0222 55.82264 -13.87261
-21.31719 52.16439 -14.61587
-19.56256 54.71414 -1.941058
-20.64489 55.28787 -9.630258
-20.05973 61.05905 0.5357671
-10.44059 134.0563 -10.24894
21.58052 83.89726 -2.447208
21.16228 85.59624 -1.947982
22.8372 66.3605 -2.312865
16.15399 54.12675 -10.14695
9.893457 51.22236 -12.15034
-17.58273 95.81768 -2.658844
-17.02252 97.14523 -3.308271
1.362952 53.38142 -13.43331
5.740981 52.33609 -12.76433
-1.534656 52.11969 -13.71299
12.82894 125.8872 -1.208543
-9.353422 118.3405 -3.267788
-9.368764 113.0439 -4.479045
-18.24355 54.66076 -13.02064
-20.13701 54.16824 -14.59054
-11.01396 54.2961 -13.35794
-19.84583 62.9236 -0.3632794
-19.45181 57.96655 -2.832411
-8.054097 135.0406 -11.51983
20.20653 54.1093 -12.57707
24.72626 56.92141 -5.029375
13.31044 53.66059 -12.44481
14.61043 54.97615 -12.95688
-15.64795 99.25269 -4.993992
17.76805 97.4825 -1.272587
16.18596 101.5296 -2.387412
-2.638467 53.67513 -13.79031
-9.588888 120.164 -3.33903
-9.331488 116.2276 -3.42233
-8.727194 111.4855 -5.42181
-16.811 53.24063 -8.539657
-19.5156 55.59249 -5.479961
-19.3429 58.95186 -3.90277
-19.78669 54.01268 -6.751462
-19.32564 58.88136 -5.509088
19.75454 53.89486 -12.19226
-17.5038 95.35243 -3.359342
3.180896 54.26403 -13.29607
-8.368701 112.6504 -5.417266
-19.82432 62.78864 -0.4589549
19.99646 57.04581 -15.05454
-18.01493 91.62074 -4.413267
1.862232 57.25513 -13.43177
-12.78184 107.6076 -4.485264
-12.01779 109.3184 -4.384168
-6.708828 111.911 -6.520443
-7.218591 111.7453 -6.349641
-19.88168 62.65144 -0.2144282
-19.27617 60.74989 -4.072644
20.00926 55.15625 -12.25754
7.961854 55.20823 -12.28874
0.9398035 54.42875 -13.45915
4.003893 56.08609 -13.21866
-7.906686 117.2502 -4.284867
-10.08156 111.7417 -4.540578
8.711117 54.9952 -12.13109
2.956788 56.94913 -13.3621
-19.43344 64.80622 -2.797443
-19.05742 64.43953 -5.295611
0.4546259 59.54585 -13.42029
-0.4835612 59.18575 -13.42766
-0.5580419 56.922 -13.47946
-1.824686 54.01312 -13.6794
-1.910436 55.63291 -13.62562
-4.421496 62.54483 -13.80237
-2.577152 57.05229 -13.66633
-4.455816 56.03239 -14.03579
-5.211252 54.53151 -14.26478
-3.951789 54.38518 -14.00451
-6.379787 57.0614 -14.41413
25.13327 51.59636 -3.500208
23.68355 55.21597 -2.332164
24.84557 54.64503 -3.249485
24.40517 54.58816 -2.851909
22.85487 50.98572 -1.692163
22.485 57.63403 -6.042418
24.81538 58.03244 -3.518507
-20.74696 50.25505 1.754133
-19.6308 52.64314 -1.238627
-6.128272 139.4359 -12.78032
-7.022911 136.8552 -12.31278
-4.276411 136.0907 -12.16381
-3.952618 135.3613 -11.97386
-3.979209 134.7735 -11.82142
11.06893 117.0644 -1.301262
-12.49694 124.5582 -0.9240966
-13.20176 125.677 0.3481688
-13.04239 127.6172 -2.286902
-11.89221 126.9622 -4.508385
13.17552 131.7468 -6.373915
13.16091 132.2829 -6.961113
23.37354 60.88809 -2.273528
24.60413 60.11248 -3.494546
22.55676 76.80871 -2.888454
21.7078 72.05352 -1.538622
22.26561 75.65598 -2.079898
22.32504 74.89263 -4.380705
22.4456 78.06608 -3.080577
22.17364 80.36935 -2.351372
21.22836 74.38416 -4.886556
19.60224 78.10139 -5.210271
21.11452 79.52264 -4.447176
21.12321 78.0711 -4.628742
14.99508 87.22856 -10.60586
16.80629 78.91029 -7.143177
17.96892 78.61292 -6.103758
16.9659 76.32563 -6.994833
22.14225 80.13749 -2.908781
21.45087 82.6312 -3.695373
11.24683 119.9721 -0.9225792
10.63697 121.0876 -2.353435
9.362164 120.3035 -3.608971
9.052018 117.6037 -3.514136
14.72757 105.8213 -2.682223
15.69736 106.279 0.5983835
14.01382 108.9211 -1.952942
13.27134 110.1683 -2.355406
13.69123 105.0072 -4.87073
11.87483 105.9402 -6.267937
8.753031 102.5387 -9.96883
9.971711 108.0257 -6.39221
6.838957 109.1939 -6.572322
6.419281 105.5274 -8.842917
8.324157 105.9981 -8.128779
10.6233 102.3999 -9.036561
6.710876 102.8111 -10.37505
8.355927 100.2067 -11.13896
10.20967 99.0683 -10.73434
6.418089 101.803 -10.9096
-10.77933 131.3658 -8.752519
13.05117 130.511 -5.537006
12.27143 129.2873 -5.897769
10.9381 129.4212 -7.472843
11.37545 133.6547 -9.534122
6.657924 132.6527 -10.99057
10.26519 129.6172 -8.119334
8.195829 129.8442 -9.298355
13.15866 111.9949 -0.6525079
5.005518 136.1806 -12.19616
-11.31066 50.1791 -12.97178
-18.89882 82.67144 -4.814302
-18.94047 85.47209 -4.397762
-18.93923 77.36813 -5.021641
-19.82444 74.79835 -2.821802
17.55586 56.38936 -7.118511
9.070703 127.7961 -7.813567
9.837694 122.5688 -4.111265
10.77342 123.9666 -3.843791
8.648243 124.8086 -6.342406
11.55962 125.7799 -4.052134
-15.94174 101.6092 -2.978526
-14.55454 104.7253 -3.734928
-13.6949 103.5403 -5.706868
-20.11385 71.22366 -0.8212494
-20.23946 72.94818 -0.6603079
-19.9922 71.66474 -1.766617
-19.06276 73.32633 -4.570519
-18.9407 72.42356 -4.999284
-18.70251 76.50278 -5.758827
-18.95456 73.12739 -7.483582
-19.40432 68.41869 -3.263171
-19.31093 65.35149 -3.380754
-19.84884 65.98102 -0.7923215
-18.92452 72.29292 -7.176027
-19.1111 71.97934 -7.918874
-19.56629 61.6133 -7.606295
-20.47615 57.53415 -13.81306
-21.02187 56.28169 -13.70204
-19.11679 57.78526 -13.80733
-17.47978 59.69463 -11.77209
-17.44733 59.00952 -11.65423
-17.71011 56.74527 -12.08584
-17.35855 56.50489 -10.97255
-19.15224 62.40416 -5.051892
-19.68399 62.11434 -8.007236
-20.94854 60.9354 -11.41513
-20.25829 63.76717 -9.712382
-20.54856 63.69569 -10.75267
-20.34089 60.23305 -9.381804
-20.62651 59.34629 -9.967875
-19.77023 58.13597 -7.635242
-17.28446 60.14433 -11.152
-18.0038 60.97697 -12.7555
-20.03674 64.38628 -12.56575
-20.34546 65.99232 -10.54843
-19.08072 67.81795 -12.43612
-19.84552 69.85995 -11.46467
-18.10812 69.51965 -11.85416
-18.47534 73.59452 -11.70219
-17.40737 72.79762 -11.01993
-17.52786 71.24457 -11.33603
-15.54506 72.49914 -8.782244
-5.839477 134.1118 -11.59551
-7.10012 135.0694 -11.71925
22.68703 67.91037 -4.86691
22.25402 71.40166 -4.700918
18.95045 67.9249 -5.952517
22.06632 69.60239 -4.968672
20.55465 71.99852 -5.235781
20.03799 69.52403 -5.506353
17.69027 68.47726 -6.578179
16.75514 65.75659 -7.505759
20.95152 69.27497 -5.30206
18.87679 71.89106 -5.834143
20.55534 72.44526 -5.20933
0.9994103 132.6236 -11.20057
-13.75288 61.26497 -8.837128
-18.36832 89.32154 -4.520306
12.04536 57.6961 -11.90466
12.77972 56.24908 -12.11939
11.45067 56.53187 -11.8968
10.61829 58.68054 -11.77693
17.57931 55.16271 -14.93025
14.38643 57.61266 -12.66467
18.43733 58.64929 -14.86317
-7.289782 120.9549 -5.309489
-6.758039 116.5505 -4.798756
-4.940418 111.0588 -6.534067
1.272521 60.83146 -13.42134
3.403999 61.68485 -13.39011
1.906062 62.36834 -13.42061
3.884611 59.98013 -13.3114
4.192104 65.23306 -13.3552
4.77028 62.2923 -13.22364
6.649438 63.36032 -12.80241
11.33093 58.65351 -11.77864
5.971917 57.08072 -12.83692
8.630297 60.53095 -12.13664
8.747437 56.27517 -12.11946
7.407053 62.68151 -12.54683
-6.665009 60.75532 -14.34651
-2.448913 60.91113 -13.51705
-1.42102 63.26633 -13.36994
-4.776251 62.37271 -13.88534
-6.930439 62.05071 -14.30726
-8.915837 52.94312 -14.73979
-11.40075 53.497 -12.79179
-6.865873 54.14991 -14.59638
-11.18307 58.9558 -13.03853
-8.293072 59.68808 -14.49941
-5.790343 58.49557 -14.24004
23.11704 51.68351 -1.927191
-11.05958 121.6287 -1.935191
-6.645339 120.8227 -5.630536
-3.936481 121.5591 -6.781647
-9.57303 121.8993 -4.019532
-10.35246 129.5296 -8.011339
-11.68963 128.9829 -6.465173
-11.83156 125.0395 -2.854139
-9.406966 124.8334 -5.874462
24.01099 65.6091 -3.337163
22.71748 61.57851 -5.536342
18.14392 64.2853 -6.423011
24.40745 60.09378 -4.781911
24.45098 61.52651 -4.132198
14.10564 110.5217 0.1998826
12.13695 108.9593 -4.473224
8.160999 109.3935 -6.293331
9.634961 108.8796 -6.092397
9.521132 113.2763 -4.584926
10.479 111.376 -4.496612
9.751163 114.2903 -3.608048
9.238642 115.2265 -3.700043
6.743089 113.4004 -5.17656
10.45228 113.0486 -4.193771
8.012475 111.3937 -5.529365
6.657306 122.4801 -6.263772
-11.82793 131.2826 -7.860856
-10.34604 128.9024 -7.628747
-11.27767 129.2487 -7.101115
-9.514447 125.336 -6.088741
-7.960488 129.5309 -9.23646
-9.552465 126.4178 -6.710603
-7.00075 132.0043 -10.67131
-7.64355 127.942 -8.53669
-7.282157 124.6028 -6.94417
-7.111842 124.9734 -7.187706
-2.743491 132.6198 -11.17112
-10.40237 131.3401 -8.965394
12.40225 128.1923 -4.639187
7.589976 132.7944 -10.82017
-19.15526 83.76605 -4.266223
-19.33449 76.38357 -9.495307
20.25826 56.9708 -6.350595
21.24399 57.92399 -6.167099
19.35575 62.07671 -6.133491
20.84897 61.21837 -5.96715
20.46606 62.7558 -5.884224
20.14441 64.50925 -5.784311
19.49278 63.44 -6.007701
16.71919 56.66146 -10.28983
16.77513 60.30783 -10.15139
15.79195 58.35833 -9.113246
19.46333 61.00169 -11.66875
18.04541 63.6398 -10.78757
20.03775 62.10675 -12.6139
15.96919 65.95168 -8.688457
20.19901 60.42672 -14.0876
17.4475 58.15563 -10.69595
20.46818 59.35782 -14.00894
10.95312 126.784 -5.737395
-15.27156 100.8208 -4.818668
-11.60482 106.0565 -6.421371
-18.67345 76.47248 -6.210416
-18.82722 74.92959 -5.335423
-19.09469 75.07473 -10.84019
-18.3936 82.11124 -6.907611
-18.47302 82.4401 -5.986219
-18.58315 78.2774 -6.185753
-17.56108 76.33449 -10.96185
-16.24467 76.36798 -9.644579
-20.10154 58.31056 -8.550192
-18.72014 69.20377 -12.0829
-17.68206 69.64096 -11.68267
-17.15977 69.48029 -10.9197
-19.34989 65.52126 -7.634716
-20.25134 67.13522 -10.5907
-19.38251 74.65422 -10.45987
22.15502 64.01856 -5.450715
16.29721 76.66267 -8.164537
18.60102 75.19878 -5.894187
6.4432 136.0562 -12.09494
7.259779 131.9746 -10.57738
-5.681876 112.6929 -5.655625
-1.749114 112.1577 -7.272684
-1.589107 112.7407 -7.168716
-1.460121 112.1228 -7.306369
-4.98133 114.6227 -5.40166
16.93419 67.07623 -13.59041
12.64586 60.62451 -11.87153
-5.359255 117.1864 -5.345966
-4.162287 113.9098 -5.632923
-0.6565189 113.0042 -6.694487
-0.3159411 115.5498 -5.737639
0.4167689 114.3213 -5.56764
3.765006 113.2788 -6.141267
7.238203 113.6525 -4.968582
4.347462 109.8829 -6.612713
5.804977 111.2466 -5.993499
0.962015 110.2941 -6.520169
2.925767 110.4336 -6.503577
5.472117 111.6489 -6.232661
4.743207 108.508 -7.347665
2.962929 108.584 -7.437057
-0.5847713 109.3022 -6.821729
-3.298758 111.0548 -6.755691
-3.409723 109.5405 -6.832182
-8.511473 108.9047 -6.413874
1.142202 106.3468 -8.744471
0.8139027 110.0516 -6.608409
-9.782309 104.6704 -8.341636
-2.857289 64.71579 -13.44682
-10.54296 57.50471 -13.84755
-12.24529 58.95896 -11.07625
-0.9472698 116.7665 -5.76845
1.009561 122.4259 -7.17508
-4.030849 120.3683 -6.378146
-1.893897 119.907 -6.396517
5.502081 126.4297 -8.35997
5.636485 119.1318 -5.554256
7.411424 120.6766 -5.153462
1.913505 123.2703 -7.462211
5.610977 123.0391 -6.881242
7.122056 119.4525 -4.963606
1.59025 121.0015 -6.697533
6.225711 119.4727 -5.3969
8.589605 126.4824 -7.339999
6.44338 126.547 -8.188025
2.983532 123.624 -7.613074
4.65088 121.9357 -6.755952
2.693152 123.9914 -7.763463
1.406228 124.8384 -8.126881
1.428233 127.1302 -8.906191
1.815472 126.8712 -8.807115
-6.220163 126.8208 -8.36782
-0.167444 126.4087 -8.601546
-3.577201 124.6999 -7.974136
-1.114545 129.7191 -9.942476
-2.917685 120.3991 -6.530517
-2.829755 121.5021 -6.86107
0.3356807 123.0467 -7.423506
-0.5053963 126.2107 -8.520614
-2.008764 130.2061 -10.1689
-2.639749 128.0438 -9.231884
-0.2498506 129.7592 -9.957332
2.214076 133.3342 -11.41599
0.6439636 130.3913 -10.25391
-3.706075 120.5325 -6.467917
23.9794 63.65124 -4.49966
17.02113 65.27708 -10.1323
17.2875 66.13127 -10.28742
14.63004 64.90081 -12.31598
19.41765 66.29832 -11.8527
18.25701 68.98342 -13.44736
13.86067 99.932 -7.289216
4.29145 129.2668 -9.757035
5.536566 129.4682 -9.787072
-18.51495 82.60307 -7.60815
-18.03618 85.54699 -9.010114
-15.62287 74.55712 -8.965633
-16.18235 60.39675 -8.534145
-16.53804 65.72187 -9.601269
-19.08276 67.63873 -6.981283
6.271295 132.3588 -10.94687
-12.26886 56.49454 -10.76395
9.509714 62.31275 -11.90677
12.53983 60.30127 -11.8662
17.12788 58.09983 -14.4862
2.047968 117.4613 -5.919676
4.95493 107.8773 -8.094571
5.366033 106.9699 -8.115267
2.599674 104.9258 -9.189544
6.784406 102.9715 -10.27897
4.14119 103.9279 -9.843587
5.889164 103.3636 -10.1695
2.958641 103.8819 -9.826612
-5.477674 65.93475 -13.88294
-8.730787 62.14112 -14.318
-12.70078 59.61691 -10.18644
-12.48438 60.52918 -10.64096
-16.07981 60.39984 -8.348304
-15.46389 61.83953 -8.322635
-13.6768 63.09552 -9.046854
-8.392788 63.45876 -14.3069
-14.69545 59.64436 -8.36464
-15.06677 61.61411 -8.267595
-13.71605 64.37585 -8.932725
-7.777626 64.54857 -14.2827
-16.56531 59.22608 -8.994823
-13.29922 65.86122 -9.394937
-14.15155 65.54447 -8.568139
-8.820061 70.00077 -13.93801
-10.34341 63.75012 -13.70085
-8.013459 64.67106 -14.26199
-4.593699 118.5281 -5.792466
6.796455 126.088 -7.853058
-3.175555 124.6249 -7.989454
14.47939 61.45635 -12.42115
19.25211 65.24926 -13.60122
18.82029 62.7457 -14.49992
17.90993 63.09344 -14.34164
18.97643 67.35977 -13.26123
14.48168 64.0508 -12.30157
15.26809 63.30267 -12.75728
16.02339 65.17496 -13.14109
17.49264 67.96595 -10.41258
16.74589 67.93833 -7.521429
17.12047 71.62887 -10.23379
16.33797 72.32825 -9.448172
16.78718 72.67945 -7.340371
16.58909 71.45965 -7.658002
12.66046 100.2566 -8.42853
12.22907 102.7864 -7.628444
13.13415 104.8601 -5.628875
14.40834 103.4819 -4.752649
15.34568 98.73682 -5.845235
14.2435 100.5744 -6.53538
15.54205 99.89538 -4.826212
-17.97594 89.08978 -5.546285
-17.91294 88.61699 -7.224724
-18.13076 86.69587 -6.079867
-14.21818 101.0362 -6.323793
-13.16598 100.8832 -7.634173
-11.76235 100.1687 -9.246883
-11.28986 100.7721 -9.340605
-10.47037 103.0998 -8.797635
-14.1235 99.44091 -7.209717
-12.5167 99.14513 -9.036049
-14.44431 99.6016 -6.726
-11.6626 105.2069 -6.842273
-10.5724 99.23528 -10.45371
-14.27995 98.44366 -7.49485
-8.882055 103.0578 -9.649582
-8.998363 104.789 -8.632208
-7.65419 105.2729 -8.78015
-7.350884 101.7298 -10.78611
-13.62604 98.12395 -8.361857
-6.244155 105.3086 -9.004945
-7.006108 102.5872 -10.43982
-14.64047 90.0957 -9.097696
-7.962132 96.65495 -12.25482
-6.839634 101.3422 -11.05609
-5.549625 104.4824 -9.552917
-17.24745 90.36002 -7.903615
-6.985957 103.6826 -9.823868
-4.809569 105.8488 -8.821683
-3.841856 103.2831 -10.18898
-5.827304 101.0578 -11.27929
-2.275741 102.9992 -10.34684
-2.100093 98.0782 -12.23874
-0.46319 102.4586 -10.66267
1.985843 101.1216 -11.29126
-0.6622968 103.799 -9.814964
0.5059227 100.3719 -11.56315
1.682675 103.2375 -10.22204
2.762383 101.9281 -10.94014
1.101891 98.89451 -12.02931
6.979002 99.22004 -11.81022
-2.548029 108.2568 -7.569948
-2.17887 104.019 -9.71034
-5.718552 97.30773 -12.42954
-6.309741 96.76526 -12.50583
-7.913693 92.91512 -12.71674
3.027444 98.59505 -12.099
4.493228 96.01257 -12.62621
2.848485 100.8403 -11.39413
3.784578 102.244 -10.77771
8.302735 98.16147 -11.81114
11.8144 97.48846 -10.19281
-0.1916438 93.8952 -12.79201
12.68449 81.94011 -10.94383
-13.84357 56.98729 -8.695121
18.34928 68.10495 -13.64792
9.971396 63.55777 -11.78824
9.969291 66.97396 -11.78401
-1.00913 66.03046 -13.30189
5.775645 68.69393 -13.1491
17.1155 69.47114 -13.36025
10.95944 66.99038 -11.55249
16.00935 67.60704 -13.069
16.25668 69.27747 -13.10354
14.92487 72.92847 -11.96095
11.51085 68.36909 -11.45778
14.36328 71.32877 -11.84327
10.83793 75.22837 -11.42551
11.4111 71.40446 -11.36698
12.19957 76.75302 -11.12633
14.90599 72.19239 -12.00718
13.2647 74.7319 -11.28123
16.8682 76.31702 -9.887485
15.95884 76.21485 -12.21593
18.0668 73.68336 -12.69787
11.65527 74.60184 -11.23957
17.72641 73.5368 -12.8934
2.222082 115.1341 -5.728476
-1.096666 64.79527 -13.32709
-1.214772 68.82531 -13.23636
2.825549 64.81622 -13.4227
-3.412914 67.76728 -13.423
-15.9964 64.93486 -8.632054
-17.67471 61.8657 -12.01709
17.52267 64.04665 -14.08743
15.77239 59.53002 -13.38662
11.311 103.163 -8.194665
-14.21566 95.81503 -8.595435
-11.00923 79.36984 -12.49047
-16.86503 86.17132 -9.512553
-15.39894 85.92195 -9.005385
-15.1847 82.67497 -8.89904
-17.69331 82.85242 -10.18045
-18.51546 79.85809 -10.37758
-17.23761 81.58597 -10.25419
-15.7802 87.78796 -8.936766
-18.9638 78.91285 -8.95822
-17.10027 91.1156 -7.967245
-14.67159 92.29595 -8.963612
-13.35688 87.47083 -9.782191
-15.68447 82.04015 -9.174982
-14.53411 91.66567 -9.17252
-14.90482 81.444 -8.698255
-14.12942 91.50814 -9.540007
6.07939 96.75029 -12.52311
6.364485 70.24519 -13.03158
10.85278 74.26048 -11.43631
6.091821 79.02203 -13.18917
10.3532 77.58629 -11.59085
10.2671 76.56632 -11.63821
5.597841 89.37466 -13.00014
9.299467 78.6341 -12.11205
9.985923 79.52225 -11.78381
10.83687 79.22441 -11.3901
10.35855 88.67924 -11.85247
10.46512 82.04974 -11.57831
10.79883 82.83936 -11.42721
1.856883 71.28635 -13.34314
-2.860309 67.69742 -13.36952
2.465965 71.48643 -13.37345
-3.701455 70.42398 -13.37545
-5.543627 66.3788 -13.87401
-7.047288 66.73772 -14.12451
-6.068058 65.83627 -13.99795
-8.975058 67.10542 -14.05962
-8.587616 68.37611 -14.04653
-10.60029 67.27827 -13.36996
-14.54544 63.46595 -8.296004
-17.82591 63.68707 -12.16343
-14.62539 68.01039 -8.369023
-14.21179 70.08109 -8.606967
-16.53489 69.1888 -9.773197
-16.7398 78.71182 -10.14798
-8.858571 94.99455 -12.26364
-12.7844 96.88794 -9.624093
4.62417 97.54633 -12.35842
10.89946 93.72739 -11.5877
14.87453 74.62698 -11.82934
7.604433 83.46793 -12.91696
-10.46274 70.6132 -13.3432
-7.4031 73.12956 -13.84182
-5.488194 73.46173 -13.54932
-6.941101 72.54215 -13.83276
-3.88175 72.28157 -13.34867
-3.812237 75.35004 -13.23349
-1.760485 70.55421 -13.21675
0.4056247 71.7055 -13.2373
-2.142598 77.60045 -13.0671
3.753559 71.27525 -13.40441
2.752116 76.42389 -13.29121
6.236775 71.31123 -13.09147
2.193949 75.12685 -13.28398
5.71894 70.25307 -13.1904
-15.14006 71.59344 -8.572138
14.37716 98.61163 -7.29931
12.39044 98.80461 -9.278802
-9.721035 73.0062 -13.55797
-10.94975 72.05882 -12.83711
-11.07817 80.68648 -12.44391
-14.64813 71.99952 -8.442386
-12.92436 73.93405 -9.891483
-14.89557 75.08363 -8.655986
-14.0728 82.78439 -8.994574
-12.93848 76.65256 -9.904279
-8.002962 81.08256 -13.44001
-13.63028 73.61148 -9.003801
-11.56738 74.16803 -12.08901
-11.81459 80.14129 -11.5857
-8.936195 81.03143 -13.39652
-9.683469 81.81001 -13.12334
-11.80917 93.49932 -11.10014
-12.49975 90.60898 -10.80551
-10.02137 90.24453 -12.41849
0.7880795 93.82853 -12.79385
3.354821 91.20337 -12.87132
4.47571 93.50282 -12.83041
2.784749 89.99245 -12.87962
9.279886 87.80814 -12.35409
11.41676 93.17017 -11.31699
7.33171 92.0638 -12.781
5.551765 94.63798 -12.79704
7.721316 91.33772 -12.75772
4.935842 94.00626 -12.81782
9.487337 70.6378 -11.91596
-10.77376 68.20422 -13.14997
-12.23263 68.11654 -11.02301
-4.009772 70.99415 -13.4049
-8.173512 79.70081 -13.52639
-8.55432 76.00395 -13.72707
-2.767942 78.88615 -13.06091
-15.71205 70.5965 -8.838159
12.26165 96.57908 -10.14849
15.89737 97.54408 -5.579275
15.5366 92.59992 -9.436904
11.06019 87.43793 -11.43975
16.40642 92.29243 -8.135967
17.07293 96.18803 -4.067696
15.69334 95.51312 -7.520469
17.39543 97.31418 -2.889305
17.51938 94.4275 -4.013142
16.56638 97.80125 -4.066402
-12.69688 94.16936 -10.40666
-11.59625 96.50964 -10.67196
-12.69368 87.4403 -10.49046
-11.96392 87.8237 -11.33638
-10.29678 87.14619 -12.57828
12.90088 92.67521 -10.42582
7.120045 72.47754 -12.85776
7.375725 74.29657 -12.82702
-12.5578 71.72453 -10.37688
-12.7058 71.88787 -10.11512
-6.647647 79.90691 -13.41239
-4.767066 77.7356 -13.27165
-9.79288 83.54307 -13.0129
-0.612947 81.2972 -12.96876
-11.39579 84.26251 -12.04864
-4.61912 81.17679 -13.14333
-1.962777 78.17209 -13.05239
-0.03603291 77.73265 -13.07201
-2.833153 84.23972 -12.92419
0.09545986 80.96014 -13.00085
-3.778394 82.89542 -13.01474
17.61 90.47579 -5.549227
18.4965 94.90224 -0.7846206
18.91109 93.39397 -3.061255
18.98912 91.8465 -3.679733
18.46108 94.69156 -2.895309
-11.51658 82.37105 -11.93376
-11.91117 84.34504 -11.465
-11.73116 86.01884 -11.68206
-9.043833 91.44296 -12.57614
-7.350202 88.90436 -13.03294
-4.591653 92.75414 -12.83589
-1.715779 91.98409 -12.81714
-4.332336 91.70795 -12.84262
-5.626743 89.52627 -12.94907
-3.268654 92.36929 -12.82499
-2.13289 95.10508 -12.72311
-6.221881 84.75412 -13.18033
-0.765797 89.52367 -12.82191
-1.919709 87.64822 -12.83914
-2.581976 87.52806 -12.84659
-6.058807 89.32854 -12.98223
-15.5738 86.19604 -9.112967
-13.76643 82.01008 -9.076017
11.01792 90.21088 -11.54842
9.92829 81.94572 -11.87222
11.76179 82.2336 -11.04282
10.72362 87.02226 -11.59886
6.694256 88.29492 -13.02178
8.368952 81.53973 -12.6553
7.723995 85.44173 -12.89493
5.018752 88.66956 -13.01688
3.335179 88.04232 -12.95636
3.980446 85.61105 -13.08708
6.49517 82.9517 -13.12002
2.314869 88.06525 -12.90596
2.524237 85.92254 -12.98147
12.64095 87.72784 -10.68156
16.57683 90.77694 -9.000912
11.48739 86.33165 -11.17779
15.52687 89.17955 -10.26187
