# .PCD v0.7 - Point Cloud Data file format
VERSION 0.7
FIELDS x y z
SIZE 4 4 4
TYPE F F F
COUNT 1 1 1
WIDTH 1659
HEIGHT 1
VIEWPOINT 0 0 0 1 0 0 0
POINTS 1659
DATA ascii
2.124923 114.2467 -5.783562
1.399105 112.2612 -6.033337
4.515154 107.1233 -7.982224
4.614797 108.1598 -7.396471
5.043762 103.4934 -10.10606
5.480578 102.8891 -10.41304
5.412148 104.8569 -9.328185
3.059626 101.2638 -11.13908
5.972546 104.3775 -9.568588
4.775953 69.30049 -8.686723
0.5373287 73.73882 -8.81043
11.60648 121.9837 -1.445195
12.13121 125.6977 -2.885352
11.18795 125.0775 -4.075815
20.54704 77.31861 0.6099709
17.46776 67.8292 -6.240111
19.3085 78.2569 -4.110749
14.09395 79.81174 -8.210252
20.03318 74.39136 -2.030725
9.056504 83.70246 -9.289352
18.99823 85.06984 -4.347082
18.71145 78.53889 -5.044228
19.46397 80.21259 -3.849487
5.816927 79.75468 -8.768525
4.25726 76.0458 -8.770535
0.5139511 81.86924 -9.022668
10.26605 80.58544 -8.697186
8.088789 80.20354 -8.747534
9.350771 79.37273 -8.698213
4.150002 89.89565 -12.19776
2.899781 98.95062 -11.96125
19.73841 88.91526 0.139656
15.03297 100.2927 -5.485334
16.29263 99.70331 -3.3503
10.5227 117.5169 -2.264888
3.493593 113.0841 -5.813701
2.517819 108.8107 -7.211386
3.897931 108.9105 -7.105247
3.642471 69.34663 -8.696132
4.551664 69.83798 -8.716536
15.42886 66.44709 -7.689371
10.6131 126.0961 -5.560546
19.46106 78.14451 -3.806156
19.15593 77.4783 -4.387386
18.337 70.99947 -5.521526
6.005991 78.18022 -8.741789
3.117274 76.45471 -8.760448
0.5593274 83.06186 -9.298985
7.955879 77.94865 -8.737005
10.94225 113.9203 -2.802165
12.85297 113.3186 -0.2524502
11.22516 116.2522 -2.602033
1.477855 123.9888 -7.789353
4.119183 124.8961 -7.976105
3.62189 120.789 -7.138749
4.784066 117.7455 -5.883472
5.901236 112.436 -5.656264
4.972919 108.5325 -7.156107
6.324787 107.9694 -7.276154
8.813418 106.3342 -7.766542
6.226061 111.6177 -5.829215
7.270218 68.95748 -8.65215
14.27804 67.45857 -8.217112
15.82951 69.97239 -7.720358
17.60673 79.55699 -6.30304
17.05832 79.95537 -6.723459
14.59089 70.28746 -8.259413
17.3287 74.48717 -6.698001
16.72629 73.29456 -7.233347
10.95513 78.24184 -8.700428
1.562507 124.268 -7.886777
3.009714 114.9693 -5.869212
13.35495 103.0781 -6.344441
17.98878 76.64632 -5.982893
16.0591 78.27653 -7.463488
9.920444 87.35193 -10.92381
10.32756 78.5238 -8.697816
19.78365 74.20219 -2.829293
18.50816 71.38449 -5.296129
8.455023 77.13826 -8.752848
8.853426 114.1699 -4.250542
9.676528 107.0919 -6.994219
8.285636 107.2419 -7.360021
14.52619 79.109 -8.120437
13.101 79.28343 -8.474873
12.60555 81.86182 -8.581033
17.85077 74.44935 -6.22375
18.62817 72.25129 -5.15457
8.875152 112.7936 -4.648182
9.209343 116.773 -4.748477
11.67047 76.59396 -8.743904
9.960333 76.10886 -8.776898
17.60629 73.26273 -6.471157
17.01069 74.98988 -6.976642
7.5972 112.3639 -5.271046
10.52982 75.14571 -8.789777
11.88893 77.22051 -8.720434
13.57194 77.43725 -8.505585
3.632076 128.2869 -9.364682
10.83082 107.7304 -6.076282
11.75962 109.5414 -4.472108
9.807577 108.1034 -6.379105
11.51048 112.3717 -3.027166
13.49603 110.5401 -1.55933
11.46065 110.5404 -4.188366
12.9752 110.8052 -2.292787
11.7673 111.5777 -3.270374
10.37318 110.3295 -5.05552
3.250823 94.86689 -12.7267
11.94052 68.63412 -8.590423
12.61682 66.46457 -8.391714
13.81735 68.48824 -8.410209
12.84793 70.05491 -8.63796
14.95609 71.39975 -8.186602
15.2166 74.43198 -8.09621
14.91737 71.90384 -8.20802
10.75199 120.4177 -2.563352
17.29894 84.3238 -6.490447
18.41181 86.11712 -5.11042
18.38709 86.72326 -5.045619
15.52553 91.5031 -8.129658
19.57455 87.59188 -2.184207
5.669546 90.03799 -12.25904
7.730438 84.12382 -9.503805
7.034231 88.69127 -11.8051
5.267083 87.76366 -11.36952
3.561394 87.2234 -11.08308
4.501971 90.01835 -12.24517
3.671932 84.22243 -9.66888
6.731247 84.0635 -9.525441
5.974084 98.78714 -12.00383
5.482399 99.98485 -11.66046
4.649462 99.31568 -11.87678
4.784749 95.20594 -12.73449
17.67457 91.60892 -5.032981
17.23366 92.50664 -5.541457
16.86137 92.63153 -6.11548
15.81133 92.06448 -7.735958
11.61784 93.3848 -11.17097
13.52057 99.69289 -7.793053
17.10077 96.49442 -3.502303
14.39002 93.26673 -9.05177
16.40591 96.76914 -4.980541
15.24966 92.31285 -8.326897
15.28025 96.18359 -7.153351
15.15255 95.0823 -7.716498
12.65839 101.9548 -7.631584
14.99551 100.9655 -5.176275
15.4479 98.89127 -5.53967
10.97487 104.167 -7.892654
14.24445 98.10231 -7.652253
14.20146 102.1781 -5.716822
11.74761 96.16846 -10.63031
14.61671 95.16331 -8.323033
11.89934 98.52666 -9.779847
7.082191 101.2605 -11.02107
10.60068 97.6973 -10.90384
11.55615 105.7231 -6.624209
12.271 100.2948 -8.746862
8.499491 99.19012 -11.42165
12.38902 104.2748 -6.666173
11.64124 102.6124 -8.186371
9.250193 105.9853 -7.818168
9.985701 104.6557 -8.244315
11.89592 106.7441 -5.771113
14.11119 104.8321 -4.355031
13.56255 106.9492 -3.882165
7.330986 98.31361 -11.9749
13.68571 93.63547 -9.654967
11.94189 96.70168 -10.3311
11.39479 98.77143 -10.06858
8.254524 103.6227 -9.557087
12.59639 104.4142 -6.401326
13.76875 104.4605 -5.058313
16.89669 89.85352 -6.700141
13.28237 91.00063 -10.14851
9.272259 87.70056 -11.19481
9.598919 90.26098 -11.83854
10.02727 102.1478 -9.509262
6.978165 101.5505 -10.90964
7.995135 102.7957 -10.08172
7.144588 99.3355 -11.72137
8.321444 100.0944 -11.16806
15.15897 103.1347 -3.652959
17.28872 89.03113 -6.226324
9.326958 94.30125 -12.16766
10.3763 92.54097 -11.80983
8.915079 93.72418 -12.33238
6.673296 96.99256 -12.39391
6.912255 94.49552 -12.72441
4.418132 92.8108 -12.7505
7.336184 91.3113 -12.48262
8.868292 91.08791 -12.18032
6.495976 97.64101 -12.26969
7.424757 95.54195 -12.5573
7.874296 98.25525 -11.87419
9.116898 117.6956 -4.32071
16.08267 83.10027 -7.419894
15.88257 85.62828 -7.701533
5.289835 73.1205 -8.800565
6.383482 72.22636 -8.782639
4.356227 75.04826 -8.792449
5.352301 119.2617 -5.997086
6.139602 120.2264 -6.107766
5.150153 116.4539 -6.254721
6.49613 115.6473 -5.143989
8.832653 116.0869 -4.792199
9.982661 116.3967 -3.995848
9.244054 120.4874 -4.411852
10.20686 117.5514 -2.648893
5.874377 117.281 -5.959291
9.117 119.7769 -3.818464
9.450033 118.8987 -3.390999
10.01716 122.8833 -4.166965
10.18368 121.2076 -3.646734
9.872946 121.8918 -4.058921
9.405206 68.28844 -8.591436
8.795918 126.2611 -7.073146
9.162643 127.9707 -7.851247
9.107993 126.851 -7.245691
9.948609 126.7848 -6.625425
7.655133 127.957 -8.530278
9.243778 123.7859 -5.343286
8.504227 125.6116 -6.888032
3.40353 126.3497 -8.622879
2.818788 126.7587 -8.78536
4.147787 125.0922 -8.053514
6.291316 126.1604 -8.033092
8.684536 77.44972 -8.745324
8.034348 114.9961 -4.595737
11.57593 76.21249 -8.753102
15.19369 77.76826 -7.94633
9.950525 109.9137 -5.476557
8.04619 108.1867 -6.880126
11.11385 123.895 -3.270428
4.184844 87.58409 -11.27281
5.951382 84.87924 -9.880974
8.127268 89.31339 -11.94219
9.873178 88.08031 -11.21383
4.405507 97.79112 -12.2905
8.010181 104.5009 -9.113974
16.38932 86.73241 -7.321733
16.53401 85.83154 -7.187799
13.4545 86.46713 -9.277311
16.54296 89.33004 -7.171918
13.79701 90.80815 -9.760332
14.17873 88.3595 -9.261232
15.55314 84.50562 -7.81816
12.88274 86.11584 -9.438513
15.40126 88.42677 -8.297318
13.71504 84.67772 -8.765321
10.08737 96.69864 -11.45254
16.13295 84.42688 -7.444186
15.2902 82.9072 -7.860882
13.59912 82.72015 -8.47747
12.73997 81.99071 -8.574763
10.45904 83.74047 -9.186913
5.734813 70.91563 -8.750723
9.374653 71.37948 -8.740862
10.53341 74.39846 -8.794558
10.54444 69.59325 -8.665053
10.84508 70.60744 -8.703383
11.63687 71.45466 -8.746969
8.054329 69.34209 -8.669675
5.000357 105.632 -8.866693
10.0433 124.6015 -5.153266
7.849155 121.8623 -5.886594
6.27667 121.6081 -6.593107
12.32179 74.81412 -8.76443
7.276125 110.0788 -6.180943
7.807997 86.30901 -10.58974
7.432979 82.81026 -9.126955
8.92126 81.74103 -8.84726
7.666479 85.05224 -9.902319
12.76736 90.18681 -10.47938
12.52263 91.33968 -10.70185
13.26413 87.71984 -9.722647
12.58365 89.07603 -10.41499
-14.11189 129.4537 1.089894
-14.88887 133.6555 5.205247
-9.789613 138.8961 9.415673
-6.614828 138.9162 10.24741
-14.54321 131.9188 2.937775
-14.77744 135.7678 3.615781
-14.23995 129.2848 2.538856
-14.32282 131.3349 0.9354356
-11.06771 129.1632 11.78838
-14.83905 136.2784 2.896534
-12.88006 139.1695 5.962044
-14.23394 129.3126 4.528999
-13.99624 137.0124 6.306723
-11.36886 140.4542 6.495785
-5.531792 131.1649 13.50888
-5.540038 132.0242 13.63634
-1.813589 133.4682 13.31041
-4.548245 138.3156 10.743
-3.508473 135.8123 12.74134
-14.49698 131.2932 4.67187
-4.317386 134.8011 13.26928
-3.345888 134.6457 13.21227
-8.743301 140.6811 7.991419
-14.32132 131.2785 1.478886
-5.546741 138.9325 10.19251
-7.419376 140.4036 8.490517
-3.689932 133.6981 13.47534
-14.13102 129.1667 5.148441
-14.21155 129.1898 3.704053
-14.79331 132.7087 3.860533
-14.86092 134.0936 3.466412
-14.17843 136.9449 5.855041
-12.95423 133.9164 11.1026
-6.353959 132.6296 13.74108
-4.60701 138.09 11.07198
-4.997912 135.989 12.76355
-11.06328 139.8566 7.463024
-10.07418 140.0266 8.114388
-10.98455 139.4529 7.897295
-14.76457 133.1017 7.038094
-14.78104 132.5701 5.351524
-14.38423 131.7027 8.500468
-14.59406 132.4259 8.099443
-14.37545 131.3875 2.439689
-14.07727 136.1636 7.192593
-13.05571 138.224 6.711151
-13.28506 128.7456 7.853592
-10.05131 131.1384 13.1877
-7.01559 131.5487 13.69679
-8.778522 131.0637 13.49652
-8.689087 135.17 13.17212
-7.0381 138.1382 11.02422
-4.009715 136.248 12.55651
-5.861044 134.9564 13.30617
-8.640297 138.6063 10.24071
-8.908443 137.4211 11.44726
-12.90667 131.1844 11.23607
-14.28605 133.0992 9.139347
-13.98318 134.8737 8.903571
-13.57937 137.1448 7.065096
-9.814043 131.449 13.34985
-10.09179 132.4319 13.32776
-7.475854 136.6365 12.39388
-12.96509 136.9921 8.48765
-13.34754 133.5082 10.71281
-10.88914 131.2437 12.80741
-13.63694 131.0368 10.06182
-7.943307 134.922 13.40663
-9.144201 135.2827 13.04333
-13.69041 135.9703 8.402967
-11.17949 136.3949 11.32273
-11.04048 136.6876 11.13843
-12.24074 134.4335 11.68294
-0.1762124 66.1937 -8.409246
-12.90392 129.6567 -4.91663
-1.019023 70.52431 -8.758634
-2.515162 77.35654 -8.737129
-1.003479 75.98067 -8.772038
-0.2902718 84.03669 -9.615967
-0.9725546 87.35733 -11.13642
0.1583002 93.10574 -12.72523
-3.576872 67.81078 -8.5849
-18.56666 67.3182 -4.757431
-3.352355 64.74965 -8.227841
-13.46937 128.4136 -1.512014
-13.6213 127.329 0.6044303
-0.3207687 68.42087 -8.654943
-8.20987 64.69521 -8.22039
-8.438997 65.54361 -8.320357
-6.636421 128.747 -9.250684
-12.19641 121.9954 -0.7595255
-1.917486 104.3191 -9.635822
-13.89523 129.6579 -0.8459745
-1.14089 67.46438 -8.557596
-0.8154165 116.3317 -6.747617
-12.39485 119.8688 1.283861
-2.393478 129.3112 -9.795616
-5.321098 74.84292 -8.800274
-12.69989 124.5209 -0.258255
-0.6262794 131.7134 -10.82634
-17.11295 90.99554 -6.190128
-3.51833 131.7539 -10.83467
-2.809869 131.2393 -10.62606
-2.131679 123.7896 -7.708294
-2.78394 128.3654 -9.404502
-5.785384 130.5888 -10.27582
-8.899033 131.5902 -9.846004
-10.78946 117.6251 -1.958288
-0.2315465 121.9703 -7.411449
-0.738809 128.1796 -9.32958
-17.78412 64.85049 -5.53257
-17.82628 65.54687 -5.585445
-14.03634 130.7175 -1.620145
-13.77461 128.4273 0.100792
-20.16905 74.43217 -1.430684
-19.86898 66.58556 0.3583729
-10.82893 101.3033 -9.427435
-18.75399 90.19435 -3.232365
-11.46396 130.8031 -7.847351
-14.16764 130.9143 -0.5712035
-19.9073 67.60705 -0.2812434
-20.31231 77.52866 -1.337686
-13.04298 131.4083 -6.442893
-20.11939 84.92245 -1.450639
-8.036689 128.5908 -8.732697
-17.01139 70.10242 -6.900346
-10.88817 131.4297 -8.716711
-14.10248 107.9113 -2.476858
-13.37631 112.072 0.1714626
-12.49811 120.0779 1.236984
-11.57143 113.8477 -2.036715
-12.27579 132.3229 -8.075541
-14.18782 131.9654 -3.518348
-13.67618 132.1832 -5.959669
-13.45502 130.9695 -4.978316
-13.28322 126.8022 -0.5764545
-4.860013 131.3566 -10.67601
-1.824832 130.9509 -10.50785
-13.65162 127.5493 0.4986135
-14.58196 133.2211 -2.230545
-14.18016 131.3495 -1.873865
-14.21906 130.9871 0.03535473
-3.885394 107.1458 -8.013785
-14.70393 133.4825 -0.7074487
-16.50487 97.97012 -3.974193
-20.13432 69.9341 0.4926606
-3.610339 126.6069 -8.704882
-0.5094002 131.3611 -10.68349
-5.479519 130.2569 -10.13401
-0.8234449 69.49281 -8.716214
-0.626151 78.85663 -8.739123
-19.95253 87.7369 -0.02537975
-19.01425 79.85637 -4.608158
-3.144485 80.37804 -8.815788
-0.6733249 100.2449 -11.50832
-2.6354 91.42799 -12.53551
-6.269556 108.6502 -6.924067
0.03910838 110.8984 -6.401205
-14.11601 108.6271 -1.894385
-20.44998 77.38593 -0.498234
-18.9915 67.67771 -4.01705
-20.12868 70.03392 0.249173
-14.77868 68.09588 -8.112915
-1.079378 124.0084 -7.805881
-12.30931 122.0093 -0.1532815
-13.72042 129.592 -1.851605
-12.86312 128.3132 -3.626395
-12.65236 121.4068 -0.2275782
-12.70706 130.5094 -6.189009
-13.76467 131.7361 -5.093172
-13.56246 130.3156 -3.819408
-1.904169 70.47969 -8.759199
-2.741877 75.37456 -8.790562
-10.12815 67.87742 -8.566924
-19.95511 83.11787 -2.529238
-18.18347 94.06158 -1.932453
-1.778456 90.45839 -12.32306
-17.34618 98.60347 -0.6567884
-17.18077 97.01112 -2.910077
-1.810897 100.9638 -11.25538
-15.24094 105.6944 -1.585225
-15.86491 103.395 -1.820101
-1.968908 106.3648 -8.52231
-3.37364 107.1501 -8.046483
-0.1763716 114.6968 -6.124372
-1.511498 117.7495 -6.232603
-11.9771 118.8258 -0.01200502
-20.17056 71.80458 -0.4738148
-20.48369 77.91005 -0.4016723
-15.03405 65.74074 -7.769802
-18.99477 65.71034 -3.685061
-17.40645 66.33687 -6.139302
-19.88382 68.26377 -1.010793
-17.4429 65.98592 -6.07582
-3.45395 124.4202 -7.892321
-0.759659 125.0074 -8.148698
-12.55422 120.3305 0.7577248
-12.10481 129.7636 -6.445577
-12.58211 128.6687 -4.604515
-11.79128 122.8094 -1.373733
-10.27893 126.4861 -6.17928
-2.511361 125.4972 -8.312659
-4.24589 70.05178 -8.734862
-1.89784 75.08636 -8.794202
-10.54619 67.17319 -8.497906
-20.40882 83.4902 -0.4698165
-19.56743 89.106 -1.08646
-19.84033 87.33997 -1.236421
-18.19077 94.63491 -0.8114064
-17.95789 92.59025 -3.916449
0.07069812 86.76134 -10.85135
-0.1898902 81.74593 -8.998721
-16.98796 98.71234 -2.103033
-16.79045 101.3343 -0.5281422
-15.73089 102.478 -2.878584
-0.3080704 99.94579 -11.62598
-1.482402 104.1416 -9.730023
-14.81849 107.8898 -0.770115
-0.8773487 106.4367 -8.498338
-1.839039 112.5538 -5.938672
-0.4100155 103.7065 -9.964387
0.03169278 116.1344 -7.06205
-1.137793 118.8673 -6.726873
-12.6614 115.3409 0.6541612
-20.20093 75.80767 -1.606505
-19.58227 73.00239 -3.275187
-20.37933 75.1517 -0.249003
-20.04023 74.01711 -1.936107
-16.17342 65.3159 -7.142205
-19.24995 67.40144 -3.379194
-17.2523 66.88999 -6.3897
-19.98214 70.43023 -1.308094
-4.798643 123.943 -7.506099
-11.80737 118.103 -0.4740314
-11.24262 127.5867 -5.900957
-11.66397 123.4917 -2.145217
-11.92816 122.2843 -1.374811
-3.368479 127.2069 -8.943943
-6.694772 126.4835 -8.090657
-9.49566 128.1041 -7.724608
-8.210199 125.2644 -6.854577
-2.545887 71.31583 -8.77908
-4.280161 68.24984 -8.622746
-2.938985 69.27743 -8.700788
-1.534092 77.87263 -8.730027
-0.8593915 73.78356 -8.810842
-2.765818 75.66434 -8.782176
-0.6322169 76.03793 -8.770325
-20.40942 84.44415 0.1799506
-19.03367 86.04624 -4.066342
-18.51506 93.40714 -0.9210979
-20.53251 79.10001 -0.2953282
-2.508883 88.02427 -11.45747
-2.632291 85.03593 -10.01597
-3.748036 89.60207 -12.08239
-4.563454 92.5472 -12.71948
-0.5956802 83.36404 -9.402591
-17.78907 96.33447 -0.7448246
-15.96079 100.3598 -3.673236
-17.12082 97.61809 -2.585543
-2.519874 99.75663 -11.69402
-0.5327972 101.5145 -11.00988
-3.465226 94.95174 -12.72875
-1.748079 95.31409 -12.67774
-4.715969 104.9313 -9.301623
-9.623087 110.6275 -5.275269
-2.902701 103.5707 -10.04794
-2.374028 102.4007 -10.63404
-3.143717 105.1275 -9.194558
-3.571836 101.388 -11.10409
-3.601291 99.95751 -11.64977
-7.029669 106.9965 -7.750447
-2.687652 113.5552 -5.788685
-4.153911 117.955 -6.022092
-4.124754 119.6951 -7.200805
-11.49559 116.5285 -1.441684
-12.90971 113.5768 0.5350855
-12.27685 113.0637 -1.505672
-20.18915 77.34167 -1.810002
-19.23441 74.10742 -4.157691
-13.80134 68.83949 -8.458903
-10.92056 67.30844 -8.510691
-10.92603 68.45599 -8.60925
-12.27718 67.96805 -8.555497
-11.98578 70.14726 -8.691482
-17.86175 69.31049 -5.990929
-16.63536 72.30184 -7.297838
-5.769732 125.146 -7.736407
-5.152484 125.2158 -7.931565
-4.458045 122.0567 -6.917987
-11.05761 124.1546 -3.586574
-10.99618 123.5599 -3.304169
-4.886123 121.9608 -6.797827
-4.598895 72.53815 -8.797421
-5.804462 74.37452 -8.805447
-3.042503 79.99025 -8.786345
-0.1224961 82.24401 -9.104947
-20.13469 82.51051 -2.026163
-19.72779 84.08497 -2.951459
-19.41848 83.21321 -3.775006
-19.34961 81.24831 -4.043977
-17.19162 81.83221 -6.621121
-17.82008 93.85563 -3.455745
-5.378414 91.02155 -12.51778
-2.752969 84.0891 -9.632233
-1.91151 85.51091 -10.23586
-14.53184 98.88636 -6.954727
-2.100296 96.25008 -12.55397
-13.16336 112.073 -0.5748084
-13.93999 109.8248 -1.240795
-2.693982 111.4982 -6.21192
-7.878188 103.76 -9.593325
-6.857445 105.3857 -8.862887
-3.323924 107.2303 -8.006143
-6.524045 99.42367 -11.77827
-7.697393 101.9149 -10.60899
-4.097453 118.6949 -6.264443
-10.63253 116.2968 -2.844141
-11.14258 112.433 -3.341718
-18.74686 72.73586 -4.977157
-15.01066 74.06042 -8.183945
-16.33522 67.6674 -7.291724
-19.23883 72.26849 -3.963797
-16.46959 71.7747 -7.399041
-18.30094 73.33631 -5.619477
-16.4739 73.16732 -7.40878
-7.28523 72.65445 -8.790846
-15.35634 69.24408 -7.955406
-3.969957 122.4208 -7.126726
-11.47628 126.8565 -5.019193
-10.53383 120.3151 -3.343979
-10.34707 122.8103 -4.200079
-9.778646 124.4585 -5.290016
-6.306465 72.83301 -8.798937
-20.32423 80.82764 -1.517519
-19.41831 76.88433 -3.850962
-0.4344875 91.03018 -12.43939
-7.568486 90.22424 -12.2422
-12.75066 111.7918 -1.754336
-3.781125 100.3778 -11.50727
-5.193651 98.8238 -12.0243
-5.771584 103.8509 -9.871436
-10.857 111.9354 -3.91148
-19.6393 75.11829 -3.28113
-18.61813 74.65839 -5.228295
-17.50193 74.03579 -6.557743
-14.01087 70.14927 -8.444815
-5.149479 120.0709 -7.010956
-6.285239 120.9313 -6.065948
-6.177797 122.6168 -6.756288
-9.465567 119.9512 -4.527138
-10.89524 118.0316 -1.810284
-10.53001 118.8456 -3.090955
-10.19528 125.3523 -5.500323
-10.95365 120.9726 -2.615239
-7.648425 69.12141 -8.665825
-3.773236 79.1079 -8.739532
-13.14861 108.6814 -3.501273
-13.67167 107.6115 -3.367712
-4.756084 98.09431 -12.23017
-7.548329 98.42424 -11.91797
-8.132225 97.82693 -11.92855
-13.555 74.92606 -8.577747
-12.46971 74.36988 -8.75423
-6.316942 121.8952 -6.324197
-7.540348 120.2483 -5.384198
-6.873344 120.4528 -5.720531
-10.93472 119.7402 -2.849477
-5.281872 111.9041 -5.886151
-8.192745 110.9151 -5.668344
-9.254995 114.4815 -3.937076
-8.046305 115.0664 -4.470391
-11.24077 122.7403 -2.651955
-6.69632 70.07104 -8.723081
-8.990191 70.10114 -8.709701
-4.39479 75.44947 -8.789236
-18.09139 81.66762 -5.775281
-6.53135 94.3482 -12.7602
-10.32022 100.0914 -10.26114
-5.903802 119.6089 -6.675098
-11.26022 119.6272 -2.129061
-8.237669 108.6551 -6.585011
-4.922666 97.26604 -12.42481
-16.60651 91.31801 -6.861773
-8.761952 94.46209 -12.3193
-7.915295 99.85981 -11.37373
-8.91147 110.9319 -5.411873
-9.606348 108.2594 -6.362572
-6.822744 110.027 -6.270568
-6.732895 109.1359 -6.629903
-7.389319 107.7377 -7.252867
-5.561873 94.50985 -12.77684
-11.51045 108.2102 -5.354288
-6.83857 106.9539 -7.810337
-10.50003 105.9368 -7.231754
-8.317177 106.8467 -7.567425
-5.741071 73.15012 -8.802079
-6.195481 72.92596 -8.799623
-12.12844 108.863 -4.455636
-12.95172 109.3848 -3.311701
-4.693032 109.4688 -6.753479
-8.905698 105.6833 -8.102768
-7.02134 111.8508 -5.597646
-3.666495 108.969 -7.073206
-13.79003 127.8387 1.26063
-18.18857 89.74236 -4.673314
-17.82135 85.7128 -5.915193
-16.45441 88.10406 -7.274748
-19.09118 85.57922 -4.074949
-19.10179 84.93554 -4.147559
-18.15167 83.08507 -5.669943
-17.81897 82.2261 -6.087621
-16.34979 96.07629 -5.511425
-14.80644 93.93965 -8.463983
-17.14941 91.97492 -5.845715
-16.79955 83.1788 -6.924859
-16.80953 96.44857 -4.302401
-7.023053 87.91769 -11.46496
-16.95849 92.58111 -5.968807
-15.91499 95.60564 -6.484329
-7.024592 89.24767 -12.00097
-7.360677 88.25007 -11.6043
-6.286179 86.8884 -10.9363
-9.407359 87.21432 -10.90551
-3.858209 92.0718 -12.65771
-4.501757 94.96545 -12.74083
-5.973575 94.63946 -12.7692
-9.562119 105.308 -8.072619
-4.727698 116.6079 -6.391699
-16.70279 81.73501 -7.006004
-16.98698 77.25801 -6.911544
-16.99481 74.57343 -6.996474
-9.844506 118.891 -3.924881
-8.0613 120.0687 -5.22139
-5.109386 69.81347 -8.721064
-8.214962 71.7794 -8.770536
-6.735002 79.95084 -8.76306
-12.62714 76.55013 -8.663947
-8.784044 76.23108 -8.768355
-14.16128 94.35184 -9.048129
-11.13715 96.40816 -10.95143
-8.981586 97.3448 -11.78816
-9.675061 98.65173 -11.13519
-5.023595 115.5504 -5.826926
-2.693563 114.3324 -5.814821
-4.518247 112.5718 -5.823443
-2.949112 111.2887 -6.265033
-11.16528 103.1372 -8.288914
-11.89316 100.1142 -9.153289
-11.38659 99.80632 -9.664138
-16.70675 94.15305 -5.751402
-14.73116 95.891 -7.953628
-13.82666 94.85216 -9.244111
-17.85675 93.32301 -3.698624
-5.640673 92.97604 -12.76986
-15.93732 97.07113 -5.686924
-14.37996 95.98218 -8.312432
-15.50239 98.93671 -5.423638
-15.21123 100.7215 -4.971811
-14.91232 100.8107 -5.425109
-14.34513 98.01943 -7.578305
-13.40524 98.7654 -8.309994
-11.32968 98.74293 -10.09735
-13.40575 103.6139 -5.97743
-12.26863 102.4271 -7.742883
-12.30502 103.0168 -7.42461
-13.44862 104.5146 -5.427888
-13.14557 104.9478 -5.536977
-13.70473 103.9715 -5.398399
-15.10591 98.84968 -6.121912
-12.10614 100.373 -8.865278
-15.74261 90.75908 -7.994445
-13.53638 94.00917 -9.713508
-16.69124 89.99652 -6.952357
-13.27871 91.60685 -10.17053
-16.26663 89.15031 -7.491963
-16.4514 86.23463 -7.267406
-15.83543 84.76463 -7.659816
-12.37037 91.13869 -10.77042
-8.225969 88.37418 -11.57407
-6.258573 90.74068 -12.46733
-7.448648 92.61178 -12.62545
-7.563148 89.6268 -12.07654
-8.651484 93.98527 -12.37066
-10.34004 90.87817 -11.69949
-9.703732 91.35718 -11.97622
-11.74925 89.45151 -10.88206
-14.06378 91.69967 -9.555528
-11.01629 91.84761 -11.53095
-12.25699 92.30804 -10.86884
-16.64322 86.74516 -7.118364
-14.79734 83.55389 -8.142619
-13.32056 84.45036 -8.850967
-9.98501 88.34697 -11.25285
-14.06829 85.67658 -8.814257
-7.819358 91.70468 -12.47215
-12.75225 87.99346 -10.06459
-12.08549 88.01707 -10.39492
-9.597921 85.74499 -10.13353
-10.54101 84.67072 -9.47036
-15.26913 88.84564 -8.462046
-5.27819 80.96841 -8.867894
-5.69285 83.88513 -9.498878
-5.671387 82.23323 -9.057773
-2.524794 86.14414 -10.54226
-7.028557 83.4824 -9.313228
-6.451546 85.66386 -10.27412
-17.05462 78.64651 -6.770904
-10.92147 84.15319 -9.256526
-9.933337 83.19892 -9.069006
-14.02817 80.82387 -8.220979
-4.152096 84.87891 -9.935877
-15.44423 81.91861 -7.755033
-12.67896 82.99374 -8.732068
-7.296482 81.40872 -8.880656
-4.719363 78.64128 -8.731763
-4.485719 77.53232 -8.734727
-17.72413 80.24707 -6.197506
-6.411806 76.03476 -8.775157
-17.24577 80.70683 -6.604311
-14.40621 76.6851 -8.262349
-10.46734 81.82411 -8.778936
-10.99769 79.28783 -8.662516
-7.759941 77.72534 -8.724424
-15.9207 80.87218 -7.449469
-11.1723 81.94394 -8.758428
-13.19111 79.40723 -8.45065
-14.93039 79.56731 -7.943771
-13.81363 79.19558 -8.322802
-14.0653 75.14561 -8.431592
-11.8899 79.00424 -8.618881
-12.93161 76.36609 -8.630027
-12.53399 75.90089 -8.670502
-15.66696 75.79085 -7.813414
-6.542615 117.556 -5.585824
-9.53035 118.2523 -3.50941
-8.028507 117.5725 -5.040143
-18.82835 78.26626 -4.877519
-11.53741 73.17539 -8.794445
-11.02586 74.33138 -8.804081
-3.194815 111.1603 -6.295971
-9.577743 94.6459 -12.07914
-12.09366 92.99015 -10.94766
-6.801571 92.58672 -12.71099
-6.29763 80.13484 -8.778863
-15.63489 78.18789 -7.689983
-9.96469 141.861 6.343688
-11.82709 148.3266 0.3737083
-11.56922 147.5192 1.100495
-11.77921 151.7305 -5.796146
-11.3474 149.6397 -0.7902821
-11.38464 148.1273 0.5965307
-8.794035 137.264 -12.15484
-7.690032 132.8498 -10.84485
-10.6149 140.2393 -12.04714
-11.97337 151.6836 -6.230057
-10.18946 141.4649 -12.19412
-12.04277 149.3089 -9.827943
-10.61965 142.1395 -12.05994
11.26953 140.0656 -11.81192
11.31475 143.4224 -11.78198
8.52533 132.7492 -10.54095
9.98502 137.3144 -11.7824
8.950529 133.5264 -10.71541
12.70625 147.8081 -10.52065
10.93344 139.1523 -11.8359
10.61203 143.6654 4.661996
12.38564 151.7263 -5.85583
9.970987 144.3982 4.201221
9.889756 142.4156 5.940784
12.29967 150.619 -1.757419
12.06029 150.6578 -1.848044
-13.63788 127.4477 4.111243
-12.78889 115.8631 1.549085
-13.21139 124.0521 3.067403
-19.64829 65.58536 1.59076
8.293893 128.5345 12.26888
-18.05132 66.03564 5.468567
-19.8 68.21898 2.334203
-8.434202 126.6648 10.70129
-6.613124 64.53442 7.474337
-17.24317 99.2167 2.449995
-8.577829 127.5849 11.30489
-11.76178 64.95413 7.529048
-3.672375 64.81525 7.539189
-4.955602 65.8377 7.761877
-10.86421 67.1897 8.064908
-5.32605 68.29349 8.334178
11.27904 124.0675 8.727531
-0.2375488 130.9722 13.5697
4.1954 129.9416 13.29421
-20.19859 86.31379 1.152665
-19.28903 90.89268 1.208525
-20.58374 81.88369 1.611132
-16.71344 101.0931 3.930201
-18.49314 69.4238 5.789772
-16.76993 101.4491 -0.4862656
-16.15358 104.609 0.6709074
-1.630272 132.1424 13.49464
-16.44786 83.54742 9.256548
-13.77825 127.5402 2.126948
-16.02449 105.5021 1.314814
-9.381086 128.2683 11.80065
20.09328 71.80933 2.360232
20.44331 79.99612 3.014468
-13.71794 127.1047 2.365297
19.28299 64.89743 2.733668
-12.06884 127.7806 9.102345
-14.25643 110.659 2.575321
-12.32273 128.1337 9.274756
-10.5014 128.5652 11.60538
-7.931305 129.1827 12.80726
-7.336405 130.0924 13.34016
-3.443965 129.8609 13.30579
0.3035329 130.3704 13.46535
-15.406 107.3322 1.027529
-1.414128 133.0981 13.35462
3.245253 64.29198 7.413585
4.541151 64.61839 7.482679
11.18884 63.98937 7.312644
10.55428 64.25838 7.376371
4.975831 65.02556 7.574172
10.13731 64.42239 7.415617
14.30632 64.71167 7.295238
13.28977 63.85657 7.248234
16.96955 63.76719 5.896871
-14.23744 65.80367 7.576805
-18.85551 92.48008 0.09756134
18.30291 65.68257 4.987782
18.11873 64.97102 5.09268
19.65862 64.91933 0.9134669
-19.41017 67.07657 3.328249
19.99228 68.15484 0.7790668
14.39087 63.87698 7.091614
12.16305 127.9218 9.220805
4.620749 129.0169 12.84094
12.90146 128.2253 8.050741
-19.85286 67.14619 1.168885
13.41481 128.3297 6.021309
19.55573 89.33776 2.756585
3.244108 129.7757 13.2581
14.1318 110.3646 4.083649
-10.43887 106.7495 9.781419
-8.335381 92.61608 9.556481
10.73199 128.696 11.63939
4.193551 130.9285 13.44504
1.265899 130.12 13.47367
-13.29153 124.4958 3.600018
17.71632 97.10288 1.081161
17.17751 100.0745 0.7047993
17.21094 99.77973 0.3180662
20.39998 82.70625 3.022739
-19.82395 66.66273 1.00695
-20.00747 71.42342 2.746768
20.62915 79.34683 1.3586
-11.22759 71.75677 9.032084
19.29214 66.42416 3.295128
15.15483 101.405 6.760509
13.55481 112.2117 1.605486
13.27528 114.5283 3.875332
13.83891 128.1431 2.733973
14.4162 110.1365 0.9483725
20.50598 77.23647 2.104889
-13.14485 126.2629 5.776937
-10.66538 126.6946 9.418931
3.208823 126.1811 12.17736
11.24331 65.45162 7.646008
12.79146 86.07922 10.22694
19.99353 69.812 2.088613
12.4918 67.14731 8.043803
19.08942 65.65081 3.505639
19.55673 69.17616 3.627743
14.40734 107.8458 5.981446
9.155404 127.9107 11.55272
13.08107 123.3511 2.247011
13.43162 126.9911 4.967804
12.51394 126.2291 7.291672
-2.862055 130.316 13.47168
-2.60664 128.0265 12.25154
-0.009590193 129.0732 12.82641
-20.19884 74.07313 2.702412
-19.66365 69.47826 3.357766
-18.25955 66.14893 5.217117
-19.14201 67.58125 4.169023
-18.89414 68.64444 4.944552
-13.1447 66.61845 7.907754
-20.61366 78.63777 1.021052
-9.500176 65.20839 7.603565
-4.981255 66.67022 7.952164
5.590172 65.82391 7.756827
16.66387 99.59194 4.696973
-15.6803 104.2653 5.481638
-10.35409 112.3839 8.740177
-9.762058 127.0868 10.34301
-12.40388 118.186 1.555545
-12.52326 121.0712 6.924062
5.196871 126.5261 11.76356
6.44908 127.0219 11.40065
7.391092 66.8798 7.997272
18.34702 80.42679 7.664983
20.06561 86.08889 3.239767
20.26976 72.2506 1.109964
20.31767 78.07999 3.379778
13.20065 66.51262 7.850828
12.25517 66.07117 7.786716
18.10455 67.563 5.848092
19.77692 70.22699 3.255321
19.14434 67.33511 4.066192
15.69259 105.7455 4.423999
12.61578 118.492 2.213926
13.39706 114.9391 2.806956
9.54453 127.477 10.97024
10.36781 127.8032 10.8945
13.18741 123.5791 3.219463
12.4038 125.2086 7.312034
-3.960196 129.1781 12.96774
-20.48921 76.79081 1.842956
-20.45498 75.72276 1.534894
-20.20403 73.15636 2.207041
-15.71286 66.66019 7.364605
-16.2822 68.21258 7.469904
-14.9888 65.85603 7.378246
-17.69988 69.84164 6.807459
-19.91239 88.06949 0.1415888
-20.34451 81.89716 3.49961
-11.6034 66.26746 7.839599
-7.307554 66.88112 7.996389
5.609354 68.09756 8.285568
16.78534 102.2023 2.380735
-13.95577 111.1163 0.8410063
-14.74822 108.7135 4.299897
-8.10939 127.6654 11.46741
-12.59843 118.9853 3.711339
-12.98242 122.3163 3.623101
-13.32771 126.5902 5.334955
8.897293 65.19202 7.598014
20.57831 80.50685 2.232466
20.27783 85.64418 1.877088
19.10517 91.38487 2.089889
19.71214 73.16938 4.332438
17.1728 69.10242 7.072907
20.40789 75.86198 2.207596
17.98416 71.7896 6.903516
9.200135 66.16473 7.823869
17.12801 67.12964 6.646427
17.77782 69.78109 6.709543
14.28036 68.4829 8.208148
12.11585 67.60406 8.153704
11.87458 68.63689 8.395223
10.37312 67.57131 8.150395
19.93362 69.90871 2.467175
14.54953 109.9049 1.815665
13.38646 115.1914 1.891581
12.84922 120.6372 1.903434
0.8809784 129.437 13.06522
3.686362 128.3794 12.1519
-20.07889 75.32789 3.680328
-20.0688 72.32429 2.778519
-18.05953 67.83756 5.968728
-12.33438 68.02103 8.260075
-15.20926 68.93478 8.122806
-15.58393 71.06152 8.441588
-18.42914 93.97327 -0.1650338
-20.53889 82.89398 1.560735
-20.3876 84.99258 0.4901495
-20.19251 85.8009 2.495718
-10.21015 65.80434 7.735331
-1.969741 65.55323 7.700535
5.613033 65.63065 7.712047
15.17765 108.0869 0.9621425
15.83808 106.0252 1.133838
-13.10178 113.8748 1.747531
-12.59664 117.3502 2.155139
-15.6654 106.8566 1.877378
-16.79857 102.1354 1.72822
-17.61268 97.29743 -0.5848089
-17.25475 99.67849 0.7317789
-9.390629 124.1958 10.2247
-8.825671 125.17 10.4772
-6.751071 125.1114 11.46732
-4.713319 125.6969 12.00715
7.110298 65.53685 7.685278
3.885663 66.1312 7.831222
20.41688 84.62532 1.375015
20.04886 86.55019 2.730238
20.00657 87.47216 1.362187
19.65004 70.00978 3.607234
19.32798 75.25032 5.590698
17.00582 71.44466 7.69868
16.35228 71.03324 8.061355
19.82024 73.57027 4.104275
13.76851 71.80431 8.990975
8.700022 68.39637 8.346397
13.75325 111.6037 3.44256
12.83119 111.7186 6.155218
13.5529 111.306 4.842696
12.34462 111.01 7.37192
12.35016 113.0951 6.300686
13.56127 107.4714 7.544316
13.0922 114.4364 4.460553
12.47624 116.8874 5.206826
13.57949 109.1932 6.603076
12.76998 117.3816 4.792629
12.82265 110.2066 7.133515
-0.07830887 127.7904 12.08811
1.46786 126.3416 12.20118
1.870977 127.1565 12.14764
2.644156 126.342 12.19398
2.099246 125.053 12.24784
-19.83819 77.00124 4.769788
-20.23749 78.92839 3.796309
-19.1872 70.43256 4.823075
-14.47126 67.48323 7.976201
-14.49149 70.08891 8.576243
-13.81348 70.95581 8.85526
-18.70152 73.63871 6.366211
-11.91681 69.90997 8.683675
-18.60366 75.44775 6.818395
-18.50858 72.43575 6.412818
-19.30039 74.73149 5.570665
-17.43622 73.27348 7.759084
-19.17626 90.506 3.177507
-19.05157 91.64747 2.002608
-19.05504 88.74204 5.158653
-19.65998 89.12959 2.112711
-4.182421 66.12342 7.826314
-1.359543 66.07617 7.8181
0.4355849 67.86185 8.23583
4.480756 65.98858 7.797475
17.81988 96.32381 2.118446
15.93915 105.0118 4.115849
16.52287 103.5401 1.646727
-14.40273 110.2177 1.318797
-15.61847 106.3328 0.2774789
-14.72627 109.4167 1.372725
-17.22584 99.7466 1.798227
-16.70438 102.5956 1.719962
-16.65932 101.8637 3.803434
-16.69427 102.5607 2.013804
-11.47095 126.1045 8.473317
-5.6382 128.6254 12.40262
-12.66335 116.2427 4.038652
7.150694 67.59823 8.166433
9.545564 69.98383 8.693904
20.24831 81.46091 3.885133
20.17892 85.10214 3.222716
19.00088 84.0954 6.654972
20.30958 84.16102 2.996963
18.80619 91.96497 3.138186
19.72097 89.04329 1.422617
18.26549 94.71188 0.8251376
19.66442 73.83823 4.654781
16.45556 70.20454 7.821682
18.89747 76.86097 6.634791
19.55576 78.5882 5.655117
13.00383 71.91264 9.055521
14.14128 109.479 5.21034
11.2779 115.3833 7.873956
12.73938 116.9834 4.272575
12.91696 118.0379 4.829491
-1.872088 127.6787 12.05588
3.771809 124.585 12.20077
2.596377 122.6573 12.24683
8.249095 127.235 11.12603
-11.25633 68.848 8.454122
-15.64311 72.12324 8.642311
-18.59772 93.36024 1.724084
-19.1219 91.57938 0.8051679
-19.55587 83.1407 5.651783
-19.15602 77.93734 6.266424
-20.46887 83.14789 2.238266
-16.05531 72.35716 8.501474
-19.31873 85.64088 5.788419
-20.39812 84.07678 2.237001
-5.866805 68.06295 8.281014
-7.159695 67.50883 8.147022
16.81168 101.3542 3.438591
17.15712 99.30164 3.144991
17.56205 97.83559 1.69991
14.87866 107.1595 5.462552
-13.38572 112.3702 3.888104
-16.25847 103.8502 3.907284
-15.31524 107.5797 3.67276
-15.21289 107.7527 3.85693
-14.11075 110.8947 2.816745
-14.83539 107.1605 5.579004
-14.55216 109.7443 3.340124
-1.469031 124.6384 12.23772
-13.09811 114.9074 5.069477
-12.70655 116.1577 5.860544
-11.8629 114.0836 6.967627
-11.63192 117.7751 8.133791
18.46977 81.94403 7.457086
18.06397 95.42378 1.482883
18.71798 73.42941 6.333896
19.43394 79.35551 5.963776
17.00309 75.89745 8.527966
11.63369 72.12302 9.09001
8.804869 71.36665 8.961674
9.753521 68.96873 8.474964
4.411535 124.2504 12.17922
6.430732 128.1955 12.06573
5.308741 123.0645 11.97882
8.688387 125.4802 10.5103
-13.0069 70.99288 8.889987
-6.961468 68.64353 8.416325
-8.376026 69.46667 8.590236
-16.67207 94.91417 6.668774
-18.05551 94.9945 2.790948
-18.10756 73.3631 7.119524
-16.10146 74.51544 8.866952
-19.95613 76.2816 4.371449
-19.71503 77.09063 5.067292
-18.20725 76.73705 7.501747
-16.55314 76.51498 8.861474
-16.73573 79.4582 8.995888
-16.6891 77.40302 8.869027
16.31399 101.7446 4.858192
17.35531 99.21449 1.2923
-14.6277 104.7978 7.05406
-15.20444 106.0072 5.645233
-13.8573 103.0219 7.987719
-13.07334 113.2898 4.21803
-12.93068 110.5255 6.800008
-11.06913 114.805 8.218099
-10.72584 116.5802 8.684402
19.56587 83.59473 5.632742
19.42596 82.25906 5.973629
17.8084 79.37029 8.202545
19.46945 76.50288 5.531954
18.09779 74.50176 7.350627
5.603345 127.3215 11.61628
11.22076 119.306 8.433846
10.80898 126.4275 9.189469
-4.276014 68.04053 8.276067
-7.456763 69.85428 8.673574
-8.327209 71.4369 8.977852
-16.93758 95.96179 5.680489
-16.21361 73.24569 8.584623
-13.12194 74.86234 9.503043
-15.17259 74.91473 9.242423
16.68801 101.1133 4.054371
15.47923 102.6673 6.229074
-16.35359 102.4138 4.444869
-12.7253 115.0962 5.988903
-13.65863 110.9287 4.977697
18.39577 85.20941 7.441682
12.97671 73.45866 9.306032
-2.45121 68.41637 8.368133
-13.508 75.56066 9.581499
-9.782432 74.91299 9.517891
17.15864 97.16747 4.461863
-13.24823 112.5183 4.264775
18.95801 82.22861 6.800312
16.34136 74.89561 8.780187
15.5176 75.60179 9.200588
13.78939 73.07691 9.187799
-4.14579 70.92243 8.887535
-3.563474 68.31004 8.341507
-9.462017 71.08493 8.911751
-12.39761 75.35037 9.574228
-13.11769 76.82381 9.762551
17.15757 98.09851 3.874615
17.43329 96.48184 4.038861
-15.30123 104.3617 6.170002
-15.53867 103.0912 6.113202
19.13738 83.43324 6.492684
12.54464 72.36297 9.128815
-3.362805 69.91329 8.69255
-17.13088 94.76773 5.945876
15.85365 95.94222 7.288558
17.38605 95.50758 4.909906
-12.53316 105.0388 8.796062
-13.40897 105.457 8.211074
17.3376 80.99001 8.676734
17.91772 80.63962 8.124022
16.36065 79.84325 9.260088
15.35913 77.13 9.494344
13.81963 76.78281 9.706886
-1.56308 73.18452 9.274254
-1.560729 71.53743 9.00278
-11.33023 74.66528 9.482914
-11.66718 74.30566 9.431237
-8.85166 76.90444 9.774155
-12.59941 74.16723 9.408291
-8.688731 73.5564 9.322932
-6.959037 73.68487 9.344577
-6.594234 75.89217 9.648008
-2.992401 76.52937 9.729049
-3.413127 77.42619 9.835031
-11.02079 80.06276 10.09194
17.52668 94.81065 5.048958
17.27411 96.25504 4.731778
17.73973 76.64633 8.028645
12.35326 75.87503 9.648163
-3.452961 72.85904 9.22119
-7.512504 71.92386 9.062225
-6.237731 76.0287 9.666295
-3.243669 75.8657 9.646163
12.85441 76.18969 9.687448
-5.262943 71.96455 9.0736
-3.114117 74.04391 9.400183
10.92868 74.16377 9.411024
9.275576 73.02292 9.236703
-12.13532 124.1505 7.580451
-18.7792 90.86394 4.554297
-18.9606 90.62952 4.054918
5.519102 68.66196 8.414412
2.16676 69.46554 8.598256
2.330507 70.93959 8.894693
3.950942 67.47878 8.143427
2.214624 70.41014 8.791873
1.376136 72.50427 9.167452
0.07136963 73.16581 9.271634
7.493531 71.44671 8.97803
4.903042 72.51885 9.164799
5.722573 71.43295 8.977881
15.46278 104.2154 5.920053
15.44541 106.8668 4.084545
15.03455 103.7221 6.737643
14.74054 104.2325 7.059701
13.61853 102.9961 8.17056
15.23886 106.4221 5.220676
13.7226 106.1161 7.769033
13.87148 107.4222 7.186374
14.20875 106.4212 7.121968
12.38821 103.9697 8.889392
10.29544 105.0933 9.746835
11.71392 106.2298 9.230465
12.37261 101.5549 8.801227
11.93501 103.1536 9.043219
11.08191 105.3369 9.444137
9.9585 105.465 9.894711
10.50289 103.8639 9.596869
-11.94627 120.9872 8.079423
-7.984874 123.1531 11.10454
-11.82739 123.9558 8.06737
-7.943604 124.1398 11.05292
19.93757 87.57478 2.112455
11.16337 112.8544 7.931513
11.51783 110.9353 8.281422
11.36556 106.5843 9.402675
-4.974912 104.8215 11.62183
9.054906 107.0513 10.35441
-18.78366 85.39755 6.802789
-19.66545 86.42746 4.591532
-18.99014 87.44923 5.921402
-18.2775 84.52893 7.591338
-17.84598 86.47201 7.88722
-18.15714 89.06843 6.888088
11.63732 116.4674 7.916623
12.24545 120.7667 6.771099
10.89341 121.9107 9.010626
11.70735 118.6779 7.8453
8.34739 124.5559 10.82369
9.893488 120.7143 9.766292
12.61404 120.2708 4.961763
12.49378 120.8593 6.109923
12.74304 119.2519 4.909232
12.34685 120.2661 6.326862
5.751542 124.4271 11.89577
6.44619 122.1271 11.69606
7.696615 123.64 11.2296
7.198867 122.7518 11.45168
9.217761 119.4357 10.20983
8.186229 120.9099 10.92539
-18.19144 79.44566 7.751318
-18.87137 80.8772 6.910724
-17.19597 83.80616 8.749048
-15.35818 81.5978 9.792055
-14.46739 78.25154 9.800099
-15.84752 82.10133 9.569807
-14.43675 79.41179 9.942103
-15.2901 82.34077 9.846399
-14.05809 80.15076 10.04186
-16.56676 86.78316 9.007092
-16.75461 85.78809 8.931117
-18.30764 83.87779 7.620904
-11.89034 119.1743 7.694585
-11.27592 118.9497 8.45405
-11.54346 118.9842 8.078013
-10.73714 119.4809 9.074969
-12.5711 121.7748 6.366726
-7.847361 119.6748 11.06221
-8.859575 120.2555 10.65629
-8.070341 120.0004 11.04154
-8.880814 121.0929 10.71264
-9.9138 119.5796 9.866567
-11.15923 118.3997 8.752034
-10.80631 120.5488 9.365043
-6.694396 116.0073 11.16453
-12.97765 121.4015 4.281866
-6.299783 123.3872 11.77201
-5.588208 120.2507 11.66943
-3.914291 123.4788 12.1474
-8.897135 115.4358 10.26774
-6.286339 118.8814 11.30223
-4.601804 119.8665 11.7984
-1.996904 121.3554 12.05022
-4.069646 123.4248 12.1268
0.1656525 122.9291 12.24591
-1.686025 123.9841 12.22035
1.556527 121.5944 12.15656
0.05721085 121.0211 12.01263
-2.728408 120.5778 11.94528
-1.091608 121.0682 12.03452
0.3916747 121.8081 12.17816
0.7244589 118.1552 12.39855
2.276209 120.7817 12.01066
0.1539431 117.8339 12.46486
-19.857 74.93835 4.302717
12.9897 97.7921 8.760539
15.47805 95.22934 7.898705
12.98635 100.0764 8.544002
13.97137 98.0705 8.269336
15.69275 99.55673 6.475073
14.17979 96.15871 8.538835
14.0381 97.30083 8.36679
12.19096 100.8144 8.805804
16.00906 95.61111 7.21966
-17.17449 98.73295 3.347917
-17.57313 96.81238 3.148239
-17.21379 97.82397 3.903903
-14.68531 101.0888 7.335896
-15.46386 99.6182 6.705066
-17.49583 96.80109 3.527207
-15.67943 97.33335 7.121175
-11.75984 101.9357 9.026943
-15.73571 98.96976 6.544741
-13.14019 102.2195 8.445604
-12.99211 95.19501 9.075813
-14.38195 101.1483 7.642448
-14.60255 95.28093 8.489739
-15.1733 93.85627 8.471644
-16.25763 93.21949 7.79415
-10.00101 94.82326 9.323054
-12.50034 100.4024 8.753333
-13.46722 102.5361 8.233155
-12.53723 103.0352 8.809373
-12.55098 91.42207 9.734989
-12.73572 92.35256 9.587486
-8.993996 94.07037 9.364036
-11.13689 97.25038 9.127292
-12.31103 98.82175 8.868112
-10.04779 100.7101 9.409476
-16.01684 93.0043 8.073127
-15.95399 91.59846 8.551882
-18.06693 91.49988 5.937638
-13.51946 89.48978 9.874326
-7.975675 94.59652 9.319903
-4.611654 86.17722 10.23642
-9.429545 91.78982 9.71223
-8.612483 91.39696 9.776896
-13.38543 97.8977 8.57354
-9.663185 92.81856 9.55484
-13.14576 89.8926 9.857672
-7.571515 89.87383 9.985744
-15.63295 102.9422 5.980333
-11.95422 113.3013 6.847108
-9.097893 112.7493 9.529431
-9.422515 111.4686 9.524235
-12.45977 108.4112 8.312363
-12.14945 112.3421 6.953577
-11.48412 108.1817 9.124024
-12.86472 111.9342 5.984599
-11.07361 106.4816 9.487768
-11.26626 107.5191 9.361226
-9.793523 83.80246 10.24831
-12.56326 125.22 7.0141
-12.39148 123.0324 6.991366
-10.98251 122.4618 8.940653
8.844591 73.76143 9.350776
16.13457 103.4413 4.628362
8.127188 102.7282 10.24066
5.781993 101.5264 10.62688
8.169042 102.2224 10.12199
8.557279 101.223 9.802526
11.26156 99.02106 9.103788
9.477353 97.89055 9.332988
10.05547 98.92207 9.303201
11.42138 98.8662 9.075532
11.72915 100.046 9.004081
7.147551 99.24974 9.818426
19.06797 87.62817 5.663405
19.49106 86.02405 5.258008
-18.80691 89.34232 5.436572
-16.8228 88.58971 8.556655
-17.25625 88.08599 8.24177
-15.19856 90.29198 9.246071
3.851197 118.4473 11.85653
4.581366 118.5767 11.72962
5.604724 118.3534 11.55699
8.99578 117.9661 10.20912
6.141909 117.7112 11.39628
-5.87099 83.30046 10.23289
-15.55311 87.72641 9.484316
-11.43987 89.50217 10.00315
-8.980666 86.26662 10.23198
-13.90844 86.53469 10.08854
-12.34389 85.86494 10.23958
-14.43048 84.38324 10.06896
-14.16474 83.30333 10.14205
-11.5076 82.99954 10.2329
-11.8752 85.31052 10.26015
-1.736503 84.95695 10.25285
-7.47357 84.2746 10.25252
-8.618634 82.00062 10.19154
-6.648957 81.06755 10.14528
-9.260588 81.69608 10.17817
-6.931696 79.80321 10.06548
-3.330699 77.3208 9.823874
11.92888 88.47246 10.10559
-7.863255 80.03793 10.08322
-4.567656 82.12749 10.19636
-2.663608 79.53319 10.04215
-8.862124 83.49955 10.24249
-8.542786 85.54234 10.24748
-4.231725 80.75159 10.12884
-7.088909 84.50095 10.25474
-10.50661 86.3922 10.22901
-8.867185 84.5932 10.25351
-7.631639 86.84818 10.21139
-0.6925412 86.45739 10.23111
-3.33506 89.97357 9.995654
-3.241025 84.12856 10.25084
-3.250009 83.11108 10.22835
-0.797729 83.93391 10.24649
-1.115817 83.53084 10.23815
-2.386528 85.22905 10.24978
-2.467292 82.0628 10.19221
-8.655098 114.4152 10.21647
-8.163188 99.43629 9.649067
-12.02211 99.17002 8.926732
-8.588058 98.65276 9.48701
-5.77906 99.43263 10.10603
-7.449859 95.89465 9.379247
-9.690123 99.41693 9.385811
-0.9522132 98.5246 10.60896
-8.426433 97.33508 9.372571
-6.429314 98.14091 9.721461
-9.026381 95.91551 9.32903
-7.501766 97.78616 9.514726
-6.587829 96.30007 9.466699
-5.390883 95.23827 9.387197
-2.142576 96.91617 9.983748
-3.661506 97.07947 9.835114
-16.96952 94.40378 6.408588
-5.945676 90.77374 9.883828
-7.38998 77.69693 9.867105
10.14916 75.47839 9.591761
6.820783 73.29634 9.282601
7.355984 74.68166 9.483143
5.561629 75.16737 9.551017
11.38467 76.42784 9.712354
1.521509 73.55817 9.32903
6.046635 74.61726 9.475109
3.894476 71.5829 9.007669
2.859041 74.21549 9.424077
-2.265007 76.13188 9.679654
0.8518969 74.2495 9.42805
-1.417753 75.31064 9.574249
10.90125 97.43788 9.172427
-3.008045 91.80671 9.642785
13.79936 94.84123 8.914026
9.594728 93.37872 9.455161
11.45988 91.23048 9.783548
8.862536 98.20729 9.437115
9.355473 95.2092 9.315457
11.08771 96.38292 9.206656
13.35839 95.33134 8.995643
13.21273 94.13239 9.221186
19.28703 89.66003 3.78465
18.54816 87.09683 6.877354
16.48352 87.31586 9.029864
18.12491 86.33221 7.627265
18.50331 86.04616 7.143519
16.9087 87.0494 8.70932
16.72751 86.19269 8.954695
18.58257 84.77742 7.243679
17.72157 90.02564 7.182728
15.43626 87.70248 9.560613
16.84068 88.32062 8.56295
16.02965 90.72299 8.710959
12.87885 90.46058 9.844138
9.865657 88.46365 10.10472
11.92836 94.30611 9.356503
13.40702 92.95966 9.396594
9.795493 93.3048 9.468891
10.94395 92.06844 9.661735
3.276361 84.15152 10.24502
10.87354 88.18157 10.12722
10.30581 88.24058 10.11944
14.73039 87.89406 9.768827
13.08852 86.82049 10.14816
14.75187 81.62234 9.971545
8.778013 89.56031 10.00947
7.587722 88.20689 10.13639
10.96825 83.67463 10.23782
7.346638 86.70121 10.21116
1.568776 117.5223 12.6137
7.496033 119.2924 11.07117
6.562701 116.2693 11.69206
-11.61332 81.32457 10.16684
-7.545219 88.7444 10.09445
-4.78668 87.39909 10.18981
-6.693066 86.38289 10.2305
-4.358603 88.46938 10.12767
-7.782166 90.60916 9.894124
-6.579571 91.24109 9.800982
-3.457285 86.39163 10.22978
-3.769589 89.99953 9.98905
-3.813346 93.14027 9.363064
-1.671651 93.90474 9.281503
0.4410531 91.80468 9.629971
-6.87651 93.20046 9.420157
-4.582527 93.87648 9.299376
-2.148056 94.87346 9.39576
1.131524 92.39436 9.474779
-1.976216 89.8554 10.00997
-0.81909 89.60028 10.04592
4.115181 89.84691 10.00452
-4.412579 101.079 10.88811
-10.39106 106.1304 9.784882
-7.946626 102.0221 10.12968
-9.495435 101.9373 9.675445
-7.334711 102.66 10.43622
5.803869 94.08315 9.3394
-0.9692959 107.3179 12.32427
5.633323 98.89664 10.02483
4.408263 98.24747 10.06515
0.6510903 98.39443 10.58852
4.148143 99.99056 10.62294
2.47359 98.33096 10.38887
2.649163 99.64355 10.80398
0.4864444 102.6646 11.85512
-0.681664 99.9942 11.11096
-1.838678 98.87383 10.65641
-5.272502 99.8682 10.31998
-0.837162 103.8742 12.07912
-5.370992 102.8247 11.10151
-3.544477 99.35128 10.5449
-7.365444 103.7041 10.62302
-6.120446 105.0958 11.28461
-4.527532 106.2179 11.93964
-3.336629 105.4211 12.12338
-3.759043 106.5481 12.14934
-1.608992 107.5841 12.30835
3.313448 100.904 11.08252
2.934835 100.8382 11.13616
1.579786 101.1885 11.41011
-7.846832 105.7978 10.72636
-4.041834 107.3852 12.12536
1.332093 108.2562 12.26951
-4.918589 105.8985 11.8062
-7.90128 105.0892 10.61857
-7.043286 105.2442 10.95409
-10.93192 104.7427 9.484435
1.098101 101.5955 11.56561
-6.274803 112.1511 11.06202
-8.100589 111.4665 10.21603
-7.538227 107.949 10.95609
5.344971 102.3281 10.9735
-2.579066 104.1896 12.02686
-7.526815 111.434 10.5126
-7.913967 108.1375 10.80864
-1.517149 102.9552 11.88209
0.3893386 107.4093 12.3161
-1.725469 105.7625 12.27151
0.834374 106.5467 12.30765
9.748959 77.14351 9.794971
2.221203 80.77696 10.12947
8.642389 79.65205 10.05218
5.554199 77.49727 9.838414
6.342451 77.0287 9.783137
14.55578 93.96148 8.819482
17.06551 93.95849 6.442607
12.41452 92.0341 9.662494
7.451931 95.65001 9.34148
5.934224 95.23087 9.356419
6.247993 87.79025 10.16385
6.225629 92.39344 9.542238
