# .PCD v0.7 - Point Cloud Data file format
VERSION 0.7
FIELDS x y z
SIZE 4 4 4
TYPE F F F
COUNT 1 1 1
WIDTH 1673
HEIGHT 1
VIEWPOINT 0 0 0 1 0 0 0
POINTS 1673
DATA ascii
-14.95129 106.3214 6.031723
-16.04738 104.6654 4.305902
-2.248337 73.14365 9.511296
-0.6097547 103.2339 12.00971
-6.730427 103.526 10.79626
-0.7093982 101.4944 11.58305
-7.26379 105.2575 10.87081
-20.4176 76.45343 2.556896
-19.49397 65.83321 2.538666
-16.32609 67.38419 8.502416
-13.40281 64.75663 9.45418
-4.567591 80.08588 10.10335
-5.007361 81.6254 10.53361
-6.182324 82.80179 10.52468
-4.582129 82.44931 10.57433
-4.199494 82.3965 10.58167
-3.871026 84.15878 10.19269
-8.072825 81.46145 10.38283
-7.005417 81.82459 10.49445
-7.554097 83.80735 10.30395
-1.194517 78.25624 9.815116
-2.132272 75.83601 9.750849
-1.537884 88.72791 10.33401
-20.57892 82.20359 2.174645
-19.80942 88.4805 2.249113
-20.60181 80.24666 2.181728
-20.08393 78.26588 4.367137
-20.02517 79.87122 4.684132
-4.089534 92.18367 9.532232
-2.199845 97.25358 10.08161
-4.375758 96.55698 9.652953
-2.061239 94.52653 9.331511
-17.90907 96.19431 1.146978
-17.32875 99.50654 1.017208
-18.86806 92.35618 2.129974
-19.34086 90.14777 3.067651
-18.25922 91.95889 5.341261
-8.180354 105.9874 10.6316
-15.03597 104.8954 6.55956
-16.25015 104.3999 3.569782
-16.28991 104.6066 2.944109
-8.197916 66.50217 9.211538
-10.4584 64.59634 8.911466
-2.928404 67.56587 9.37526
-1.964864 67.4861 9.269639
-1.183045 73.77734 9.568112
-4.29017 103.2778 11.5458
-6.378653 105.2673 11.21072
-6.113049 103.0023 10.89112
-9.425351 104.9312 10.04452
-9.991566 103.0745 9.686985
-19.60365 70.47272 3.937378
-20.56662 77.49999 0.4445474
-19.05093 65.87509 3.88197
-3.46984 74.42418 9.621338
-2.507393 85.74274 10.03319
-5.636043 85.19197 10.06034
-6.00009 71.77515 9.404494
-10.12001 82.83716 10.38414
-4.993534 71.68876 9.407537
-19.84083 86.11273 4.240548
-19.12947 87.12218 5.803257
-19.10919 89.18269 4.91109
-3.369838 93.37885 9.349444
-3.616429 91.5091 9.666841
-1.203487 88.31241 10.40953
-5.218502 101.6335 10.8525
-3.994268 99.12717 10.37183
-4.523592 99.30281 10.32455
-7.831928 96.23582 9.381341
-7.873722 94.86434 9.325567
-8.972178 96.95412 9.340244
-5.104103 94.42078 9.319579
-6.088272 89.77304 10.06292
-8.900083 93.5946 9.432481
-18.05508 95.20277 2.579361
-18.59977 92.72219 3.314481
-17.35123 91.34996 7.287771
-13.9767 106.0126 7.559182
-15.10921 102.8018 6.823245
-13.13998 68.88021 9.237026
-13.01799 65.41386 9.434473
-3.339751 71.74273 9.421457
-5.306352 99.87094 10.30862
-19.47243 67.87163 3.494421
-20.26851 77.11005 3.504281
-18.56239 65.31725 4.79019
-14.81398 66.20858 9.164471
-2.327513 88.23372 10.39167
-4.839236 73.37653 9.516932
-4.277912 72.31421 9.443193
-16.50209 79.74186 9.224251
-5.244846 92.87422 9.442636
-19.2265 89.96983 3.798701
-15.51914 102.8624 6.225639
-12.69188 102.3658 8.711397
-15.76137 101.7222 6.081474
-4.534522 100.7143 10.75801
-11.12741 103.5089 9.382789
-20.1012 74.29935 3.455758
-13.39571 66.91862 9.348503
-3.332764 89.28005 10.21473
-5.153841 88.02987 10.37398
-4.4642 91.71771 9.629545
-11.47661 81.08723 10.21034
-7.590237 72.52442 9.426072
-4.454585 75.73257 9.749909
-19.77819 87.37328 3.748023
-18.6614 88.41111 6.353082
-19.69678 78.12607 5.354534
-20.15477 83.73879 3.988531
-19.54531 84.07842 5.690143
-18.65585 84.87142 7.137313
-18.55016 82.64732 7.428146
-7.90378 92.08781 9.599977
-16.63534 90.00306 8.46315
-9.033252 103.4529 10.02892
-16.51545 102.0089 4.356393
-15.58939 97.89886 7.062019
-8.988334 101.8187 9.804555
-6.222489 100.9185 10.36946
-19.80723 71.58096 3.658033
-19.25346 72.32096 5.232697
-6.418097 88.21803 10.36252
-11.25508 81.83438 10.30235
-11.99329 81.50404 10.25121
-13.44413 78.40386 9.966874
-16.64537 77.99001 9.015824
-11.74174 84.67274 10.25065
-10.85471 82.59531 10.33865
-8.812022 84.52317 10.22008
-11.76149 84.801 10.24469
-16.00801 91.21034 8.643365
-16.57201 83.57664 9.250672
-8.257145 79.30472 9.96517
-19.57248 85.86831 5.159714
-13.54812 87.00089 10.17375
-16.93318 90.91769 7.930782
-17.26655 92.41821 6.92911
-18.7859 74.88232 6.534544
-19.25309 75.66231 5.871217
-14.97457 66.57652 9.086577
-18.86166 81.92431 7.034049
-14.59724 80.85481 10.03253
-8.822795 89.51282 10.07533
-12.13739 85.08786 10.2458
-10.14406 84.79963 10.22087
-8.23697 88.71561 10.22571
-9.140505 76.3195 9.777076
-17.01353 87.79863 8.517317
-16.35811 86.0014 9.246711
-16.68686 86.82883 8.938897
-19.68288 73.40721 4.539238
-9.717088 88.79491 10.1739
-8.453939 87.17347 10.21968
-8.022344 92.35645 9.559071
-11.00614 89.36063 10.06414
-12.40076 86.52663 10.23832
-6.422789 74.81615 9.641865
-4.721008 69.40805 9.403563
-12.36976 89.70893 9.994892
-15.77681 86.94566 9.535892
-16.50278 85.54485 9.156495
-10.67216 88.65009 10.17075
-8.341453 69.07075 9.275646
-17.15721 88.97411 8.254173
-16.26491 88.51606 9.0639
-15.68096 87.74282 9.498739
-19.84767 70.69054 3.221055
-7.470787 74.23652 9.569489
-18.44472 69.83895 6.126892
-18.46419 66.52446 5.371841
-18.23363 67.24453 6.105464
-17.58379 70.01237 7.464078
-18.57065 70.81577 6.09604
-18.07004 69.66565 6.731299
-17.31882 71.42416 7.780539
-18.31556 72.09111 6.658982
-11.43488 70.53197 9.245008
-14.94483 68.49374 8.988203
-14.38252 72.10492 9.050917
-16.68848 71.67484 8.250273
-13.3012 95.18515 9.060637
-6.782073 96.55298 9.471272
-9.733418 101.3213 9.536093
-10.94202 97.54642 9.175911
-4.304392 77.0668 9.808675
-9.166011 77.41663 9.85776
-19.90899 79.91642 5.012457
-10.60467 102.858 9.481288
-18.61043 83.00553 7.346713
-17.95172 81.29736 8.13359
-18.30505 80.08538 7.721828
-18.81537 78.49318 6.979846
-15.06564 80.30764 9.837423
-17.50499 82.67988 8.561454
-19.28646 77.31373 6.088621
-18.0351 78.37325 7.94033
-19.10933 78.13582 6.489624
-10.6964 77.34043 9.861886
-10.66661 76.54794 9.788878
-10.05372 76.90419 9.822704
-11.22769 75.82461 9.702378
-10.97598 75.42078 9.656303
-9.42209 74.51678 9.575189
-11.72605 74.75311 9.552107
-13.05744 73.95534 9.406769
-14.7281 73.34305 9.173418
-15.51016 73.68681 8.984568
-11.41611 74.48854 9.528115
-12.16933 74.80387 9.547307
-16.21537 73.33408 8.664601
-15.0048 75.18822 9.390206
-15.84995 74.84812 9.03236
-16.83522 74.42667 8.457643
-17.51886 75.72842 8.128721
-17.91356 77.68254 7.980924
-15.29107 78.63617 9.700249
-8.324035 86.90461 10.19176
-13.90606 91.06953 9.666665
-13.2887 94.19201 9.258205
-11.8416 95.47411 9.2752
-11.71457 96.67708 9.159204
-12.94987 98.47679 8.679421
-13.79864 98.53421 8.330066
-14.33828 98.76015 8.014936
-15.7768 96.92195 7.127083
-16.57325 95.24604 6.743355
-16.93406 97.0592 5.180073
-16.93097 96.54484 5.468521
-17.52143 96.44521 3.81005
-12.02447 100.2251 8.935705
-10.50752 99.51851 9.257291
-14.60076 100.3567 7.526632
-13.9713 101.8633 7.936894
-16.04368 98.4148 6.322591
-17.49856 95.79855 4.49237
-10.23709 98.3596 9.251652
-15.50504 100.0722 6.658579
-18.15873 92.33335 5.329492
-16.85535 95.87694 5.975903
-8.246886 68.28333 9.252
-11.02085 69.3575 9.254152
-12.2847 70.93626 9.223321
-10.5132 71.99258 9.331878
-10.92945 70.04512 9.250196
-12.85528 69.97176 9.205012
-8.778825 98.06586 9.410377
-19.39569 76.35961 5.716321
-12.21078 93.02193 9.565595
-12.90986 91.17934 9.791801
-14.68924 92.579 9.107723
-6.563218 99.37606 9.912198
18.35109 94.29216 1.738202
0.3473493 105.7047 12.29955
1.194637 63.51531 9.061254
1.997368 92.67323 9.426992
1.091595 71.46692 9.421604
4.998691 72.33347 9.447003
11.21765 62.60497 9.131241
0.010048 77.07613 9.791203
1.63722 81.54132 10.53877
9.431341 107.5753 10.19315
19.15048 91.30849 2.111165
0.5496188 106.2604 12.32708
2.981161 99.53159 10.72544
6.364471 103.4168 10.89947
-0.3950504 91.32727 9.690859
17.64308 66.22204 6.542436
4.395722 62.97042 9.995589
-0.3978291 97.10318 10.17595
3.63457 99.23215 10.4955
-0.3219325 73.04378 9.510538
3.678413 64.485 9.758703
19.59543 63.79416 0.60157
2.868846 72.59053 9.475965
18.6046 63.24554 3.901963
15.10916 105.4827 6.226612
20.04706 71.94527 2.837669
19.51736 64.5233 1.728865
2.548565 63.06451 9.471792
19.86836 70.40447 3.02027
1.024619 65.41808 9.115682
16.23023 104.9236 2.56621
8.187736 107.1112 10.69366
15.46446 107.4709 3.120086
15.01169 108.736 2.823538
7.254255 78.46174 9.909616
19.7191 88.02715 3.396233
19.98836 78.01808 4.562521
17.6419 63.09908 6.021309
16.92901 63.06341 7.12185
17.73723 96.82175 1.97984
18.41085 87.03235 7.175136
1.165662 107.1925 12.34507
10.92618 64.94444 9.146923
0.5592232 80.63899 10.29263
17.67637 93.8297 5.444817
0.9574435 92.22038 9.496248
3.574238 102.2803 11.47171
17.67313 95.82439 3.737743
6.333048 104.9685 11.19068
0.312256 102.4702 11.85209
0.4342303 102.5752 11.87232
4.466558 104.3426 11.71679
20.09035 69.45796 1.061086
19.77823 65.55614 1.099403
18.58715 63.353 3.988094
14.78474 104.3609 7.051975
14.14089 107.3224 6.919654
13.33905 108.5471 7.409174
2.245935 66.20594 9.344527
1.945511 66.76573 9.329336
1.191329 70.78425 9.403603
1.019445 64.5012 9.055657
20.54851 77.80946 1.912089
19.78214 79.2382 5.253178
1.011988 76.38827 9.769032
10.37439 64.39371 8.949883
19.65072 89.43358 1.581262
2.430439 90.97498 9.780709
1.436443 100.4299 11.23234
1.545064 101.3126 11.49485
0.6438247 101.9453 11.71192
3.377541 100.6109 11.01194
1.890762 98.72448 10.63177
4.218605 100.2029 10.67751
0.9402208 97.47974 10.29208
2.364812 96.19244 9.733061
16.74993 99.04026 4.708617
2.189951 104.5953 12.15662
15.84183 62.56749 8.233072
19.86132 69.14738 2.581832
19.95706 70.01924 2.396614
20.26151 75.53583 3.110146
16.51175 102.9716 3.847736
10.3008 107.7747 9.836418
14.90391 107.2446 5.532055
1.665156 68.2731 9.343467
5.831732 63.5799 9.884144
20.53591 79.02133 2.584204
18.88653 85.45975 6.708046
2.862012 83.24993 10.42328
12.04948 62.77075 9.396519
19.42723 88.73663 4.145595
18.24675 93.89602 3.467193
19.43183 89.14574 3.721508
0.6892705 93.5183 9.298189
1.805926 90.93474 9.791688
0.05508984 86.76757 10.20733
0.6289064 88.25547 10.3877
3.498848 104.1643 11.92218
0.1917574 93.79932 9.318348
17.29296 98.57719 3.098531
10.0165 106.4464 9.977971
18.64151 63.96604 4.081974
18.93544 67.72249 4.740505
20.15944 74.28511 3.204852
-0.5650688 71.82542 9.436503
4.480795 68.08143 9.518332
7.987322 65.5566 9.172796
6.981871 69.3625 9.384796
20.0924 77.34035 4.094464
20.3125 78.44261 3.57297
0.685697 78.42873 9.824537
0.3408248 84.08843 10.20457
3.992005 76.03764 9.754428
-0.5429149 78.27814 9.82756
15.55381 64.0124 8.500551
19.23239 90.94511 2.345461
19.00733 91.84559 2.093975
19.13487 90.45692 3.718117
20.26949 84.93224 2.950245
3.24106 91.8317 9.591139
4.244252 91.60062 9.63786
3.125434 93.19854 9.346
6.147011 88.86884 10.24166
2.306539 87.57221 10.32799
9.898315 91.15862 9.774937
12.54783 97.96898 8.89028
0.1616297 84.43235 10.12919
16.66021 100.7769 4.442383
16.59716 100.795 4.615857
15.85837 98.46326 6.534461
17.48948 94.21333 5.631282
17.2321 97.15483 4.240336
18.24509 94.53695 2.295853
17.43438 94.37012 5.642793
11.08875 105.2387 9.481453
19.50926 66.77345 2.940567
16.79586 67.00411 7.644069
16.41786 102.3932 4.528377
1.615145 70.60854 9.399776
1.382374 74.2919 9.612107
3.100711 66.44422 9.533295
4.837898 67.241 9.61989
20.49899 78.67419 2.702848
20.56462 82.70428 1.977827
4.382304 81.29875 10.44493
14.64563 64.88355 8.994307
18.45228 90.12099 5.997451
19.36221 86.60329 5.461535
18.48602 87.06035 7.065053
5.678781 92.25079 9.532242
4.135243 95.72618 9.521129
16.75251 97.87045 5.217282
16.72874 92.61772 7.579951
11.28818 106.5858 9.445728
17.48986 66.32111 6.764298
19.54238 65.78609 2.354595
4.573972 65.24523 9.83593
3.769215 68.31487 9.476723
20.38784 79.25066 3.247532
18.19411 68.81644 6.158938
8.900395 66.3028 8.977583
17.58261 88.54597 7.90021
4.275397 84.4931 10.11747
10.30998 104.3796 9.698916
8.28379 103.9747 10.34608
10.65161 106.3111 9.724982
13.1562 106.6441 8.304803
14.26247 105.0425 7.560466
15.3574 103.1753 6.37345
18.35871 66.50427 5.456581
20.15945 80.38725 4.203618
8.926848 70.1097 9.30457
18.565 90.61724 5.484945
18.72921 91.9541 3.734118
2.938096 86.61938 10.17995
15.04723 95.27367 8.270883
15.4753 95.84861 7.752178
7.399235 106.4413 10.97519
4.113357 105.1097 11.95276
6.637714 101.0917 10.30781
15.63003 101.3698 6.34035
19.41914 67.55902 3.544099
2.83016 75.00319 9.669343
18.31873 93.05276 4.082847
6.175825 84.96624 10.07308
4.727403 87.78924 10.32939
7.429952 100.3161 9.944757
14.224 103.7046 7.714588
11.49119 102.3388 9.176034
16.04846 102.8776 5.301066
13.69393 102.1192 8.123055
12.08123 96.14356 9.142349
13.29757 97.40198 8.708245
11.80421 100.1385 8.966847
12.23091 99.3587 8.877806
4.856898 95.06 9.399953
13.94825 90.21181 9.771565
1.188962 85.61832 10.01871
15.61416 103.9426 5.85825
10.63308 102.1158 9.400516
9.431466 100.3114 9.504647
13.79714 101.4095 8.034919
7.028718 95.77005 9.401011
17.28226 86.89342 8.464675
18.01317 86.20686 7.838394
7.131041 82.62828 10.52239
5.490319 85.76981 10.07517
5.620853 98.70577 9.965932
8.104611 98.89635 9.587286
8.123774 96.2496 9.374341
5.75224 97.35744 9.693981
7.011642 97.88792 9.631933
7.491021 103.1058 10.47799
13.4384 96.18042 8.859172
12.10488 94.30389 9.389033
13.10088 94.02421 9.336494
9.037738 97.28078 9.351137
8.368867 87.14622 10.24869
11.70349 77.29268 9.849804
7.820319 84.8101 10.11629
15.07514 106.0361 6.034222
14.73356 106.0034 6.642025
9.918801 62.76531 8.770532
4.678008 98.94617 10.19418
3.824195 97.88715 10.05563
19.31788 69.19859 4.342542
19.35627 85.35937 5.846797
19.16982 84.47776 6.359166
3.245624 82.51257 10.64106
3.187996 75.68201 9.727262
5.814795 74.68475 9.626375
20.09281 83.81343 4.211073
10.25383 88.73744 10.15305
19.39532 70.4424 4.497871
18.62561 67.82446 5.318949
13.15112 71.73141 9.177198
17.9883 67.34207 6.185299
3.140076 95.44514 9.496822
8.577678 67.24377 9.092854
19.8346 81.84164 5.205247
19.55304 83.02273 5.757928
18.98621 78.65094 6.728529
19.50138 76.68058 5.573304
8.99053 68.91756 9.205107
6.794371 70.7713 9.38528
7.681671 71.72277 9.391861
7.83997 70.74961 9.357903
11.74348 70.67809 9.260134
11.4047 71.30704 9.280088
12.51256 76.36577 9.729719
12.97435 72.87816 9.2974
11.76513 69.58993 9.289201
15.70957 73.63407 8.908405
12.2909 67.54391 9.390137
12.76032 69.92945 9.226972
17.15409 69.81522 7.473651
16.22192 70.24939 8.224987
15.14007 68.85523 8.747775
15.75422 72.44254 8.70354
15.29375 74.49301 9.130133
15.0541 74.20422 9.191105
15.6828 70.59588 8.556828
16.63713 72.92123 8.339884
18.9916 72.30336 5.68576
6.15267 89.45445 10.17373
16.32631 93.81556 7.58786
16.90868 92.24387 7.515705
16.25489 92.88847 7.972037
14.97696 90.83186 9.346572
14.76499 97.28659 7.980562
7.095839 79.10371 9.947617
9.461843 77.71586 9.882968
3.886022 80.99774 10.36021
6.046779 95.6816 9.431849
10.74787 95.93192 9.269433
12.47029 97.29021 8.940614
11.12505 91.96908 9.659356
13.96691 91.79282 9.519905
9.436517 93.12859 9.488338
7.787391 92.59206 9.513211
10.17044 85.56384 10.17678
8.837576 88.10436 10.24463
13.39233 84.55815 10.2339
12.50224 87.89291 10.171
10.3824 89.39501 10.07739
8.243381 88.139 10.25215
11.16096 65.52623 9.254573
8.99654 63.86343 8.829778
10.09659 77.17722 9.837539
18.90243 79.91434 6.916675
16.42447 76.86368 9.017302
18.50609 81.33226 7.496648
19.008 73.82478 5.988275
18.60767 75.34444 6.859746
18.57258 72.77184 6.426713
18.62546 73.40315 6.490866
8.287834 73.21492 9.474859
16.10064 79.6253 9.43301
16.22816 75.35139 8.953367
16.93386 79.64363 8.940303
18.45424 76.35713 7.212301
15.63525 75.97611 9.279369
16.54559 76.38683 8.889628
14.52575 77.5198 9.782153
14.17119 77.81096 9.87171
14.10561 80.90606 10.11188
11.35051 77.99822 9.918311
15.70255 75.54256 9.209175
16.74629 80.13784 9.092531
16.95136 82.20528 9.009007
18.26776 80.65131 7.770947
18.15967 82.83401 7.906697
13.42437 79.58721 10.08377
6.089367 78.41551 9.887484
11.24681 79.99845 10.09543
7.823688 79.56425 10.00554
7.260466 81.19186 10.32844
10.19667 78.24835 9.932407
12.02836 75.25581 9.615276
18.60934 84.78007 7.244174
16.20228 85.24789 9.419218
14.89155 85.82288 9.958205
12.59014 84.12412 10.25682
17.81907 86.82407 7.97122
13.35974 83.00225 10.2488
16.22803 82.0528 9.462681
12.88415 85.42513 10.26513
10.85106 83.10338 10.34298
10.2251 81.24299 10.25029
10.81734 82.48837 10.35441
11.38301 81.24797 10.21963
3.507871 87.70744 10.35125
13.14433 89.95194 9.921616
14.5309 88.08956 9.891109
15.63893 88.22287 9.44124
6.747699 86.17456 10.14596
13.53927 87.83839 10.1184
8.202389 72.0719 9.399925
9.159589 72.72493 9.423947
6.310179 72.74664 9.464263
16.53719 75.44595 8.800858
10.89688 75.37721 9.645444
13.25236 88.59108 10.06036
14.05823 91.47473 9.578999
17.65211 89.27834 7.629016
10.88916 86.52788 10.20683
10.22279 73.03038 9.423338
6.468167 81.57779 10.45918
8.330447 79.0436 9.954088
10.01952 75.95599 9.716115
7.57084 75.72433 9.712125
2.103095 89.13689 10.28323
-12.93859 125.016 6.249508
-12.83367 128.1452 8.672851
-13.42121 126.0618 4.879435
-13.47128 112.4553 2.851053
-8.023794 117.6179 10.2809
-13.48037 125.4983 3.518836
-11.74783 116.201 6.712814
-12.8274 126.5755 6.84154
-12.22277 117.0376 1.968498
-12.96364 122.342 3.359391
-13.88877 129.9665 8.568451
-11.68393 118.1463 7.155743
-14.24208 130.2986 7.622978
-12.92653 136.7215 9.279891
-11.68894 127.4314 9.26298
-12.56753 126.9111 7.628143
-8.253396 136.5062 12.68281
-2.981169 111.3967 11.92637
-11.32299 135.418 12.10799
-12.75889 127.8216 8.33174
-13.79387 127.659 3.408389
-13.29264 128.162 7.42914
-3.090014 113.484 11.80951
-10.19048 136.7937 11.70083
-6.214561 132.1748 13.89161
-11.81539 136.8267 10.49714
-14.29974 130.254 5.902121
-10.16554 129.533 12.49785
-12.9717 122.0786 4.080101
-3.75984 134.0508 13.69697
-1.251122 127.0577 12.33235
-12.85941 134.1137 11.25287
-5.652004 112.7304 11.28086
-2.555578 113.8563 11.81383
-2.438994 123.5391 12.17676
-14.01407 132.8449 9.972499
-13.29891 134.0877 10.70277
-13.06485 128.6916 8.857197
-14.33374 130.809 8.237344
-14.24809 130.1343 6.609617
-4.040575 126.0162 12.09869
-12.99531 123.5657 1.90856
-12.34419 118.8872 2.606425
-12.40887 118.1487 4.605297
-12.1736 118.2918 1.862131
-12.70031 114.6521 3.909815
-12.98572 113.375 4.299266
-9.91037 132.2776 13.49855
-9.747348 135.9696 12.60407
-13.58606 134.9705 9.785665
-10.52349 112.241 8.67854
-2.874605 115.4063 11.8272
-0.913296 116.9707 11.84734
-4.301864 111.7794 11.78792
-2.875262 125.5495 12.24306
-12.6583 128.5587 9.526323
-5.723994 133.2256 13.80676
-12.84169 125.2399 6.489856
-12.88105 121.4686 4.19595
-12.34623 119.5927 2.281405
-11.92611 113.4552 6.848797
-6.662959 124.8176 11.578
-11.61571 114.4344 7.075325
-10.89949 116.4946 8.06782
-12.5407 115.3373 2.44099
-13.4722 112.4135 3.362743
-8.20209 112.9636 9.959684
-0.6662458 119.5728 11.88594
-0.794585 125.8312 12.25501
-8.891069 122.0411 10.63525
-4.494907 135.4205 13.14456
-11.92416 128.1401 9.923463
-11.95793 126.9962 8.474521
-12.66501 120.1292 4.820158
-11.91204 115.6439 6.395587
-9.21171 112.9575 9.432187
-10.3599 119.3808 9.106191
-3.434853 123.7228 12.19571
-1.461941 121.8876 12.03694
-4.204318 122.619 12.06059
-2.150458 127.2541 12.3287
-2.277747 128.4243 12.61179
-1.715345 131.158 13.4891
-4.611348 132.6743 13.84383
-4.847088 133.1216 13.7938
-7.512446 133.1933 13.87664
-6.288804 133.4668 13.80083
-9.511385 133.8256 13.54621
-10.68014 131.6246 13.08994
-6.864862 135.0078 13.49226
-10.51453 127.4937 10.3619
-11.69244 124.5695 8.307562
-9.278601 124.5669 10.31714
-4.15834 126.4098 12.04764
-3.786715 117.9867 11.73095
-5.279403 115.7817 11.34487
-2.059569 129.6686 13.04607
-7.968722 134.9261 13.47325
-3.843478 130.5173 13.37261
-10.34089 127.9455 11.06532
-8.868745 129.6434 12.91382
-8.983277 131.9261 13.69799
-10.73505 133.8751 13.07209
-12.33305 134.5056 11.70921
-10.86882 123.2921 9.157358
-12.15249 119.2185 6.562752
-7.002035 125.7947 11.29986
-5.189748 125.5958 11.92333
-4.892032 125.2001 12.07821
-6.526731 131.1046 13.65687
-10.27222 126.4333 9.514382
-7.270507 128.5441 12.40753
-12.78605 123.1793 6.229575
-12.96012 122.5481 5.142754
-12.11695 121.6651 7.385788
-8.801494 124.8137 10.56664
-7.644363 127.2572 11.56938
-5.334511 130.7864 13.50857
-12.194 121.5148 7.165539
-7.421854 124.7758 11.27586
-8.74913 123.8416 10.72179
-13.3961 135.8311 9.354664
-3.148176 114.7916 11.80208
-4.964712 116.8343 11.45412
-10.16386 131.2185 13.22797
-10.14604 120.8143 9.591977
-10.57025 119.8681 9.020637
-9.974402 122.3434 9.889168
-8.912042 120.5192 10.43766
-6.639472 119.4641 11.1084
-3.718851 119.7938 11.81402
-4.311845 122.6574 12.05411
-5.776549 116.8898 11.16124
-7.315188 120.7082 11.17654
-4.251616 123.3987 12.14723
-8.829749 121.3322 10.58776
-6.803635 121.531 11.45525
-10.84654 115.6392 8.046716
-10.37135 117.3472 8.799068
-9.495739 114.9939 9.164363
-6.978415 114.1173 10.57945
-8.459162 115.691 9.827076
-14.82495 109.2706 1.785424
-12.80593 109.1734 7.760734
-14.08291 111.045 2.991395
-13.72167 111.8866 1.788666
-1.610401 108.4431 12.27291
-12.76958 111.6864 6.371818
-10.11491 108.9001 9.790692
-12.66097 111.1556 6.85442
-5.715991 109.2502 11.60141
-0.787967 109.91 12.11906
-12.18824 111.1059 7.547243
-1.576711 110.1391 12.09752
-9.896255 111.4024 9.281221
-14.02954 110.9543 3.53204
-7.317344 108.8619 10.95982
-11.21128 111.407 8.367336
-4.5537 108.9089 12.05083
-7.670033 111.2119 10.44209
-1.993144 109.2628 12.20043
1.617692 116.9559 11.84642
13.7683 127.2995 2.656771
3.650819 119.4832 11.81226
2.063309 111.8528 11.89362
3.550644 112.7609 11.80535
0.1512572 119.4908 11.88622
-0.1548436 112.2624 11.87634
0.6088536 116.7936 11.84714
13.96551 129.264 6.162519
1.210102 126.5576 12.27329
0.8815142 127.7107 12.4289
12.77731 127.6885 8.099911
12.93534 134.9402 10.80134
9.415482 136.8806 11.95712
14.29039 131.0756 8.692559
12.06548 112.0809 7.235035
12.57499 115.181 3.891552
12.77219 125.5998 6.734005
12.0439 122.0547 7.544805
12.94287 124.7539 6.18133
12.84935 121.4112 4.106647
13.5172 126.4577 4.575319
12.43963 116.1976 4.016873
12.51325 127.0251 7.823638
13.58681 128.5419 6.915318
11.96478 128.5219 10.44516
11.90661 127.9144 9.707255
12.63546 120.4279 3.215878
14.22254 130.4339 8.012138
13.93036 129.4136 6.994013
3.141832 122.542 12.07803
7.196969 116.9085 10.55946
12.73655 130.4224 11.18309
12.52098 112.6017 6.224478
12.34013 114.9864 5.350203
14.16178 130.803 8.876721
11.6737 128.4865 10.69488
12.05014 130.2929 11.78566
1.056732 121.0734 11.9634
8.101222 113.4606 9.983874
2.900968 115.2167 11.8324
0.5171983 113.6736 11.82737
2.625674 132.8053 13.95644
1.137351 125.108 12.23908
12.36336 134.1392 11.80473
13.1367 131.8144 11.22376
10.99246 135.8581 12.06173
4.72882 135.1417 13.24659
13.07901 113.0212 4.331474
12.34822 117.2168 3.611326
13.01329 113.2266 4.357332
13.26743 125.6518 5.414522
12.95673 122.1859 3.505775
13.03683 124.0774 5.735079
13.25163 124.1278 4.388379
13.97079 132.3408 10.06291
-0.3642556 118.5775 11.86415
2.25495 124.2729 12.22672
2.553284 115.8829 11.85276
7.84137 115.4398 10.14772
5.662824 115.6987 11.19531
5.635895 118.2914 11.26988
2.621057 114.9997 11.84099
4.414015 132.7812 13.96588
2.864306 133.6006 13.79814
0.2175719 130.5006 13.31002
7.740505 135.2959 13.29604
13.3235 112.6931 3.637411
12.16723 117.0805 5.619877
12.43092 118.39 3.785037
10.16985 124.8229 9.659378
13.24355 124.2762 4.614554
12.51838 132.5358 11.91155
3.957387 118.0518 11.69903
2.681221 122.1008 12.03884
2.480705 115.8656 11.85326
1.858507 131.7644 13.63317
4.100994 134.0347 13.66915
4.945835 132.7032 13.95255
4.830546 135.208 13.21385
0.2374078 127.297 12.35417
4.201687 123.483 12.14853
4.854974 124.1039 12.10317
4.730569 126.4744 11.90215
2.65344 129.609 13.03375
-0.2652532 130.0682 13.17196
6.573723 132.1581 13.90278
11.5436 114.8488 7.161173
10.66443 114.658 8.233137
11.39398 116.4032 7.325235
12.39755 119.9501 6.095956
6.679917 118.5041 10.94219
13.42736 131.8897 10.84185
1.174617 118.9726 11.87175
4.575359 118.2174 11.58756
11.23001 118.3378 7.990632
9.2122 121.7287 10.40897
3.416875 121.8141 12.01975
5.497432 124.531 11.98765
10.27502 128.3344 11.52729
6.633771 128.2734 12.23967
1.646314 128.9472 12.76478
11.75748 115.5502 6.680413
9.372524 114.4625 9.251341
12.03629 117.0226 6.089683
7.838868 124.2736 11.1573
10.78131 123.4028 9.253942
8.188937 122.6517 11.04187
12.58542 134.3659 11.47315
6.747121 119.7982 11.14642
0.2811568 121.9556 12.03272
2.78921 124.1948 12.22749
6.200544 121.0649 11.52715
8.87684 126.2931 10.35426
7.550196 123.5548 11.34849
8.943709 124.6588 10.51414
5.17066 127.8521 12.15305
6.066047 130.023 13.26003
10.83936 121.7803 9.08513
9.836473 120.2051 9.75946
9.842571 120.9102 9.851369
12.6927 121.2154 5.561726
8.144005 116.4032 10.06938
9.727437 119.542 9.728395
9.982263 117.4077 9.109464
9.79051 116.8751 9.167243
10.10575 131.3097 13.26857
11.61705 129.6596 11.77934
8.95314 127.9423 11.62467
9.998748 128.0345 11.3609
6.369347 119.5442 11.21788
7.484828 126.8443 11.14208
11.40221 117.2791 7.452688
12.60847 121.7948 6.189023
8.110962 119.5267 10.64948
10.96991 131.2703 12.86886
9.041123 134.9107 13.3684
3.006445 117.3695 11.82534
4.865206 129.9016 13.18232
6.848672 130.8726 13.6277
9.981881 131.7517 13.44303
8.882586 132.9805 13.78283
9.73072 121.2596 9.977978
4.038063 109.9247 12.06401
0.1428131 110.0086 12.10524
-0.2894926 110.2408 12.08036
3.925347 110.5606 12.01412
14.06325 111.0739 2.815472
11.19688 108.5894 9.267141
14.59826 109.664 3.269584
4.536205 109.55 11.97329
7.715774 108.5014 10.86031
13.63466 110.8062 5.260874
1.731607 111.1537 11.96759
5.18112 108.3662 11.89336
7.681376 108.9869 10.8011
6.102952 109.3154 11.44145
11.83061 109.2912 8.635629
9.257978 111.1059 9.679306
13.63496 111.1357 4.919742
13.70225 110.3852 5.460543
13.18925 109.0842 7.315685
13.12503 113.2874 1.728333
13.44957 112.4892 1.792437
1.685918 119.0031 -7.234165
3.177184 130.3681 -10.26979
12.84238 128.6107 -4.160401
13.09441 124.8374 0.804517
13.29418 125.8133 0.5711389
12.76786 126.4843 -2.026022
11.90795 122.3354 -0.6846561
11.85435 134.1124 -9.474308
12.38606 129.9081 -6.301001
12.41616 122.8991 0.2282951
8.865627 113.7633 -4.307903
12.85432 125.8768 -1.212176
0.5421035 115.0249 -5.66747
9.698135 113.8771 -3.786023
11.10258 130.3229 -7.962271
2.523441 129.6495 -9.950511
10.00078 132.3322 -9.71112
12.81395 123.1998 1.369095
12.30223 124.5466 -1.478438
13.39249 127.3593 -0.7561485
13.72835 127.6353 1.060037
7.783911 126.5221 -7.746335
11.51073 132.3437 -8.776309
8.407074 131.3224 -9.944745
2.532831 114.7186 -5.695238
5.847922 131.9263 -10.86587
13.45412 128.1836 -1.356825
12.57374 128.7979 -4.981246
12.84219 124.1169 0.5834219
13.49535 112.2067 0.9936743
2.473037 114.2996 -5.720347
7.505388 130.9348 -10.06381
12.23822 128.7263 -5.526364
2.93121 113.4685 -5.819132
2.997309 116.6609 -5.831457
4.779866 131.7396 -10.82689
12.34592 122.0383 0.679608
12.9535 124.1311 0.980844
8.555806 124.7811 -6.409578
11.88523 119.4466 -0.1740677
12.30021 115.8599 1.520199
12.96917 112.4925 -0.6557394
12.52418 114.4626 0.5552236
8.031535 113.3743 -4.773144
0.8835453 118.3235 -7.217257
1.487257 116.1638 -5.722328
6.91573 127.6773 -8.639016
1.362023 123.8581 -7.672573
12.11142 122.1894 -0.08659422
11.50165 125.545 -4.009652
12.28111 116.7683 2.378141
12.41817 120.0024 1.022115
10.12223 113.2473 -3.767729
0.5749912 120.3945 -6.29729
4.874872 115.5132 -5.410584
3.115783 115.2152 -5.689351
5.669713 128.3459 -9.240186
9.444654 120.8176 -3.710047
2.858312 121.6221 -6.924066
11.9721 113.9599 -1.344242
4.858394 114.9539 -5.422647
5.115629 116.5451 -5.378224
6.381102 117.5716 -5.014306
7.038334 118.3624 -5.729115
6.173866 117.3571 -5.074914
5.057654 128.8429 -9.549583
5.594237 129.3787 -9.74935
6.030619 129.166 -9.594316
3.039594 124.2209 -7.863802
10.12136 114.9336 -3.163481
3.857496 120.6131 -6.496149
9.656993 115.8054 -3.273004
6.569324 127.3125 -8.547064
5.108431 126.9662 -8.694274
7.879341 127.5787 -8.259129
8.163973 116.8169 -4.135638
8.756151 115.522 -3.943927
7.016479 126.753 -8.125854
8.636405 125.5601 -6.806684
10.89598 128.4972 -6.982817
9.205356 129.4898 -8.681598
10.4232 129.815 -8.139853
12.67782 126.058 -1.892813
10.67469 130.5409 -8.389647
10.24792 117.0738 -2.477364
7.107418 117.7368 -4.721545
8.50646 118.8586 -5.238935
9.280105 118.5116 -3.405396
7.178704 119.7901 -5.867662
5.762146 119.3818 -6.58585
8.810302 118.8783 -5.206386
10.994 119.5194 -2.69618
4.637308 122.2126 -6.882143
5.622386 124.0781 -7.328405
7.44559 125.4446 -7.289194
7.82962 124.8406 -6.843344
11.94887 125.3979 -3.0366
10.62834 124.6579 -4.560211
11.58899 124.5667 -3.046637
9.714813 126.7014 -6.80447
6.937311 122.0786 -5.982006
7.065376 120.0481 -5.165236
3.790998 119.4657 -6.299706
7.96622 119.8658 -4.838364
12.2282 119.8481 -0.05666577
11.28002 118.5436 -0.6628508
3.685812 124.9873 -8.090987
8.711841 123.1808 -5.44001
10.14248 122.5636 -3.779799
6.31848 122.6628 -6.512521
6.547756 121.6942 -6.002099
11.30993 122.889 -2.275517
9.327383 119.7078 -3.903017
8.85784 122.0357 -4.767061
9.925309 116.0702 -3.013962
-0.3297462 116.3015 -5.656706
-0.3575711 119.392 -6.692364
-0.6194798 125.2462 -8.421853
-5.685069 113.2202 -5.472692
-13.38122 127.0421 -0.4376564
0.3714218 125.0635 -8.28438
-5.651125 130.3206 -10.17806
-5.563192 120.9501 -6.136501
0.4657468 122.1789 -7.172395
-8.547873 131.7666 -10.09907
-1.171586 113.4621 -5.797695
-8.486192 112.5741 -4.917929
-12.77106 113.3923 0.02719844
-12.27228 123.579 -0.7096447
-12.03559 116.8979 1.117299
-11.29451 117.864 -0.7291103
-13.12188 124.8149 1.017073
-11.59453 130.9717 -7.899525
-8.589682 125.3448 -6.708869
-0.5002961 122.6282 -7.341326
-12.11471 124.6025 -1.997676
-13.16959 126.1825 -0.4325113
-12.42008 122.8697 0.2775002
-10.63748 123.6359 -3.824509
-12.34513 112.6766 -1.756671
-12.46036 113.6838 -0.6037773
-12.67842 113.7649 0.2190887
-10.43087 131.8011 -9.201785
-9.984481 131.7396 -9.42315
-9.114832 125.5998 -6.558389
-12.21508 125.8958 -2.893319
-11.82448 123.7385 -1.87025
-10.18598 126.1891 -6.069894
-11.45338 121.9509 -1.373425
-1.455868 119.26 -6.664329
-1.127337 116.7306 -5.637198
-2.698207 112.594 -5.917334
-3.567184 113.0102 -5.854356
-3.224189 130.3788 -10.27752
-2.06676 127.775 -9.180339
-9.877317 115.1132 -3.192607
-12.19089 119.4897 1.558813
-11.40334 117.9494 -0.4673379
-9.588255 130.2477 -8.874304
-8.097651 126.5229 -7.591762
-11.90595 120.6457 0.04558181
-12.30774 121.7375 0.7808881
-2.637147 118.6997 -6.899398
-4.76363 116.9296 -5.51042
-1.917718 114.1764 -5.732228
-1.975151 129.8565 -10.04506
-0.09193045 123.4025 -7.513102
-0.3097486 127.1187 -8.85854
-7.746668 116.7719 -4.35362
-11.8645 118.3671 0.7708676
-11.83814 114.1625 -1.474138
-11.34377 129.3217 -7.127153
-9.597852 124.3949 -5.437638
-9.752575 126.5352 -6.667867
-11.25281 123.9597 -3.129438
-11.77035 121.8297 -0.6789175
0.1543057 119.4737 -6.77781
-1.078798 121.4239 -6.819764
-2.710138 116.5939 -5.821236
-4.455823 119.0037 -6.847564
-3.214596 118.7069 -7.219274
-5.442903 112.7709 -5.636024
-4.242058 132.0968 -10.97915
-7.234766 132.0214 -10.62465
-3.763191 123.4627 -7.495914
-8.887941 114.5624 -4.071591
-11.46806 119.1728 -1.350435
-11.42 116.6864 -0.813885
-10.72292 119.3973 -2.523325
-6.632079 126.0643 -7.909328
-8.0585 125.2105 -6.915897
-10.14227 124.718 -5.176681
-1.997448 120.8451 -6.67309
-4.958486 119.0513 -6.48808
-5.658393 117.9725 -5.456609
-5.901623 114.2433 -5.249007
-7.908925 113.8593 -4.70889
-0.6574579 131.1774 -10.61859
-0.2546881 129.6031 -9.935244
-4.348812 124.6296 -7.859653
-5.24064 126.294 -8.3637
-10.22376 117.0084 -2.490541
-7.235224 114.8904 -4.719254
-9.066917 117.1604 -3.560946
-8.152489 118.2175 -4.924376
-5.483855 123.2688 -7.046235
-8.681969 116.3313 -3.872842
-9.992749 118.1288 -2.806221
-12.32507 126.315 -3.000635
-7.745902 130.3628 -9.74326
-8.492647 130.3162 -9.440753
-6.141441 128.0152 -9.006441
-9.86325 128.229 -7.612101
-4.01676 130.1755 -10.18458
-2.872705 130.0502 -10.13039
-4.737331 127.4553 -8.958778
-5.273666 127.4558 -8.889441
-9.064389 118.5256 -4.62547
-9.96019 118.6429 -3.557677
-8.335833 118.6728 -4.539185
-10.39023 120.9997 -2.674771
-9.224146 122.1577 -4.513329
-10.08373 119.6958 -2.666597
-8.399822 122.3059 -5.199711
-11.14728 122.7819 -2.507735
-9.133748 124.4246 -5.816576
-9.196977 121.8679 -4.37265
-6.764752 122.0575 -6.062611
-3.118763 120.9721 -6.691028
-6.835277 120.5931 -5.463807
-6.560946 120.5127 -5.57786
-6.302076 119.3439 -5.38425
4.079259 109.0514 -7.005164
13.92187 110.0073 -1.081364
12.04724 110.67 -3.606643
2.776131 109.0992 -7.051504
13.44268 111.767 -0.2263159
13.15177 111.2585 -1.677154
12.39104 111.9465 -2.30342
2.901326 109.7774 -6.770221
9.686694 111.3883 -4.923612
8.894986 111.6473 -5.149854
2.022388 111.1304 -6.285085
12.15715 109.6523 -4.125769
13.60323 110.0768 -1.821168
8.633248 109.814 -6.010828
9.993 111.8064 -4.551676
5.340615 109.5744 -6.633376
7.416768 111.5883 -5.604028
2.265724 108.983 -7.118081
19.60704 63.69602 0.3291042
19.76376 65.96507 -0.9013522
20.03498 68.94192 -0.2943423
19.71451 84.16235 -3.133108
19.59018 89.72078 0.6670729
9.869897 63.09344 -8.686758
3.983407 103.6636 -10.02568
8.194433 89.65232 -12.04314
19.28827 64.92001 -2.795712
3.084153 99.74578 -11.73899
16.28417 103.6883 -0.1493571
20.18423 85.98732 -0.4558331
1.178057 73.65168 -9.424391
3.867441 62.82756 -10.95657
17.42916 98.42368 -0.312805
16.63426 102.9712 1.06396
2.90147 63.80281 -10.23365
1.779378 66.28959 -9.377009
15.38945 107.0255 0.2201596
1.632373 66.07676 -9.249661
1.110174 62.60218 -8.691641
20.0158 73.21427 -1.931865
0.5504504 90.29632 -12.27071
0.5417306 88.25559 -11.64098
1.776218 63.80619 -9.238483
18.8891 79.11377 -4.850214
6.534805 96.92071 -12.46561
0.8323743 81.0178 -9.977646
19.31651 76.90442 -4.132025
4.203117 97.17564 -12.4442
2.846264 107.4358 -7.976814
9.273472 107.615 -6.879436
17.26013 97.83768 -1.938672
4.337088 108.7651 -7.186462
7.074629 102.9055 -10.28716
2.135061 92.95567 -12.71163
2.262204 103.1781 -10.26969
19.411 62.53062 -1.5984
0.812562 103.8776 -9.895645
9.07427 62.78323 -8.902218
4.756725 106.9883 -8.03783
17.57186 62.89037 -6.036627
18.52104 62.90063 -4.300225
1.971996 72.77984 -9.852658
17.67785 89.2377 -5.744566
6.866798 92.88519 -12.73945
15.02061 104.9275 -2.750685
16.53709 103.5849 1.485245
14.29342 107.3897 -2.54039
15.59413 106.7355 0.8629626
3.853565 63.03136 -10.91811
6.552832 63.35012 -10.59438
2.613886 68.9721 -10.15248
8.730197 104.4424 -8.961776
2.77213 101.5037 -11.06426
20.3098 74.35416 -0.7163754
20.43859 76.36163 -0.4866506
19.92434 66.61926 0.04849283
15.7597 63.10156 -8.47784
10.13167 64.92012 -8.718265
3.862474 80.70683 -9.87105
20.13814 86.55234 -0.1270569
17.97366 93.69488 -3.219334
1.887568 96.68696 -12.502
2.083704 84.71951 -10.54846
14.3547 109.1053 -0.9921195
10.92577 109.1535 -5.326532
15.93946 103.2274 -1.808047
8.322583 64.62416 -9.260218
3.348518 73.58631 -10.32569
6.613187 107.7281 -7.384559
1.055 101.5554 -11.03477
20.25183 71.61341 0.2629158
20.57732 77.38431 0.9537547
17.87282 63.07561 -5.525336
15.62641 64.9221 -8.448605
1.487141 80.14221 -9.912246
2.045782 80.30274 -9.915046
0.7278097 86.6685 -11.11806
19.64395 85.14548 -3.068678
20.19338 81.34484 -2.148211
20.59698 78.01635 0.5653999
3.296718 92.04459 -12.64541
18.25711 94.0116 -1.655527
14.14019 107.5724 -2.682825
15.29822 106.3847 -0.8838502
14.40755 105.9584 -3.234218
13.71491 105.5832 -4.500702
15.24855 103.7937 -3.05532
7.634521 108.1741 -6.966113
11.49325 64.01247 -8.741486
1.288287 75.32104 -9.619086
1.872862 69.31967 -9.621737
4.734293 97.68481 -12.34936
3.319212 101.8411 -10.92852
19.57714 71.26569 -3.101268
19.47544 64.86971 -2.093867
18.91274 65.11614 -3.846949
15.37182 63.58583 -8.65394
13.01793 64.54139 -9.054834
0.63456 77.23138 -9.580261
1.678868 82.12106 -10.08528
4.562155 80.81912 -9.832644
7.756122 86.42035 -10.78735
20.45499 82.79485 -0.7867105
19.06898 88.16732 -3.448199
20.54965 82.65926 -0.09267255
20.31144 79.59606 -1.708536
20.02459 79.77902 -2.628843
20.17941 81.68249 -2.182792
20.27076 81.67571 -1.82382
6.099006 89.13062 -12.01215
17.58179 97.84834 0.719103
18.10633 94.68967 -1.441128
17.03273 100.3699 -0.2875901
15.18303 106.3194 -1.284332
13.22385 106.8103 -4.47932
8.066343 109.0636 -6.441067
7.809586 64.45768 -9.602793
7.945883 67.75289 -9.416065
3.099731 74.80298 -10.1783
2.879787 69.73921 -10.30498
2.686069 67.72717 -10.15735
3.817108 99.4308 -11.85413
3.266039 96.36793 -12.56869
8.003001 96.85757 -12.23218
3.920554 79.13987 -9.813103
2.799886 78.38336 -9.89821
8.919366 77.00492 -9.27316
4.201993 86.40369 -10.97331
4.086182 84.64745 -10.46243
20.41503 82.40741 -1.098249
20.00864 86.68227 -1.067939
19.08782 91.78576 0.4561305
18.65588 93.34103 0.9809431
19.63753 81.67065 -3.563772
3.817402 93.84353 -12.78807
3.859568 93.22218 -12.76853
2.747103 91.12083 -12.47696
17.22086 99.99714 0.4704266
13.41941 102.5819 -6.54873
11.72455 107.0922 -5.789289
6.727012 95.18334 -12.70239
20.39221 78.77818 -1.321166
7.26708 72.75143 -9.596327
4.505724 78.89977 -9.773783
5.096284 85.43556 -10.6233
10.38919 77.99695 -9.093379
19.02855 89.798 -2.786244
18.84349 92.23347 -1.099304
18.99366 92.02499 -0.1654215
17.58123 83.65825 -6.293662
15.53517 102.451 -3.385995
4.589064 95.02621 -12.77016
19.22909 74.72067 -4.224036
19.65725 73.94847 -3.209988
19.18939 72.37178 -4.186984
18.56258 74.87179 -5.355997
20.43347 78.30466 -0.9943798
4.513665 88.02009 -11.55609
6.161643 83.61191 -10.07819
7.936784 85.47102 -10.38985
8.665596 80.78734 -9.421255
17.56941 92.14174 -5.099413
18.92916 77.27554 -4.801818
5.843044 91.60931 -12.66424
5.550791 89.6585 -12.17012
2.346733 88.97638 -11.8815
15.28379 103.5205 -3.170482
20.09039 70.5257 -0.6995508
8.196384 90.27776 -12.20741
7.666113 87.08802 -11.09779
17.45 89.93172 -5.964596
17.09447 94.56329 -4.860933
14.33329 104.2993 -4.398627
15.62563 100.4028 -4.411492
14.95721 101.6567 -4.936223
15.78898 100.0199 -4.29917
19.90582 73.31477 -2.360927
18.19787 90.61816 -4.443242
14.44161 100.1505 -6.481476
13.89544 100.7605 -6.906338
12.49307 101.1543 -8.194999
15.99257 100.5587 -3.559276
16.92263 97.90644 -3.045331
17.09488 98.11509 -2.324513
18.35823 72.53204 -5.613462
18.83066 74.04377 -4.933114
17.80829 91.45251 -4.93691
16.4932 97.63233 -4.297146
17.87444 94.92866 -2.371768
17.16017 95.1384 -4.407514
16.65018 95.60228 -5.219934
16.32995 74.18421 -7.50668
16.12679 75.2859 -7.625316
15.64131 97.48125 -6.063699
14.2531 100.8047 -6.417628
2.94729 106.361 -8.523811
2.21144 106.3976 -8.513503
2.304649 64.63916 -9.755809
6.35645 65.50513 -10.60268
5.964712 69.82964 -10.38359
5.397926 67.13593 -10.88599
8.956012 67.89946 -8.971572
8.248225 68.73368 -9.227771
5.583438 71.46044 -10.40002
6.442078 73.28848 -9.864258
6.267898 71.78521 -10.07671
6.08529 74.27795 -9.890928
7.181757 72.2041 -9.643027
8.275338 75.00347 -9.316748
10.53447 77.30395 -9.06706
9.545689 69.32609 -8.895328
4.41055 71.07199 -10.60389
7.247995 74.78857 -9.491238
6.052714 75.98602 -9.717117
4.263412 79.34703 -9.797384
6.332307 79.39997 -9.618795
7.388262 81.05199 -9.605447
6.997837 78.1962 -9.514048
7.788908 82.25046 -9.689671
1.940952 65.30492 -9.464866
3.831819 102.9472 -10.40385
1.817945 103.3952 -10.15489
9.134146 101.7699 -10.17321
5.779067 100.4497 -11.52719
6.683083 105.9494 -8.552247
8.813207 106.7437 -7.534244
5.373108 104.8189 -9.383589
6.643363 106.7882 -7.969838
8.55638 103.5168 -9.557574
11.62846 100.1355 -9.361097
12.1796 103.2395 -7.448157
10.93902 103.7866 -8.110442
8.329957 102.5632 -10.13491
7.714483 103.4588 -9.824507
7.03157 98.60144 -12.00096
12.4446 104.1582 -6.707788
7.878277 102.2477 -10.42096
12.91349 98.83636 -8.818662
8.363276 100.865 -10.88448
7.891853 99.6284 -11.49665
9.437177 100.2762 -10.67399
10.90358 100.4361 -9.797447
6.678014 98.59861 -12.0354
19.55734 68.47788 -2.749483
19.57064 68.84365 -2.773112
16.53492 66.92514 -7.537928
18.49865 68.53405 -5.071159
17.56284 65.27348 -6.240425
17.78575 66.27814 -5.955542
15.04489 66.5127 -8.596262
14.0604 65.67366 -8.998219
12.84901 66.84325 -8.980413
15.97723 69.44685 -7.831057
4.376032 71.66238 -10.55552
8.515882 66.54105 -9.127732
5.268178 79.98067 -9.735702
17.93723 85.60451 -5.829282
19.66634 83.88589 -3.292571
17.1608 80.59146 -6.702277
18.47034 79.59564 -5.391293
9.226787 93.93581 -12.27816
3.502133 91.46509 -12.56091
6.031581 91.48264 -12.64956
9.644553 96.75941 -11.69368
19.39081 87.66081 -2.821768
17.78513 86.53547 -5.943472
18.58993 84.43709 -5.083459
18.062 83.95205 -5.782282
18.21289 86.43757 -5.396335
17.42078 86.70242 -6.353732
18.74195 89.00406 -3.895442
13.40493 84.58526 -8.880817
18.83567 68.92155 -4.578144
18.04523 69.16285 -5.808197
17.93046 70.18125 -6.058579
15.5353 71.14352 -7.977423
11.33444 96.38614 -10.86958
14.43639 95.20142 -8.578992
12.05646 97.11286 -10.15243
11.80261 95.86277 -10.68048
12.16874 95.44721 -10.557
10.91915 95.14867 -11.41641
7.003219 96.98547 -12.3939
10.73944 92.00747 -11.6989
9.405961 90.48634 -11.97871
8.266894 91.52319 -12.40768
9.595413 97.92136 -11.38767
8.966719 96.51529 -12.01641
11.78837 88.60812 -10.72754
14.35403 82.45458 -8.243688
10.1183 88.49386 -11.30797
8.345741 86.65629 -10.85023
12.19318 84.39117 -9.211211
9.60049 92.64647 -12.17211
9.876071 91.68721 -12.00523
12.57185 93.36444 -10.63441
12.18473 89.67817 -10.76614
11.77487 83.30777 -9.093336
11.64241 94.28613 -11.13614
12.94535 94.20856 -10.21068
13.17972 95.23504 -9.794894
14.34309 98.07248 -7.587378
13.12643 89.07643 -10.12754
17.32921 90.56676 -6.02993
13.21876 96.14444 -9.489117
14.7668 91.93795 -8.950846
16.98477 94.81686 -4.95094
16.62796 92.19161 -6.674998
9.814232 82.36417 -9.375251
15.39357 90.5517 -8.431018
17.11497 92.90222 -5.613764
14.89214 92.56369 -8.734278
7.989824 82.77666 -9.724869
13.90706 91.57747 -9.74253
15.18031 93.33525 -8.243916
13.95949 90.72862 -9.712305
14.58499 88.88628 -9.083206
14.11323 87.09194 -9.107013
13.11192 85.94444 -9.364915
10.97042 86.22005 -10.18094
15.42079 85.86404 -8.070323
13.18282 85.71848 -9.270666
13.26311 81.77092 -8.489498
14.8444 84.95913 -8.324409
16.16021 85.24867 -7.49228
15.73833 83.25183 -7.677285
3.463021 65.194 -10.66271
8.867207 68.1968 -9.00001
9.909346 76.75227 -9.14898
10.91041 72.71617 -8.958626
12.02523 73.3168 -8.856436
6.394732 103.6046 -10.01217
12.48699 65.85957 -8.937993
10.9875 70.59106 -8.885046
16.10413 73.2943 -7.698296
16.06701 77.58306 -7.540253
17.76567 81.23846 -6.179199
15.56128 78.84681 -7.730465
12.07222 79.81897 -8.754225
13.02215 79.25735 -8.538193
13.91925 80.04549 -8.28361
12.83434 77.32005 -8.691076
18.0632 80.15765 -5.88885
13.9338 79.12743 -8.302114
14.85465 78.44218 -8.055255
15.48514 76.94553 -7.891036
15.99108 76.11456 -7.674213
13.09793 74.63239 -8.729704
10.90761 78.71396 -9.010237
14.67513 77.90752 -8.163856
11.03313 76.07944 -8.996628
18.56118 71.75141 -5.306788
16.59737 71.63358 -7.360107
15.24617 69.61916 -8.230464
13.38982 70.76399 -8.740948
11.65621 69.88852 -8.895767
14.61024 72.6412 -8.364538
14.14454 70.41859 -8.584615
14.47271 75.59974 -8.393257
15.84309 74.79823 -7.793155
15.45571 91.32736 -8.313358
9.52427 71.66399 -9.014269
10.30713 70.05768 -8.866711
11.63206 73.64535 -8.905278
9.341427 70.76692 -8.986718
-0.2523289 109.1646 -7.027791
-6.788986 109.333 -6.53869
-7.709386 109.7539 -6.212065
0.439127 110.0079 -6.686174
-0.1650284 111.7276 -6.127491
-4.361825 109.4226 -6.819323
-8.947401 110.6924 -5.540679
-14.53039 109.2828 -0.2023548
-2.370253 109.9185 -6.667931
-5.825483 109.1524 -6.731862
-12.12786 111.7401 -2.83005
-1.917049 110.6992 -6.407857
-10.36473 110.419 -5.036644
-9.715056 109.7891 -5.659236
-10.84787 109.386 -5.238139
-12.58194 109.6029 -3.716693
-10.47075 111.3354 -4.522892
-12.41201 112.2589 -1.953042
-13.36555 110.3713 -2.010228
-3.01934 108.8291 -7.183943
0.4001966 65.81169 -8.551203
-8.672787 107.3783 -7.181869
0.316413 70.3403 -8.864492
-2.159006 105.5855 -8.932996
-1.561634 104.0632 -9.786427
0.1310723 77.99232 -9.65455
-0.1390809 83.93843 -10.40169
-3.933478 105.3557 -9.0579
-0.03623064 105.3715 -9.052871
-0.1713839 90.70132 -12.35982
-1.30001 100.6529 -11.40733
-7.520376 109.054 -6.546783
-0.0489402 93.52734 -12.73542
-2.127636 104.253 -9.684212
-1.213276 105.5846 -8.940948
-3.466981 106.4546 -8.441415
-2.768296 73.81161 -10.00088
0.2498086 106.7378 -8.349904
-8.208271 107.0785 -7.48597
-13.50249 63.90054 -8.949973
-19.73349 74.43915 -3.073885
0.3514687 103.314 -10.19175
-3.583715 104.1025 -9.773028
-19.92323 71.2028 -1.924594
-6.71043 108.2881 -7.303337
-20.3042 80.24673 -1.746152
-20.48433 79.61834 -0.8792251
-19.53628 62.93372 -0.8311324
-9.941585 108.6305 -6.055548
-1.034702 69.3944 -8.960449
-0.09583681 65.56571 -8.474916
-14.22207 108.8094 -1.647417
-1.528932 106.76 -8.363008
-18.76503 92.30164 -1.400117
-4.432812 101.9243 -10.88934
-16.90049 101.4436 0.2389865
-18.91964 87.56436 -3.974077
-5.788999 92.86886 -12.80158
-7.357928 64.7507 -10.07284
-8.394912 107.9812 -6.895504
-0.5513816 103.8066 -9.925159
-2.543769 108.1581 -7.835774
-1.998831 67.63734 -9.411974
-4.422282 65.49091 -10.95006
-2.777894 70.64924 -10.05446
-20.48879 82.18083 -0.738695
-18.02787 81.25065 -5.920897
-19.01398 86.68221 -4.03108
-3.322868 97.97179 -12.23652
-14.64425 69.25198 -8.357609
-20.2388 73.68262 -0.9898398
-19.74012 65.4248 -0.9942288
-19.84877 67.88619 -1.23227
-17.20996 96.91518 -2.889539
-8.561476 108.5948 -6.63399
-6.361619 106.4126 -8.266882
-1.82775 101.0949 -11.22635
-1.890976 99.31992 -11.86317
-5.292291 63.96154 -11.1842
-1.452217 77.06855 -9.609651
-1.227565 71.45387 -9.118298
-11.01627 64.50703 -8.64476
-19.83418 77.10065 -2.999247
-17.17978 75.23756 -6.878915
-0.7508599 81.81545 -10.07103
-17.80067 92.77193 -4.306564
0.4291015 95.76624 -12.62879
-15.7775 63.53743 -7.879322
-20.08893 69.69498 -0.2807764
-19.84006 74.04292 -2.712879
-17.8423 64.28929 -5.40659
-19.70705 67.3049 -1.833777
-19.03554 65.01773 -3.53795
-15.81715 105.1019 -0.4590406
-16.27071 99.84972 -3.347212
-15.50997 105.2384 -1.260903
-11.32323 108.4762 -5.344988
-12.89852 108.2843 -4.002924
-5.95611 106.6149 -8.188317
-2.624389 96.79047 -12.48968
-7.7271 97.11903 -12.2183
-4.36042 102.8256 -10.4499
-6.296487 106.2211 -8.406914
-3.529526 104.9119 -9.31181
-2.515713 103.2131 -10.24902
-2.505059 66.85507 -9.802792
-1.582689 79.52496 -9.887972
-1.434427 73.92389 -9.339551
-7.786319 64.81464 -9.72972
-11.7464 65.30289 -8.745282
-20.14065 83.85727 -1.907759
-20.18137 86.23943 -0.2711996
-19.45824 85.01785 -3.525054
-19.68398 88.01119 -1.628095
-19.73132 88.80636 -0.4435413
-3.196317 86.65405 -11.09394
-0.01127803 92.14795 -12.62451
-17.86183 95.71231 -1.317825
-18.50869 93.71059 -0.18727
-0.9863113 94.92059 -12.70197
-1.680325 94.28867 -12.73957
-12.2013 64.10336 -8.790137
-19.72722 69.32726 -2.292001
-20.31864 73.92092 -0.4810829
-17.9651 67.46759 -5.710242
