# .PCD v0.7 - Point Cloud Data file format
VERSION 0.7
FIELDS x y z
SIZE 4 4 4
TYPE F F F
COUNT 1 1 1
WIDTH 1665
HEIGHT 1
VIEWPOINT 0 0 0 1 0 0 0
POINTS 1665
DATA ascii
-18.27412 48.91068 13.08272
-19.26251 94.50079 0.9664508
-13.55589 48.59594 11.12297
-3.492158 46.26005 10.4425
2.150015 47.32118 10.52029
21.22767 90.14164 1.583281
22.58945 84.90429 1.431279
-12.96548 131.202 11.26343
-11.55741 137.8274 9.585435
14.81393 49.62206 12.52493
7.72242 47.48558 10.10116
22.09667 74.44418 0.8460919
22.37442 49.62277 3.996117
19.60565 48.39872 9.976181
20.33464 66.44282 2.316847
23.82032 62.60786 0.4081537
28.18113 51.05137 1.634219
27.08326 50.72384 3.208894
24.11579 49.87877 3.707234
11.4264 132.9862 12.78141
5.504873 140.4916 9.181369
13.53365 126.3462 4.177584
12.98307 129.9879 10.57948
-16.64182 103.9956 2.316354
-19.4115 97.44956 1.871661
-13.57386 111.1229 5.042484
-9.803942 119.5055 9.652459
-10.95947 114.5098 7.912201
-13.02965 123.132 2.795982
12.88339 111.3613 6.382242
16.23553 104.9446 2.686224
-26.25172 50.92836 -3.084583
-21.1936 81.51173 0.8925368
-21.80365 70.54591 0.8567676
-22.62136 72.48376 -1.178593
-21.46948 77.79417 1.026261
-21.63044 67.96475 1.698027
-23.56989 65.39618 -2.041983
-21.86159 53.20716 2.855461
-20.5652 49.42029 7.599403
-20.41011 50.86206 7.062975
-19.14917 52.83915 12.82205
-15.34173 51.30546 11.8838
-19.9149 89.98433 1.277301
-20.02098 92.75269 2.426666
-22.1671 85.49704 0.1588771
-13.94096 48.02561 11.31608
-13.13717 49.21529 10.9337
-12.33033 47.30045 10.71819
-0.4712604 45.94333 10.53782
3.214368 47.42538 10.4305
19.19038 97.19209 1.600262
20.97365 89.88557 1.359803
18.97284 98.22537 2.551093
-11.7327 132.4706 12.56795
-10.3281 138.4145 9.994186
14.63519 49.04132 12.45299
13.82161 47.27091 12.03087
10.13628 49.33134 10.26796
10.5302 50.48888 10.33548
7.852657 47.1851 10.11315
22.97287 79.92984 1.006386
23.11476 77.15919 0.8071464
23.33094 75.97849 3.202124
22.74114 76.32327 3.453442
21.85331 75.20463 0.9848151
21.45505 69.68152 1.742676
21.57917 51.70163 4.248278
19.49774 49.59152 7.255365
21.06856 55.41621 4.507184
19.6216 48.77198 10.26967
22.15832 69.12722 1.136651
23.24883 50.03497 3.838742
8.716533 136.6977 12.25945
16.46134 103.0727 4.23988
-23.14481 51.39576 -1.19611
-20.7871 82.19121 1.684937
-22.15797 65.93931 0.2451883
-22.79936 62.3403 -1.461947
-25.05782 55.8703 1.246532
-20.92738 50.77037 8.85052
-19.97686 90.88351 2.816017
-19.03634 94.2592 3.072556
-19.39442 93.64008 2.855974
-21.17889 86.39641 0.1801617
-15.56084 52.00601 11.96772
-2.231915 49.35106 10.70698
9.641337 51.26992 10.1047
4.775641 51.01994 10.31698
-1.361225 55.37067 11.05621
19.93241 96.12302 2.386542
21.01452 91.86868 2.621003
18.30424 96.85267 4.023903
20.91775 86.13404 1.860712
-8.455137 139.4369 9.905247
21.1972 80.13454 1.775446
23.47291 72.34822 0.4131925
23.83936 72.08759 0.5662007
20.56323 84.65938 2.36769
22.97985 83.86254 1.850834
22.79631 83.4263 1.397396
19.46936 49.23676 7.67952
19.52197 53.4198 7.022973
17.54806 51.00303 13.78227
23.89627 63.73333 0.3854353
4.366731 137.9519 10.90116
7.678563 139.684 9.81134
15.99511 104.7177 4.34047
17.0672 102.6846 2.865044
-23.55216 53.01356 -1.970773
-21.05253 53.10563 3.589656
-21.81189 57.26877 2.898535
-25.44431 53.6932 1.128523
-22.50395 53.68977 2.476462
-21.31911 88.09721 2.022169
-14.57161 53.14465 11.4433
-15.5085 50.73937 11.97628
10.19704 50.87184 10.23822
2.058845 47.96087 10.55909
20.6805 89.86739 3.610343
21.86819 88.37629 2.07133
23.63783 70.84138 0.3520228
23.3051 66.47721 0.4900947
19.91274 82.59732 4.993242
18.84875 52.08847 12.6709
4.507624 138.9698 10.11275
-22.9693 66.67001 -1.740988
-20.43269 55.79407 4.462967
-18.88998 98.60889 1.987486
-21.64255 82.98908 -0.2360745
-22.20251 84.91317 1.49329
-13.85592 52.44142 11.13386
-15.01701 54.88071 11.59256
-18.50837 53.55993 12.79359
-20.19614 56.41015 11.81168
-21.11254 52.55048 9.923695
7.921055 50.57145 9.99614
21.20167 88.27708 3.497333
18.04092 94.2868 5.202843
17.50739 94.59849 6.008147
18.63091 90.46352 5.558681
-8.462881 135.9479 12.87626
-8.897587 136.322 12.54353
23.23045 68.42386 0.4165748
24.25484 74.3 1.314371
22.33266 79.53853 3.499903
21.19173 62.13181 2.012215
24.3435 61.89846 0.2054703
-23.19168 61.45427 -2.125743
-22.0493 71.31886 -0.6201923
-21.48645 56.83984 3.103515
-21.97107 81.36076 -0.3320775
-22.92077 79.85654 -0.4685855
-21.30081 86.43999 2.171144
5.957629 50.00901 10.14739
19.10595 94.92267 3.761938
-3.161738 137.3042 11.00499
24.92874 72.14059 2.216842
24.16321 56.73742 0.4721748
-23.35557 67.85297 -1.95364
-24.25845 69.97488 -1.119532
-23.58944 67.60484 -1.975698
-21.44943 84.7226 2.164026
-0.7092347 51.88837 10.90386
-8.548194 134.631 13.52288
22.94812 55.94254 1.134376
-24.33979 61.98696 -2.387477
-23.15113 80.98027 0.05962734
-3.143281 52.75061 10.78805
25.61733 52.62321 0.2045866
-20.2859 82.39567 3.858971
-3.041886 50.22865 10.69541
-23.25773 60.43795 2.143823
-20.66766 82.40551 3.17127
-22.03496 76.42348 2.310629
-4.234035 51.40642 10.58957
-23.63198 59.45149 1.979972
-23.20343 59.69437 2.177553
-19.93055 81.81865 4.91053
-20.21569 83.58743 3.897814
6.23487 153.7081 -3.756287
-11.80846 122.0278 7.925716
-10.31514 120.208 9.316533
-11.9838 123.8565 7.873733
11.99395 118.095 6.399172
-5.412194 138.3646 10.76164
1.400941 136.3325 12.65962
4.733158 137.0785 11.76827
7.637025 137.6433 11.592
5.456875 135.4605 13.08316
7.397357 133.9149 13.73743
10.16003 133.6178 13.33929
7.878711 133.9461 13.70195
9.029428 133.4724 13.69364
11.06146 134.7997 12.58485
9.900248 132.8829 13.51635
9.723248 129.4892 12.62352
8.716259 130.3926 13.34265
5.197055 129.6639 13.03296
11.28545 127.9076 10.31038
-12.98171 124.8843 6.023896
-12.60109 125.5096 7.042514
-9.047355 129.1838 12.61794
25.96983 52.98339 0.1584806
26.82102 55.35998 0.4333768
27.56034 54.27203 1.339251
25.24301 58.59094 0.1116245
26.99585 52.41866 3.105442
26.76551 54.19619 3.191601
27.12432 57.15329 1.167385
22.25815 54.62239 1.497698
23.55774 52.90475 3.831403
20.00608 55.07267 5.598613
21.63018 57.64535 4.15074
21.4716 57.42579 4.224921
20.20679 56.43835 5.234487
23.22922 57.08477 3.783695
19.21857 56.79221 8.692371
-15.06412 107.0948 5.137034
-14.36851 102.7211 7.796238
-13.44655 107.4828 7.749462
-12.77731 105.7587 8.685847
-16.9909 102.4975 2.840904
12.5976 109.6216 7.767467
9.568869 108.7709 10.01541
12.36018 114.5472 5.561401
8.352106 111.2456 10.08268
12.13288 116.0936 5.672651
11.06019 117.183 7.960347
8.542263 110.1346 10.21857
7.907355 110.5374 10.43675
7.956583 115.8754 10.09365
-23.59737 57.08128 -2.299637
-25.42639 53.89985 -3.002188
-24.53333 54.34973 -2.967769
-24.3017 56.14734 -2.845341
-25.98805 56.97513 0.2503665
-26.49013 54.98934 -0.4615738
24.98221 50.88794 3.652865
11.61211 122.474 8.249005
11.4921 126.3731 8.513486
9.606822 123.8809 10.12364
10.39651 124.4777 9.483915
9.481805 127.5752 11.0664
5.761031 127.9398 11.76092
-6.045805 116.918 11.03523
-24.42697 71.18136 0.2627459
-21.79893 76.92137 0.2883886
-22.57328 78.65092 -0.9954721
-20.33997 52.42558 6.857995
-20.17895 54.58203 5.605447
-6.894025 46.82739 10.17406
-4.331723 50.5374 10.54625
0.5752053 48.92602 10.70679
8.454911 53.6068 9.940158
11.39143 52.31895 10.49895
9.396442 54.86732 9.954576
5.767606 55.38034 10.16652
-22.44986 80.2923 -0.8519932
-17.10042 89.66316 8.187169
21.507 88.14474 3.262607
19.49275 86.74663 5.169249
19.99871 84.00064 4.713796
18.68869 84.82219 7.142893
18.75542 83.55457 7.24369
19.05642 82.48446 6.766656
16.79788 80.46386 10.14063
18.50201 84.92396 7.441133
19.01724 87.21053 6.005368
17.31405 85.18958 8.918001
17.65293 84.60429 8.717041
12.90397 84.18797 10.31483
18.14754 86.32768 7.682476
14.29836 80.26246 10.68556
15.00164 78.21426 10.85769
18.93936 52.67641 12.43126
25.6688 65.6362 1.197791
13.74193 102.5974 8.290417
15.04311 100.3156 7.732869
16.7017 99.08986 5.739309
16.17767 95.52447 7.641652
-15.60449 98.57832 7.557761
-16.21229 102.4799 5.195766
-7.019901 51.08342 10.17739
-11.74661 51.04563 10.40296
-8.606362 54.5103 10.00901
-13.14731 55.69395 10.72354
-14.22878 57.30005 11.11015
-15.17031 57.5028 11.54464
19.47865 80.35397 5.94452
20.1006 79.02862 4.991289
-18.29088 56.91455 12.51379
13.82766 98.33456 8.861109
16.79739 96.25152 6.657236
15.67658 94.76939 8.257018
17.29225 91.47224 7.429434
-7.459584 132.313 13.88675
-20.13048 85.74277 3.646287
22.67502 77.84923 3.415751
21.11625 76.91936 4.219398
22.8351 72.04372 3.537407
19.58924 71.11234 6.005124
21.44993 70.35107 4.092719
25.12797 70.58395 2.350684
22.25148 69.77137 3.754528
25.54298 68.13026 2.282189
25.29933 65.46074 0.6810482
22.98102 64.60773 3.689507
22.38185 63.53149 3.846108
25.83543 65.25253 2.053723
21.76581 65.70085 3.974495
21.78802 64.48476 4.010749
20.00321 69.75118 5.244259
20.44429 63.76284 4.825557
14.83585 54.78167 12.05496
19.96107 63.86745 5.50359
-15.32006 66.57576 11.21237
-20.52058 60.09616 4.199733
-24.47816 70.76011 -0.33711
-20.81754 64.89586 3.791994
-23.99264 68.60863 1.403252
-23.70951 63.95831 1.865967
-22.03059 64.73112 2.74799
-24.81091 67.6945 0.3143952
-19.85841 64.59528 5.224365
-22.84957 67.20431 2.228402
-23.39067 78.69678 0.8352645
-18.50654 83.15492 8.292573
-8.136079 123.762 11.0419
-4.990457 139.5762 9.700519
-6.784109 134.1024 13.66853
-3.386443 129.7597 13.13278
1.152022 133.9451 13.71174
-6.061872 131.3606 13.80332
-3.032102 133.733 13.73703
5.511024 136.9002 12.05203
-12.54816 128.2488 9.071918
25.05742 60.50113 0.1696229
24.96041 61.41403 0.1389825
25.97327 64.2589 1.159507
26.24674 63.07788 1.788426
26.59295 55.16845 3.190094
25.50023 57.48676 3.395245
-15.64078 105.2693 5.150945
-11.06666 106.5679 9.542838
-12.71315 104.752 8.787045
-11.05578 104.2592 9.449401
-9.206315 105.4653 10.19142
-15.7695 102.5114 6.165647
-6.628262 103.9551 11.0123
-12.07031 101.3828 8.948045
-14.57302 100.6152 8.021506
-9.534493 100.3853 9.67155
-17.12807 97.35874 5.469064
-13.35997 101.8303 8.693992
-9.53572 103.2346 9.924727
-6.513288 105.2193 11.17439
-10.89896 98.87793 9.215315
8.462397 115.5488 9.802888
11.79301 115.3668 6.629466
10.79554 113.5329 8.181101
-24.22521 58.50474 -2.610548
11.05615 120.5746 8.616803
6.522426 128.6832 12.40035
7.282771 127.3664 11.34095
-9.004919 115.9585 9.536272
-7.522536 115.0506 10.26836
-3.819501 117.4531 11.69551
-7.696716 112.6568 10.23524
-12.37293 109.6053 8.008894
-12.19408 110.3069 7.907961
-9.655231 111.37 9.403441
-12.6879 108.8288 8.029409
-5.470582 111.9401 11.43646
-6.116139 112.68 11.06697
-5.796761 110.3482 11.46228
-0.8471723 109.6689 12.11507
-3.309856 112.2054 11.81894
-9.43648 119.6764 9.93183
14.70093 106.1564 6.609888
15.01849 104.6947 6.622725
-23.79273 72.8866 1.221743
-24.08895 74.15027 0.2688866
-23.14232 73.53339 1.732907
-23.50992 75.29753 1.201599
-21.28086 77.14378 2.842793
-21.13847 75.66264 3.04897
-21.18252 74.56112 3.087723
-17.01883 94.44037 6.945758
-18.38593 93.698 4.256431
-19.61125 90.72211 3.27783
-17.27243 96.00622 5.81912
18.32491 90.37761 6.146697
18.48239 88.11261 6.749711
14.26361 81.937 10.55424
13.48878 85.93539 10.2663
12.67473 87.32664 10.1784
14.00448 94.19315 9.322684
11.26768 84.847 10.00325
19.19455 53.06619 11.73727
14.74425 54.26126 12.04209
13.10545 53.19637 11.19131
14.00525 54.6424 11.58144
15.66438 54.40834 12.56057
-8.81181 48.50237 10.09473
-7.952225 51.68301 10.08594
-8.058867 54.21597 10.04918
-11.75417 58.51593 10.17766
15.67313 95.79472 8.049117
-19.54808 86.83985 4.802206
-19.26981 84.43095 6.220717
-19.36701 86.16721 5.564297
-18.68248 88.94462 6.054683
18.07852 75.82418 10.01534
16.58756 66.91824 11.88283
-5.347733 54.1763 10.46386
-4.262638 54.10743 10.66095
3.107641 55.01419 10.67759
0.02220313 54.73895 11.01633
0.6640822 53.80549 10.93787
4.521789 56.13004 10.4293
5.306986 52.22766 10.23531
8.394777 54.32767 9.923393
7.939561 53.0552 9.945568
-9.687347 120.5633 9.907254
-7.176178 123.5732 11.4631
-7.409708 124.9499 11.23406
-5.857655 119.2969 11.29647
-7.491301 121.3988 11.2028
-9.272467 127.1564 10.73268
-5.895476 126.3911 11.54569
-1.120795 127.3954 12.0745
-5.922026 126.5256 11.54063
-7.381082 128.5328 12.30668
-5.236617 121.3831 11.74614
-0.966657 124.0171 12.23285
-10.5186 127.2145 10.20203
-10.16579 131.4793 13.27472
-2.647117 121.1914 11.96609
-11.53418 126.7818 8.656381
-0.518182 136.2122 12.72314
4.083153 134.4085 13.50088
25.20555 63.00208 3.254838
23.15702 62.57503 3.711977
24.31082 61.44249 3.546852
24.00741 60.97994 3.600761
24.80162 58.17877 3.516599
26.56303 57.42783 0.3922572
19.4614 52.70553 7.466154
19.13665 59.08896 9.442911
19.32534 53.89893 8.500067
19.20323 55.24369 10.14944
-6.706342 98.06611 10.77748
-10.31517 99.57436 9.340302
-6.572959 98.09451 10.83903
-9.328535 99.10715 9.647254
-8.155045 97.16343 10.06591
-6.960197 98.6927 10.69292
-9.152319 102.7908 10.04188
-5.580179 103.2105 11.31591
-4.480581 101.9139 11.60925
-0.3002325 103.2937 12.1012
-4.159423 103.6084 11.74013
7.489738 105.2602 10.79553
10.11513 106.834 9.929376
14.48027 102.143 7.82679
14.50999 103.4307 7.557164
13.38704 100.6373 8.762047
9.435355 100.6732 9.659102
14.72844 103.5286 7.290637
11.82939 97.2422 9.256268
9.316199 99.91806 9.640734
11.70707 103.1323 9.179837
12.51599 104.6653 8.885404
6.579065 101.5019 10.84253
12.96759 94.46229 9.473103
7.489223 102.0895 10.54044
5.93117 100.6393 11.04033
6.934992 99.12615 10.60524
6.374431 97.62468 10.75149
7.537198 98.8112 10.32803
9.401002 96.96814 9.417322
12.50489 95.80256 9.354777
4.385636 98.12096 11.43284
6.816204 94.94888 10.40722
12.70487 90.99098 9.858554
-2.870247 101.2377 11.91873
1.818117 98.69778 11.9512
12.61646 88.67274 10.07452
10.4281 88.7403 9.679248
15.03586 87.46174 9.803385
14.55392 88.20489 9.848313
16.53525 88.50205 8.834262
15.39237 91.50731 9.021942
16.30304 90.10631 8.734231
15.78034 93.58149 8.452953
1.34991 95.30283 11.9694
2.893862 95.17468 11.74288
8.482985 118.215 10.1789
8.537937 116.5782 9.872446
11.92544 120.9607 7.518114
-0.820454 109.8827 12.09063
-3.455651 114.3139 11.77043
1.522859 108.997 12.21215
-5.110626 108.9026 11.85644
-3.700052 108.2737 12.21567
-22.40898 72.07655 2.315683
-21.01146 70.95627 3.391366
-21.55161 70.80449 2.934361
11.46764 80.53777 10.00546
11.55934 78.80891 10.03801
12.51745 77.91287 10.38192
9.891547 82.53059 9.671003
9.905991 79.75072 9.667767
15.18835 77.13472 10.94019
13.32974 73.85466 10.78237
15.32681 77.59251 10.90129
12.46582 74.75568 10.43133
16.43655 77.17004 10.71745
-5.170674 56.3121 10.53516
-7.052094 55.91658 10.16828
-7.33697 53.68784 10.13038
-6.345722 53.59951 10.28249
-5.297472 58.36343 10.53769
-5.693671 57.02676 10.43397
-12.2961 55.83558 10.41287
16.19755 92.90336 8.270513
-18.94011 88.22422 5.828576
-4.934467 116.0217 11.44797
-3.852419 116.0908 11.70395
-6.397873 119.8612 11.2307
-3.29307 119.3012 11.8266
-2.874604 127.6422 11.98993
-7.41833 129.6767 13.10108
-9.121536 126.2324 10.26054
-0.3814452 130.6551 13.67178
-1.680835 129.0948 12.54313
1.923662 130.7933 13.70839
4.026063 129.4922 12.94556
4.991725 128.7231 12.29412
4.136444 131.5327 13.92046
17.76413 55.57021 13.14453
19.39229 60.95564 7.163185
19.09019 60.3337 9.712461
18.65423 58.88507 12.02949
19.20371 61.93122 8.300735
-5.472813 98.34863 11.24473
-9.048485 94.89533 9.609384
-7.07219 95.59707 10.49922
-14.27484 95.43514 8.97766
-12.2015 95.78756 9.357236
-5.175878 96.12547 11.30032
-4.609227 94.25037 11.44897
-3.772152 92.36943 11.66077
0.9501723 97.74317 12.01903
-3.869887 100.9001 11.74441
0.2539181 97.65185 12.05951
-0.08092617 100.2379 12.06628
-3.027117 98.61237 11.90859
-0.523959 101.1061 12.05853
0.8469817 100.5495 12.02094
1.127724 103.3904 12.07097
2.58678 101.87 11.87717
7.66529 104.724 10.66985
6.262852 105.0967 11.2215
4.495113 106.0661 11.93229
5.49503 106.5685 11.6773
4.76684 107.0634 11.94913
4.40193 109.0211 12.03963
4.895361 109.497 11.89261
1.697438 107.0129 12.30499
0.5105386 104.4554 12.17761
-0.3807715 107.9314 12.29399
-1.835366 102.7518 12.02631
3.403899 103.2285 11.79459
5.859608 112.0428 11.23866
5.672554 113.6707 11.21835
-5.656844 105.0051 11.45834
-4.866646 106.2416 11.89957
11.93016 107.6761 8.981629
8.505053 104.4733 10.34741
8.312476 94.71629 9.713203
5.356349 91.31705 10.87896
6.161563 93.46635 10.63304
9.367706 90.84402 9.471278
12.32489 91.7706 9.743159
-1.412358 111.3069 11.9338
-20.99334 70.07631 3.453444
-17.31662 79.11221 10.26624
10.11412 84.56044 9.713773
18.7463 72.82155 9.300135
-4.555197 58.99431 10.70835
-6.856624 61.7753 10.18046
-18.36828 84.23518 8.233946
-16.71291 83.8996 9.739942
-18.63902 88.416 6.360599
-12.03974 94.95545 9.420211
-16.23655 92.45593 8.335257
-3.94524 118.9331 11.72704
-3.702909 127.9067 11.97757
0.3637469 130.847 13.75632
-3.460447 131.4153 13.92184
-0.5872768 134.544 13.53279
-2.299808 132.3722 13.94851
2.90139 128.0918 11.90246
3.84748 126.3632 12.07576
0.5946683 127.3105 12.06116
6.75049 125.695 11.3716
6.220056 121.9637 11.65681
4.032199 120.6671 11.84308
4.70701 122.4998 11.97972
18.01287 56.14993 13.12018
15.2997 55.1046 12.29022
16.72648 56.55025 12.80826
13.16073 54.49621 11.14485
16.7053 62.32378 12.3701
17.64597 60.1616 12.64832
11.30768 70.79395 10.0533
14.84467 55.54578 11.99338
14.11673 59.54443 11.45997
14.92762 62.60145 11.82464
14.5518 65.52216 11.58362
19.35268 58.10358 7.415668
19.12621 64.88722 8.859014
19.09175 63.42059 9.536518
-15.95063 92.33636 8.627754
2.313461 71.16279 11.33278
1.663259 94.79445 11.92958
2.079957 93.91851 11.86525
1.551716 109.9688 12.09741
2.712858 112.7645 11.81192
2.805332 112.1484 11.85454
8.087802 93.64447 9.743128
8.484838 87.24901 9.549907
-20.56985 71.50173 3.885602
15.86218 75.14233 11.12017
19.03655 73.67004 7.664332
19.19954 71.54974 7.194371
18.83745 73.91968 8.569068
19.17482 67.97227 7.946525
19.19027 68.0128 7.814041
19.25238 70.01052 7.090911
18.73062 64.54566 10.91726
19.46358 64.72638 6.827479
19.34871 65.97332 7.092973
18.98904 66.30071 9.60983
19.0181 77.8183 7.134942
11.73866 75.40903 10.15037
-6.199096 62.68251 10.34064
7.999782 71.92372 9.704873
11.59804 69.65752 10.16442
17.87878 69.95525 11.00936
18.30245 71.98613 10.31966
17.24506 71.94001 11.16018
11.67549 70.55281 10.18371
11.61822 68.4183 10.18108
-19.31013 78.73748 7.741952
-19.83791 81.42976 5.17227
-19.25144 79.36638 7.695625
-19.47705 77.38844 6.892974
-19.73226 76.25714 5.336094
-18.39528 89.07581 6.584301
-18.00463 84.93909 8.496634
-17.23402 88.90657 8.226754
2.561029 121.1645 11.97613
0.6409405 120.8694 11.95044
0.05220554 119.7164 11.87913
-1.79837 119.1034 11.86489
-2.099515 118.7699 11.85182
-0.4743872 116.2651 11.82493
1.950513 114.3519 11.81266
5.345543 119.1345 11.40572
7.141048 120.5589 11.1747
3.930297 118.3041 11.68713
6.792448 114.8458 10.64561
-5.007693 127.984 11.85319
-1.833381 129.2567 12.7493
2.87902 124.0512 12.20978
5.97835 125.8932 11.6121
11.44143 61.37776 10.22959
19.5758 61.93278 6.552161
-11.58102 90.86505 9.748087
-0.03307111 111.9167 11.87491
0.2190666 113.7498 11.79168
4.909933 116.2738 11.45243
4.813112 86.60265 10.90913
6.625401 89.82856 10.21775
5.591485 90.04876 10.71934
4.309395 90.90568 11.28683
2.294089 94.46043 11.84518
2.304909 91.3593 11.79425
4.114266 88.39664 11.26998
2.457051 90.54102 11.76053
1.791687 87.0266 11.82356
9.369308 74.32339 9.594851
18.95851 76.60233 7.45154
19.09215 75.7242 7.000904
7.75708 72.39235 9.727593
8.139192 74.25612 9.661139
0.363129 86.86766 11.98875
6.032892 73.96729 10.18538
7.125616 74.06876 9.858157
5.748343 72.9148 10.27161
7.392792 76.7823 9.789089
8.434762 77.01209 9.608739
8.404012 79.84678 9.587963
3.87871 86.18121 11.28808
7.269119 77.56905 9.824055
15.08742 65.59198 11.78464
16.01315 66.30578 11.94581
18.03645 67.12849 11.38041
-6.293421 62.0646 10.31205
-10.29046 57.15449 9.965152
-12.78215 63.09785 10.39561
-8.223365 60.24628 9.967896
-8.463634 58.28529 9.962898
-19.58692 76.36938 6.250622
-18.652 78.20957 9.343555
-18.21131 76.61729 10.0985
-9.909915 87.18481 9.691531
3.193093 117.908 11.78131
-12.18842 92.23792 9.683909
-11.06241 93.06903 9.487995
-10.19106 91.92287 9.479124
-14.70162 93.25904 9.132952
-11.77922 88.76735 9.981276
-10.17371 88.43464 9.661768
-13.07094 87.983 10.13482
-15.8908 88.67242 9.307256
-11.19855 87.04295 9.965662
-9.117832 87.82803 9.648833
-9.795654 88.03275 9.654562
-8.363849 85.5983 9.748496
-12.60738 86.0046 10.20728
-12.20163 85.41419 10.17437
-12.6369 83.57301 10.21608
-16.59634 78.47195 10.5615
-15.72071 81.16244 10.39178
0.7280149 90.30453 11.98847
-2.050706 90.29849 11.97892
-1.497016 91.2048 12.04878
-2.474409 89.91125 11.90448
0.1097628 87.62857 12.01123
0.08933859 86.65941 12.00255
0.8083361 82.62694 11.87881
-0.9716166 82.37061 11.93603
-0.4519514 83.7991 11.96937
-3.305531 82.87989 11.58367
1.353046 81.20546 11.78496
3.96636 83.26233 11.15207
7.788221 83.01609 9.686128
7.307446 85.27316 9.814494
6.090136 80.34902 10.19427
6.390795 81.94573 10.09657
2.945157 79.32593 11.4081
3.706893 79.39241 11.14047
20.25406 75.14167 4.900921
9.032999 70.80531 9.625056
10.72976 69.73711 9.878779
11.83495 65.6056 10.29009
8.409752 56.64764 9.891925
9.176712 57.72609 9.882594
9.651787 59.03394 9.88077
-12.48107 65.43584 10.26559
-10.71564 63.54759 9.886423
-10.08822 62.9471 9.857289
-18.38814 61.13371 12.04288
-18.46454 59.41159 12.22667
-19.4752 58.96621 11.91583
-13.03197 66.01466 10.41384
-20.05992 59.63069 11.29312
-20.85495 55.45214 10.57978
-14.30762 59.95773 11.04848
-14.24588 62.67274 10.943
-11.8754 65.96429 10.08442
-16.38585 65.01281 11.59306
-15.01131 65.19558 11.16316
-20.60378 58.6809 4.063479
-21.15324 60.99849 3.432695
-20.0471 57.7236 6.679352
-17.34199 74.91101 10.77294
-18.68655 75.75813 9.914091
-11.8997 72.97916 10.0047
-19.39281 75.07455 8.629795
-19.05477 74.57742 9.737392
-17.06487 85.0503 9.312659
-8.959491 88.76761 9.631799
-14.35565 89.53426 9.774796
-5.286237 88.02792 11.00213
-3.473979 83.75138 11.56945
-4.590621 87.36189 11.28
-3.436925 86.05621 11.62704
-4.695711 84.1732 11.14239
-14.42704 83.37081 10.31766
5.450728 84.47363 10.55228
4.197796 78.52161 10.92474
4.196646 77.9249 10.91275
2.925639 72.42921 11.20798
2.416551 69.21733 11.24448
-5.328961 61.31099 10.55507
6.874212 68.72498 9.940329
12.73047 62.30798 10.74282
-19.0151 62.10475 11.75671
-19.78166 67.33685 10.22193
-17.87032 61.63132 12.04493
-20.83929 55.99469 10.42471
-19.99541 57.07058 11.8099
-20.34568 57.91533 8.012268
-19.73152 65.92534 6.222694
-17.74009 58.77869 12.27962
-21.49573 58.19807 3.131248
-14.21583 79.6251 10.43795
-16.02897 76.84344 10.77229
-12.91703 78.23869 10.23532
-10.17947 82.3621 9.762446
-11.67689 77.07089 9.966044
-1.758672 79.85879 11.81394
-10.28867 81.0584 9.773908
2.373374 78.50136 11.52668
1.821643 78.57175 11.65244
1.372238 79.45998 11.74322
-7.82456 80.22501 9.875678
-0.6998593 80.41371 11.89172
2.564389 66.91462 11.15304
5.629941 68.617 10.28007
-2.442087 70.02798 11.44961
3.560265 66.08926 10.86942
6.544713 66.69456 10.02515
1.677599 69.12552 11.397
-5.907259 62.34443 10.41122
-2.278128 62.19956 11.21978
4.917696 63.60989 10.44578
-2.377282 63.29843 11.24639
-1.746015 56.43491 11.08004
1.612447 61.2386 11.13663
2.308381 58.2128 10.92254
3.465414 57.00515 10.67626
7.246874 63.64609 9.871486
8.079427 66.52918 9.731613
8.054642 64.01228 9.764161
5.414471 64.37276 10.31334
6.719961 59.58976 9.991183
11.89443 59.82988 10.4362
9.784579 60.15694 9.875708
6.544839 58.7252 10.03133
1.956884 65.27618 11.2296
2.753721 61.00529 10.95141
3.807657 60.67977 10.6974
4.111065 62.02699 10.64462
3.94193 58.89717 10.626
3.797546 57.81529 10.63596
5.765771 56.52472 10.16803
5.084633 57.24244 10.32444
-17.26844 67.85162 11.50107
-17.17741 64.52266 11.72226
-19.52547 73.76417 7.312862
-19.6226 70.24373 6.208485
-19.26483 72.09999 9.924483
-19.66788 70.85524 9.347129
-17.80135 71.82074 10.99681
-7.58381 85.19477 9.968497
-3.842212 81.91752 11.40282
-8.958479 80.09623 9.730473
-11.11449 82.73936 9.948874
-1.470043 77.66545 11.80369
-7.051252 81.39016 10.12774
0.4451738 73.63807 11.69665
-0.3585322 76.01191 11.79512
-1.74078 74.02253 11.65511
-3.017682 72.03017 11.37687
-4.195547 71.40413 11.02538
-5.859294 66.54393 10.43885
-5.435133 71.55916 10.62524
-4.186977 74.45298 11.10953
0.951335 75.14804 11.68476
6.269305 62.17822 10.08644
-17.65741 69.08392 11.34706
-18.82106 69.36791 10.81212
-20.78278 69.00357 3.698444
-21.75294 65.08554 2.967306
-19.91072 67.17534 9.159348
-18.59202 65.95285 11.37229
-19.86307 67.03571 8.466414
-20.21005 61.79501 10.6569
-20.02259 65.47244 8.998818
-20.65002 66.00313 4.014996
-20.00168 57.9699 6.3793
-19.99649 64.02045 8.292622
-20.07932 60.7314 7.70925
-16.20345 72.05494 11.14342
-17.4178 68.81243 11.39851
-7.473011 79.30325 9.971545
-4.237475 79.78651 11.2044
-7.193255 66.09019 10.11219
-5.954999 62.9993 10.4034
-6.316243 64.5388 10.31589
-11.18966 66.63519 9.930487
-4.641261 64.25816 10.77407
-2.817562 64.08047 11.20013
-1.102 68.03133 11.53456
-0.7428257 67.30066 11.52423
-4.672888 70.25017 10.85439
-6.95389 69.56614 10.15758
-6.822625 72.01288 10.19204
-19.92203 63.90738 7.785208
-10.3998 66.76216 9.813231
-5.415226 77.85655 10.72391
-6.677814 71.53676 10.2305
-9.466226 72.94207 9.756203
-10.70117 71.68112 9.824924
-10.14338 72.36478 9.77482
-6.608022 75.1304 10.25338
-7.780907 75.60713 9.929404
-5.668507 74.07852 10.57411
-11.08984 76.19204 9.85341
-5.865342 75.83633 10.5181
-10.15253 113.1432 8.793286
2.460533 82.8679 11.60654
-19.74867 69.4394 8.532689
-19.78334 64.91956 5.722936
20.05933 66.25836 0.9111964
23.05593 50.07106 -5.751893
22.26075 49.86703 -1.977651
19.41604 55.45409 1.139048
19.7219 60.35186 1.203016
20.80319 65.80847 -0.6433332
19.94121 53.36369 -0.03669381
19.79504 50.65335 -0.240191
12.11954 118.9869 1.627356
20.84941 51.66002 -0.8995923
20.22929 50.8623 -0.568846
18.04153 53.31453 -11.22796
-4.914852 49.76458 -14.86643
20.46324 77.31748 2.478621
13.19902 113.1259 3.300704
-12.11882 114.9924 -0.1724595
19.26715 91.21291 0.9795372
-19.40955 52.47499 1.981107
-3.770974 123.7043 -7.590758
13.41629 112.6116 2.529058
-12.32349 118.7442 2.610465
11.65198 115.9644 -0.617968
13.50179 125.7092 2.546165
13.60171 126.7393 1.38521
-10.88783 120.8112 -1.812864
-19.85326 49.47564 2.551078
-4.019104 51.43546 -14.54573
12.37967 115.5513 1.670587
-12.19139 51.40501 -9.444154
-18.87349 50.88908 -12.92031
-22.49607 52.64542 -14.08927
14.48899 110.0943 1.794766
-11.88613 116.1021 0.06871363
-19.70808 79.88448 -3.391737
-19.14911 49.47984 0.0796184
-19.03555 48.53613 0.2653213
-21.07735 72.16652 2.275616
12.76246 122.655 1.797635
-20.45158 62.56255 2.096908
14.60879 109.19 0.01258698
-12.46783 121.3255 1.757044
20.38818 49.54592 -0.8986446
-13.4503 125.618 2.066711
-12.97309 124.3041 0.9894428
-11.02879 124.0415 -3.502445
-12.68808 124.8245 -0.6366614
-12.4096 115.1159 1.119723
-20.94153 75.16539 2.010451
19.46653 54.38411 0.6743292
-22.3069 56.43633 -9.792953
-17.69295 86.87853 -8.770319
-17.16672 100.3114 -0.3000143
-19.93799 89.04484 1.509571
21.3677 64.64182 -1.357079
17.48557 51.25108 -14.26066
12.95694 124.1141 1.126674
12.918 122.1093 3.423473
4.9762 123.5841 -7.286663
-20.18048 55.10894 -14.33455
-20.12284 55.4569 -5.154353
-19.10566 51.1353 -0.06278087
-19.73165 52.81436 2.218265
-10.96641 124.7669 -4.184257
-11.05456 126.056 -5.039222
18.28336 95.60422 0.9163134
13.83765 111.5506 1.645359
13.60416 112.0722 1.615009
12.74041 114.5612 2.611285
19.23056 50.68511 0.594845
21.17592 53.83917 -0.9683529
23.49429 51.71428 -2.862918
20.55125 77.57287 1.701393
20.04383 65.44319 0.8241323
16.35301 54.36124 -10.74247
20.55273 55.16299 -13.83993
-5.628217 52.14011 -14.89468
11.53959 125.9847 -4.295212
12.44265 120.4591 2.230953
3.480027 124.0404 -7.738261
-12.51923 53.17619 -9.0225
-23.07992 51.08998 -11.25818
-19.54423 62.10242 -0.592087
-20.65532 51.96423 -6.118193
-20.43516 62.33901 2.091422
-19.51178 50.74357 -1.51775
-19.45467 54.11118 1.596558
-11.96269 118.5932 1.166374
-6.532458 125.1803 -7.502872
-4.45352 125.6271 -8.222084
-11.71558 125.8372 -3.81086
-11.6358 123.4412 -1.997882
-12.28343 124.4182 -1.378156
-11.06755 120.2947 -1.339389
-11.84029 120.8495 0.07189623
17.91686 98.96342 1.051603
-15.59416 104.6381 -1.527777
-13.05886 112.8804 0.384133
12.65934 111.7873 -1.987583
12.84199 113.2216 0.08912745
11.43605 117.3425 -0.5329636
10.1226 114.212 -3.350782
12.31597 117.7185 3.197551
20.62427 53.57317 -0.5731126
23.963 50.39132 -3.287669
20.36532 71.51329 0.7121546
20.38167 71.04457 0.512579
19.91426 59.62849 0.5351909
17.04388 52.76158 -7.48087
19.46655 50.98656 -11.89579
20.40389 85.02586 -2.945693
15.33068 50.46528 -13.49277
-3.611356 52.20707 -14.39257
12.06417 124.1277 -1.660944
12.67685 125.4474 -1.23223
9.886466 123.8775 -4.842748
8.50575 122.6288 -5.218136
8.46841 120.6794 -4.488976
1.056247 124.2284 -7.849951
-12.36118 52.70229 -9.163399
-20.44656 75.5284 -0.06965511
-22.12447 52.11505 -14.55022
-19.74367 63.21497 0.562673
-19.78739 51.59409 -3.108145
-22.58302 51.60799 -9.957204
-19.47199 58.89525 0.2388868
-9.286458 123.4377 -5.108652
-7.763761 122.3944 -5.654306
-11.62441 121.4307 -0.7347742
15.67496 106.0837 0.3074908
18.80061 97.37571 1.320325
-18.50879 97.33434 0.5442375
-17.27955 97.95277 -1.649248
14.53411 106.9136 -2.287934
-2.968075 111.6304 -7.187926
-15.33178 106.9956 -0.06372096
-14.14057 110.7872 1.132718
9.19571 114.63 -3.836058
10.92988 114.5593 -2.456545
20.99645 53.01995 -6.686911
20.42112 75.84428 2.08741
20.56672 73.57479 0.05657337
20.95341 65.60114 -0.8574103
21.61867 60.73254 -1.5447
19.95986 64.70075 1.014828
15.6534 51.28645 -8.236704
15.20621 52.52959 -10.21661
20.97757 54.30574 -12.32872
20.38815 85.41479 1.768568
20.60286 82.27799 0.7094963
9.819989 50.19573 -12.65211
1.696038 52.06845 -13.34718
-0.807497 52.60303 -13.69571
-6.756132 51.13779 -15.15234
9.075237 121.1204 -4.157227
1.61274 124.095 -7.799918
-17.96662 51.84509 -11.29502
-20.70384 79.59277 1.243847
-20.56337 83.53689 1.727831
-22.11395 52.23693 -8.990597
-21.61121 52.91799 -14.82497
-19.79751 66.22707 -0.5160864
-19.52886 62.20428 -0.8940351
-22.71288 54.69038 -10.70697
-20.80901 59.68185 2.565659
-9.66983 120.3112 -3.267392
15.23289 101.123 -4.712312
15.75662 105.1833 -0.4670067
17.85664 96.28648 -0.2654229
-19.20786 93.22227 1.108038
-18.6888 92.82659 -0.9331589
-17.47196 100.7048 0.2895503
15.49946 107.4285 2.615491
-14.16127 109.5184 -1.101901
-14.46258 109.1052 -0.6585941
-13.11176 104.9819 -5.578032
11.93946 111.9373 -2.87375
7.422568 113.6958 -4.908535
5.581839 112.2711 -5.72147
3.499878 115.1823 -5.648041
22.70058 51.07882 -5.98052
20.64017 79.44469 1.038261
22.18552 61.6197 -2.184163
21.67946 61.86153 -1.64829
16.74699 53.87693 -7.433305
16.38009 55.54456 -7.464601
20.26598 85.47072 -0.6587138
20.6149 82.06734 1.316664
11.64799 51.01805 -12.67247
14.17335 53.15709 -12.92662
6.190156 50.50848 -12.87494
2.073016 50.3275 -13.39828
8.748838 121.8152 -4.70932
10.60645 123.3418 -3.650174
4.265423 123.3729 -7.389624
-1.108449 122.8706 -7.318157
-16.78417 50.86496 -9.640357
-14.2778 52.09584 -8.299063
-20.1468 76.0379 -1.850943
-22.79336 53.42805 -10.81698
-21.84885 51.65984 -14.89556
-20.09334 66.77758 1.371251
-20.15281 69.633 0.8363413
-7.689795 121.7203 -5.401288
14.71394 108.8431 -0.06562352
14.84836 104.6012 -3.268723
15.68386 103.589 -2.201139
17.13361 97.88162 -2.493326
-19.34816 89.46702 -1.913588
-19.16129 89.40376 -2.599792
-15.57046 103.5477 -2.505896
12.38735 113.3604 -1.045603
7.686486 112.1224 -5.490829
8.735634 112.25 -5.417271
21.9765 54.89618 -1.555872
22.75159 51.96012 -5.912103
23.71106 52.15852 -3.351197
21.89312 57.88796 -1.690345
22.15745 58.81411 -5.655704
15.16302 56.08136 -9.336847
18.84351 53.57704 -11.36675
16.06704 59.44787 -7.518317
17.98666 54.53162 -11.07152
15.44477 55.21789 -10.11711
19.54536 55.09764 -14.43741
19.51819 89.90839 -2.999728
20.1284 86.24707 -1.326166
20.22005 85.76852 -0.4436787
10.92175 51.32119 -12.58967
16.06022 50.63098 -13.75794
11.71933 55.28331 -12.30964
8.459649 119.224 -4.109492
11.70493 119.2201 0.3007766
-14.29202 53.07539 -8.326933
-11.99376 51.67336 -10.42883
-20.41262 78.53724 -1.046725
-18.54062 51.8093 -12.41639
-19.54335 62.82154 -1.178725
-19.95086 61.0845 1.527545
-22.35062 57.04532 -10.03653
10.68766 109.9854 -5.052489
15.04765 102.7108 -4.14817
-20.06343 87.30043 0.4674223
-18.47333 93.57921 -0.9916
-19.00305 90.42381 -2.459523
-17.97501 95.45814 -1.013073
11.19389 109.623 -4.931182
20.64569 79.58866 0.720615
20.42646 70.60427 0.2365428
23.63079 54.243 -4.659129
22.38339 61.92994 -2.457227
16.75728 57.87872 -7.178792
19.64463 54.62894 -6.856635
20.35385 85.91827 1.990502
20.60962 83.16834 -1.553084
19.54551 90.53056 1.298826
15.98326 57.91255 -13.21693
16.57474 52.90039 -13.80118
20.19325 56.33292 -13.83061
-3.113289 124.0128 -7.760705
-12.67587 58.88002 -9.322624
-12.18277 52.87573 -9.784193
-20.38512 84.7141 0.1031029
-18.84914 55.76474 -13.04531
-18.99623 54.10366 -13.26687
-21.73783 55.69142 -14.00462
-19.61231 61.38795 0.3417766
-17.69709 92.5699 -5.537717
-18.77683 89.31532 -3.626968
10.32266 108.6666 -5.855178
23.30659 57.5871 -4.347189
15.02453 56.52253 -8.655414
17.7975 53.0791 -14.25048
20.94855 55.38694 -12.54449
-1.311754 121.7225 -6.937458
-12.80661 55.79684 -8.788601
-16.49763 54.4295 -9.309673
-16.23111 98.62296 -4.223986
-15.19185 103.397 -3.428514
9.307026 109.7473 -5.820862
20.75418 56.6441 -12.17523
20.83378 56.42237 -12.28673
1.120679 120.8456 -6.647639
-17.53141 54.14027 -10.67013
-11.91288 59.39901 -11.44586
-16.89799 97.14542 -3.65733
-16.2146 102.0686 -1.903207
12.10022 106.8305 -5.560632
-2.036648 122.4703 -7.180126
-3.443851 121.7647 -6.903194
-12.98181 59.82117 -8.933752
-15.74811 98.95548 -5.015222
-14.51623 99.91083 -6.46103
-17.9981 90.82134 -5.565082
0.448927 119.8875 -6.409427
0.155492 118.1479 -6.042024
1.245206 116.8143 -5.829328
-1.893156 115.771 -5.694819
-13.24505 56.43521 -8.42458
-13.98243 99.07475 -7.56629
-1.919586 118.7137 -6.155691
-6.796299 59.2287 -14.76376
-14.51449 104.9326 -3.683095
-14.26846 93.0464 -9.239189
-12.34074 59.26762 -10.05513
-12.46522 98.65484 -9.26957
-2.906242 116.0817 -5.738489
-10.30714 53.47718 -14.36187
-4.208255 110.4827 -6.451569
-10.08339 54.71584 -14.50327
3.042373 112.3361 -7.12456
-10.24483 118.1942 -2.333128
-11.72422 117.1146 0.2228815
-10.8432 118.5791 -1.482307
-9.338576 117.158 -3.318049
-10.00111 119.7482 -2.791486
-9.88444 117.2962 -2.808419
-6.171673 118.0784 -5.142715
-6.356605 118.6251 -5.151412
-6.186438 117.3617 -5.078141
-19.69128 52.38261 -2.984758
-19.24222 53.70855 -1.039523
20.44485 74.17571 0.8755547
19.6925 52.35359 -7.048346
17.54032 58.12092 -6.922043
21.18827 57.41484 -6.253931
22.28645 57.95283 -5.686098
18.63797 55.27605 -6.944407
16.68438 57.97676 -7.210988
23.00677 59.64813 -4.582686
17.41334 60.0999 -10.21151
16.89998 59.44422 -10.20583
20.01951 60.80926 -11.52114
15.50704 58.40718 -8.027661
18.38103 61.43134 -10.20752
16.55167 60.09135 -10.06725
16.26907 61.10281 -7.378354
19.07829 63.6865 -10.42796
18.62121 65.78978 -13.10198
19.99963 61.95221 -11.73907
19.18831 63.89742 -13.16066
19.3838 65.21783 -10.70716
19.24662 67.37897 -6.162649
18.74471 63.35081 -6.4034
22.37279 63.58053 -4.937552
20.06359 61.04166 -12.80005
22.63531 60.94075 -5.09781
19.5477 65.58682 -11.35268
0.8185286 53.24535 -13.40177
0.6603673 52.86903 -13.44449
-0.02069636 50.96651 -13.67495
-5.610486 52.5281 -14.86704
-4.862972 53.44572 -14.64936
-20.57048 79.96318 -0.1725076
-20.0402 85.59293 -1.52363
-19.99154 86.58684 -1.047178
-19.19984 87.20617 -3.460654
-19.13533 82.42992 -4.549178
-19.34067 84.37752 -7.585981
-18.48201 87.50714 -5.113977
-19.22737 77.7133 -5.072222
-18.79143 85.72412 -6.540402
-19.26745 77.35046 -4.804189
-18.71173 87.1538 -7.615765
-19.24654 76.75693 -5.221896
-19.48015 77.96806 -3.900542
-19.32755 74.90492 -5.600199
-18.93808 84.79146 -8.200984
-19.68757 80.41187 -9.093735
-22.43785 53.98801 -9.778224
-22.80087 56.10531 -11.68997
-22.44874 58.32022 -11.27116
-20.92557 53.966 -6.876368
-20.50254 54.66525 -6.044336
-20.05398 55.41639 -4.967622
-21.27916 58.49062 -7.846431
-21.01878 61.97213 -7.732698
-19.57923 60.59664 -3.955552
-19.84293 63.77584 -5.47704
-19.81886 62.61747 -5.259002
-20.34764 64.76771 -6.824279
-19.50919 62.98709 -3.528686
-19.53589 66.12171 -2.822043
-20.00053 61.28054 -5.602462
-19.52666 65.26052 -2.662857
-20.89301 68.23502 -8.303752
-19.67627 68.72385 -2.434569
-20.6319 57.67478 -6.572391
-19.68365 58.59912 -4.12953
-19.74543 70.80154 -2.522892
-19.33508 74.24901 -5.068225
-19.41079 70.82754 -4.876583
-19.55575 66.53422 -4.714178
-19.43797 58.63698 -2.407101
-20.07586 71.08125 -1.0019
-21.09094 71.7621 -9.741577
-20.21464 71.25437 -7.397939
-19.68002 71.36451 -6.163779
-19.56577 77.29263 -10.18868
5.972788 112.2055 -6.274592
7.827767 118.347 -4.350826
5.09217 122.7434 -6.949948
6.906832 119.5903 -5.107717
5.570917 119.985 -5.799703
17.45361 99.05269 0.5216962
16.06895 99.91091 -3.745458
20.54466 76.07151 0.8289616
20.68913 81.59261 -0.9521164
21.23816 77.48679 -2.1019
18.91421 92.07068 -1.190912
-8.054384 52.29592 -15.21369
-7.062461 53.53547 -15.06867
-9.343707 56.27436 -14.85879
-4.159639 63.14441 -13.92181
-3.011991 64.66517 -13.56124
-9.160814 58.15742 -14.74992
11.42583 119.5996 -0.4034164
11.81121 103.6427 -7.542662
11.95246 104.767 -6.832933
12.02402 101.2123 -8.560033
13.35216 102.6871 -6.547415
9.60357 104.6086 -8.454226
21.75642 67.82893 -2.079109
21.49254 66.7417 -5.314596
21.09403 69.59414 -5.368857
18.8854 66.50474 -6.291648
20.76221 67.38137 -5.698282
19.37532 63.52413 -6.273421
21.58935 69.18403 -1.915586
21.12025 79.92831 -3.720056
18.24012 63.81959 -13.5163
18.00632 57.29585 -14.0217
14.66139 58.08202 -12.67876
15.49502 57.99316 -13.00706
15.07592 65.31525 -12.30414
14.3342 63.08704 -12.21094
14.69182 60.40748 -12.51399
16.39321 66.80676 -12.68743
5.711627 51.25361 -12.89132
4.245145 52.4483 -13.03742
9.179001 54.48925 -12.37672
7.655498 56.42779 -12.5258
2.627977 55.19573 -13.17043
14.22395 56.58834 -12.63506
11.88573 55.81252 -12.296
10.4701 107.968 -6.071629
7.342373 105.6752 -8.59989
4.512455 109.3436 -6.808759
3.825072 110.5848 -6.593417
3.983795 109.7754 -6.700844
-1.221602 112.3442 -7.459528
1.808254 112.1543 -6.155835
0.9615046 112.8659 -5.763893
11.32369 105.9686 -6.680838
7.03989 108.7648 -6.731986
-2.281098 112.4574 -7.253307
-1.292752 112.3895 -6.371279
8.365748 104.6522 -8.95143
8.85419 104.0493 -9.10769
2.8688 105.4194 -8.991136
3.293497 108.5491 -7.276149
5.535486 107.3015 -7.749779
3.169885 106.5987 -8.369939
-2.464674 110.73 -6.481111
-1.097869 110.3918 -6.535704
0.6550502 108.0166 -7.596622
-0.02118449 108.4043 -7.378328
-3.157091 107.6585 -7.76482
-4.661151 108.6425 -7.099566
-6.420122 108.0221 -7.198812
-7.144729 108.6903 -6.749898
-3.929116 110.3066 -6.507739
-5.890601 110.7733 -6.161915
-4.663267 111.4013 -6.489596
-8.780937 111.8443 -5.277304
-7.430569 111.2144 -5.728216
-11.16249 113.7328 -2.617897
-10.58633 113.8927 -3.120243
-8.697331 113.4725 -5.349118
-4.986296 114.54 -5.415129
-6.312473 113.9237 -5.176228
-6.487765 111.3748 -5.906327
-3.837296 114.1808 -5.673942
-12.64323 96.53353 -9.854389
-14.70462 96.28226 -7.897004
-17.96629 91.02989 -6.868623
-17.62421 91.94244 -6.810167
-16.62103 95.6645 -5.69952
-16.44279 93.95174 -7.337996
-14.45838 95.43269 -8.479552
-17.05182 91.08894 -8.072783
-14.49941 93.90654 -8.875157
-13.78112 93.44439 -9.616052
-12.55493 92.97629 -10.66031
-15.45864 92.37689 -8.396957
-11.24478 94.00884 -11.37168
-18.57904 88.24728 -6.528027
-15.01779 89.20627 -8.71426
-11.41547 93.90932 -11.2811
-18.99185 85.67188 -7.164657
-12.76044 85.73578 -10.4065
-13.42301 89.8155 -10.03635
-14.12314 84.76456 -9.07471
-17.42346 85.64059 -9.158156
-18.68402 85.15717 -8.451827
-18.96635 80.32267 -9.840392
-13.59199 60.81017 -8.424235
-12.21583 74.70432 -10.91117
-14.69418 58.77431 -8.255847
-16.99051 56.42689 -9.933492
-20.6104 68.87716 -11.50961
-22.0274 62.18665 -11.6784
-17.09158 56.79488 -10.08438
-17.27817 58.63992 -10.33995
-21.77032 64.51342 -9.92123
-12.23327 64.45768 -10.67386
-20.20251 61.11095 -13.27138
-11.92691 60.87897 -11.35092
-12.53684 63.17052 -9.838727
-11.23585 60.08711 -13.06741
-11.98638 102.9714 -7.751939
-11.48198 101.3055 -8.956893
-12.50325 109.7679 -3.681527
-7.59161 100.0488 -11.404
-8.854626 109.0971 -6.234477
-11.03053 108.2455 -5.654008
-7.676254 106.2417 -8.134006
-13.35925 105.0279 -5.26026
-11.29147 106.3898 -6.471321
-13.94825 109.2011 -1.811235
-9.514653 108.312 -6.339274
-5.273588 105.6863 -8.822515
-19.36203 55.0186 1.014987
20.65502 72.77533 -0.2858952
21.23823 74.42805 -1.64227
21.64301 71.82001 -4.801317
21.60543 74.59282 -2.617772
21.13879 75.02576 -4.886705
20.94671 75.91135 -4.965561
20.08178 74.30792 -5.534708
20.12894 71.17844 -5.685625
21.3144 78.41287 -3.045117
18.87415 54.22602 -6.990793
20.12838 55.63202 -6.706187
3.226453 51.81855 -13.1736
-3.115857 55.74058 -14.04244
-19.67559 75.91549 -6.920859
-20.29268 72.7053 -7.797887
-20.41311 76.07827 -9.086973
-20.05958 78.53847 -8.650401
-19.36929 81.40102 -9.085314
-19.00896 81.75661 -9.357099
-19.96495 79.36463 -8.47435
-15.62434 83.17234 -8.397726
-19.67711 78.62209 -9.783648
-17.83536 81.50717 -9.820405
-14.26412 79.20017 -8.765569
-16.86449 80.30464 -9.281136
-16.39963 80.00958 -8.925308
-12.98814 79.27424 -9.828751
-15.15399 79.04382 -8.48105
-9.280478 78.66853 -13.59912
-14.38108 76.84764 -8.579446
-16.12443 76.7664 -8.780129
-17.35922 76.61227 -9.925277
-7.64329 77.18787 -13.85445
-12.03997 73.10659 -11.19838
-10.72308 72.68464 -13.16386
-18.15986 75.92392 -10.70803
-13.42592 73.29505 -9.024072
-7.863859 78.42464 -13.79232
-20.86034 71.77592 -10.11226
-14.97563 73.18384 -8.420346
-15.50285 72.17352 -8.525362
-21.28057 67.02552 -8.996142
-21.37522 68.04906 -9.475636
-13.45937 61.38153 -8.538682
-16.25011 70.3643 -8.94798
-13.40866 80.75188 -9.413611
-14.79849 61.1069 -8.255712
-19.17797 70.92776 -11.63143
-17.46954 73.03088 -10.11579
-17.01093 60.70712 -9.900205
-16.64909 61.84018 -9.452255
-12.96711 64.33073 -9.139306
-18.74174 60.06783 -12.61882
-18.72824 62.29649 -12.31269
-20.14235 63.78214 -12.83642
-22.23858 54.12329 -9.347878
-20.3137 64.95782 -6.773384
-21.54137 66.03036 -9.568896
-20.13573 68.01853 -11.99675
-19.78661 71.31499 -2.42983
5.275883 118.4161 -5.56289
7.252213 117.9096 -4.651706
4.770184 114.0246 -5.499721
6.223976 116.4883 -4.997
0.7052611 114.0428 -5.716967
10.37104 117.851 -2.21831
18.26912 94.50735 -1.604381
17.14495 95.257 -4.46242
17.1078 99.01153 -1.39414
20.71256 82.58237 -1.710553
-11.19119 57.84966 -13.18367
-11.78277 65.56864 -11.92849
-6.447246 61.86819 -14.5672
13.66586 102.6653 -6.186962
14.55563 100.4488 -6.159931
15.29546 98.93577 -5.820709
-9.112824 87.26679 -12.99209
14.0866 95.18176 -8.969446
15.76635 63.24451 -7.770644
18.28985 66.22338 -6.458408
18.42955 66.51408 -6.416403
17.4798 72.23045 -6.779039
14.22186 55.24471 -12.75667
11.59055 65.18411 -11.70076
5.370409 59.60125 -12.9784
-9.915236 114.2503 -3.508763
-11.24755 89.52747 -11.8811
-10.20319 87.54093 -12.59001
-9.319518 81.24422 -13.39545
-21.91204 58.57909 -13.08038
-22.35583 58.82541 -11.83143
-10.15413 101.0625 -9.97815
-11.07051 98.51138 -10.38883
-9.385857 96.02676 -11.94768
-5.300929 96.42812 -12.59202
-10.06203 100.3706 -10.31101
-6.716053 99.81751 -11.65805
-3.85636 101.093 -11.28434
-7.870089 99.38109 -11.55213
-7.813559 106.8627 -7.695088
-3.591885 103.9496 -9.846013
-6.321066 103.3592 -10.13501
-7.490296 100.7594 -11.16743
-8.902558 103.4306 -9.43331
21.57391 70.91023 -2.055058
18.37123 77.12919 -6.112465
18.35256 75.31979 -6.200578
18.3124 79.66993 -5.996591
-19.55695 79.90409 -7.396731
-13.41287 83.69924 -9.580306
-12.06746 80.25033 -11.30346
-9.997259 79.85828 -13.20184
-18.04578 73.83351 -10.68615
-12.56608 71.39337 -10.13718
-14.0315 68.68941 -8.435529
-12.72089 67.78741 -9.732296
-13.38388 69.61015 -8.871919
-11.81924 68.84036 -11.76583
-11.38418 67.07817 -12.67242
-11.71645 70.03542 -11.9149
-9.778692 77.56573 -13.49452
-14.12311 64.40097 -8.301761
-19.03428 63.44025 -12.43513
-18.31839 66.28554 -11.52961
-19.25272 68.81457 -11.95418
-16.30019 67.86102 -9.018427
19.10236 91.5331 -1.777918
18.96226 90.37379 -3.863708
16.35853 96.97412 -5.054688
20.28771 81.29523 -4.681708
18.42347 81.36765 -5.780979
16.61755 81.48421 -7.840101
17.63918 90.24232 -5.561029
19.20648 86.6827 -4.596611
16.42287 97.22373 -4.711203
19.13685 67.1534 -12.52495
16.49493 77.37019 -8.518275
17.92233 71.72025 -6.542107
14.28209 65.62467 -12.00822
16.1823 80.24254 -11.17658
19.55436 65.87141 -11.81398
15.55968 69.91997 -12.15369
16.99781 68.28528 -12.72051
17.91689 71.05262 -12.56197
10.07756 63.36987 -11.96491
-1.748949 54.54139 -13.76684
-1.037141 57.66883 -13.4638
1.338157 55.7755 -13.26239
9.850255 100.4518 -10.39723
10.97025 100.4542 -9.720865
1.286582 80.6595 -12.94116
-2.100371 102.0378 -10.87974
16.59825 80.77279 -8.285741
16.01656 81.59176 -10.94766
-9.362176 84.10159 -13.18717
-20.05292 76.91298 -9.746731
-20.62726 72.95451 -10.17909
-20.82231 71.14845 -10.37804
-12.33113 66.06843 -10.49419
-18.38463 68.52171 -11.36
-11.00541 65.01079 -13.26507
-10.92467 62.12796 -13.46282
-9.216827 61.94715 -14.51764
-9.624931 62.18216 -14.3664
-10.2516 61.24495 -14.08704
-17.05346 62.9664 -9.924774
17.91123 90.00807 -5.28574
16.9359 93.01621 -6.827227
17.41407 90.49892 -5.861379
15.74102 92.32421 -8.852733
17.54686 88.19268 -8.468083
15.79065 93.74806 -8.072176
16.65839 94.20428 -6.154734
15.56495 97.14192 -6.366095
12.63511 87.53848 -10.72827
14.23822 95.56016 -8.691932
16.72877 89.11272 -9.360452
14.48141 96.43159 -8.0809
13.86072 93.84965 -9.547779
17.60958 93.26112 -4.676877
17.75042 85.63823 -8.915422
20.19124 86.13836 -2.096666
20.14129 86.68941 -3.111816
19.37112 83.81082 -4.925544
16.58618 79.70208 -8.241304
13.07902 61.34864 -12.02473
2.407509 57.77401 -13.19164
8.358618 100.4785 -11.02655
5.112656 103.2405 -10.2532
11.14913 101.009 -9.335674
4.787407 103.3545 -10.18999
-0.2967022 97.82292 -12.29257
4.405116 102.3083 -10.72999
7.64923 99.01125 -11.72679
11.25838 96.40133 -10.90818
8.547503 95.81384 -12.26519
12.21814 94.49684 -10.69696
9.294231 94.29036 -12.22804
9.031651 95.70609 -12.11077
7.305116 93.53768 -12.70321
-9.818892 83.44868 -13.08627
-7.181503 88.17015 -13.12079
-6.307085 94.02973 -12.81126
-9.397582 86.68557 -12.94789
-10.73548 85.37292 -12.49366
-11.17134 90.91624 -11.78246
-12.3532 88.9001 -10.96441
0.5393087 103.2907 -10.21223
0.6234722 102.8032 -10.49841
3.462793 99.00936 -11.98595
-2.929777 100.3561 -11.56131
-1.645955 99.95294 -11.69282
-3.004819 97.52679 -12.36377
