# .PCD v0.7 - Point Cloud Data file format
VERSION 0.7
FIELDS x y z
SIZE 4 4 4
TYPE F F F
COUNT 1 1 1
WIDTH 1668
HEIGHT 1
VIEWPOINT 0 0 0 1 0 0 0
POINTS 1668
DATA ascii
-31.72022 3.501574 -5.309442
-26.70379 79.15158 -6.551372
-18.30213 94.62208 1.211011
-2.435055 8.036318 21.69743
-3.789208 94.63283 16.33189
-33.03965 6.007438 -13.44734
-33.178 10.94406 -17.17437
-29.62539 4.760677 0.7880834
-5.551085 65.62392 18.48099
-19.11309 93.45795 0.6602045
-19.01369 95.35992 3.199916
-1.491007 17.41685 21.46189
-5.885338 5.958326 21.04196
-8.620699 102.8943 12.2445
-33.15896 7.019702 -16.02509
-32.05423 38.09941 -14.11123
-29.26964 4.787899 1.472518
-2.16336 58.28213 19.59107
-3.515754 76.35298 18.24634
-29.20932 64.53786 -9.810646
-23.75641 85.89625 -5.475825
-17.1674 4.013122 16.02474
-4.561895 13.52029 21.09142
-5.83638 6.249799 21.04544
-8.8294 7.310348 20.08676
-10.37766 8.588228 19.46659
-2.301291 97.78409 15.89556
-32.94538 20.54461 -17.49517
-32.34599 34.64693 -15.26305
-32.22241 33.16335 -15.38933
-32.79326 24.84579 -13.21069
-30.53451 4.201198 -1.367706
-2.732459 47.04226 20.06122
-1.951807 57.99582 19.63879
-30.75663 52.36765 -11.91474
-2.487351 65.60664 19.12641
-24.96478 84.4586 -5.713696
-28.86215 65.88908 -8.015857
-6.482658 81.54679 17.14764
-24.08044 85.42965 -4.740566
-16.08681 4.952425 16.65343
-2.853479 20.60841 21.14091
-6.022151 9.609362 20.87817
-2.541634 89.44244 17.19711
-8.555994 103.3847 12.66291
-33.05262 12.93556 -15.23631
-31.68116 45.1733 -12.85663
-31.90454 39.54824 -11.48094
-25.88651 5.018874 7.238374
-3.043423 52.55392 19.73982
-3.925644 54.54994 19.47001
-30.03822 56.79322 -6.702404
-3.662405 66.16087 18.88094
-3.921369 68.10881 18.7129
-2.755791 79.29695 18.16176
-5.181349 85.58267 17.13871
-18.74651 96.01324 3.931774
-2.240959 27.83759 20.95411
-3.006925 18.70517 21.18857
-13.76137 9.490511 17.84715
-13.09648 13.65039 17.99739
-2.909844 89.80691 17.10079
-32.95466 8.779768 -13.08925
-32.30652 31.96803 -12.21124
-23.11142 4.94076 10.59112
-5.019495 54.43563 19.23003
-30.39599 51.98669 -7.859298
-31.17633 48.04982 -11.45329
-6.236289 66.23463 18.26057
-27.9143 71.54146 -5.6887
-26.97006 75.05389 -5.112354
-2.530797 24.76649 21.03083
-8.37788 11.7288 20.09126
-9.112698 6.910813 19.99572
-6.473804 93.90965 15.92228
-33.09465 7.75715 -14.75599
-28.83684 5.349321 1.943137
-4.863406 39.28703 19.98317
-4.30113 50.57793 19.59027
-6.596706 61.38247 18.4375
-28.16088 69.62399 -6.347919
-18.49861 96.23553 4.866508
-5.733113 13.11965 20.82716
-6.412106 100.9323 14.99823
-7.936664 97.21201 15.08909
-6.12935 91.85744 16.26003
-32.24023 29.07407 -10.15519
-5.174083 31.73873 20.22701
-29.56062 58.29411 -5.717786
-29.2413 54.52074 -4.113866
-27.28736 73.06606 -2.793745
-6.985971 18.46958 20.274
-16.24209 6.212966 16.5124
-3.770545 102.7254 15.12648
-32.10361 31.00838 -10.02951
-32.14755 32.43784 -10.94477
-31.59786 31.14567 -7.357186
-7.963148 41.87912 18.99293
-29.07014 54.14406 -3.27361
-28.69478 52.70556 -1.053295
-28.30718 66.68382 -4.780484
-5.232266 18.89053 20.72575
-17.63452 10.40881 15.33699
-11.15267 99.51733 13.66218
-31.9376 32.13668 -9.32926
-6.234766 34.1032 19.85468
-8.020603 30.54782 19.46362
-8.600931 30.62032 19.25728
-28.42311 66.07945 -5.240858
-6.344061 19.15769 20.43141
-10.89736 89.48329 14.84179
-30.80178 46.41061 -7.01134
-6.99227 49.66412 18.939
-10.59266 31.98875 18.42198
-29.50668 59.27029 -3.501435
-27.24602 66.82928 -0.8226375
-3.860084 19.86206 20.99006
-31.76778 5.610759 -5.705833
-30.75472 49.67343 -8.245204
-9.077508 49.96216 18.21542
-11.83147 31.98883 17.86002
-8.97623 18.95165 19.60056
-20.96488 10.01356 12.50657
-31.28223 36.87239 -6.757876
-29.3996 49.33895 -2.441453
-19.74877 15.02072 13.40109
-9.421087 51.22868 18.02411
-17.83171 13.28216 15.0389
-15.64953 12.90324 16.56311
-15.83311 13.40652 16.41807
-10.36294 18.55017 19.076
-14.73947 16.81933 16.93597
-18.52119 16.48668 14.3409
-29.14026 47.97715 -1.51621
-17.89757 17.02004 14.79321
-17.70545 21.0219 14.75892
-17.65831 19.80529 14.84748
-21.42091 14.82506 11.87449
-21.69895 13.88649 11.64726
-26.59922 45.01371 3.912319
-26.0991 39.52056 4.997778
-29.94375 43.40719 -3.099927
-11.47336 99.44308 10.29402
-4.203785 40.93328 20.05567
-6.295344 45.0298 19.35899
-26.74036 78.15765 -5.225359
-31.30827 8.227291 -4.25424
-30.01269 9.936131 -0.6920152
-3.517651 59.73916 19.27909
-6.477899 55.70366 18.78184
-26.14496 75.89523 -0.611032
-25.30561 83.0459 -2.065781
-25.10893 78.72477 0.1318215
-23.44331 87.2291 0.4902102
-7.498418 83.29371 16.69619
-13.88703 97.62601 9.463643
-4.681555 49.24142 19.57241
-7.902551 71.47692 17.42419
-11.00402 66.76836 16.4985
-5.70206 75.92696 17.78334
-7.652438 73.97511 17.34085
-9.43628 65.42262 17.24177
-11.74089 70.50088 15.90562
-10.69033 75.08107 16.07642
-13.22113 69.88866 15.18076
-12.7389 74.1693 15.13171
-7.564017 85.3451 16.49996
-32.91887 11.36633 -13.03055
-32.36541 9.236154 -8.867813
-22.43338 90.59499 0.03908991
-4.371542 99.79319 15.47245
-11.17212 95.07573 14.15512
-28.75487 58.87476 -7.772472
-23.27132 14.14963 9.951225
-24.28636 11.72365 8.884553
-9.12658 36.94386 18.79643
-28.50675 49.83369 -0.121754
-31.30436 42.70068 -7.961442
-30.46586 40.18737 -4.164596
-32.78883 23.74945 -12.78588
-32.24776 24.33771 -9.19635
-26.53894 64.9033 1.581816
-26.98615 62.88802 0.8360484
-26.41643 68.8137 0.6243878
-7.741676 90.26831 15.98478
-10.65109 91.94421 14.72467
-12.61032 91.00747 13.8259
-14.22282 91.69848 12.71784
-13.87901 92.60209 12.87255
-31.01871 12.54875 -3.849527
-13.70537 51.81617 15.9955
-12.63282 35.26513 17.32433
-9.781367 26.90764 18.96698
-30.68087 31.96 -4.082191
-30.87251 36.13172 -5.143923
-29.18918 34.65612 -0.3913514
-30.93761 30.23553 -4.708195
-30.34711 37.90962 -3.606583
-26.88943 36.46371 3.910383
-29.1204 41.66434 -0.7556657
-29.92203 39.10817 -2.505808
-28.00793 40.22845 1.70474
-32.05802 23.04999 -8.283238
-31.06317 19.94092 -4.469205
-32.00984 20.46799 -8.028292
-32.28248 19.71133 -9.334323
-30.2049 19.12 -1.94086
-29.25593 25.48057 0.001962028
-28.14935 35.23606 1.738468
-12.17063 47.04804 17.02811
-13.69628 45.28889 16.3135
-12.56484 45.80552 16.88847
-14.42874 44.69888 15.92009
-10.95246 41.14642 17.86681
-18.71717 21.89925 13.93665
-16.30624 23.48159 15.65365
-22.72898 19.00923 10.28291
-20.91313 26.90251 11.78471
-15.25393 33.51902 15.90836
-13.10684 30.32309 17.28971
-13.3871 30.89758 17.11285
-13.90021 33.37564 16.72045
-26.14523 41.83636 4.801476
-12.02491 99.88493 13.21926
-28.79737 19.25498 1.304441
-30.04721 13.67341 -1.258337
-29.14372 16.87407 0.6894944
-28.12469 11.2129 3.186867
-24.20349 84.58187 1.111445
-22.53585 85.82805 3.651341
-32.87102 14.40405 -13.07826
-28.38153 9.522254 2.848091
-10.64569 78.70981 15.82981
-15.55066 64.44341 14.16025
-14.42969 76.76673 13.93203
-32.1124 10.08746 -7.668974
-17.34182 95.5274 6.572933
-16.0438 97.92091 9.132777
-19.14741 96.80877 5.832837
-12.66773 99.27618 12.94753
-18.31521 96.32542 7.779375
-17.32755 95.30362 9.215505
-18.60381 92.79014 8.112333
-22.67681 18.22136 10.37687
-26.32682 70.10268 0.4653033
-13.27381 95.53095 12.98316
-31.84501 11.20263 -6.619598
-31.98223 13.38252 -7.411153
-32.83355 13.25702 -12.57012
-25.98672 30.73841 5.59142
-32.03959 17.15379 -8.041255
-30.96799 16.68247 -3.970947
-15.00602 40.87944 15.75106
-14.54151 35.52129 16.25651
-20.23493 34.1465 12.09808
-17.59677 36.29847 14.18972
-22.53087 19.36272 10.4846
-24.52033 18.00307 8.227071
-25.66341 18.48771 6.660615
-22.4163 22.29736 10.47779
-20.91868 30.46986 11.62261
-25.65142 41.24392 5.574997
-25.05386 51.3341 6.016424
-27.5081 51.14065 1.963937
-27.56136 51.52453 1.838771
-26.50605 58.18671 3.529396
-26.24944 60.12778 3.747602
-27.33682 10.64354 4.62552
-23.83248 81.71204 2.752903
-22.78542 81.81575 4.74505
-23.73097 79.26247 3.54103
-22.24975 83.24477 5.293012
-21.84316 85.18639 5.26669
-20.14668 75.98454 9.244663
-21.57832 89.41207 3.894595
-21.16866 89.25367 4.904694
-16.75496 86.77072 11.21106
-11.47012 80.36115 15.31545
-12.55545 85.57482 14.32657
-11.55682 84.88502 14.91568
-13.10091 88.31113 13.77592
-18.1586 87.85941 9.633978
-22.1308 77.6067 6.586534
-18.76218 75.07937 10.73973
-17.07827 74.66634 12.22694
-14.93896 81.53072 13.17431
-19.83908 83.45049 8.487294
-31.36204 12.95166 -4.974014
-32.59726 17.77273 -11.16516
-29.8317 33.34998 -1.824458
-24.67288 37.07295 7.135721
-17.18289 41.21008 14.28301
-25.14225 13.44421 7.678517
-26.05725 16.57513 6.186199
-29.30189 20.14093 0.1766108
-28.64966 21.88828 1.448524
-28.75057 16.84347 1.507629
-27.7677 21.75659 3.136
-27.78098 22.47968 3.067484
-20.36992 28.4935 12.22566
-17.86283 27.66052 14.3522
-19.67209 32.66029 12.66822
-26.09011 45.01354 4.730655
-24.60559 60.08452 6.109798
-23.9544 61.01315 6.857952
-25.4424 64.48644 4.113612
-24.28983 65.52731 5.718292
-20.6361 61.20382 10.4094
-26.69514 66.37772 0.8166001
-21.32698 65.36105 9.365993
-25.1432 74.67496 2.251647
-24.71991 68.67446 4.298782
-24.33456 70.97067 4.502426
-25.47764 69.44653 2.660515
-22.74141 69.98931 7.050227
-23.44979 72.21536 5.661208
-22.03133 71.51517 7.714081
-22.61379 74.29907 6.469299
-19.01414 75.35585 10.47424
-20.00147 67.33606 10.45431
-17.25811 71.0366 12.43252
-16.23253 69.83351 13.29863
-13.75474 57.33691 15.67458
-21.40417 77.37635 7.588675
-22.17415 79.5699 6.153651
-19.05714 88.07418 8.482241
-32.86467 17.33146 -13.36989
-11.75184 63.7816 16.33077
-11.97535 59.11363 16.49995
-10.60462 55.22696 17.33583
-14.26967 54.78801 15.52199
-16.51965 61.07832 13.73692
-17.72245 62.69608 12.7623
-15.75162 57.69309 14.45177
-19.37865 78.14315 9.771932
-13.89989 56.77901 15.62146
-17.28322 55.22166 13.54874
-18.33714 59.27736 12.51799
-27.26809 35.84718 3.307606
-27.50065 29.23386 3.234954
-28.15415 29.13646 2.068144
-27.36548 27.62883 3.550233
-27.19754 31.75406 3.627552
-25.15186 28.05945 6.897027
-26.82383 25.68067 4.540684
-25.04083 28.37049 7.030508
-24.43025 27.43894 7.881455
-18.94226 35.59504 13.16101
-18.76076 36.8548 13.25899
-20.32676 39.00174 11.80511
-23.80781 39.65722 8.110409
-24.19264 35.19714 7.826014
-24.61599 37.499 7.192777
-23.99244 35.57775 8.05896
-25.1812 35.64273 6.517756
-22.38166 42.93798 9.608806
-24.58845 43.32491 6.961286
-13.16658 54.15153 16.16647
-17.53165 89.96242 10.01573
-20.86849 55.76713 10.55067
-16.62488 50.00964 14.28233
-17.55719 45.22963 13.83236
-17.59963 48.08995 13.67611
-20.17348 47.48712 11.60105
-24.26373 49.90628 7.118697
-23.5729 47.83792 8.049885
-21.83978 50.70949 9.851589
-25.25343 52.5732 5.695848
-22.4752 52.41954 9.112724
-19.89651 46.04216 11.90571
-21.07331 42.58327 10.95961
-22.79592 32.81541 9.578582
-23.527 58.27174 7.584751
-21.04756 55.7823 10.3819
-29.30446 29.5281 -0.3097762
-1.16681 108.6466 13.98964
-0.7640038 124.3158 12.74247
10.72803 138.8459 8.819403
14.44344 101.0046 7.731531
16.15537 104.1111 5.032288
13.05829 136.072 9.603189
14.72334 136.5445 4.097828
12.73463 120.538 4.46634
13.35652 133.5762 10.89752
13.85467 135.0893 9.181912
13.95042 128.9155 5.366438
14.17321 104.8345 7.817646
14.68686 136.2668 4.784172
12.37092 117.9653 4.879513
12.85604 123.271 6.193206
1.763113 134.7069 12.51791
10.37012 136.7578 11.65323
14.30334 134.4041 8.682425
11.60469 102.0374 10.15299
11.80315 119.7412 7.468761
13.38961 128.0521 7.17425
7.641393 139.229 9.759566
12.11662 113.4651 6.594507
11.40247 118.755 7.88205
12.95138 128.4271 8.725931
0.176693 134.1657 12.76619
7.271218 137.8446 11.38332
14.40454 131.2086 8.458698
10.25377 103.5033 10.75299
10.06926 126.1065 9.619137
-0.03075117 109.1563 13.30202
1.165546 133.2539 13.01172
9.460221 104.115 11.11085
6.638918 106.3592 11.78621
4.824817 112.2943 11.87706
10.00855 104.8514 10.1356
8.071593 121.4419 11.02383
9.344698 120.8954 10.22945
-0.1279525 130.2559 13.41237
3.450054 133.6814 13.45057
0.854183 122.1815 12.15466
10.65442 118.9056 9.06245
3.407579 109.5895 12.17211
4.761087 131.1073 13.94179
2.344834 123.7534 12.53219
2.297882 113.2755 12.76686
12.53311 104.9359 8.893626
4.749156 107.5783 12.20915
3.890462 124.3702 12.61026
5.580689 120.0744 11.63387
11.81459 114.1826 6.862756
5.882199 116.7257 12.04161
3.668577 127.68 13.20376
8.05131 105.7709 11.06532
12.3217 129.0102 10.58789
5.847496 109.0915 11.61425
6.277886 135.4852 13.1063
9.267075 129.5539 12.8145
10.26595 128.431 11.66234
6.400818 109.686 11.9229
8.509767 131.274 13.67164
9.051938 126.0737 10.23087
6.907717 113.7518 11.69591
8.908968 110.4343 10.68316
10.00002 135.4068 12.87064
12.78162 108.7728 8.246313
8.74555 132.8218 13.81534
4.232954 115.0322 12.38835
4.186949 116.5455 12.06411
10.04136 138.9068 9.24626
4.756862 137.0718 11.75718
18.01717 95.89803 2.667251
0.3503213 5.280478 22.12036
-1.002241 43.45939 20.46745
0.2289564 60.00426 19.77452
-1.081438 82.51116 18.12716
8.082675 99.10936 15.9215
14.61832 96.93595 8.171074
16.17654 99.22696 5.873443
40.10585 4.105787 -6.26184
4.260033 103.1491 13.5346
5.70315 7.011656 22.02132
35.19247 7.890676 3.521737
34.10775 59.5969 -2.931062
1.756736 99.20328 16.31052
8.327651 5.39796 21.75781
29.11764 75.18711 2.35595
0.0531401 100.367 15.89409
4.694291 102.6413 12.20905
39.70708 13.62077 -7.066202
17.8338 95.25867 5.038755
2.067863 5.70078 22.18409
5.493523 4.790398 22.12118
-0.7167369 38.81841 20.69606
29.39121 69.36937 0.4044262
5.933395 102.1196 11.27792
5.007592 102.5293 13.29603
27.26407 5.791155 12.81084
39.14022 5.192971 -3.861917
20.71724 97.39243 3.556845
-0.2531573 21.714 21.42264
2.762466 7.100291 22.14111
38.1187 32.27965 -5.851337
23.77782 5.840288 15.49084
-0.9530164 59.23714 19.70042
8.309773 100.9648 10.54703
6.189934 101.6082 11.42242
23.49132 91.47145 1.790097
30.39305 4.983019 9.861174
38.14902 3.990475 -1.237803
40.3425 7.91019 -8.492412
40.05634 8.138095 -7.403758
20.50245 97.62111 3.31064
3.604198 11.34953 21.95202
9.041314 5.692838 21.6246
37.21928 35.91534 -3.487548
35.82403 50.64233 -3.840072
-1.039505 41.43644 20.55143
2.154963 39.31598 20.8558
21.30265 7.293724 17.00893
30.25408 67.4482 -1.667217
-0.1453285 70.03907 19.14756
-0.6510285 75.66232 18.72054
0.3985101 95.93529 16.65353
0.6185017 97.03722 16.52441
8.444357 99.71626 12.34886
27.74644 83.17632 0.7728078
34.76075 7.013524 4.269787
34.00501 8.705875 5.226985
28.55506 4.812025 11.69948
39.01123 22.11592 -6.290893
38.00054 6.28978 -1.415004
2.888913 12.85163 21.90083
14.49504 6.09503 20.18343
38.01482 30.6082 -6.003909
35.52195 48.07372 -4.225253
0.321115 34.32932 20.97466
0.9295632 49.34108 20.36909
33.03782 60.57795 -0.7235739
34.29947 55.82784 -2.159344
0.1376768 67.87811 19.30528
27.23492 76.36793 5.72439
0.2404363 79.69398 18.48849
2.058811 78.19475 18.69225
1.498521 73.35875 19.03046
0.7728959 96.63712 16.61385
4.213185 99.06506 16.36756
21.64805 95.48013 5.026602
24.4154 89.79273 4.384722
26.91984 85.33068 3.025505
32.49461 7.09815 7.348695
38.48367 17.91066 -4.043444
17.36239 95.66084 5.144837
1.509823 16.71602 21.72679
10.99522 9.410309 21.06772
37.77042 29.54647 -3.580087
36.55555 40.38282 -2.872735
3.931094 48.25921 20.46428
2.033449 52.62514 20.25335
29.87364 67.55067 -0.8749322
30.07501 72.75762 0.861357
3.368624 86.51229 17.9546
2.918933 86.99976 17.91331
32.91004 5.758494 6.917204
38.57212 15.20593 -3.991293
38.30275 12.67594 -3.028866
38.19012 21.40481 -3.693589
2.227102 29.77426 21.24572
4.256532 23.75179 21.44571
1.202391 25.9243 21.36135
4.723015 12.51195 21.86063
4.437553 22.50777 21.48511
14.58842 9.24707 20.0236
36.48693 39.16334 -2.430223
3.04599 44.44556 20.64573
1.959136 53.45087 20.21012
34.11276 54.50422 -0.7650484
2.042618 68.50707 19.36795
29.57151 72.23721 2.063424
25.93061 85.93823 4.526416
39.23037 18.76 -6.15446
3.069965 34.49493 21.0594
4.366766 26.81562 21.32163
13.97548 10.65281 20.17813
35.74735 43.31947 -1.343345
28.42196 75.93473 3.658084
25.19613 86.27527 5.641782
37.71257 8.988014 -1.255385
35.92727 22.19252 1.106076
35.95712 19.37391 1.236375
7.998643 13.35985 21.4906
35.90828 33.49587 0.1140748
4.973006 42.82565 20.65156
3.077457 66.88947 19.47858
27.97668 82.20132 2.035812
35.49072 22.51443 1.867723
4.668393 28.67383 21.23866
8.751905 17.1341 21.22461
14.56107 16.88851 19.72951
5.40036 43.46517 20.59713
9.728795 98.67113 11.94621
27.70061 80.27244 3.783798
38.33774 24.87767 -4.4837
36.46895 23.39087 -0.01419271
10.67755 14.37046 20.94742
12.13243 19.62456 20.37138
7.755922 40.39446 20.4719
26.3371 77.89865 6.692268
36.87162 11.06525 0.2290923
35.46306 24.04351 1.825298
5.452978 12.13294 21.82582
9.55216 21.62074 20.89962
1.347952 63.375 19.65429
27.20647 73.77673 5.946997
34.9233 13.08175 3.470893
9.310353 18.10062 21.08353
16.82986 13.51615 18.99908
12.02169 44.93901 19.40651
4.577199 59.79445 19.85791
31.11099 11.66078 8.6951
35.58736 15.51757 2.184451
17.05982 17.51052 18.73036
24.27228 10.87689 14.93445
8.904744 41.44887 20.24577
22.48692 87.10678 9.104877
31.61288 10.97237 8.153677
13.55823 22.11967 19.85182
12.55105 38.24248 19.52836
7.392514 50.29559 20.10236
5.832631 64.98005 19.47494
34.16171 11.72016 4.747468
15.73451 20.28868 19.15161
10.07964 46.67204 19.80303
23.97744 89.51391 6.597776
22.58276 93.37514 5.523512
9.073627 38.81023 20.32284
7.374434 37.2665 20.65006
4.859764 53.4707 20.17649
5.444843 59.40683 19.83216
23.18109 91.30286 6.48621
6.819636 39.36277 20.63167
7.401412 36.32912 20.6812
8.094626 62.88796 19.34153
4.295246 58.26814 19.95681
4.751091 31.71962 21.11967
7.85703 52.84565 19.91859
5.98062 71.56244 19.02588
10.05369 62.87056 18.99597
8.781181 65.4819 19.07226
15.86801 38.37812 18.37621
10.32934 60.81479 19.06118
6.298022 74.73412 18.76438
32.47209 18.69188 6.620944
33.21795 18.61549 5.623276
7.261333 58.63589 19.69978
8.687674 56.19065 19.62311
12.20752 56.79675 18.82922
11.68831 55.57113 19.02902
13.87493 58.40686 18.25074
12.66397 48.80038 19.06856
18.21689 58.04046 16.52185
10.13364 50.02202 19.64664
13.37327 61.91829 18.20846
12.29954 66.52406 18.21695
13.45669 70.26882 17.58394
17.46614 61.47295 16.70104
16.40624 68.90376 16.6209
17.70542 64.30495 16.41887
21.04881 61.83234 14.81394
17.58267 59.71222 16.74034
21.19843 60.82526 14.76567
16.34288 56.10703 17.45201
20.93815 54.79325 15.16271
18.71459 54.91267 16.40813
22.184 59.29742 14.17297
24.17498 56.84011 12.77071
24.87799 55.72656 12.2361
24.9796 59.52229 11.94301
18.72401 50.34495 16.5926
26.98179 61.12994 9.889741
26.97139 57.5976 10.07947
21.42075 69.75092 13.97374
5.942102 96.24463 16.66135
6.927185 99.10966 16.1543
32.03128 4.513128 8.070974
37.6542 9.048013 -1.138432
37.84066 30.43282 -4.278631
34.05209 55.76479 -1.216421
32.39262 56.53699 2.433001
30.35607 59.57236 5.354187
31.53688 6.537138 8.52473
7.996602 86.1452 17.49514
8.513015 82.85032 17.71769
7.264894 90.0289 17.22249
7.000657 97.15266 16.43312
6.048826 94.50471 16.87677
6.103367 24.6669 21.28316
8.172571 25.1296 21.00714
11.90632 23.39499 20.2835
9.877171 30.56819 20.48857
13.85099 31.92119 19.36871
17.15593 30.32454 18.16253
14.71407 24.89601 19.35378
35.24181 42.27662 -0.04582675
33.71789 39.28675 3.278258
33.69034 42.60362 2.946648
33.50349 38.8623 3.677964
33.03858 44.82786 3.811463
32.17947 38.80356 5.653535
32.13025 38.36792 5.759813
35.47368 33.24454 1.012387
33.86513 32.38747 3.83575
33.35055 32.07856 4.625401
32.35556 33.09049 5.916139
30.04864 39.3448 8.289247
30.18265 34.48355 8.470033
35.63445 28.66414 1.255866
36.05121 28.4831 0.4951228
35.8521 26.29832 0.9896808
28.02132 39.41486 10.41758
26.81693 39.72711 11.52456
27.14505 34.0295 11.54314
27.554 33.92762 11.1769
28.40127 19.98078 11.08475
26.81754 33.95294 11.83644
28.28229 25.65278 10.917
24.24736 30.86462 14.04233
24.46227 33.61768 13.75288
26.26887 40.4219 11.96331
24.31804 38.57817 13.62397
19.02439 37.59942 16.97058
32.23808 53.14047 3.548303
34.0985 45.92851 1.918251
2.013157 57.6826 19.99782
34.43419 22.68223 3.598636
33.09258 21.49529 5.621329
32.6461 22.83939 6.167
32.5322 28.28401 6.02392
31.28753 23.35841 7.841942
29.94119 24.03352 9.325147
27.45144 26.17673 11.66046
23.64773 23.08892 14.82146
29.62536 22.29479 9.745494
26.69992 20.23991 12.6104
29.481 18.18232 10.10801
29.66849 15.86465 10.0368
29.28026 13.41218 10.56037
19.86421 23.33202 17.12943
6.935052 22.42174 21.28075
20.54273 15.88975 17.08041
19.03257 13.02705 18.00201
23.2531 11.46802 15.60864
25.16971 16.12204 14.04238
27.58171 10.84248 12.30705
22.15896 8.82311 16.42638
22.08775 10.62859 16.39109
20.38531 8.914286 17.45577
20.11883 83.7871 12.04451
19.92298 74.93024 13.97454
12.84203 34.78742 19.57831
15.01097 36.02903 18.80303
17.61056 33.77913 17.81569
19.00024 32.42115 17.19892
22.70321 33.63406 14.98808
19.89472 26.61196 16.97532
15.65279 25.71247 18.96828
15.72167 36.61697 18.51263
16.38079 22.98113 18.79102
22.48005 28.86285 15.34913
18.75141 20.47214 17.82101
22.7247 19.91442 15.59129
21.23376 31.73318 15.99709
22.31396 17.75736 15.94744
15.01609 43.36208 18.50573
13.81142 56.91441 18.34834
8.22845 74.50253 18.51585
7.76786 75.03273 18.54832
15.55151 72.86966 16.578
21.12794 66.46104 14.48654
23.67888 63.4686 12.98443
24.41754 62.33536 12.42181
25.03191 65.27883 11.79289
19.97028 71.27068 14.61727
19.77695 70.72679 14.80261
22.32164 76.71323 11.61925
19.20592 77.13809 14.01327
10.41705 73.96144 18.11663
21.54618 49.28461 15.02217
27.2056 56.24977 9.951929
14.6704 97.54394 12.89242
30.12889 48.47023 7.403769
30.54178 54.24212 6.035456
26.85814 54.18123 10.48489
26.79755 51.85958 10.71887
26.15553 49.96275 11.46391
30.46288 66.81554 1.752628
15.5619 95.74275 8.756898
18.91125 97.34543 7.784592
30.26066 45.16451 7.573864
23.23602 43.13319 14.18204
30.20239 47.69404 7.397032
28.58411 50.52692 8.98417
34.88027 47.04415 0.2401858
26.20842 75.2894 7.627023
24.61617 74.41403 10.03236
22.27774 81.40495 10.64435
19.24754 92.38403 10.69906
17.80948 95.2799 11.25009
18.6722 89.44546 12.05514
18.87888 97.08535 8.857003
11.85135 95.45951 15.35244
13.08932 96.38916 14.66907
7.943946 95.52757 16.47531
15.36033 97.35004 12.7145
18.24091 88.11172 12.65945
17.73262 84.45862 13.6629
16.49317 82.44061 14.75553
21.59978 32.62132 15.73721
14.64469 49.48014 18.39492
10.08087 75.50571 18.06041
4.979957 81.4203 18.34206
10.7248 81.34577 17.32338
12.77541 85.87141 16.09431
9.862065 88.76557 16.76806
13.03925 88.06793 15.71075
10.05118 86.29359 16.98667
12.03069 90.40882 15.85084
16.72124 84.97931 14.22022
14.19174 91.51649 14.70758
13.37933 89.24395 15.40651
13.68936 75.11478 17.04452
16.33456 76.60511 15.74846
10.4746 77.53177 17.78109
21.85095 64.82724 14.17479
24.67485 66.28519 12.03864
27.30426 66.20103 9.144783
28.3181 62.83464 7.428554
30.06106 56.62732 6.334802
32.40664 46.53035 4.589464
30.81775 60.98275 4.241726
29.5869 59.72693 6.579105
20.62974 47.11889 15.68226
24.9245 42.69449 12.94243
18.96426 38.54097 16.9576
27.54702 46.59659 10.39871
20.77082 82.63636 11.73272
17.14125 39.33886 17.79562
18.51075 43.45883 16.9863
21.75313 46.41978 15.0201
17.80747 44.30058 17.29548
29.62156 66.44302 5.684586
25.17445 71.3888 9.604708
27.36383 47.97316 10.48392
23.51453 47.14224 13.78046
29.32218 67.57407 2.71679
29.05261 71.39415 3.494974
27.31557 71.52975 6.035911
27.06294 69.85619 8.26933
24.38072 70.97858 11.16512
4.870956 131.6695 -10.84344
15.51834 99.66875 -5.433491
14.9634 134.6579 -4.106785
2.058674 132.5338 -11.24962
14.64918 132.351 3.028961
1.121719 117.5795 -6.63975
0.7750125 122.283 -7.84726
12.65372 101.2277 -8.371622
14.8927 136.0564 0.2551253
5.700064 131.1968 -10.58227
13.62092 126.242 2.905365
1.940371 130.4457 -10.48205
14.78533 134.5208 0.7178015
12.76136 120.8968 3.438944
5.853715 123.6829 -7.326099
12.4307 123.6774 -0.3722272
14.71324 134.4497 -5.872853
1.594678 127.0889 -9.047374
17.66309 99.34321 2.418062
16.35411 98.95821 -3.97776
2.446882 105.4857 -10.3822
14.32745 131.9341 -1.594618
5.132484 130.2017 -10.22161
12.81137 123.7857 0.7678205
2.213816 108.0243 -9.195299
8.991644 102.2423 -10.2884
3.544775 104.3245 -11.32914
2.994327 127.0618 -8.983771
17.66873 101.7303 1.468648
14.8647 109.7457 1.804634
12.46496 101.8055 -8.392798
6.082791 105.7149 -11.08543
1.449463 115.8773 -7.045589
8.225256 121.9632 -5.327842
15.98415 106.7822 2.255824
14.13671 101.9501 -6.737389
13.47234 114.1826 2.435583
13.51107 111.5193 -1.418422
5.930068 105.604 -11.20377
8.895 106.5941 -9.030707
3.386254 113.177 -6.392416
6.922656 122.0228 -6.060181
6.9555 122.2183 -6.087419
8.81797 121.3638 -5.700228
11.59549 131.6214 -8.311617
15.39708 103.4961 -4.065006
5.540565 105.9192 -10.71238
9.669381 106.8972 -8.316022
7.408292 125.6631 -7.603998
14.24584 103.1861 -5.709694
10.61607 126.1979 -5.691372
13.04387 109.8089 -3.534097
4.745648 110.9443 -7.320189
4.284746 115.5596 -6.285826
11.13361 128.6219 -6.856576
9.473924 107.4325 -6.978475
9.641644 125.7839 -6.30683
7.653952 110.2283 -6.246904
13.18914 107.2492 -5.65273
8.545309 128.4247 -8.448877
11.1596 112.2333 -3.67815
8.191825 127.4194 -8.060594
12.21294 121.6002 -1.695375
11.74501 110.0369 -5.212279
7.951873 111.5788 -6.087559
6.619381 115.1421 -5.261216
11.47696 127.9238 -5.991524
9.331068 114.5705 -4.788346
9.508634 115.292 -3.611586
8.684466 117.1915 -4.374277
6.50196 118.638 -5.740943
11.68783 118.813 -1.120163
5.370165 118.7187 -6.300518
10.54061 120.2766 -2.467052
12.08418 115.8905 0.5336469
11.87446 118.253 0.7695707
10.42753 105.1973 -9.100574
34.49512 59.86317 -13.85482
39.75252 25.23029 -8.781878
16.28666 1.325459 -51.06261
41.19326 7.141849 -12.94499
35.74376 53.81989 -5.047048
39.24873 28.15067 -8.479057
23.67429 93.11784 0.430925
17.81718 96.15889 -1.871331
40.90309 5.976716 -11.03056
3.216503 101.1456 -12.81372
11.85037 32.23437 -51.51484
3.805162 96.18391 -20.12045
19.25183 97.2114 -1.490891
6.812652 69.7803 -34.97331
5.930242 82.86905 -28.55451
40.17089 20.92766 -11.30975
34.47154 57.37629 -4.349305
19.37323 97.33738 -0.9043304
13.31516 1.698167 -52.26615
2.996208 98.14811 -18.47122
41.00438 7.111685 -12.15914
39.69339 21.2994 -9.719066
40.70995 4.07965 -32.52279
30.27611 70.2135 -4.614275
24.06557 91.02595 1.063039
18.60728 97.53111 -5.254143
20.10301 2.345601 -51.00468
10.50413 3.961793 -57.19448
4.026141 92.22551 -23.51698
41.66706 6.104489 -15.60714
38.84732 29.01037 -8.377437
41.95507 3.559876 -18.29908
8.770316 28.2431 -54.00354
7.587258 58.51257 -40.49171
6.543499 76.02408 -31.88499
27.21027 87.34717 0.3494697
23.67896 94.14061 -2.760724
14.22517 99.30473 -9.067853
32.1743 3.318761 -46.55576
15.06905 6.427047 -56.0784
9.570518 6.132505 -58.5265
6.81359 99.82391 -12.05751
7.860849 99.62527 -14.25513
38.72109 28.77243 -7.457388
39.88672 21.32734 -10.62513
41.5161 5.047835 -27.46731
41.72893 8.096915 -23.56815
38.55379 4.805195 -38.62027
39.59275 5.405325 -35.56572
9.412382 36.01434 -50.75367
7.797539 54.09241 -42.62923
5.883953 68.73431 -35.61855
33.17322 63.57378 -4.266766
29.24054 68.77498 -2.005566
6.312709 75.21133 -32.32386
28.16927 82.34441 -0.02578926
25.82671 89.57889 0.9410744
20.75879 96.74587 -5.404934
33.15138 4.968007 -45.79293
22.97492 4.570907 -51.20319
31.14353 5.330451 -47.18169
25.43014 7.140026 -50.63043
11.28172 15.74012 -57.46661
9.840113 100.194 -11.8682
37.44556 39.84635 -7.025679
38.50954 29.82497 -9.194009
40.12759 25.20865 -10.95444
41.35674 4.200252 -29.17992
39.80785 3.570894 -36.07804
8.474032 33.46228 -51.45286
11.11374 37.27308 -49.81961
8.347907 52.81874 -43.15827
7.405714 71.46863 -34.03612
32.69677 65.61653 -4.780826
36.16359 53.15471 -6.573734
7.46419 79.35077 -30.04119
6.97984 84.16211 -27.68791
30.33606 70.30683 -4.096265
24.46458 91.57562 -6.374089
21.60994 4.774698 -51.92726
16.4516 3.518811 -53.41071
17.21632 97.92638 -8.878528
6.749136 90.50697 -24.16496
5.617592 95.12736 -20.88651
40.23175 23.38951 -12.73762
40.80684 12.77436 -11.42545
37.02999 5.637211 -41.11053
13.8365 37.28254 -48.93654
10.95161 47.28465 -45.25273
10.12537 51.81086 -43.28917
7.997632 69.77633 -34.77981
36.29187 53.41903 -8.240853
9.462036 78.44042 -30.03991
8.370002 86.91821 -25.84457
23.68306 93.12508 -6.19429
22.55087 4.610897 -51.41037
14.86957 10.816 -56.78942
14.79948 99.23703 -11.26731
19.90749 98.22337 -3.618181
7.557106 87.61576 -25.68936
7.799214 98.18243 -18.1089
38.66181 36.28612 -8.399232
39.87487 28.79735 -14.32514
41.0859 15.31841 -15.19496
9.515134 39.47296 -49.09918
8.52641 51.41671 -43.8092
33.48262 64.12633 -6.972128
29.58943 68.35675 -5.869388
36.17749 47.89675 -9.427821
12.52616 10.54904 -57.85624
19.77749 4.731194 -52.76728
9.143732 93.02587 -21.79535
38.99951 35.73728 -9.762872
41.35692 18.18175 -17.92232
31.95615 5.948229 -46.57634
10.04043 49.17671 -44.58835
8.731683 72.59064 -33.21527
34.06215 62.57531 -9.889194
11.10056 82.09675 -27.58423
20.67418 95.41917 -7.77621
23.77636 88.77886 -12.15905
20.80345 5.92711 -52.82228
14.29952 99.94814 -12.51486
12.00355 88.82088 -23.35519
40.3101 25.87598 -18.61797
39.15287 33.99527 -10.51248
41.29707 14.58791 -17.06266
33.42668 7.272261 -45.0686
11.07771 67.42142 -35.27616
36.14926 53.30423 -6.679228
38.24535 38.12737 -9.635975
14.18231 13.18104 -56.90945
13.29646 8.169844 -57.37707
38.82348 30.59191 -13.17535
13.10088 63.21826 -36.79586
11.13113 66.52167 -35.72037
35.99626 54.95303 -9.15794
38.40228 37.95243 -10.06847
12.09472 7.111894 -57.75063
40.73974 23.53207 -17.01866
41.41 16.70232 -19.94828
15.73684 68.86949 -32.86239
36.06059 54.61994 -11.65591
29.5424 69.03449 -5.534523
8.338429 84.13596 -27.36309
15.96425 7.037243 -55.80902
15.92964 10.94385 -56.25797
12.21633 96.5246 -18.18681
40.20967 26.99845 -17.99578
33.15577 65.2041 -10.72791
10.58263 86.77625 -25.16761
8.062448 93.6649 -21.62152
40.42751 26.07092 -14.79958
17.18516 70.00285 -31.57465
36.14639 53.39949 -13.03526
35.55735 57.16181 -11.69159
32.11778 66.91953 -10.05523
28.73332 83.00925 -4.664065
16.0161 9.126642 -56.16393
40.59654 24.86082 -16.1271
29.69434 68.65997 -7.586917
28.99325 81.01006 -8.638915
22.73367 8.221501 -52.32247
17.61197 66.6004 -33.16193
16.40591 73.51798 -30.04691
36.66027 50.03378 -15.06821
12.7848 81.72433 -27.11483
19.98053 6.901451 -53.58911
9.638014 90.90307 -23.0474
18.292 70.41444 -30.76473
28.63474 80.88003 -10.01689
35.72206 53.89534 -14.9279
30.54281 77.21443 -5.850103
18.56258 73.18108 -29.06137
11.88005 90.60442 -22.32936
13.70055 94.79817 -18.5225
36.46033 49.19031 -18.57759
35.18461 55.32795 -16.37775
12.90886 93.29375 -20.10768
35.33469 52.44249 -18.47642
23.25199 72.94946 -25.87593
24.82745 71.15641 -25.6384
26.23938 71.1664 -24.23449
33.44764 54.63837 -22.52731
32.14997 58.47857 -22.57081
33.06632 59.74302 -19.37956
33.49436 62.7167 -14.51862
34.50861 58.73127 -15.56779
41.81544 10.08426 -15.96263
41.81531 10.9275 -16.9259
41.47483 12.88673 -16.61754
41.84223 9.256739 -21.27297
41.64451 12.69341 -18.39769
41.49642 10.78703 -23.91915
21.76845 96.21919 -2.796625
19.79993 98.28606 -5.421726
20.62867 94.09827 -9.710486
21.44732 92.85168 -10.078
24.35698 90.20268 -9.475842
10.78567 27.01068 -54.01942
11.87539 29.55027 -52.83815
13.97717 29.20446 -52.25741
14.61529 31.35262 -51.14813
17.13701 36.62427 -47.78233
18.62113 35.22343 -47.60054
18.78121 31.74938 -48.96242
15.52061 36.21285 -48.72915
16.03403 37.52658 -47.90395
22.76185 34.05306 -45.40434
23.9661 35.87351 -43.71349
24.8561 32.70669 -44.3189
23.16938 28.42775 -47.36273
17.69652 27.24804 -51.27618
19.73182 39.60453 -45.0271
24.24933 29.41827 -46.13857
24.42061 23.2652 -48.30517
24.94362 29.46648 -45.55228
22.47776 39.34351 -43.32671
20.54489 42.54981 -43.20051
26.27258 28.36466 -44.83359
25.82362 37.23434 -41.56249
23.91945 27.74751 -47.04935
25.51362 27.34241 -45.89645
27.2939 26.81238 -44.49443
29.32974 26.52864 -42.54499
20.74074 22.89305 -51.12003
28.94769 20.81378 -45.10209
29.72746 20.23249 -44.51062
29.20642 29.72493 -41.39452
30.47343 28.11351 -40.62815
21.10977 97.53502 -1.955844
26.03819 8.534389 -50.38358
26.80203 11.67503 -49.6025
10.99733 32.67062 -51.43945
11.37145 76.3549 -30.57417
15.20884 75.86348 -29.31876
14.34991 79.29308 -27.78953
9.789471 74.21438 -32.14025
12.9396 71.76016 -32.45729
15.6127 83.71424 -24.46786
13.04684 86.07224 -24.48315
14.72979 88.75187 -21.882
21.40915 78.79555 -23.36945
30.84043 75.08183 -7.077047
41.58461 9.649834 -23.92782
35.19317 6.529489 -43.36674
38.19979 6.802351 -38.2346
13.58718 39.48257 -48.02608
10.14327 40.01397 -48.77363
17.7122 47.21468 -42.6749
14.51294 20.45888 -54.67093
9.342279 50.51696 -44.09237
40.44345 24.48132 -19.92676
38.0317 42.12834 -8.444972
16.00705 62.55898 -36.00695
16.92487 62.62315 -35.55183
9.894034 59.00015 -39.81177
16.26212 60.50398 -36.92677
11.79205 56.11832 -40.74518
26.99666 85.41508 -8.53567
25.84089 85.83003 -11.09151
23.14251 84.71796 -16.80821
27.09931 81.02349 -13.73809
26.61846 79.58708 -16.11857
21.14501 84.09058 -19.68806
21.84026 82.27058 -20.32958
17.30885 86.48531 -21.49079
39.35345 35.09558 -14.27062
40.0528 23.20008 -23.7678
39.86687 23.63145 -24.27458
40.12387 22.07337 -24.1846
40.19374 23.51466 -22.78447
39.02159 22.93558 -27.72239
38.64853 22.38222 -29.0912
40.53792 14.72327 -26.96043
38.7169 16.69443 -31.80461
39.35521 14.95698 -30.92344
40.65515 19.36008 -23.3246
38.64812 20.552 -30.03062
41.24089 10.87891 -25.61407
40.4074 12.51966 -28.6674
40.77015 9.176151 -28.99974
40.7995 8.602212 -29.1858
39.25606 7.378379 -35.26677
40.34395 7.935722 -31.45518
15.18144 9.128383 -56.58251
38.93174 32.27147 -17.66459
39.47262 28.89244 -22.17312
38.81416 28.97516 -24.76427
38.64258 33.80001 -23.07796
38.9529 33.24416 -22.2662
36.26394 47.57362 -10.98056
35.11046 58.16805 -13.2803
17.80385 68.60464 -32.00264
19.75181 67.87788 -31.29919
21.40197 66.19229 -31.1499
31.46608 68.06755 -15.20522
30.05626 69.93719 -15.86566
29.4116 78.6234 -10.07663
31.08266 72.93555 -6.428333
30.874 73.45531 -10.69436
30.71603 70.89052 -8.499661
30.91739 71.6947 -12.39515
30.59193 68.82027 -16.2155
28.72576 71.96712 -19.93712
28.40429 77.65308 -14.22753
27.81836 78.76477 -14.53082
28.87539 75.73055 -14.54525
15.14047 23.10903 -54.03502
15.5063 25.8155 -52.85365
18.55344 22.99466 -52.44442
16.26016 86.04256 -22.57008
19.10138 87.12959 -19.47468
19.83821 85.75047 -19.78461
18.13821 74.25441 -28.69177
36.38308 48.50708 -14.3536
36.05896 49.11085 -20.5715
35.53476 50.387 -20.83554
34.81294 51.62403 -21.41825
35.3877 43.02933 -25.74722
35.22046 47.36552 -23.81718
32.78258 53.76296 -24.59936
34.6488 49.46099 -23.78587
35.1844 46.10173 -24.53993
35.36951 47.91044 -23.16499
31.28605 59.14796 -23.83626
38.80318 38.05903 -16.30556
30.5031 55.04246 -27.6915
29.38864 52.96401 -30.36254
39.0669 32.90799 -19.33656
28.57184 57.77221 -28.83109
39.37399 33.88929 -17.13078
23.18476 67.15112 -29.35152
20.39245 77.00239 -25.47743
20.94571 80.403 -22.62521
20.9284 80.66241 -22.45046
25.08626 76.59605 -21.19459
27.78117 70.77739 -22.77408
28.75238 67.23205 -23.65899
28.97759 60.94925 -26.58435
30.80051 67.55243 -19.10155
30.1616 67.54778 -20.56625
32.57463 63.7761 -16.90524
28.97084 66.34397 -23.59881
26.06684 86.78785 -9.176542
27.74742 31.1144 -42.34285
27.80826 32.56014 -41.68322
23.20004 22.06412 -49.66274
25.20219 21.5598 -48.24754
35.33961 8.613752 -42.29533
15.40341 40.77431 -46.73442
18.27935 41.22512 -45.13107
14.72281 41.82284 -46.54254
20.15698 63.10218 -33.55739
20.53948 58.93537 -35.41109
17.78106 56.53367 -38.16355
15.9165 55.89449 -39.36181
16.04426 53.36973 -40.53352
14.50696 55.09826 -40.32921
23.04339 55.59861 -35.31052
13.6146 57.64751 -39.4073
23.26112 88.63482 -13.16424
21.11877 86.77713 -17.64565
18.14404 91.21658 -17.36514
20.7232 87.81651 -17.25999
22.55783 13.04033 -52.28683
20.85885 13.00621 -53.37283
17.77796 15.32105 -54.8955
23.49318 20.42057 -49.96429
22.80925 18.33284 -51.06031
31.40178 17.38482 -43.72239
36.89939 24.17999 -32.41838
37.28015 24.54742 -31.42666
37.81874 11.05032 -36.72801
37.49851 32.12767 -27.43627
36.30356 32.35719 -29.95378
37.27017 27.85874 -29.89285
35.17486 29.8195 -33.22053
32.21289 29.09651 -38.05125
33.45178 25.81716 -37.69666
34.93724 30.11053 -33.50351
34.83966 25.36423 -35.72902
34.2865 22.04313 -38.02672
33.74606 21.82285 -38.9318
30.61465 21.56812 -43.04202
29.43106 19.40254 -45.11699
38.65489 34.66919 -21.64837
27.48779 64.32855 -26.78348
22.75335 61.76177 -32.47946
27.97288 61.22143 -27.77008
28.03861 61.94063 -27.31456
28.39076 63.96589 -25.79614
23.92128 58.05278 -33.41679
25.17891 57.72977 -32.4862
25.76606 55.15851 -33.2175
25.69871 53.75653 -33.97546
27.89327 73.97719 -18.06824
14.89686 20.97783 -54.5257
37.5787 45.93286 -14.413
37.53378 45.10197 -9.037116
38.54856 41.10859 -14.27683
37.97192 41.88179 -17.27078
35.39629 51.93264 -19.09338
34.90948 44.39518 -26.09021
33.68538 45.93171 -27.7319
21.13667 76.4214 -25.28469
28.25517 71.9004 -20.76634
29.81341 71.37406 -19.09535
31.10126 68.43256 -18.03482
31.39926 66.96519 -17.26928
21.38454 91.73943 -12.12411
23.06414 45.77384 -39.98037
20.61599 45.58955 -41.76246
29.9357 33.31822 -39.07883
24.27801 17.37644 -50.21033
34.07202 12.03457 -42.54759
32.95661 10.80215 -44.39424
33.50025 15.46651 -41.89027
32.7029 18.85882 -41.56807
29.37408 17.28995 -45.89904
35.17526 14.19853 -40.02279
35.6278 16.83609 -38.10547
26.17987 17.05953 -48.80728
26.58605 16.56474 -48.61049
31.78823 7.276161 -46.50925
16.56 59.71826 -37.18108
21.10808 91.21275 -13.35036
15.48982 99.29169 -12.41657
17.10076 94.77551 -14.99025
17.49372 96.26379 -12.18003
18.3901 95.88345 -12.1123
38.79551 17.03683 -31.42336
35.20743 26.83378 -34.45723
36.87299 21.8458 -33.55705
36.10358 18.84633 -36.37984
33.61521 30.2731 -35.55455
37.58775 38.20434 -22.2631
37.3201 37.01295 -23.84121
37.07827 34.32237 -27.24571
36.27327 37.8414 -26.74774
35.97213 36.05682 -28.64123
37.14034 39.27753 -23.45008
35.74614 40.80127 -26.29284
34.5415 38.7328 -30.01447
33.87842 35.37746 -32.84111
32.76901 39.93112 -32.36297
33.20679 37.78837 -32.74128
32.67112 34.0469 -35.27168
32.40659 45.51556 -30.08774
28.19062 52.39258 -32.09797
25.2409 53.23734 -34.64445
26.14235 51.54019 -34.64672
22.54202 46.88757 -39.84604
31.6059 48.28991 -29.83595
27.77032 46.68387 -35.37597
28.77369 43.01954 -36.03948
24.26013 47.75599 -38.11126
27.92374 46.27124 -35.41305
16.7706 50.2942 -41.67815
30.54049 44.31931 -33.31892
30.47834 41.83512 -34.59893
31.18169 39.18671 -34.94351
29.70855 35.16621 -38.54529
28.84989 36.54949 -38.89019
30.92147 35.52298 -36.94268
16.99575 92.58306 -17.48927
21.99022 77.40081 -23.86031
23.78066 75.60241 -23.5197
27.5226 40.03326 -38.72318
18.30467 46.97467 -42.47484
35.75086 22.36655 -35.45571
24.83261 42.76845 -39.95458
22.87677 3.915248 -50.93881
31.63671 11.21825 -45.65209
-0.3025705 57.24476 -41.32076
7.879208 27.07325 -54.47356
-33.30915 10.46338 -19.62166
-1.618617 101.1981 -12.51288
1.429659 8.366724 -57.84476
2.498732 81.53667 -29.55646
0.2045352 99.01754 -17.56594
-8.02685 100.4214 -11.87632
-25.96743 2.603326 -44.42743
-29.20468 3.018991 -37.63462
-32.72722 30.4896 -17.65097
-32.95525 6.910602 -23.0703
-27.93909 37.44323 -31.00805
4.698521 31.58971 -52.82857
-26.62496 74.7472 -8.385548
0.7456227 43.52742 -47.69269
-1.909711 100.5513 -13.76001
-32.45958 2.99496 -25.8167
-19.24006 92.66017 -4.827812
-15.01823 2.003757 -52.78577
4.83845 2.536217 -55.00028
4.14009 5.678758 -57.69173
-2.455225 51.44006 -43.72709
4.409593 86.09158 -27.21258
-0.2675522 98.298 -18.1086
-33.0713 11.63741 -19.26794
-32.11684 5.146926 -27.86215
-18.44957 92.96999 -2.149921
7.230167 31.16069 -52.95433
-10.54084 2.226281 -53.44863
8.66888 12.57679 -58.19006
2.706472 5.574374 -57.31995
6.716599 41.96669 -48.50503
2.858098 81.15953 -29.72109
-9.041854 100.6005 -11.83218
-6.476191 100.203 -13.15163
-29.44249 3.194375 -36.99104
-31.23366 4.350252 -31.43527
-33.03656 8.551296 -23.77448
6.327278 41.18079 -48.85371
6.024779 15.93529 -58.01932
-5.110295 2.931723 -54.34557
-18.44922 2.600805 -51.97596
5.234868 9.136246 -58.64154
-32.40074 35.0723 -16.0508
-31.74485 42.81104 -15.82108
-30.36903 54.17794 -13.23246
3.988876 71.86393 -34.22938
6.122826 62.91868 -38.49599
2.130965 88.65705 -26.26878
-8.506916 99.6652 -14.03754
-0.3621965 97.22655 -18.93059
-28.03816 6.894558 -39.33594
-32.70447 20.31414 -20.64992
-32.46829 24.72885 -17.11033
-23.65854 88.72112 -6.241212
6.566124 32.97356 -51.88813
6.0877 28.76507 -54.02181
-14.14145 3.035053 -53.21519
-20.75405 5.24611 -50.16701
-25.13356 3.966009 -45.31381
2.207674 4.03107 -56.11452
0.6129969 6.891135 -57.33834
-32.66839 27.84105 -17.27561
-31.58497 45.8315 -15.09045
6.396976 58.53938 -40.6363
-29.00633 64.19871 -13.6297
2.152367 76.55431 -31.98339
-2.281258 73.55627 -33.19685
1.279195 80.67124 -29.98367
-1.334342 81.93185 -29.22375
3.394206 70.07297 -35.14484
-26.82637 77.42977 -9.454225
2.375367 89.22309 -25.99028
-8.067028 95.25365 -15.98027
-4.41293 100.1333 -13.86138
-28.2526 3.11215 -39.84687
-32.26916 25.45462 -16.86271
-22.31353 91.02615 -7.479318
6.107473 19.09976 -56.09755
-11.67243 7.022712 -54.33405
-17.53725 8.109344 -51.68675
-24.92921 6.235917 -44.80878
4.249619 10.65668 -58.52025
-31.10749 39.77926 -18.40014
-32.37029 31.62893 -18.44469
4.290359 48.84035 -45.45785
4.890568 61.65638 -39.23362
-27.31705 58.82967 -15.6711
-30.00091 56.21474 -13.89293
1.663354 73.16109 -33.65552
0.5060477 76.78849 -31.84717
4.807846 63.70752 -38.22466
-10.77832 97.93903 -12.7734
-6.912969 99.04347 -15.30812
-6.060901 97.10197 -16.97222
-32.92941 18.06372 -20.88415
-29.84705 8.619446 -35.0512
5.296507 31.36418 -52.9384
4.492978 25.38876 -55.13838
-6.314225 6.421614 -55.60346
-19.91241 9.276649 -49.48493
1.813614 11.12169 -58.06439
-31.53203 42.86869 -17.73802
-30.8275 41.38245 -20.38227
4.400219 60.06286 -40.04701
0.4021392 70.85239 -34.75694
-26.49108 79.00938 -10.58685
-28.45982 5.874925 -38.72986
-30.80805 6.123221 -32.77192
4.816789 28.50628 -54.098
-14.54833 6.781368 -53.35863
-31.96234 36.32781 -20.67479
-30.81934 48.2781 -15.47762
2.721166 52.33392 -43.81739
0.7682253 53.35828 -43.24451
2.618662 73.39345 -33.53262
-23.37347 85.4311 -8.87513
-5.301133 96.18269 -18.02655
-32.44055 19.00247 -24.13007
-32.94305 11.03762 -22.59197
-32.23215 6.578376 -27.62487
4.652641 23.05489 -55.90443
-14.3697 8.338374 -53.27238
1.716966 7.340579 -57.71868
-31.30767 46.10767 -17.41059
2.976415 45.4585 -46.99491
-1.61644 76.76875 -31.69908
-22.99337 86.2439 -10.1468
-6.782951 95.33233 -17.1316
-32.80497 21.84944 -21.31016
-31.73522 25.85662 -20.2302
4.629817 35.92756 -51.21683
-5.133375 5.355705 -55.54115
3.203398 58.63721 -40.78883
0.9258565 65.04921 -37.62744
-28.35489 67.75946 -13.26133
-28.05504 68.89687 -14.67566
-3.060106 76.52798 -31.62251
-25.65405 78.09614 -14.19909
-32.83192 9.801353 -24.79537
2.044169 39.59526 -49.49804
-10.68414 8.876359 -54.60763
-30.71346 45.70451 -20.89457
-2.044111 55.02615 -42.15374
-0.6594977 41.18344 -48.48852
1.206872 63.17389 -38.55733
-28.5885 62.14658 -15.42169
-25.50795 77.3547 -15.2552
-24.27573 83.214 -12.68739
-6.527386 91.4641 -17.00382
-32.65847 16.43256 -24.9334
0.2328823 30.72507 -52.81559
-5.058778 6.248887 -55.85349
-3.015079 54.29535 -42.33078
1.110994 45.57173 -46.82597
-4.779529 71.43948 -33.81828
-7.023511 73.19395 -32.39328
-28.34516 65.8222 -15.54813
-25.30495 81.72758 -11.17979
-31.85902 23.37651 -25.81329
-30.57072 50.93565 -18.42179
-4.788078 74.03588 -32.53184
-28.36318 66.24167 -15.22806
-4.241216 91.07655 -19.89124
-0.9073388 30.69807 -52.59691
-7.317668 56.19555 -40.4428
-3.971775 67.16036 -36.07445
-1.207736 64.60802 -37.69642
-5.422395 90.27077 -22.21155
-31.91441 18.6757 -27.06337
-30.37928 27.12449 -27.30638
-32.24982 19.3655 -25.23636
-6.057431 75.78529 -31.36343
-31.61084 25.03317 -24.88227
-31.55123 16.2878 -29.1964
-6.713423 90.12582 -21.64236
-4.966814 77.13708 -30.95848
-7.018916 90.56313 -19.54153
-32.00748 27.69082 -21.16304
-6.964565 91.47464 -16.55984
-27.73265 60.59893 -16.85099
-6.734247 89.78972 -22.38613
1.640375 14.33101 -57.79739
-30.21053 28.22337 -28.44667
3.627492 14.05162 -58.15676
-30.18145 31.43287 -28.26987
-31.52962 31.6688 -24.53448
-30.22653 35.66648 -26.65689
-30.38589 33.82241 -26.64289
-15.18337 93.28724 -8.357453
-13.57373 96.65816 -9.681991
-14.43654 93.47212 -9.268341
-8.383684 94.45974 -15.71632
-13.93067 90.28916 -10.59511
-10.51745 93.26235 -13.46856
-16.28217 92.52361 -7.085025
-9.567266 95.10765 -14.56758
-10.65387 88.40951 -22.61188
-20.31192 92.03368 -9.83891
-17.63616 91.91526 -12.01403
-22.04727 89.79021 -9.952576
-17.12003 91.23409 -6.211326
-19.12674 93.38371 -6.239967
-22.96577 83.88416 -14.91126
5.57806 11.09145 -58.69221
-1.399369 37.62528 -49.83213
-3.688346 36.22333 -49.84045
-3.688963 37.60677 -49.29992
-2.087962 33.74771 -51.20617
-0.7050688 40.61037 -48.72334
-4.404072 31.31765 -51.44317
-5.432682 33.27114 -50.4112
-8.277699 29.35786 -50.66624
-22.88398 7.216877 -47.14947
-23.04163 10.04602 -45.97169
-2.296354 85.43471 -27.39761
0.531213 91.75571 -24.44613
-1.361488 91.25204 -23.1447
-3.038114 89.34883 -24.97288
-0.6471425 94.57841 -21.68377
-0.05392786 94.0406 -22.42195
-5.976496 82.59937 -28.01909
-7.016045 87.17622 -25.11118
-7.428244 83.57706 -27.08187
-28.08288 5.575016 -39.58475
1.379725 48.46415 -45.54724
2.320526 49.86798 -44.95701
1.018016 23.57873 -55.39492
1.511598 22.81 -55.74722
-18.57867 12.20336 -49.67396
-15.47852 11.35952 -52.05376
-7.793003 27.00837 -51.63998
3.849117 21.55924 -56.20361
-28.79194 53.70904 -21.82483
-27.61339 57.29675 -22.37896
-27.55261 61.29988 -19.09684
-27.10465 61.55526 -21.08234
-24.16056 68.97638 -22.57342
-25.94381 58.84263 -24.66551
-25.31429 62.36001 -24.34456
-26.74949 56.27671 -24.76604
-0.2217483 41.47503 -48.43689
-4.236656 40.64294 -47.94044
-8.334871 38.43125 -47.42107
-8.772986 36.88137 -47.81281
-0.784695 67.19901 -36.47054
-24.82693 77.94121 -16.04621
-24.81541 75.43756 -18.29989
-21.37974 74.14809 -23.28069
-21.37538 77.76159 -21.0153
-26.10969 69.5021 -19.02511
-21.61407 77.70453 -20.76942
-16.44439 78.38737 -25.06031
-22.69037 76.18164 -20.5497
-25.863 64.86786 -21.4049
-24.60131 63.93179 -23.80001
-21.06977 71.63666 -24.99003
-23.50019 62.81826 -26.32142
-22.78812 70.95383 -23.39281
-23.23845 67.88405 -24.38346
-22.82239 64.71526 -26.26224
-22.91394 61.82231 -28.20504
-25.45321 61.20784 -25.50114
-25.21299 57.24874 -27.42596
-23.49713 58.35752 -29.76283
-24.03737 61.31366 -27.47262
-24.1502 80.48 -14.59288
-22.54248 80.07588 -17.85356
-22.59889 81.92806 -16.69022
-31.49699 7.862668 -30.51906
-31.46707 10.15866 -30.41477
-31.44022 13.27785 -30.06396
-30.98274 11.73777 -31.66562
-31.26071 15.34594 -30.29804
-27.96262 20.27972 -36.1596
-28.7052 12.89379 -36.67537
-27.30071 13.74974 -38.96241
-28.26481 14.69419 -37.07803
-26.82278 15.66089 -39.22428
-25.25278 13.53566 -42.07687
-29.51705 16.05908 -34.34369
-28.74393 20.76061 -34.59356
