# .PCD v0.7 - Point Cloud Data file format
VERSION 0.7
FIELDS x y z
SIZE 4 4 4
TYPE F F F
COUNT 1 1 1
WIDTH 1663
HEIGHT 1
VIEWPOINT 0 0 0 1 0 0 0
POINTS 1663
DATA ascii
7.88492 28.38441 -12.01504
29.7813 29.42428 2.428819
26.44538 26.92097 -2.357609
-11.63339 27.01554 11.27099
-21.21505 25.174 13.45829
-11.62669 26.48494 18.9591
-11.73759 25.32427 13.14606
-10.903 28.6898 19.14608
-29.84449 28.1006 13.88257
-7.721596 25.57592 12.89355
-10.67096 88.68541 10.84108
-16.91585 85.98332 9.928568
-14.99545 28.30116 6.185368
-8.490504 26.77913 4.769632
-0.3303161 29.67018 6.034863
-2.033086 87.00497 10.20338
-32.34366 32.44114 -1.277465
-26.65236 28.7011 1.759511
-29.37253 28.21618 -1.020568
-29.21652 31.53613 -1.680429
-28.71052 29.5112 -0.834416
-23.32685 32.0838 1.473685
-22.55058 27.15731 -14.78703
-27.12807 25.70434 1.191332
-19.787 85.83696 5.034669
-12.53091 25.48986 -7.021615
-14.74077 27.83879 -12.14648
-10.0617 26.14048 -10.49717
-20.35615 25.13853 -16.32438
-14.89968 28.65422 -12.4317
-17.00965 28.17786 -14.88349
-13.25182 28.90148 -16.11554
-16.20005 84.78445 -9.689097
-5.022202 27.99963 -11.07059
2.903504 32.60454 -4.91754
-3.282233 26.20456 -13.77866
-3.465851 28.38718 -21.53994
-7.941523 85.98071 -11.3891
-0.4739405 30.88662 -12.28812
6.011074 25.70775 -19.91199
-1.408855 30.70979 16.05016
2.87683 29.20665 9.635152
3.071548 28.12494 14.55564
5.320645 28.89454 6.847995
5.777761 30.85143 5.652476
7.258573 27.69536 12.40733
5.825875 30.41449 15.13568
9.510522 29.92763 12.39601
11.33526 26.08661 13.38485
14.21169 85.37818 10.66884
8.817419 27.07233 6.306361
17.66317 29.34365 16.7797
19.68001 29.28188 7.524397
20.51656 29.94676 6.791807
28.20649 28.13697 4.245929
7.547423 88.58371 -12.49887
11.80624 24.82014 -14.94286
11.51869 26.369 -12.04427
13.53269 28.82845 -11.52944
7.887299 25.378 -11.89506
26.3766 29.63977 -0.6698132
27.61193 27.58318 -4.889843
22.52124 26.04535 -11.66333
26.5613 26.56643 -2.452267
22.67756 27.81761 0.1260898
27.02719 29.72183 -3.900232
-14.79685 29.66103 8.309381
-11.75692 28.5749 12.48407
-15.59366 32.76201 8.363629
-19.6326 31.0819 11.29663
-25.05029 29.03863 16.08095
-9.348536 30.62873 19.14099
-10.90956 34.14968 18.4133
-12.23923 34.93693 14.74959
-29.82772 28.73709 9.693054
-6.711306 29.28877 15.61606
-11.07734 27.92686 7.787635
-13.31384 86.39365 10.54488
-9.627408 87.34133 9.628974
-6.75925 89.07187 10.35205
-19.34443 88.24022 5.88618
-19.38768 84.49057 6.131341
-14.34011 87.63574 10.16571
-12.82021 85.73407 10.68919
-13.44609 83.70051 10.65484
-27.71908 28.28811 7.868338
-14.89346 26.25855 7.685553
-8.252896 29.25712 7.964507
-2.860813 29.19825 7.125784
-0.4574249 27.78764 7.787507
-3.43072 34.36752 9.068842
-3.689512 32.15541 13.98044
-3.206213 84.16246 10.27245
7.911694 87.76491 9.759749
-27.07811 31.06138 1.577586
-28.57414 38.57783 0.9109441
-30.63018 32.76905 0.7729546
-27.47876 27.86649 0.634656
-25.82277 32.35944 0.9678422
-24.24117 26.69745 -9.191522
-23.92257 30.64215 1.227451
-19.86352 87.64735 -1.220122
-20.42447 85.2655 -1.168241
-21.12807 82.72517 -0.6979443
-20.77025 84.34475 -4.039361
-20.67048 86.11914 1.81071
-20.69045 85.38394 2.075005
-10.34416 30.43775 -6.69167
-9.782356 31.14885 -10.75165
-9.861644 27.01867 -9.995564
-21.35914 26.66885 -15.88135
-17.82797 29.78871 -15.45436
-18.41061 36.57302 -15.21645
-14.36544 29.6034 -11.81559
-15.58868 29.65187 -13.7163
-15.42725 28.32347 -13.57395
-13.31754 27.5097 -15.91511
-16.28684 88.09083 -8.676358
-14.65892 82.55128 -8.945196
-16.92732 84.57883 -9.155017
-17.91975 86.37983 -6.566079
-18.20011 83.39555 -6.537717
-9.570333 26.52558 -12.43081
-5.492537 26.12661 -15.15289
-1.226998 28.48839 -3.589017
-3.423886 30.14159 -11.88801
-2.721403 27.84332 -4.748669
-3.004606 27.22873 -20.82374
-5.834204 30.03758 -21.57932
-5.349695 30.29175 -21.83624
-5.112015 84.63889 -14.31418
-11.59023 85.01804 -12.796
-7.798124 81.52609 -11.37838
-10.95484 84.90559 -12.02849
-15.87778 75.82232 -10.65768
-12.82694 82.41523 -11.13395
-4.133132 88.23502 -12.23462
-4.146054 83.5661 -12.89062
-2.678671 32.315 -15.01203
0.6586951 28.7274 -19.14909
10.98347 26.9871 -14.32595
12.12243 29.93075 -17.75881
0.4795806 31.59991 6.943407
-0.02758961 27.6488 4.469194
2.272897 30.91957 10.31728
3.777884 34.10955 8.721792
1.765052 33.06536 11.79063
10.93926 27.45067 13.4865
10.41418 35.65608 17.42241
13.60338 28.33196 20.21027
10.55193 29.98515 18.64589
10.73086 32.65432 17.38253
12.21668 33.55231 20.13947
11.83431 34.52526 20.07759
9.386991 26.32139 5.059829
9.734206 83.22502 11.90172
14.79311 85.92113 10.59999
14.43178 88.53436 10.19547
17.42536 89.22344 8.420205
18.52623 29.30585 6.796193
16.81763 27.18979 14.44516
18.14586 26.90953 6.103219
19.76244 31.17335 16.9451
16.74077 30.81653 15.58056
17.35757 35.18555 14.9139
20.79213 33.66572 6.649265
19.71414 32.38931 7.652453
19.77959 29.98279 10.20562
28.87367 27.48059 3.668954
20.45352 86.04936 0.5311872
19.83607 81.72871 -6.719042
20.19817 85.08942 -5.036807
3.236257 88.91996 -13.09049
11.62782 28.07704 -13.85739
15.13334 29.39525 -19.32389
8.767427 27.83792 -3.793363
11.97713 27.59257 -13.4589
15.45013 25.3383 -11.39525
3.866586 28.87848 -6.452019
9.056862 26.77995 -12.51974
22.28417 28.22787 2.509883
18.28814 27.38597 4.496603
19.03194 31.87842 1.62111
18.60918 34.46814 1.732779
26.6289 31.58024 -9.39576
26.70566 32.78706 -9.031959
24.89543 32.52108 -10.77815
20.407 26.068 -11.67169
-21.69788 31.86406 14.10677
-22.34963 32.9996 14.64787
-22.34959 31.26633 14.71749
-8.472589 28.66652 11.84542
-6.841694 31.74199 16.5764
-8.339618 32.79271 18.61922
-10.82686 31.06157 8.431531
-6.516767 86.58987 10.4901
-17.51498 82.51403 10.64367
-18.79734 27.98856 9.145036
-18.63784 32.78208 9.080735
-21.8947 32.86697 8.529858
-8.660124 31.57259 4.563797
-3.624237 31.85595 12.365
-3.264891 29.55019 11.68621
2.461485 86.55531 8.160487
-17.50709 29.31212 3.209181
-23.84475 30.8154 -8.192896
-21.58693 30.7914 -0.2900283
-23.16087 34.71269 -4.093689
-23.56708 30.76938 -5.448052
-20.03208 84.83945 4.642041
-11.45509 30.62646 -12.19336
-22.18742 28.7629 -14.73619
-9.515661 25.76074 -13.2799
-19.25707 80.42366 -4.35369
-18.49354 76.59192 -6.376387
-17.81152 78.03181 -9.712949
-9.497503 26.9431 -13.0361
-5.961682 28.74465 -12.07712
-6.57152 32.34695 -17.81684
1.278888 31.13694 -3.260042
3.986974 31.6006 -8.272794
-2.975722 30.6581 -16.20186
-6.546345 30.83107 -18.37632
-4.669687 34.16276 -21.4819
-2.70556 36.08329 -17.22167
-2.712814 37.43491 -18.2469
-8.189064 80.05181 -11.24869
-1.005829 83.77989 -10.81072
-0.3747401 86.784 -11.08348
-2.669945 84.66592 -11.30844
0.7396306 79.32158 -10.01124
-4.022456 80.41704 -12.86135
-3.576992 78.4454 -11.18169
-5.866431 83.47959 -14.63757
-0.3101819 28.98549 -12.11364
-2.632083 35.32221 -15.43257
2.143229 28.08643 -19.5158
9.198507 27.3585 -12.64981
0.9720663 31.16346 8.174413
0.8240365 29.40615 12.84596
0.1053811 29.84813 15.31562
3.180862 29.69168 2.127071
10.73061 33.77208 17.08735
11.54601 36.52701 19.92629
10.78112 35.83926 15.79411
9.388881 29.03982 10.73945
12.67274 31.92255 15.64602
11.51688 29.38773 13.96496
9.992905 86.61412 11.79552
8.648501 86.40755 9.730849
8.127854 83.9108 9.712262
18.20331 84.3604 9.220284
17.60172 29.57257 13.01131
18.88565 29.83063 9.567785
18.22169 28.0877 6.202763
22.0407 33.52134 14.14275
18.62152 37.40014 16.48358
28.69996 28.38171 3.872472
20.4281 86.70358 4.077038
21.67923 80.66233 -2.725289
10.40302 88.02417 -11.68775
11.72944 81.7851 -10.10197
13.45922 84.36804 -10.92815
13.70308 87.88503 -10.50279
12.81012 28.67569 -17.07716
11.43397 26.69346 -10.56265
10.95853 25.74567 -7.59209
8.104707 29.3642 -3.47755
19.40953 30.52645 -19.00745
13.7864 26.5374 -15.95332
15.8082 25.35734 -11.4077
7.612562 25.53195 -2.933672
21.82805 28.92641 3.043553
22.42812 34.59725 -0.7864594
29.20087 33.4024 1.076939
28.23527 31.8869 -0.2425152
25.70753 36.85821 -3.408847
26.93674 34.02236 -5.069446
20.1538 31.84175 0.7793394
-18.3874 38.65052 10.07604
-22.89394 37.30369 14.69792
-24.07417 35.46492 15.21307
-27.64764 38.53945 14.15248
-29.84073 31.27637 12.63862
-23.94466 34.62158 7.83202
-27.62687 32.72696 8.225369
-10.32377 36.31702 18.5235
-18.47292 87.4165 7.739479
-8.096957 35.14205 10.4938
-8.958464 26.29201 4.001966
-11.27897 31.63895 6.555285
0.6737444 86.17443 10.39185
-15.38097 32.04883 6.663273
-27.74905 36.07344 1.226732
-23.34981 30.6959 1.130448
-21.75533 30.06074 -0.7508452
-9.984374 33.89684 -11.14115
-22.76031 32.76489 -12.94044
-17.47378 74.60893 -11.43721
-10.24445 76.10464 -11.81796
-12.59126 81.04983 -10.25378
-14.72441 75.20658 -9.333757
-13.8005 69.01971 -8.868464
-5.683086 29.87543 -8.682816
-5.953349 32.05922 -10.34503
-5.995241 26.74819 -21.20079
3.498784 30.41164 -6.137738
-6.966891 75.91592 -12.03987
-6.32667 76.75085 -15.30521
-2.850096 54.10309 -16.1263
-10.23302 74.42564 -11.9504
-7.221664 75.10138 -11.42898
-1.100036 27.55129 -18.57124
-2.478746 34.35508 -14.60021
4.563734 27.99902 -19.79437
0.7215612 31.98515 7.573867
0.8320563 32.3363 13.78805
1.167119 35.30166 13.15386
-0.03253718 32.7711 16.03977
2.910305 33.38627 2.546061
9.113768 35.74066 11.83528
13.06117 39.6256 18.06191
19.29436 83.38929 6.995314
10.95567 34.32669 4.812172
17.23503 34.30257 15.33508
18.75285 36.21971 10.22079
22.08945 35.03506 6.036595
19.86594 34.05612 9.518295
23.08345 34.2224 5.8074
20.67622 82.05568 1.179195
21.56697 81.87422 2.601423
20.90407 82.16931 -5.638919
15.57521 83.51325 -9.362753
11.18685 28.15317 -8.602842
5.775554 30.06361 -2.945411
10.37306 32.84354 -6.266771
13.82199 27.61358 -16.07899
16.02634 31.09442 -11.78271
20.86891 29.77062 -11.88808
4.713507 29.59835 -3.107501
5.503464 33.8949 -10.70966
18.96165 32.82086 4.157843
24.16352 37.46734 -2.055764
-14.59452 42.91953 8.207054
-29.63163 31.39991 10.10799
-9.898596 33.69524 9.938909
-9.215235 31.83242 10.63716
-12.15705 75.4834 12.53382
-15.83614 32.91945 7.568336
-8.459383 31.11637 9.622193
-10.34954 32.28048 5.008497
-27.17015 38.26682 -1.486827
-26.52667 35.96023 -0.07750587
-22.10415 36.75624 -1.407472
-25.79991 33.06067 0.9525662
-19.42258 31.38367 2.179921
-25.49082 34.01558 1.331964
-22.98217 35.57986 -3.613622
-14.03085 33.44071 -12.68483
-19.46639 37.35107 -15.21834
-18.325 73.93359 -9.915567
-13.16539 79.56467 -12.24679
-13.00024 76.20287 -12.01992
-12.80611 75.02238 -11.7048
-11.88621 73.02461 -9.929339
-5.765778 32.15697 -13.28046
-9.239015 36.73662 -10.66829
-10.48622 32.58729 -16.00782
-13.98574 31.11726 -16.33528
-1.056453 32.93976 -12.69453
-6.610789 35.32558 -18.32842
-12.10217 68.38226 -11.44126
-3.093811 76.93455 -10.48932
5.004911 28.17895 -19.83021
10.13869 32.38929 -19.57985
0.4928986 38.02911 5.399983
0.3947533 34.85902 4.829873
-0.2268477 34.688 15.81159
4.419533 34.1121 2.866822
0.4296201 33.52673 4.364598
12.60731 36.98643 19.2545
15.27104 86.55949 10.14479
20.42188 84.75023 4.827515
13.38172 32.36299 4.054927
8.467187 28.39479 7.916101
17.79576 30.58201 12.65392
21.0476 34.9557 11.4316
26.83949 30.23266 4.99247
22.83977 79.10008 2.444399
20.57876 76.87082 1.259677
20.51927 76.34226 0.3187123
22.24761 75.02686 2.264321
21.95808 73.32276 2.579755
21.35167 79.47428 -5.881548
11.5529 30.70915 -12.04659
19.41221 33.44054 -18.3874
12.50782 37.96032 -15.66555
15.05926 35.54263 -18.91662
11.8103 33.78284 -13.65504
4.314828 35.52135 -4.330276
5.615935 35.03719 -3.717141
11.29866 30.70819 -9.357278
12.60026 28.93797 -12.0322
13.74 34.42131 -11.98518
20.1572 33.68188 -11.9889
13.91726 36.26248 -11.68182
26.17063 30.51434 -10.10075
3.644917 31.11401 -4.346214
4.287481 28.48586 -8.199674
27.70677 33.68785 4.646057
21.55683 34.08659 -0.2891652
-19.86941 39.62502 11.93166
-19.48044 34.48643 11.20019
-23.95881 40.85227 14.74187
-26.48523 34.32722 7.817958
-9.777753 76.67576 13.54994
-9.951653 75.09396 10.2236
-8.266159 31.6479 5.136504
-9.586945 36.611 5.052121
-2.67578 32.93147 6.785392
-22.391 40.70264 -3.410317
-16.64385 33.39642 3.887053
-9.380733 33.97163 -9.975982
-13.56492 37.41724 -12.49512
-23.15831 78.22173 -3.781064
-12.89141 73.5041 -11.98775
-13.10308 68.62259 -8.6688
-15.6077 64.72845 -11.35213
-5.80459 33.62942 -13.83441
-6.495968 38.47198 -18.69808
1.482175 31.0973 -11.68136
2.676997 31.89186 -11.08204
-2.977653 31.28772 -16.0724
-3.476989 34.72163 -11.94498
-7.004297 75.41653 -13.16587
-1.268787 74.54121 -9.18867
2.239267 65.93292 -16.79052
-2.290197 76.05154 -9.89194
-2.36031 36.98974 -14.70836
-2.432796 35.97261 -15.89358
-0.2955526 36.56838 -18.37506
9.041097 35.13536 -19.63275
6.541067 36.49697 -19.7597
10.57799 31.3149 -14.27523
10.83195 31.24598 -19.43204
8.826887 29.12412 -19.90784
13.15512 82.36988 10.50645
11.84923 78.27467 10.10832
21.1308 81.75156 4.965513
20.06837 81.79027 8.245377
13.34295 32.11717 4.03729
9.352473 33.55122 10.75776
20.57025 36.91859 16.33673
21.90735 39.22894 13.08556
20.88544 73.10757 2.035366
20.3109 70.61577 0.9717468
11.64765 32.60362 -12.41941
11.30386 50.78362 -8.353841
13.23315 48.67237 -15.83197
14.2755 32.17467 -11.74346
20.3028 31.98163 -11.97055
23.04508 47.61788 5.880466
24.81096 35.63306 -2.239844
-19.63112 32.6897 11.3624
-14.48491 34.85989 8.149846
-11.92736 36.64398 12.31345
-27.65221 43.07987 13.09189
-6.705591 30.89525 12.5344
-10.46165 43.33374 6.568585
-7.884309 37.54031 5.838935
-3.599218 31.03766 10.63143
-25.13533 40.24877 0.01557432
-23.05715 30.49369 -13.05821
-21.51642 73.61977 -3.335672
-19.74559 78.3196 5.190213
-21.94172 81.73095 -3.952062
-13.93632 68.32995 -8.856367
-21.79816 43.58059 -3.584077
-1.219822 40.42986 -5.014236
-3.215981 35.04557 -13.14138
-6.63875 72.66117 -11.98416
-1.520388 54.55775 -6.59166
0.659443 71.69352 -15.12878
-0.0881624 70.83451 -8.605584
-1.498011 37.18861 -17.36405
1.614614 40.43877 9.796222
20.61378 77.88214 10.43885
8.906283 34.53444 9.868863
21.64563 41.06444 14.87345
21.1334 38.70234 15.61527
21.86185 42.5445 13.17315
20.94734 72.11206 -1.735624
9.116558 38.05534 -4.891231
12.3508 35.58416 -15.62786
14.03888 31.35626 -15.84016
6.63377 31.77719 -11.4816
25.37951 38.7974 -3.270996
22.80764 39.2706 -11.01753
-17.87378 32.67218 9.404313
-16.28473 43.8792 8.406146
-10.77137 71.66345 14.2125
-11.11774 36.98279 8.09809
-10.92895 46.10122 8.353555
-8.120753 42.45388 5.686559
-10.72066 38.81718 6.257816
-22.33889 41.75234 -4.101632
-21.77528 35.75378 -13.97114
-11.20865 34.28045 -8.24993
-22.15725 69.73942 -3.224294
-18.58454 69.50775 -11.05388
-5.281356 38.56704 -12.06074
-2.737536 43.81021 -17.13869
1.852563 40.70953 -19.02899
-1.026527 37.4698 -17.82086
4.737124 41.07072 -19.50326
20.16684 78.13117 6.57322
20.66109 75.68591 9.102827
23.78692 75.51349 4.132852
11.42489 36.00652 13.48563
12.43523 34.6406 14.99282
21.76625 74.75937 -3.106012
22.51501 73.38631 -5.311783
5.548874 39.74095 -4.425042
18.84539 33.74317 -16.95035
12.79378 32.65985 -14.99453
6.081921 30.83543 -11.11184
27.54732 35.94099 4.74403
28.34324 39.21834 1.148951
27.47526 42.91914 0.90794
28.33397 41.56708 3.621024
25.97936 42.37603 5.360507
19.03842 34.63551 1.335136
22.21154 35.42155 3.36777
20.11538 41.19881 3.968905
22.11991 38.18472 3.498955
22.61427 40.07209 3.250274
-14.52897 40.12696 8.197782
-11.13867 72.00045 14.03498
-9.921644 71.46908 9.909708
-7.833105 37.50895 12.56259
-22.0416 42.72645 0.210911
-21.68656 44.56593 -4.015921
-15.68872 34.40847 7.020983
-16.62885 39.33363 7.895371
-20.31491 35.88746 8.910196
-16.47684 34.07271 8.244304
-20.42452 41.23138 8.770126
-22.62758 74.74548 8.862175
-16.5326 43.51054 7.147311
-22.32099 34.14463 -13.41059
-9.238038 39.30834 -9.659742
-24.16645 71.00307 -1.687949
-15.06704 66.26859 -10.43132
-9.004434 38.08739 -10.10627
-9.776902 39.45713 -12.78605
-3.731803 42.73894 -9.994063
7.015205 37.87336 -19.72484
16.76867 79.01369 9.025739
18.57986 57.83205 7.704583
23.76927 73.75962 4.854045
8.992773 37.53052 7.54774
10.33568 37.07855 12.0189
22.16396 42.14919 5.976852
11.72525 37.80582 -10.65453
13.89695 38.54412 -17.82447
15.28224 37.50827 -15.17685
17.3654 41.53531 -15.12539
17.67429 45.29586 -17.56569
5.95413 35.18967 -11.14869
9.443588 44.2677 -14.28564
11.07771 37.15032 -16.37243
27.98608 37.44371 0.6039672
23.97839 33.1743 1.595409
22.02146 37.3573 3.523255
26.638 42.61929 0.639364
21.12028 41.6326 3.974032
-13.07034 40.63849 9.097573
-12.13419 35.28577 10.49269
-12.11895 34.48517 14.15554
-16.51808 46.05116 8.532786
-6.999686 41.36708 12.04696
-7.770147 39.02772 8.289631
-7.518138 42.95178 8.029661
-20.81843 49.50571 -3.942583
-9.211168 37.21788 -8.398899
-18.74488 72.75307 -7.024714
-18.90966 68.45309 -10.81645
-8.305668 42.72734 -9.691226
-3.025465 42.06562 -13.92952
4.736417 39.73495 -19.53522
2.296903 54.27227 -10.10567
10.24319 38.80478 11.83882
24.92863 43.11092 5.66165
26.07306 43.58127 5.352653
20.93176 41.34451 6.424467
22.87622 39.91706 5.895963
24.36949 37.18718 5.635902
20.35028 47.758 6.709804
23.44869 50.41784 5.823953
25.45175 67.58764 3.920644
12.59507 39.58405 -15.72339
12.64264 38.74804 -12.72148
10.9899 38.48956 -16.67166
23.82836 42.95049 2.264044
-12.701 42.59867 9.605233
-11.9913 32.3055 13.81472
-14.45658 41.01498 8.157257
-7.623759 42.51632 7.008081
-8.785736 44.86246 5.681952
-9.228341 36.59812 -7.997392
-12.03536 45.81382 -8.749279
-11.12411 40.689 -8.496133
-19.15752 68.54218 -5.986218
-19.01453 70.52915 -6.009935
-19.16904 68.64021 -5.333695
-19.40887 65.40638 -5.447166
-5.904789 39.99354 -14.57276
-5.934906 38.99232 -14.63169
-6.476333 40.98586 -16.62875
-6.038805 41.45262 -15.02679
-6.529369 42.77511 -17.53047
-5.404665 45.33129 -13.18909
-6.775578 39.04188 -9.140535
-5.429554 44.89923 -10.34235
-3.697099 45.21545 -10.41074
-2.253117 40.0826 -15.36795
8.888126 38.28138 8.713256
9.885507 39.89849 11.36922
12.54425 41.49979 18.56777
21.8088 44.5482 13.42879
21.19264 47.87535 14.83783
18.87867 36.37494 16.62587
20.35552 47.74352 15.2212
10.16707 38.42942 -6.095975
12.60891 37.10132 -13.25985
17.54012 43.79034 -15.1427
18.60025 41.81621 -16.70377
15.42964 42.9726 -18.34277
18.50333 40.59166 -17.90608
16.31316 37.71834 -18.98814
9.573131 39.7263 -14.00923
-15.07399 46.03735 8.271958
-20.89644 47.9948 -2.536365
-20.91272 52.1381 -6.405988
-21.17826 51.39468 -7.324861
-20.32329 54.35963 -3.008919
-22.04166 45.36899 -6.927459
-20.55499 64.83693 8.192493
-14.80922 62.24129 -10.27972
-12.19834 62.15295 -8.436255
-19.09296 69.08964 -9.69704
-18.91506 58.64963 -12.84299
-19.71678 72.46391 -3.474421
-5.662549 37.39679 -13.65257
-6.512673 44.81616 -17.42544
-3.651893 40.47567 -20.59331
-6.517263 47.87385 -17.28213
-5.220384 47.36133 -11.5809
-5.632192 48.0961 -10.50218
-0.9844343 36.2607 -4.318753
-2.836938 49.25224 -15.16747
-2.917939 47.38437 -14.63682
28.25609 44.62275 2.871103
27.67546 46.28577 4.177629
17.40534 36.0213 14.93881
18.33143 49.72751 11.37553
20.33423 51.27911 8.774063
12.34408 43.87132 -13.41036
-17.36609 46.91013 9.160782
-25.34635 49.06097 -2.169038
-20.19769 54.14241 -12.45554
-20.92066 50.92065 -11.86537
-18.88107 46.05087 -14.33608
-19.75247 51.97343 -13.32853
-21.34347 47.11475 -11.94337
-18.29972 44.37153 -14.43261
-19.84136 44.93273 -14.27632
-19.5939 65.45558 -8.988131
-19.53246 63.06392 -5.199092
-5.417574 34.85094 -12.19869
-6.232656 37.08574 -9.152317
-5.249878 45.32917 -12.1369
-3.689441 45.10505 -10.5516
-3.117687 47.68255 -7.863646
-3.10572 47.89596 -7.87224
-3.079479 51.27556 -13.90268
-2.809417 47.28613 -17.06292
23.39613 44.0131 2.721277
23.1599 46.03527 2.879377
18.10169 44.1676 14.40395
20.50099 48.79602 15.02929
16.05624 50.37571 -17.52816
12.76733 43.46405 -15.55781
12.72844 49.67509 -13.85993
12.56422 52.53342 -11.00704
-11.62067 49.73512 16.52586
-23.25735 49.33511 13.78872
-21.30267 57.95321 -1.442508
-20.47847 56.0271 -6.809181
-15.69873 52.9234 -12.52242
-16.32347 53.7289 -12.95467
-19.61494 55.35923 -12.852
-22.3124 43.19265 -6.141629
-15.09683 48.49837 -12.32812
-20.41579 40.62239 -14.5736
-15.29223 37.09152 -13.37487
-22.3707 43.23715 -8.713731
-15.23136 58.49911 -11.54971
-21.43332 65.61327 -2.387827
-3.553002 43.81239 -8.419539
17.8026 41.0552 13.43266
17.49307 36.55214 14.28531
21.55723 49.43169 11.60372
-17.39315 50.48155 9.20365
-12.65147 48.81406 10.0887
-8.763371 46.84172 6.065288
-20.17622 60.86742 -9.62049
-14.73228 58.1046 -10.73965
-14.41952 51.99667 -11.05797
-9.319752 41.44863 -8.221524
-13.3329 52.0062 -9.201244
-22.99041 38.27374 -6.866654
-11.77098 42.47538 -8.949633
-12.44419 45.85232 -9.187861
-13.92341 37.74392 -11.95416
-12.50676 43.47826 -9.741662
-19.6292 62.10292 -5.41098
-19.69127 60.91338 -4.581113
-3.487458 51.68889 -9.623505
-2.40475 44.61132 -6.508498
0.4405795 44.88939 -5.146733
0.7452765 35.40793 -3.853336
-1.61052 44.13728 -5.732849
-17.05883 52.32584 8.959299
-12.88166 50.42525 9.642108
-20.58409 52.04012 -2.252814
-19.34041 58.00603 -12.68899
-15.56079 50.69081 -12.67109
-10.07314 55.45488 -9.122729
-11.26695 64.564 -9.500204
-13.48222 51.8804 -9.369171
-17.36521 43.46365 -14.2771
-2.193623 53.80925 -7.159822
-3.362873 51.83908 -12.62621
1.109637 43.44347 -5.286652
18.51232 56.58865 11.15347
18.73972 53.00847 13.49174
18.15184 46.07773 12.37132
18.82904 46.79694 7.979278
-11.63555 43.15615 -11.69167
-10.58218 58.63076 -8.809088
-12.14546 42.71684 -9.45749
-14.48217 34.106 -12.34006
-3.185395 52.52468 -17.76077
-6.21251 49.1281 -18.51428
-6.571639 52.2082 -17.25441
-6.236423 57.1245 -17.45717
-3.021283 57.38708 -15.0344
18.62234 48.04829 9.627731
-23.40978 45.3844 0.09523907
-22.38309 49.30092 -0.3414729
-9.70793 48.91391 -9.666415
-11.54603 56.10337 -11.54529
-10.86616 32.51983 -7.179835
-14.20764 33.6033 -12.01954
-5.948429 49.8802 -18.72692
-6.486162 50.77428 -16.98732
3.589125 37.9175 -7.298847
18.60637 48.40117 6.977429
11.20338 61.84547 8.295844
18.77934 52.78733 8.415191
17.70856 54.34322 6.287779
15.52925 54.21688 5.853595
-23.89537 48.01 -0.7158085
-12.29689 47.977 -11.96099
-13.13428 62.06159 -15.39626
-3.359842 63.29785 -13.42889
-3.342775 64.69624 -9.781697
-3.508316 61.47538 -11.42449
-2.688409 58.47738 -8.01368
-2.179862 63.5782 -8.036335
-3.38148 64.84897 -13.69498
1.235427 66.02199 -9.502427
-1.055393 64.32436 -7.892817
1.767538 59.62044 -9.21461
-1.612821 60.33596 -7.456156
-0.5410296 68.99468 -8.208765
-0.4178768 51.11678 -5.943827
-3.258491 62.21714 -14.08017
18.59294 56.34803 7.180787
19.48716 56.65559 13.67309
18.62991 63.69644 9.580407
-23.73729 46.73949 -0.3618937
-12.93757 51.13783 -12.62255
-10.14513 41.03716 -10.85399
-9.765648 42.89479 -10.36607
-9.729856 47.98882 -8.548013
-3.240005 55.93061 -9.099392
-1.219286 60.05059 -7.381433
1.703545 51.14441 -7.129714
-5.356534 49.38379 -10.89461
-3.214059 59.70939 -16.1951
1.780871 36.98886 -4.519002
-29.06902 48.30812 -1.503472
-9.784475 43.67566 -10.28298
1.059674 68.52055 -8.903488
-5.79722 46.41334 -9.973958
-8.397258 54.16957 -10.37786
-2.311795 31.68139 -4.809015
-2.045214 34.10594 -4.829516
-3.232432 35.70105 -6.579184
11.86695 38.53107 4.912404
13.58527 46.1753 5.288666
-27.66147 46.81217 -2.943187
-14.17302 45.2306 -13.74502
-13.59159 45.27361 -16.46082
-13.64951 64.82454 -13.96376
-13.24717 70.26472 -12.77157
-1.138678 57.46441 -6.955318
-5.348396 51.20808 -12.13732
18.0583 38.42859 12.20464
-24.68074 41.61697 0.1352594
-10.8028 40.80167 -15.77605
-12.2437 42.6671 -16.47981
-10.20798 45.73214 -13.67627
-9.031868 49.01993 -10.52458
-7.260576 47.64605 -9.713222
-13.0006 69.10361 -12.36986
-12.67606 71.59982 -14.4411
-6.579659 57.20795 -15.90552
-5.540324 57.06334 -11.85741
-3.846766 33.22407 -10.2187
11.86373 35.97758 4.654438
-22.37186 43.20127 0.2895647
-27.88212 37.25684 -1.836281
-27.22186 37.06379 -1.188839
-18.05013 50.04016 2.830875
-28.94386 41.58747 -2.74943
-27.28199 46.27089 0.3282738
-27.88722 47.58979 -0.0174141
-29.95142 40.02164 0.2150215
-13.44405 41.95955 -16.60755
-13.42383 34.21385 -12.42314
-13.11377 69.19645 -14.61886
-1.247974 49.48194 -16.13423
1.463319 55.53175 -11.11414
-1.151109 54.40879 -15.40469
2.067781 56.6281 -10.08336
1.73288 60.88536 -9.799446
1.759119 59.92874 -10.26106
-4.024173 58.18763 -18.35578
-3.886781 30.33844 -10.02247
18.06405 43.43137 12.46861
9.493325 44.02208 7.657303
-28.77489 33.29361 -1.61716
-29.37404 38.97957 0.5684988
-10.53863 51.41764 -14.12459
-14.61602 41.52059 -15.85137
-15.51562 30.22982 -14.85382
-15.44988 34.5569 -14.03315
-0.2067206 67.75044 -12.80537
0.05842302 69.63477 -12.55004
0.5669823 67.23147 -15.85849
18.94629 40.15816 8.689035
-30.37948 37.14631 -2.212282
-9.889988 51.95498 -12.05091
-12.04169 39.82646 -16.56243
2.489815 51.46694 -8.615343
-0.7060453 63.28817 -14.31427
-10.84526 55.35263 -14.3248
3.100095 45.59195 -8.980047
0.5528061 59.56853 -16.929
0.4729381 46.32081 -12.24036
-0.0001565336 52.27005 -12.49431
-8.953124 52.38229 -10.57315
-10.03421 54.04648 -12.30171
2.83393 49.89178 -8.923735
-11.61199 55.7362 -15.54266
0.796277 46.86825 -11.98104
-1.691051 45.24207 -14.19194
-1.519913 41.8055 -13.72608
-0.2264778 36.58897 -12.44778
2.000864 41.55732 -11.27949
-0.4671436 57.14628 -16.19059
-0.9806733 47.7669 -16.72351
3.438788 39.52955 -7.554126
1.19929 47.62697 -18.3932
5.22855 87.12929 10.53722
5.670919 85.04006 -13.56979
-9.782638 76.69574 10.97289
-8.432195 74.07056 7.813464
-7.537166 75.75383 9.092465
-9.455212 77.88145 8.603612
-6.873684 84.55521 9.713177
-14.95222 73.22772 9.262022
-21.83878 78.93664 8.423462
-19.82502 75.04577 7.573369
-19.25349 76.50229 5.97794
-19.48551 80.90991 6.336299
-22.7552 70.97303 8.24311
-20.84577 72.56677 7.725828
-23.42593 71.37049 9.166502
-22.08956 72.35249 11.05067
-24.01918 68.44865 9.233521
-18.66524 65.2585 7.366858
-25.26756 61.67558 9.908851
-23.76099 64.55938 8.446904
-22.93465 62.59415 8.301527
-22.60943 58.83851 12.85536
-24.003 59.69258 12.47069
-23.99935 65.77303 11.05001
-20.24158 56.65429 12.20171
-19.63632 54.28138 11.60877
-25.6724 57.62892 9.666508
-26.06808 45.46164 13.87094
-26.2493 53.32198 11.99905
-23.58807 53.73338 8.066914
-25.28074 50.53134 13.35281
-20.9439 56.58137 8.41848
-26.43903 48.20604 8.904711
-26.35899 51.62573 9.318808
-22.65156 62.26534 8.256335
-25.16657 44.63731 14.28583
-25.4987 49.74718 13.38344
-17.45768 55.55219 6.486147
-21.88229 46.8944 8.435125
-25.384 49.58622 8.196837
-17.43766 56.51494 6.083791
-17.4595 52.651 7.375545
-17.88615 53.9431 3.301289
-16.98741 50.17918 4.72033
-24.56205 48.67912 0.2157675
-16.67066 46.82925 5.07091
-18.4206 52.51396 8.185255
-21.14898 49.32953 8.57692
-17.39692 48.17356 3.707441
-24.98507 36.72874 7.740965
-21.92183 38.42635 8.395827
-24.70577 46.31022 7.931075
-27.99992 44.46435 11.99248
-24.27069 39.52938 7.851219
-24.96235 41.71347 7.80439
-23.8121 39.05903 7.863184
-27.35081 34.88069 8.189786
-27.76545 36.44546 8.643231
-28.50584 40.30296 10.58846
-27.82403 35.8733 8.617409
-28.9377 37.71251 12.25822
-28.63981 35.29529 13.79937
1.19382 85.80001 -11.86412
10.56847 82.24216 -11.45167
3.340672 84.35632 -13.54987
16.04136 85.24844 -7.62093
-7.27272 39.39022 13.98978
-7.274295 33.35885 17.32316
-8.571284 38.25473 11.61184
-12.15005 36.54844 16.81368
-7.248583 41.2523 15.09266
-9.917125 39.96944 18.08338
-7.485925 46.12266 15.1105
-9.001457 43.76227 17.31542
-12.18389 37.42023 14.01509
-9.260793 41.04546 17.77714
-11.41803 43.83443 17.41455
-9.634136 42.49273 10.71561
-12.10326 53.50561 14.65706
-12.13562 46.50743 15.50295
-10.46929 44.62666 17.746
-12.19173 45.18483 12.80175
-12.29301 49.94909 12.79183
-12.1934 44.83522 12.89532
-8.398548 49.21577 16.45209
-12.6535 52.51911 10.35699
-8.043326 50.40541 13.04214
-11.50827 53.89698 15.78144
-8.471753 52.52728 16.12781
-8.117238 58.06093 13.47168
-8.410029 51.66385 16.17057
-8.199093 53.00564 12.9616
-10.03644 54.49022 10.14388
-8.11052 57.53555 13.80296
7.739274 83.42393 9.827602
11.10808 80.93996 -10.62558
-1.240517 80.66366 11.85439
-27.11149 37.85703 1.130419
-5.985006 32.46095 -14.38989
8.123099 33.04012 11.8825
6.387443 36.66314 13.34408
2.725448 33.08563 14.5047
2.102694 38.4199 13.59323
5.842299 38.2767 13.57316
2.025318 36.83088 11.51969
10.13108 45.74053 16.29693
2.448313 40.82643 10.66484
1.988365 38.27585 11.75659
5.458618 38.87142 4.995515
4.969735 32.09657 7.346298
5.351553 36.96683 6.427938
5.226797 37.86733 6.707793
4.661922 49.43185 5.091127
2.299008 43.27555 11.50786
4.657341 44.47677 7.138865
3.277127 45.5243 9.401289
2.543923 45.53422 3.862775
3.315617 51.19473 4.26432
5.201707 43.99608 4.559537
2.144674 45.42021 12.71039
16.99388 79.53 -7.209758
19.37109 76.86321 -7.657072
15.39332 82.01585 -9.027571
13.5799 82.83656 -10.7869
15.43021 82.73907 -12.24596
18.82752 76.04102 -7.715181
16.2945 75.17024 -7.598838
15.42178 79.3507 -9.393194
15.49299 78.24518 -10.14947
15.83892 75.21397 -13.68711
12.9904 79.90528 -10.36582
15.12555 76.42088 -13.65439
-12.6081 78.63354 11.21529
-11.70669 64.3679 -14.94545
-9.734771 71.83469 -11.6841
-11.08968 68.86192 -14.21267
-10.10656 68.07268 -12.53694
-10.96798 67.03764 -14.05514
-2.922391 35.5287 14.67014
12.02579 39.04121 19.57924
18.2152 34.22593 6.207307
14.22956 37.53928 4.528716
18.03942 37.70726 6.081573
3.695338 38.05754 -6.207517
-3.235828 36.03616 7.606132
-2.590061 33.81768 10.92077
-3.100615 37.8834 11.50694
-3.483351 33.3553 10.84337
-0.5576207 38.26752 7.392348
-2.636998 38.23154 6.791488
-3.478449 39.33508 9.538835
-5.799507 39.29355 12.70005
-4.103182 38.6424 11.69065
-6.534579 43.54984 12.37102
-5.382114 43.56833 12.53006
-7.498344 45.11702 10.39212
-3.444295 43.3826 8.889755
-7.530903 45.46194 6.772261
-3.583083 51.8702 8.530355
-3.675578 48.27617 9.707926
-3.374466 45.56965 8.363857
-4.030275 46.63248 11.36926
-3.639677 52.30833 8.699958
-9.21024 56.96382 6.788772
-7.153351 52.92609 10.39628
-7.23835 55.57407 8.249973
-6.871418 58.49759 11.03683
-2.920027 52.10371 7.674715
-2.385499 53.13918 7.43514
-6.459197 58.86297 12.08119
11.06466 79.29739 11.30373
17.69027 75.83741 8.323624
15.23529 76.54285 9.825596
11.30419 74.80332 12.42025
9.327086 69.65798 10.91683
11.57317 78.8493 12.99906
6.374992 76.94929 11.03667
8.515182 69.7854 10.43645
12.48289 76.06503 9.823279
10.66597 71.85093 9.98079
4.548914 78.618 10.68643
6.075799 84.74573 10.70348
4.190183 79.12746 8.414527
5.894506 85.39324 10.7341
4.507233 84.63249 9.422477
4.146962 81.59338 8.486163
15.61366 70.41275 8.366988
18.67672 71.14026 8.596583
20.66535 74.04805 9.009781
18.72776 71.12504 9.26518
16.73148 70.58031 7.865603
18.69319 66.69145 8.79395
8.114303 73.75968 10.22654
3.554693 80.53168 7.698098
1.04595 79.8936 9.905424
18.73363 68.76396 9.118175
8.892396 74.08533 10.47278
0.971095 77.33894 10.6036
17.09409 67.62652 7.14748
17.77281 62.5158 6.542966
13.17555 65.08839 8.083969
10.99691 64.37286 8.704378
6.303862 73.88613 11.23111
3.870534 73.60677 10.97643
0.9733561 80.70914 10.05498
14.86244 61.08421 6.932583
10.67522 69.66875 11.693
10.47494 60.33519 8.640719
11.85561 59.59384 13.99539
4.150136 70.82513 9.285503
12.12541 67.14108 14.95184
3.827389 69.49787 6.577798
11.25889 64.53392 12.76895
2.835496 74.36266 6.548677
4.010608 66.78191 6.309072
3.974918 67.54686 9.158828
1.560302 67.18329 9.536058
0.9590145 62.37931 12.48003
4.271131 66.6244 7.527494
3.808797 57.12091 8.890769
2.677664 67.3056 5.85078
0.9766864 70.34667 11.75748
4.312069 63.48164 6.561841
2.321756 61.25189 5.326725
1.775191 37.12831 10.96575
1.08068 41.17544 13.6877
1.005523 46.30013 4.928423
13.0839 39.37414 -11.72483
21.61934 37.91454 -11.46451
16.70098 38.08648 -12.08369
20.20603 39.54177 -11.53469
24.02015 39.42119 -10.52993
24.22431 37.9974 5.670534
25.42118 33.95409 5.419725
-11.76857 71.3674 13.73242
-22.85249 36.5685 -10.7
21.76009 70.29533 5.986383
25.2108 69.44566 3.589659
21.09729 67.99982 6.351787
21.74342 65.06223 5.993019
24.66067 68.74511 4.850698
22.7588 70.81142 -5.489478
20.83111 67.43929 2.330269
21.2228 65.46262 -2.137611
20.95334 66.45869 -1.792279
19.35051 44.10373 3.131175
24.65359 42.75268 -3.188319
21.47779 39.54961 -0.610719
19.01952 41.61797 1.149183
19.384 39.02101 0.9425057
19.06953 44.57238 1.373279
20.95805 48.09595 -1.156799
21.03639 45.90271 -1.02815
22.34774 45.88139 -1.955027
24.9852 52.43303 -6.696989
23.53354 43.67643 -2.44222
25.73845 46.75712 -6.296202
17.62402 47.03237 -10.27744
-17.79578 41.95574 3.006598
-17.82104 37.32078 2.935616
-19.82676 44.13188 1.481055
-18.63939 44.94892 2.213778
-22.59724 39.76422 0.9220105
-25.5241 39.06349 1.037768
-26.39089 41.61895 0.8019481
-24.63089 43.40574 0.5665582
9.971994 40.87663 -18.81629
3.867179 43.16277 -19.31244
9.746579 43.73867 -18.58828
7.891787 39.50053 -19.56997
10.46443 42.48375 -16.04154
6.125721 46.47306 -19.27724
22.75388 33.62608 2.873216
23.92024 51.45639 5.748311
23.89301 54.49191 5.703994
24.25823 62.49529 5.330364
26.16323 59.59156 4.631524
26.27575 48.13985 1.256043
26.35524 47.30956 1.145289
26.09793 53.01736 1.688769
22.9362 48.29697 3.097618
23.18192 51.36681 2.85943
22.44424 51.21458 3.355772
24.45068 50.10214 1.917834
20.98061 53.97401 -1.509768
19.59773 56.21432 2.062618
22.4173 44.54593 3.410743
21.1702 45.59299 3.787231
20.60229 53.62681 3.103593
20.91535 61.18657 2.767148
20.20591 57.25249 2.765603
21.66588 54.25631 -2.099732
20.93854 68.17224 2.222099
20.78171 66.22501 -1.52392
20.20392 67.77583 -0.5718123
19.84566 63.01767 0.5115058
21.15409 61.48043 -1.956882
-24.93633 68.41212 -1.978634
-6.530275 36.06604 -17.33795
11.03175 47.14602 6.456926
9.314279 45.60567 8.209727
10.07897 58.38658 9.052943
9.614499 51.35286 9.273699
9.636608 53.6624 9.568485
9.380899 46.41512 8.448071
10.20237 48.98111 7.394775
12.13796 41.6413 14.26471
9.565285 48.81404 8.243372
9.997595 46.57153 7.27037
10.04091 53.43502 11.54606
10.97786 53.31405 7.293372
11.01357 49.02098 6.703835
10.841 45.90941 12.93114
12.19718 49.31959 14.7947
12.53794 52.0016 15.446
10.03675 55.49355 11.15842
11.2698 57.6737 13.34058
12.70333 48.62895 17.12983
12.1041 57.26701 16.44954
10.25233 57.96368 16.38413
10.55302 55.89195 16.91987
12.52403 45.43915 18.05099
11.92573 60.82969 15.9046
11.62194 63.01773 15.78891
10.23324 49.96639 17.35246
10.31438 46.64221 12.99027
12.87906 49.38013 16.46559
10.7045 40.51139 18.54182
10.36203 38.72562 15.93163
10.41848 42.37477 13.10197
9.877355 51.2487 12.30375
8.082821 45.78692 11.27433
10.22656 47.78246 13.23964
10.54647 44.82167 18.38676
5.947451 42.72404 13.00417
4.509248 48.93343 7.345893
3.601721 48.78954 13.73655
2.281126 48.73722 11.96513
9.925562 52.71755 14.62277
9.945888 57.3456 12.53389
4.983144 62.00861 12.5053
3.241569 59.87743 12.44548
6.666554 62.18599 11.45958
2.605027 49.46046 13.26496
3.90185 58.96232 8.783098
4.000068 55.6886 8.484428
9.077645 47.83501 11.3252
5.624454 65.43443 12.10255
3.235689 59.79282 4.939406
6.97085 61.5907 11.18613
9.450081 50.9078 11.43388
9.702971 62.21848 14.83121
4.925475 58.00727 12.56549
3.918379 50.36726 8.512389
4.988515 55.9417 12.66118
3.916941 54.60378 13.30334
7.109851 52.14849 11.53936
8.073453 50.90895 11.13034
4.466333 48.77433 13.58732
7.188188 46.3715 11.59168
9.844549 60.61789 11.92927
11.45242 43.62973 -8.805656
-19.35077 67.65256 -9.011775
22.43093 51.47214 5.979311
11.21108 44.4361 -8.137321
12.13387 48.0111 -10.01061
11.58517 50.07123 -8.722521
10.47626 51.49228 -7.417805
12.59869 51.8016 -11.31944
11.63026 54.13635 -8.763265
8.673921 49.90969 -5.860966
12.71509 51.91045 -12.96864
5.87806 64.74225 -7.848077
-9.371358 45.55515 11.06986
-10.97026 44.47794 8.486467
-10.72051 52.12696 8.113077
-22.45589 42.34028 -8.944777
-20.47582 54.84645 -2.181805
-18.92172 54.16417 10.78443
-20.04906 57.67559 12.02
-15.80618 60.33089 -12.17696
20.76168 51.3144 9.833278
21.1244 53.47483 10.56213
20.25006 52.69442 8.387072
18.502 55.19229 12.19685
20.89209 56.19687 9.947403
21.48065 56.5891 5.977363
24.69612 56.78362 5.463461
21.48877 59.42648 11.87552
20.6617 65.26574 7.194571
20.55446 64.92657 7.359346
20.33675 68.84901 7.494692
20.6302 61.79356 13.32807
18.71975 63.72254 11.47387
21.46191 60.58346 12.40282
18.55183 56.78963 10.49273
-10.4709 49.64825 -8.177584
-10.62361 58.15966 -13.67126
-13.28525 57.62809 -13.10355
-9.538204 65.15917 -11.54307
-9.258191 60.93177 -11.17398
-9.218607 58.62687 -10.87053
-9.051872 66.32613 -11.0092
-9.953135 62.29187 -12.01656
-3.523586 61.90963 -11.46555
-6.34328 64.93996 -16.70812
-3.395442 66.49278 -14.85694
-5.459908 64.47802 -17.36156
-6.468808 64.77568 -15.21643
-5.727656 62.29868 -11.84899
-6.462235 70.48833 -12.61833
-7.420209 63.48333 -10.58234
-6.101566 71.39383 -16.19601
-5.482232 75.96836 -15.78534
-6.323194 67.163 -13.67625
-5.603968 67.54697 -17.14391
-4.132045 70.63326 -16.25446
-6.532099 68.19231 -14.23207
-5.661726 56.14856 -13.0765
-8.581622 57.96978 -10.53084
-12.00124 41.83684 -11.86909
18.68231 45.28606 9.250194
17.92109 39.63546 12.63486
18.59216 39.87206 10.47603
7.412438 57.98843 -12.99342
1.269166 56.86288 -17.57906
2.594962 59.90607 -17.68701
8.023233 60.50709 -16.93014
2.452065 53.49961 -18.35825
3.666383 50.65746 -18.83107
2.445544 62.79705 -17.28957
4.911521 60.48136 -17.8318
7.533585 61.20041 -17.18174
8.824605 59.49472 -16.0657
8.348725 58.57851 -13.9773
9.169661 54.67761 -15.06467
3.887024 63.78874 -17.37559
6.858503 46.77592 -19.14671
8.848029 55.46805 -17.0739
7.715745 54.72886 -17.99005
8.165845 55.98255 -17.5792
9.526562 48.67107 -15.00647
6.47645 61.98725 -12.19942
5.438192 59.31991 -11.16326
7.769491 64.50266 -16.52212
1.271142 73.13923 -15.43558
8.270938 48.36196 -13.28642
9.607432 47.53721 -15.19683
7.640473 45.56405 -12.63982
6.273763 46.66182 -11.56773
8.066041 53.66114 -5.952969
8.978511 43.17142 -13.7071
9.651208 41.00595 -14.23463
4.886042 43.24065 -10.1797
4.512705 45.84868 -9.704948
5.293708 48.50182 -10.70181
4.036827 46.86119 -8.637341
4.846904 54.87583 -7.194483
4.526303 53.86871 -7.394722
-6.796308 52.77004 -10.0083
-9.964651 78.72742 10.36065
-22.93463 73.62234 9.429759
-20.89073 66.45177 12.3435
-15.31485 74.681 9.261962
-19.54447 61.04356 11.57079
-21.44498 65.00912 12.41217
-23.07981 58.38259 12.8114
-17.566 57.83567 5.579958
-22.1632 57.55162 -0.04303479
-18.46054 56.70222 2.52376
-21.14729 59.92685 0.07976106
-20.04084 58.72512 8.350272
-24.57528 60.06551 -0.3731271
-20.73217 62.59774 0.01488125
-26.30456 60.30541 -1.382482
-26.34906 55.98747 -3.218257
-25.06265 64.53687 -3.38867
-23.90166 53.60269 -1.556342
-25.70601 52.76112 -0.01590657
-19.59634 47.98989 1.509159
-23.61767 63.74819 -3.525867
-21.88326 57.00494 -1.316316
-23.99553 59.59321 -0.2374634
-20.52753 59.99872 -2.140763
-19.28053 50.16331 1.658153
-25.26907 56.43576 -0.1827019
-22.51328 65.76521 -2.898851
-23.45768 50.35535 8.099387
-21.06735 80.61053 -0.785617
-20.14195 75.52161 3.788462
-20.55329 77.99625 -0.009193757
-22.69493 75.24861 -1.712107
5.449248 83.0942 -13.85722
-14.50155 57.24473 8.607537
-8.314866 59.26533 14.44233
-10.61333 56.85519 8.651414
-9.465472 58.74393 7.05183
-10.29629 63.27644 8.881053
-9.695572 63.80777 15.14108
-10.00456 58.68769 15.92984
9.547599 83.61813 11.15514
-2.931858 81.59029 9.634591
-0.05492636 78.98588 11.82117
0.6408508 77.39913 11.34032
-5.034726 84.3932 10.0437
-7.009269 79.37531 9.928181
1.133888 75.4726 10.05787
-4.227922 79.12277 10.31113
-3.046564 80.99233 9.115195
-2.252094 77.51151 9.767332
1.364896 78.31435 8.109043
-0.3924751 70.11931 12.95891
-1.717753 68.0984 10.19756
2.100973 76.4664 6.890023
-4.437713 72.35835 10.56146
-1.733817 69.53838 9.380795
-1.800077 70.80077 8.91358
-0.459739 65.28291 13.00965
0.6511188 66.40369 12.37079
-4.2501 72.62267 10.19942
-3.835992 72.84414 9.141479
1.061838 65.05358 12.16786
-3.394964 67.89011 8.563585
-3.316973 57.17931 8.246715
-3.372854 57.48281 8.340468
-3.5567 64.86676 8.737745
-1.442236 63.17952 8.667516
-3.410098 61.46759 8.349413
-1.477462 60.60422 10.61704
-1.730544 54.9778 13.68056
-2.345739 57.05573 12.62352
-2.829757 55.77298 7.665215
-0.8274365 54.68654 8.789779
-0.01948632 58.98633 13.46904
-6.761814 62.31104 10.98689
-2.107807 53.08141 11.4613
1.941911 55.96941 10.89499
1.910511 57.73028 10.90628
1.34677 47.03314 8.789339
1.834574 62.11858 5.530079
-2.120993 54.66463 11.7261
2.34734 52.75575 4.639982
1.585511 38.59537 3.650882
19.82544 70.68638 -8.161998
16.34283 73.97685 -7.721747
16.58242 72.106 -13.23889
15.07804 70.70935 -8.932099
15.65483 68.84767 -11.2531
16.63274 70.75096 -12.76371
16.82627 64.85757 -13.28775
16.5844 67.85146 -14.29494
13.27663 64.55809 -12.5433
14.56159 63.0163 -9.949691
16.69315 65.80238 -13.02547
16.53016 58.50211 -13.18472
17.03618 49.24945 -17.59453
15.998 52.74706 -13.34011
17.05704 48.45072 -14.38139
16.19123 52.01753 -13.51284
14.24702 58.24685 -11.08018
17.17134 61.72525 -14.16204
16.92363 64.74009 -14.79568
13.67649 66.05395 -14.07314
13.30919 63.99309 -13.50027
17.10143 56.65144 -13.80089
15.554 51.0852 -17.45804
13.45464 48.93007 -12.05991
14.15692 50.78348 -12.50743
15.77286 44.43633 -14.34663
17.12895 50.17214 -9.692261
15.23403 57.401 -16.39194
14.14473 57.62674 -15.78918
13.56617 47.23913 -10.89587
15.34843 53.55738 -9.263391
12.59966 56.47985 -10.3251
13.32515 46.0551 -12.20881
17.0155 53.79148 -9.171576
14.87859 59.57298 -9.101404
24.16466 50.22974 -9.023296
22.71031 56.10609 -9.19008
16.33662 57.27297 -8.871635
22.79283 59.18513 -8.703156
16.53074 56.38649 -8.968224
19.25897 63.34547 -8.683609
15.10667 63.31587 -9.067192
21.50332 65.93835 -8.431913
12.76974 59.90816 -10.60665
19.75238 60.24651 -8.972473
19.22066 67.09033 -8.434234
23.91421 61.71883 -6.558651
10.23812 65.68529 -8.110714
10.95685 56.79069 -7.933681
21.41723 63.00858 -8.697601
23.50841 65.30962 -5.578921
9.455092 66.28265 -8.056841
22.38622 58.69343 -8.890017
23.00496 67.70432 -5.04709
8.544526 64.92814 -7.734952
12.97678 70.73186 -9.637452
5.455929 68.50432 -8.925556
6.409805 63.5274 -12.09733
6.017807 71.9487 -11.22976
15.38554 72.83792 -14.29251
4.918026 61.40417 -9.856157
6.949113 69.85504 -12.24086
7.597672 70.2718 -12.82964
6.377454 74.89121 -9.476175
7.709324 69.64075 -16.0456
7.596915 66.93231 -16.41551
8.142505 72.14709 -13.95649
13.50856 68.12972 -12.61647
13.34863 75.62867 -10.54942
5.632847 60.10371 -7.254004
1.763477 79.6925 -14.61817
5.25433 82.74477 -13.86019
5.013862 77.66785 -14.90428
6.877104 80.64859 -11.08276
9.7597 78.89725 -10.90678
4.76992 75.73071 -15.35091
6.129702 73.19736 -15.98061
6.049097 72.72549 -11.23424
7.942256 77.90823 -13.71035
7.967315 78.98268 -13.78804
7.484633 63.21806 -7.426558
8.014707 58.86628 -6.77784
9.278964 61.25124 -7.347052
8.184727 74.68108 -14.08434
6.850223 56.4458 -12.43919
6.549402 51.93454 -11.97179
13.44842 77.50131 -10.71172
-7.308902 40.57481 11.75806
-10.19172 54.78413 7.23105
-7.097474 53.47334 9.464541
-1.885669 42.54874 6.677308
-7.137491 60.1133 8.931488
-8.347855 60.66281 7.071924
20.61451 71.84785 8.514136
9.545959 71.52588 12.93016
7.440439 70.57718 10.89644
11.32349 66.44304 15.40575
6.800588 70.92601 11.21489
6.403503 68.05865 11.63417
9.677803 62.43833 14.60155
6.67116 63.82537 11.46591
9.238445 64.56216 10.79996
0.5558662 44.37094 5.864845
0.6876252 48.60515 6.004159
0.8846578 53.62746 6.661511
0.6737772 45.45997 5.420197
0.7827792 49.62294 6.804451
0.9729224 48.50769 13.65425
1.110272 53.69456 5.545427
1.866866 50.09407 12.02479
-0.1285407 41.06178 15.14051
1.741055 56.19523 9.93511
-0.7603887 55.29315 13.87476
1.317542 48.86338 8.579906
0.7562935 52.2721 13.57025
-2.491889 49.38907 13.46324
-1.689592 51.18373 10.72561
-0.7015792 50.07394 8.59202
-0.4281667 38.27944 8.260797
-0.6166919 44.06958 8.112828
-3.374867 39.24144 13.00393
-0.8738458 43.49411 7.277713
-3.127548 41.14953 7.534889
-0.5775205 41.94844 8.459942
-1.457516 39.47742 10.00544
-3.114524 40.59627 11.86857
-1.757375 44.90551 10.26541
-3.394587 38.65158 13.02502
-0.4685493 45.6559 14.74935
-12.57835 72.05846 11.85199
-13.38432 74.83472 10.06461
-17.01279 79.40033 9.828246
-17.05325 77.03521 9.650776
-16.70074 74.85439 9.372942
-18.47127 74.75222 10.97793
20.37104 69.07738 7.181828
26.17008 62.51969 4.125049
25.83154 64.99467 3.39658
25.79483 45.52922 -6.842556
22.39895 41.09291 -10.9914
22.45337 53.9733 -9.520092
23.85729 56.91599 -8.242491
25.71928 45.79889 -7.202604
16.7912 44.84793 -10.64711
22.24136 44.76268 -10.68518
24.00388 46.87229 -9.665562
21.26488 50.77926 -10.02876
16.83036 46.95732 -10.20177
17.93999 48.57606 -10.04558
20.73175 54.36045 3.134312
21.83676 62.24393 -2.811909
-6.096482 37.57507 -19.99678
9.961936 58.2076 10.77464
-9.018402 68.05624 14.16888
-10.13913 69.88831 14.52257
20.76796 71.47163 11.21727
8.470318 47.71449 -5.481604
5.644637 42.97001 -4.682878
3.843778 43.37881 -6.605937
3.86012 42.38082 -8.081256
-5.406535 85.4305 10.55204
-19.0964 60.96763 11.09562
-24.68612 67.66469 -1.143622
-20.68744 66.82851 -0.1019294
-23.86551 65.67037 -0.7266201
-18.94503 64.07191 3.304153
-19.08639 69.75398 7.481676
-21.68294 66.59698 -0.6158988
-20.37428 73.22794 0.573141
-20.74637 69.89439 -0.4402702
-20.36857 73.83393 2.35317
-20.36543 72.68304 1.817287
-27.58218 55.41706 -1.808496
-25.32964 49.0237 0.2067771
-20.57788 49.81272 0.8957627
-23.52945 46.87143 0.3056094
-11.70981 64.49359 14.45041
-13.89177 70.94781 9.486336
-15.79202 71.9557 9.030464
-13.72189 64.92697 9.353941
-12.20683 56.50612 13.58166
-12.47425 54.01367 11.06318
-17.82452 61.55691 9.663895
-12.60068 57.65261 10.87876
-12.88943 63.48108 10.78878
-16.78442 59.309 8.941922
-12.48801 57.92988 11.59116
-13.17194 63.01591 10.12533
-13.60153 68.43287 9.646961
-5.189617 67.29905 11.54471
-6.887807 64.72984 10.6348
-7.969305 66.33849 7.982502
1.546165 56.86516 9.221585
13.01272 59.47718 -11.79773
12.35028 58.78534 -9.554704
8.493885 65.96816 -15.1601
10.15583 78.38523 -10.73261
10.32786 76.29926 -10.25786
11.55234 76.45853 -9.581625
-8.846996 61.85326 7.296263
-9.38986 62.52786 11.04271
-10.27072 67.05034 8.596503
1.859516 54.06467 10.77081
-18.71208 69.89624 10.86175
22.98281 57.64582 -3.535685
21.20583 54.06907 -1.711851
20.94103 57.50689 -1.650473
20.58064 56.47062 -1.242434
4.015277 46.03345 -6.632274
8.150512 79.38357 -10.09451
-9.981511 35.57722 18.60535
-28.37992 50.08867 -2.292972
12.38714 147.853 -10.51397
12.17726 144.4025 -11.41253
-13.62805 145.7147 -10.8881
12.69912 149.7515 -0.8772805
-12.53602 143.9624 3.031104
8.077118 126.1235 -7.371871
12.06395 126.3238 -3.592253
2.173481 126.7549 -8.779224
13.39424 129.1881 -2.876817
-5.894419 127.5756 -8.802751
7.702903 128.5819 -8.858804
-14.11061 129.6106 3.413554
-10.65387 129.328 -7.693573
-13.7398 127.2215 2.405922
-7.776014 129.45 -9.245094
13.78833 128.8526 -0.2280911
-0.9872064 127.039 -8.886343
8.798018 128.3141 -8.231014
-10.08121 128.0663 -7.348901
8.91334 126.8521 -7.353468
-9.731315 134.5939 13.27524
