# .PCD v0.7 - Point Cloud Data file format
VERSION 0.7
FIELDS x y z
SIZE 4 4 4
TYPE F F F
COUNT 1 1 1
WIDTH 1666
HEIGHT 1
VIEWPOINT 0 0 0 1 0 0 0
POINTS 1666
DATA ascii
0.2254418 109.1168 12.2118
-1.520179 99.65525 10.98412
-2.32537 107.0465 12.34111
-2.619359 78.00153 9.965688
-0.302 115.3152 11.84258
0.05585613 116.5252 11.8474
-2.654506 115.7573 11.84702
-13.0469 80.02091 10.10772
-12.52693 78.96667 10.03074
-6.604904 78.13335 9.970584
-8.937439 94.02482 9.357514
-1.915304 90.24707 10.07009
-9.895275 98.97106 9.337172
-0.6402367 101.7664 11.65945
-2.693159 102.7536 11.75462
-3.690799 107.4911 12.25827
-4.822536 80.45599 10.15109
-2.119256 79.20651 10.06386
-3.580894 78.14783 9.976645
-5.043631 114.6831 11.45872
-0.2054222 114.0286 11.83985
-2.401516 114.8605 11.83815
-12.25746 80.56493 10.15127
-11.97255 79.92728 10.10477
-13.64527 82.79787 10.24084
-8.283449 78.28026 9.979294
-13.76181 88.53442 10.03824
-12.50375 88.7649 10.09207
-12.48018 86.94054 10.2244
-12.22996 95.38579 9.241687
-0.7671958 92.4413 9.444985
-1.780906 89.39958 10.13443
-11.29366 97.8316 9.127039
-1.885559 96.39559 9.844374
-0.7502281 98.95377 10.78956
-9.954792 103.3393 9.738149
-0.2596833 102.6419 11.88618
0.2285003 107.3801 12.32761
0.2665817 111.8571 11.92658
-5.365878 111.2045 11.57211
-6.809791 78.7146 10.01899
-3.280879 81.16255 10.19542
-5.843885 113.3437 11.18537
-2.782775 115.2833 11.83835
-13.43926 82.59007 10.2408
-1.875744 86.80733 10.2253
-2.671878 83.47234 10.28569
-14.46149 87.08366 10.01828
-7.98586 91.114 9.848647
-9.577856 93.71062 9.395658
-10.24266 97.10019 9.259007
-1.281778 91.28419 9.864237
-1.96558 92.17352 9.568483
-1.686554 95.22652 9.496225
-9.34697 99.78648 9.500529
-8.637526 99.88811 9.651246
-8.366054 100.2798 9.757629
-10.80067 102.3423 9.375863
-9.76073 101.8869 9.62983
-0.5571832 98.04514 10.50351
-2.479805 95.32272 9.500622
-5.754023 98.13096 9.859521
-10.48182 103.314 9.567824
-7.509734 105.8142 10.87458
-5.945909 104.2225 11.20527
-7.339873 107.2545 11.06617
-6.064986 107.9266 11.55106
-6.906835 108.9915 11.14265
-5.684428 109.5822 11.61311
-2.024886 104.5566 12.16078
-2.650118 103.4835 11.92778
-0.6553559 108.8336 12.24004
-5.537142 107.1261 11.75611
-3.917459 108.044 12.2273
-3.202685 104.9672 12.11439
-3.394989 105.8841 12.2186
-1.344909 108.9494 12.23375
-7.006985 110.6489 10.86965
-2.532414 81.97672 10.23844
-7.283391 80.01368 10.11898
-12.32079 85.3782 10.2613
-10.67765 84.25757 10.2756
-11.63959 84.3314 10.27485
-10.14062 81.16555 10.18955
-2.638474 87.04156 10.21212
-4.631859 85.49039 10.27864
-12.55365 87.29393 10.20383
-11.17024 92.75407 9.576995
-9.903309 93.69683 9.408106
-9.423845 95.54557 9.32854
-7.071968 93.54165 9.334473
-8.932021 95.46941 9.341325
-6.652661 97.92107 9.69208
-12.0592 95.65643 9.228581
-1.642557 88.8894 10.13978
-3.629755 92.84498 9.380607
-5.064168 96.81671 9.680487
-3.72851 97.64388 10.02741
-4.606966 98.06203 10.00919
-4.492134 96.11914 9.588492
-5.717973 101.5561 10.69226
-2.266219 98.5302 10.50895
-2.63912 102.2269 11.63104
-2.259628 100.3068 11.09912
-8.977336 108.6727 10.31495
-2.121306 104.1069 12.08617
-4.69292 109.2182 11.97111
-4.375805 105.9616 12.02288
-2.654971 109.4027 12.19207
-3.129255 111.3853 11.94211
-4.895104 110.4261 11.82549
-6.48036 80.23058 10.13507
-8.011155 80.89539 10.17576
-7.68809 85.4877 10.27348
-10.17542 88.06237 10.1552
-4.197629 96.82174 9.761837
-5.799361 95.49158 9.424165
-5.178206 94.91283 9.356367
-3.602901 95.99781 9.615113
-8.408103 95.94044 9.362018
-5.396382 103.2464 11.19657
-6.990074 99.79559 9.976959
-4.534204 99.37533 10.37072
-4.782198 99.51867 10.36075
-4.312327 103.4333 11.57777
-5.847204 104.0129 11.20107
-5.659176 106.0082 11.60214
-5.132725 107.7468 11.91421
-2.759137 113.7253 11.8143
-4.753712 111.0367 11.78759
-7.363834 83.28613 10.27456
-9.907131 92.55691 9.580457
-7.590998 96.14549 9.409802
-4.715388 94.50661 9.321369
-1.734095 112.0715 11.8984
-3.516397 112.4205 11.83539
-6.541983 83.34394 10.27623
-8.598934 82.0219 10.23228
-6.639591 81.80165 10.22553
-7.669939 90.96155 9.880345
-5.066826 91.0157 9.893162
-6.562288 92.61844 9.499014
-5.081072 112.5251 11.54838
-9.028604 92.57185 9.562886
-4.943027 89.44439 10.09647
-4.555086 82.71086 10.26378
-5.840202 84.16599 10.28675
-7.644714 83.07613 10.26847
-8.269929 85.11472 10.27792
-7.426029 84.64363 10.28333
-7.753872 85.47537 10.27367
-8.924492 86.00494 10.25776
-11.68374 85.88518 10.25505
-8.774413 90.37704 9.955062
-5.754587 89.30026 10.09877
-10.95988 88.34865 10.1346
-6.814983 89.44154 10.07828
-5.241747 89.02841 10.11739
-5.644373 89.96908 10.05481
-4.573905 88.92954 10.12528
-8.606367 89.5832 10.04835
-4.380929 115.0655 11.63365
-8.595914 88.17855 10.15067
-10.24693 89.0212 10.08125
-8.032275 87.1347 10.21052
-4.840196 113.0702 11.56604
-6.845271 87.13087 10.21004
-0.8809074 77.77676 9.947929
0.4217665 88.44617 10.15322
0.2374251 86.31734 10.25452
11.64022 85.61248 10.3016
-0.1455579 80.80488 10.17527
-0.5003019 93.99206 9.222626
7.238212 95.91213 9.411501
7.665357 116.7301 10.32447
3.00564 103.6624 11.90985
1.536476 107.8104 12.31775
7.952409 113.8178 10.05028
9.243283 116.3868 9.48038
1.146389 117.7539 11.84943
2.759795 101.673 11.4588
8.830231 78.36253 9.985246
10.53196 84.18954 10.27473
11.72126 94.97327 9.337954
2.241365 114.7662 11.83498
10.41639 90.29964 9.976501
11.86857 89.26492 10.06725
11.48875 83.37521 10.26013
6.093407 114.8103 11.02746
7.925229 116.6046 10.1892
8.212501 116.9188 10.09061
4.601498 117.0811 11.54776
9.684411 111.2339 9.452495
4.972728 107.9863 11.96478
8.397122 94.28687 9.300192
0.2763495 101.0516 11.46922
8.620642 105.9826 10.47365
10.98625 79.11964 10.04984
2.851937 114.2346 11.81611
3.837773 113.959 11.74693
5.890283 116.1359 11.10417
0.8620584 80.83959 10.17729
3.259783 80.24281 10.1399
3.595857 78.83334 10.03453
9.832334 88.28599 10.14503
1.524742 94.41683 9.286821
10.73092 98.65111 9.185976
9.100553 98.10242 9.3879
10.29417 106.4871 9.891297
3.459393 108.3397 12.27719
10.61857 78.22405 9.966359
11.46045 82.2132 10.22915
8.911573 114.739 9.534125
9.215134 113.7937 9.359235
6.950637 114.4658 10.58545
-1.038615 85.4184 10.28946
4.888472 79.84509 10.11271
-1.131348 86.95695 10.21723
10.96854 87.2178 10.20767
10.51709 89.3122 10.08281
10.56878 91.78567 9.739775
1.500728 94.0564 9.216206
9.910539 94.23863 9.349442
8.024151 94.56549 9.298532
10.38007 97.04842 9.244711
2.287051 98.77328 10.58504
11.23003 101.1451 9.172947
11.1472 102.4592 9.306538
10.12085 105.3337 9.830703
9.716926 110.8467 9.525147
1.74029 111.7957 11.92392
1.316001 106.6382 12.33353
7.612965 80.63008 10.16333
10.9063 81.54643 10.20575
3.65729 115.0218 11.77425
7.369152 114.5613 10.35877
-0.9056991 83.95979 10.295
6.671402 80.34502 10.14741
10.41346 85.46035 10.28968
-0.1931372 88.61282 10.15215
0.09392636 90.23752 10.07462
0.07745925 92.09463 9.587984
9.086227 86.33688 10.25201
6.825073 87.66321 10.18259
7.065629 93.02581 9.421002
9.660069 90.71747 9.919155
1.38869 91.60348 9.7605
6.167192 94.06322 9.252421
3.19626 95.5257 9.518538
8.646433 96.00068 9.350412
9.068748 94.8322 9.310805
8.020248 93.92139 9.301335
9.802019 98.96846 9.348376
2.060448 96.95836 10.00835
2.126483 100.8819 11.29718
10.92136 100.4163 9.219445
7.778545 99.40112 9.751758
6.638527 100.348 10.1639
2.823266 101.0115 11.24457
3.270772 104.2897 11.98401
2.169834 104.7043 12.18612
8.3841 104.4214 10.38242
10.36835 106.8908 9.901871
9.357449 109.4174 10.02568
1.539845 109.541 12.16693
0.9123092 107.3471 12.33515
2.821296 108.7984 12.25801
4.299647 108.5709 12.13416
9.674009 81.92645 10.22292
7.672424 111.4226 10.41873
3.915745 81.98624 10.23457
0.1044417 83.12493 10.27978
2.580281 83.82777 10.29071
2.864416 78.19579 9.981077
10.66497 84.45875 10.27902
8.369885 85.50613 10.28367
7.189882 82.3638 10.24412
-0.09651738 85.13075 10.29459
0.7766048 89.31304 10.13481
2.25251 90.52709 10.02289
9.375798 87.545 10.18835
6.303763 95.32619 9.374295
3.124297 91.01315 9.917586
9.771933 100.5156 9.474065
2.17798 101.7042 11.54178
3.609138 106.437 12.21463
0.7030929 105.3834 12.27242
8.429108 103.5711 10.3233
8.408035 107.9235 10.63482
8.122561 106.6104 10.7373
6.168555 105.0285 11.26394
1.842484 110.8929 12.00841
3.96422 112.0622 11.81878
-0.2246816 81.43877 10.21232
5.925216 79.79448 10.10874
6.76953 82.43776 10.24736
5.544141 82.58222 10.25437
7.822102 86.70524 10.23403
2.472417 85.5247 10.2823
2.701881 90.22566 10.06573
8.385899 92.08589 9.667789
4.594722 104.1648 11.65286
7.279657 111.4075 10.61563
9.423322 107.0779 10.26302
6.781267 105.5372 11.11211
7.283988 102.8201 10.54741
4.106429 110.5215 11.97749
6.191346 109.7134 11.37623
6.026939 113.6368 11.08588
5.557749 110.9933 11.52126
5.280762 112.523 11.45225
5.714334 113.9519 11.22148
8.898847 83.14807 10.26229
2.833278 81.55681 10.21473
3.429337 79.93799 10.11938
5.784873 83.07294 10.26868
2.274116 79.72366 10.10393
7.309334 86.99191 10.2183
6.260113 87.14128 10.20928
7.296596 91.85046 9.711006
3.316275 89.41267 10.12018
6.360161 106.2385 11.37216
5.547147 108.6808 11.74133
7.794895 112.0741 10.26913
6.707108 83.8231 10.28387
7.378044 84.66866 10.29321
9.170235 88.20776 10.15146
4.519897 88.52788 10.14831
3.234965 85.91135 10.27189
7.359942 89.46987 10.09534
3.11345 85.84447 10.27372
4.415892 84.42968 10.29498
3.878922 87.40374 10.19438
6.720146 88.58339 10.13944
6.279681 90.87596 9.928914
3.4343 89.13103 10.13347
2.887587 86.66888 10.23511
4.651517 114.716 11.5828
5.16709 91.37874 9.819425
3.635961 92.18285 9.5902
4.301239 93.5636 9.25433
4.425654 94.86961 9.345337
2.340528 96.85235 9.944283
2.736847 97.66852 10.14841
5.177154 95.52912 9.440877
3.752529 95.84928 9.574927
8.448562 96.06683 9.363031
9.023494 97.15706 9.365841
5.958408 98.05341 9.805967
3.510898 96.95225 9.86276
5.028781 97.08704 9.748692
3.058886 98.59429 10.39474
8.201238 101.6237 10.00294
7.186349 99.7389 9.919385
4.838049 99.47466 10.33042
3.814805 100.9557 11.02364
6.328691 101.3931 10.47464
3.628687 102.2124 11.44305
5.922455 101.8994 10.71778
4.155046 106.7865 12.16942
12.24146 79.72037 10.10074
12.234 78.26089 9.963582
13.51754 86.50276 10.19911
17.18402 97.59262 4.16849
11.95684 97.11921 9.089729
20.52203 81.59292 2.763071
18.12712 95.13113 1.860546
12.65327 101.0072 8.698822
18.28606 80.3913 7.767368
13.27303 82.11786 10.21462
9.472063 112.7981 9.284684
20.29826 85.85481 1.509317
11.10448 116.9347 7.851914
14.19541 80.32121 10.0895
20.08975 79.27803 4.464998
13.22249 95.35675 9.08146
17.09196 100.8908 2.00504
10.5816 117.659 8.648393
19.07403 91.32607 2.803205
10.42072 117.0301 8.690894
12.34055 116.079 2.210874
13.12826 113.3893 2.877984
12.16027 100.5973 8.889537
12.3908 116.2638 2.965546
9.877511 114.8811 8.935404
11.46371 105.2918 9.338959
16.1747 102.8732 5.015793
19.61136 78.92198 5.621932
17.05968 100.5368 2.888307
15.49504 107.3753 3.265976
18.07903 79.91636 7.976006
12.86159 114.0044 3.950585
10.69295 110.533 9.074123
12.27691 116.6144 5.123689
14.62806 78.88917 9.876776
18.37027 78.69163 7.578994
20.20739 85.60147 2.806242
14.31895 94.2751 8.931765
13.1061 99.65293 8.528041
16.74337 102.5893 1.260422
16.74549 102.6695 1.658926
12.15814 109.8466 8.148961
19.99554 79.67139 4.748475
20.4561 80.71329 3.180077
10.51386 112.7389 8.600619
13.33364 112.8446 2.669367
12.53946 114.7067 4.802923
17.35272 81.45566 8.702168
17.6797 78.57468 8.309154
20.01583 84.08572 4.408991
12.28091 91.55511 9.773638
19.3688 90.68896 1.430965
19.24837 91.06167 1.816865
18.21293 94.89386 0.5652558
12.04996 95.40502 9.269817
12.98674 93.89355 9.371248
12.56639 99.61868 8.739637
17.66451 97.37055 1.450496
17.03957 101.1629 1.286154
12.43232 103.8675 8.943059
16.37516 104.2513 1.441416
15.98561 105.9485 2.14058
11.17971 109.0852 9.207592
14.89279 109.0073 3.150755
19.89991 80.29604 5.008465
20.57683 81.52509 2.356585
10.98088 115.1363 7.893418
11.93269 114.4556 6.549867
11.57326 111.7736 7.928287
13.77195 79.95152 10.0928
15.13884 84.24474 9.941589
20.31799 84.72523 2.797184
20.40058 81.6564 3.340608
13.94252 87.63567 10.07562
19.35693 90.1827 2.810504
20.15664 84.53719 3.734123
18.72545 87.83353 6.432561
18.47375 93.95726 1.156001
18.50118 93.54638 2.511112
14.74772 94.11056 8.723628
12.87345 97.9992 8.783068
13.21957 93.43668 9.414085
11.6066 99.55311 9.043483
14.62571 99.45948 7.666574
17.62496 97.70405 0.8662551
17.04198 99.79478 3.530864
16.93266 101.761 1.723873
16.8176 102.2408 2.494086
15.74253 104.5076 5.355739
16.04417 103.5249 5.068438
14.20655 101.9994 7.77165
14.67687 104.6997 7.082302
11.4746 106.8006 9.374819
16.22135 104.68 3.268733
16.12238 105.1016 3.355392
14.95546 108.7016 3.601887
15.49945 106.8033 4.270211
11.08007 107.9109 9.470816
10.50846 110.1026 9.318307
10.39426 111.4483 8.97719
14.36883 110.416 2.746943
19.40982 78.58286 5.989307
19.32577 83.49205 6.195779
12.36282 114.4354 5.578699
12.22119 113.1547 6.483295
14.97287 81.14554 9.965907
14.63417 83.68047 10.09025
14.81403 82.20227 10.0397
15.34011 79.80021 9.784217
18.86026 81.03591 7.027562
19.80987 86.50182 4.167494
19.81348 85.28826 4.705822
13.64479 85.74329 10.22676
13.77812 88.22264 10.06243
14.56394 92.79517 9.126144
19.8187 87.53921 3.386891
13.94634 95.2403 8.873075
14.5619 97.00381 8.195695
14.28858 98.12936 8.13879
12.51831 100.2064 8.731474
17.30872 99.33424 2.247936
16.07409 99.0139 6.108712
15.12057 102.7784 6.832473
12.55644 106.7443 8.729456
12.09047 110.7101 7.850827
12.50151 110.3724 7.53901
11.20489 115.9866 7.628907
15.47155 84.95932 9.788366
18.57191 81.00403 7.419188
19.81021 82.75381 5.18967
19.58357 82.23792 5.716254
15.43573 87.7622 9.619618
14.43253 86.46531 10.04855
14.33673 91.55813 9.424238
15.77965 90.83366 8.898336
17.82156 96.38131 2.145502
14.25816 96.68414 8.446683
15.92925 92.15779 8.47211
16.7606 100.8951 4.064482
16.84561 99.04705 4.479555
12.5227 108.6147 8.312767
13.35214 112.2682 4.352217
20.18623 83.87921 3.820964
15.07236 81.83745 9.952687
16.83504 84.51492 9.051586
16.55207 81.44553 9.271253
15.0131 80.65067 9.927873
18.20103 88.84439 6.985673
18.93878 88.52966 5.709856
15.00691 84.97799 9.972136
15.62323 96.70747 7.380176
17.08119 92.19628 7.274096
17.62091 92.23601 6.479856
18.1255 92.06619 5.557783
15.65723 102.2993 6.145318
13.13496 108.7846 7.552632
13.98133 110.3354 4.862875
12.46848 112.5636 6.389762
17.89638 84.1146 8.16159
18.3103 83.90321 7.692155
18.19388 86.02567 7.648725
17.34316 88.63699 8.146725
16.32626 85.65976 9.322214
18.65293 90.88012 5.059867
18.12012 91.69085 5.797493
18.6967 91.18449 4.675263
17.86183 94.93468 3.885061
17.31952 97.06364 4.059685
17.45268 94.79211 5.303293
16.37439 96.32651 6.563285
16.12145 97.52344 6.516203
12.60249 107.1187 8.650435
18.68124 82.64951 7.27008
16.31558 84.32143 9.395364
17.19163 87.11962 8.56416
18.04961 90.32423 6.678362
18.35293 91.81844 5.190017
16.58274 98.64071 5.288322
13.08537 107.3224 8.184097
17.68777 90.59679 7.124375
15.33331 88.14844 9.615647
16.66112 86.95617 8.992311
15.19759 101.1095 6.898046
15.11495 101.8461 6.925929
14.56922 103.2065 7.407494
13.90777 104.5386 7.945486
12.12521 114.8308 6.055052
15.13387 98.80315 7.330029
15.41564 104.6087 6.001849
13.57981 105.7762 8.089476
16.12762 103.8623 4.665866
14.18915 105.8542 7.45027
18.11353 85.56442 7.818625
14.73613 99.85711 7.520023
20.64038 79.01544 1.109466
12.39636 114.7862 0.4833946
12.45097 114.6233 0.4839158
19.39725 78.3092 -4.015575
19.68219 89.2951 0.3017173
12.17143 115.1818 0.1463726
9.135263 115.5818 -3.687061
13.21869 112.865 1.089398
15.93311 104.8847 -0.2188277
15.54709 107.1224 1.122578
13.71885 85.77041 -9.013648
18.47431 78.06142 -5.427423
11.59869 116.7695 -0.3181717
14.72212 109.3692 0.8736244
11.00029 116.8909 -1.472176
16.92897 78.21404 -6.944716
12.28548 114.7617 0.0726036
14.06475 84.98266 -8.689156
10.48847 103.9745 -8.338826
12.44359 113.0325 -1.245682
14.42265 79.52037 -8.150855
20.40073 82.73463 -1.133513
18.2514 94.64429 -0.07411665
10.58131 117.0406 -2.072448
9.92581 116.9363 -2.838222
11.47302 117.1419 -0.494969
12.61198 114.5902 1.269866
14.45354 93.58061 -8.981299
15.71685 102.3948 -3.020891
7.964593 113.3188 -4.839752
12.4134 113.8837 -0.5420157
12.90175 113.5457 0.7575913
15.00939 78.33425 -8.005708
8.745534 112.7589 -4.72636
19.70856 87.97293 -1.478191
14.49576 88.78914 -9.135151
19.35164 90.31249 -0.8730981
20.65237 79.6536 0.8557758
19.86009 78.4734 -3.044746
16.5847 100.361 -2.165304
12.35743 102.2147 -7.812197
16.04555 102.5729 -2.026788
13.49615 106.1565 -4.495385
13.48828 111.097 -1.06968
16.84037 78.33768 -7.000677
14.69097 83.98391 -8.26393
14.31491 81.20027 -8.180256
20.56449 83.28773 1.306871
19.86411 78.99673 -3.059408
13.44345 89.83755 -10.03072
18.87129 92.0651 -1.100299
18.99804 91.65129 -0.8314847
14.83783 86.71944 -8.551444
15.29733 86.00508 -8.15043
20.50735 80.8791 -0.8218914
20.35807 81.61154 -1.500779
20.26369 78.50926 -1.742046
19.90214 80.98309 -2.971353
13.72773 98.55961 -8.095968
17.02344 100.1482 -0.7043301
18.00958 95.30769 -0.9652596
14.19482 91.34409 -9.5137
13.52306 94.42213 -9.686583
15.68683 92.69144 -7.800982
15.58501 94.16899 -7.512955
12.12448 100.4669 -8.834688
15.81739 104.6173 -0.9268267
16.51761 102.3849 -0.611922
13.02447 99.65951 -8.36879
11.46901 107.1886 -5.92302
10.30163 110.5862 -5.026705
12.71125 111.974 -1.775536
13.0087 112.3803 -0.6848459
13.82976 109.0996 -2.2423
10.5488 115.9968 -2.387792
10.3859 112.401 -4.02211
10.46602 114.1311 -3.130404
9.386271 112.7321 -4.441721
18.39121 78.56523 -5.503753
15.43099 80.09743 -7.74604
16.24225 81.92966 -7.330866
20.22017 85.64671 -0.5388696
20.28284 85.99068 1.384645
19.49338 79.19005 -3.852502
14.33636 87.81741 -9.108541
19.3036 89.00938 -2.397743
15.41417 87.14285 -8.184581
15.24557 82.43413 -7.878866
20.07851 81.94892 -2.449421
17.59678 81.47827 -6.331905
12.35368 97.5043 -9.798837
16.25275 100.05 -3.263345
17.80682 95.83566 -1.466442
18.64256 93.03974 -0.8410689
15.02838 94.96585 -7.967428
12.74518 102.4445 -7.317751
13.21288 102.9345 -6.597529
12.3215 103.1671 -7.381488
13.71458 104.8537 -4.954814
13.16332 104.5932 -5.767307
14.90723 104.7206 -3.116254
12.75502 105.5457 -5.688275
11.03594 104.3563 -7.783922
16.07652 104.945 0.522208
15.63101 106.6226 0.7151432
16.40454 101.5998 -1.75457
11.49392 99.61373 -9.705073
10.63606 108.5952 -5.772919
10.77575 106.3576 -6.856476
12.42676 106.4767 -5.504051
11.20794 111.2806 -4.047914
11.25223 113.3898 -2.683065
9.150444 111.5352 -5.111704
20.16587 84.38002 -1.646213
19.6196 83.20446 -3.45601
19.88428 88.32295 0.371866
15.84363 88.92541 -7.969993
19.50028 88.87373 -1.730412
19.29796 89.38735 -2.138119
18.54528 90.32555 -3.770883
19.20877 81.79941 -4.349448
18.35812 80.81883 -5.548932
17.6719 80.43019 -6.269874
17.19894 82.52613 -6.658084
17.0738 83.8466 -6.745688
13.95731 97.02994 -8.458066
17.33434 96.48876 -2.892649
16.89187 98.80374 -2.450586
16.4475 96.97775 -4.835411
17.28553 94.31752 -4.572278
13.90238 101.6548 -6.439181
14.14755 101.5563 -6.183801
12.98759 101.3047 -7.640626
14.62858 104.6374 -3.706347
15.82896 104.3927 -1.105546
15.21881 106.7433 -0.7605014
14.301 106.3029 -3.193873
15.26147 100.9397 -4.796484
14.93724 100.3558 -5.652388
15.78526 102.4427 -2.824807
14.46226 102.6352 -5.175493
14.30967 99.21725 -7.127107
10.49668 109.443 -5.448482
12.94547 108.5685 -3.85119
12.65534 109.344 -3.792636
13.63309 110.7723 -1.094444
13.47982 109.9523 -2.236992
13.83133 107.5648 -3.213043
13.84193 107.5046 -3.230852
12.24848 106.2146 -5.806462
10.95978 112.5582 -3.505118
19.21027 83.46195 -4.24079
18.48228 82.88903 -5.334414
18.5267 85.37486 -5.086882
19.11165 90.06863 -2.351554
15.88339 83.64491 -7.596668
15.26519 95.89081 -7.333682
17.02536 95.41734 -4.542106
17.173 93.25211 -5.397551
17.51555 93.9844 -4.227334
17.29219 94.39313 -4.510557
14.47103 98.96457 -7.03646
18.07806 92.31269 -3.86735
15.25065 99.51591 -5.601992
18.24551 92.46313 -3.259401
18.44407 93.05375 -2.068241
17.19313 96.87797 -3.03674
15.06663 93.48602 -8.346116
14.08855 106.4972 -3.434996
14.91203 105.1152 -2.829728
12.60205 99.11131 -8.99292
15.11872 107.4065 -0.4381689
17.98682 84.99313 -5.819256
15.54657 97.01477 -6.434409
16.37255 96.92081 -5.030036
17.7404 92.15019 -4.786129
15.65102 91.39735 -8.099006
17.20178 91.28304 -6.048895
14.93315 90.47736 -8.878086
15.3473 90.09994 -8.486273
18.86971 88.47991 -3.799795
20.56122 79.75238 -0.4429633
16.63075 89.25953 -7.124592
15.83509 87.08893 -7.843473
19.97308 86.80608 -1.125785
19.99591 85.9077 -1.606643
19.61024 87.66004 -2.108402
19.17538 88.01287 -3.247291
19.22438 87.89577 -3.168277
18.96478 87.65462 -3.871581
17.69916 88.50513 -5.830633
19.83625 85.5105 -2.394143
18.75246 85.10458 -4.783445
16.85293 87.80061 -6.908059
17.35283 89.74018 -6.129155
1.060047 79.56889 -8.653334
10.34759 85.33074 -9.815317
4.433913 82.05048 -8.859116
10.48629 78.91542 -8.656008
6.990046 115.0508 -4.799096
9.588155 95.14754 -12.03785
9.601738 105.3342 -8.057652
9.607923 101.6388 -10.02139
9.814613 103.8663 -8.789926
9.718037 105.7558 -7.7683
7.878698 113.2255 -4.902617
7.360227 112.4462 -5.310782
5.610352 90.57475 -12.44491
8.457975 108.8395 -6.48315
5.10334 115.0526 -5.351618
3.087663 115.6795 -5.714641
2.243914 92.50381 -12.75221
2.953806 97.05899 -12.48699
0.3187005 115.9311 -5.790058
0.852826 89.17672 -12.00193
13.28805 78.14612 -8.524956
0.8726974 80.3951 -8.684554
6.265767 113.7067 -5.243604
7.17273 90.64161 -12.42164
-0.1156733 100.4072 -11.54167
5.555275 116.2278 -5.226851
11.2786 78.66198 -8.659866
1.347075 85.95498 -10.40383
1.525448 97.15266 -12.4652
4.387849 111.5143 -6.114607
7.784734 111.7556 -5.451009
2.982977 113.4258 -5.814941
2.70033 79.45069 -8.650773
0.06646163 112.0951 -6.034123
13.66275 83.0369 -8.535885
12.54035 79.36462 -8.561994
11.23538 85.18897 -9.610973
1.026276 93.47255 -12.82275
11.66061 87.74837 -10.55859
1.843164 96.17316 -12.64042
8.940663 104.2089 -9.006839
10.6076 98.50031 -10.70313
3.932772 108.0862 -7.489239
7.074628 111.3383 -5.76567
6.076322 78.37497 -8.650232
2.254082 82.46765 -8.959902
-0.7141969 113.4712 -5.951635
11.01747 79.26108 -8.644836
10.13377 80.45315 -8.648682
1.873384 83.87528 -9.368666
12.28499 87.68203 -10.28677
12.60003 84.26299 -9.02667
2.922498 90.79986 -12.48032
0.353561 93.73568 -12.82257
10.68711 93.8214 -11.66768
13.02828 88.74616 -10.13831
0.993897 96.4539 -12.5956
12.30857 95.33169 -10.48273
0.9202557 101.9178 -10.92342
2.468614 104.4779 -9.564938
7.137724 107.9409 -7.161394
10.32172 100.0534 -10.3109
1.839356 106.9581 -8.216542
-0.09648848 110.6385 -6.359666
6.67848 111.3853 -5.824759
5.796288 111.2794 -5.994875
5.670472 110.6106 -6.212879
2.06433 115.0859 -5.703482
3.422012 114.3095 -5.710984
1.637933 113.245 -5.928943
1.658939 110.9673 -6.264413
6.913888 78.99173 -8.650751
2.850052 81.71503 -8.814295
2.697493 80.94933 -8.726957
8.210635 84.56997 -9.511455
11.86173 81.31527 -8.644975
4.528945 87.35001 -11.19512
11.60842 85.43746 -9.649651
12.64267 88.89708 -10.3924
2.863976 91.86845 -12.67853
2.885524 90.29917 -12.35676
11.30277 90.98949 -11.379
11.57358 94.60827 -11.12924
9.767393 87.52001 -11.05447
10.42072 91.00618 -11.74932
1.64046 87.75715 -11.3868
3.621915 96.30434 -12.62608
10.84716 94.89516 -11.49641
1.764164 103.3775 -10.19754
2.548928 102.211 -10.78394
4.170551 101.5888 -11.07184
4.884163 102.057 -10.85846
3.511046 102.7446 -10.52265
4.604988 102.9646 -10.41389
4.735648 103.2799 -10.24328
0.4990144 100.3601 -11.55436
8.897739 101.5692 -10.3791
9.139727 104.8281 -8.56988
8.422964 100.9272 -10.85263
4.034242 99.5572 -11.82805
0.7577601 108.6996 -7.237224
1.88065 108.1738 -7.536917
1.690275 105.2465 -9.110967
7.272121 109.3234 -6.483069
3.436993 110.413 -6.523248
3.898366 113.3638 -5.756733
8.48666 78.81369 -8.654746
10.88199 82.04498 -8.744375
10.48869 83.02315 -8.917607
2.410577 86.32844 -10.61807
10.0572 86.37896 -10.49543
10.87351 88.27758 -11.02486
12.04505 83.24538 -8.878725
5.640001 91.58421 -12.66099
4.601562 93.58118 -12.83514
6.740354 90.82456 -12.49512
8.284019 91.64111 -12.42666
3.981621 89.52139 -12.12201
1.167867 94.12432 -12.81808
11.4087 91.51167 -11.36423
10.06467 94.37004 -11.91319
8.893651 95.14984 -12.27789
8.963205 96.56056 -12.01083
4.970428 89.20235 -12.01934
10.07584 97.98099 -11.17005
7.381605 96.50049 -12.42859
8.858048 100.1137 -11.00574
5.489938 101.1238 -11.2765
2.267219 99.98779 -11.68289
6.151538 104.3407 -9.627677
8.900023 102.5296 -9.933929
9.14052 107.4734 -6.997389
5.090819 104.8235 -9.379509
7.610556 100.3074 -11.33484
8.262896 100.2568 -11.16121
7.478128 99.69259 -11.58205
6.506341 101.8592 -10.90042
4.155092 97.12856 -12.4816
1.648749 97.93211 -12.28867
2.366623 107.3664 -7.980187
4.588224 110.1944 -6.490495
5.143302 109.1147 -6.83492
5.22858 108.5541 -7.084609
3.603535 109.8781 -6.697823
8.224828 107.5988 -7.165742
4.190905 106.6708 -8.286203
4.850978 111.0991 -6.177526
4.222357 84.88052 -9.782733
5.30807 82.85797 -9.021079
5.473115 83.50127 -9.199573
10.17906 83.67139 -9.082784
7.485202 92.52872 -12.66827
2.272942 92.88071 -12.78899
8.658995 94.66124 -12.40402
7.42857 95.37408 -12.59402
6.722321 96.57164 -12.51417
7.070418 97.45152 -12.29357
3.899659 97.29426 -12.44326
2.28918 95.14083 -12.7644
7.861304 90.20676 -12.23852
6.33691 105.1927 -9.097944
5.183904 103.9355 -9.885278
8.212891 99.41176 -11.46999
7.563205 108.2777 -6.92008
1.592412 109.826 -6.727407
4.38582 83.31228 -9.15694
5.580617 82.43822 -8.923406
7.960764 82.25611 -8.847921
7.386769 85.36228 -9.986236
9.746619 92.40771 -12.11164
5.347571 94.75473 -12.81453
7.037934 97.83828 -12.20312
10.05197 88.61103 -11.37321
4.553976 95.24108 -12.76936
9.288421 90.07324 -11.94047
6.199439 88.4639 -11.75127
7.546822 89.31444 -12.03484
5.653889 81.022 -8.718714
8.690669 86.10844 -10.46118
9.153751 86.18951 -10.49898
9.430263 87.64655 -11.17752
8.976253 86.66268 -10.77456
8.707755 85.20509 -9.835357
5.557227 84.99258 -9.824847
9.845345 84.27353 -9.304714
4.991159 86.47756 -10.7052
5.72434 88.74045 -11.86157
7.920619 87.20375 -11.14189
5.404111 84.29482 -9.487671
8.213544 83.74426 -9.200307
7.907379 80.47497 -8.669618
5.673807 81.86684 -8.815381
-2.823889 114.4143 -5.71938
-1.314342 101.2275 -11.22298
0.3071091 88.04715 -11.53158
-11.45409 90.49927 -11.252
-7.187456 102.6206 -10.42224
-0.01198637 91.35947 -12.59994
-6.522568 93.58257 -12.80974
-0.1502211 97.69067 -12.35239
-7.412863 109.3886 -6.428971
-0.5717459 107.6765 -7.81817
-2.303171 111.5473 -6.13764
-0.9394944 111.6349 -5.954884
-3.340544 115.7057 -5.693631
-1.27268 108.2915 -7.465581
-8.105754 116.0072 -4.207397
-8.00166 78.39373 -8.65867
-11.72373 93.08263 -11.19921
-0.04069622 92.01562 -12.69982
-7.956598 93.13631 -12.6225
-5.090427 84.55491 -9.629711
-11.00291 89.88999 -11.35854
-8.446787 112.3263 -5.028041
-11.7326 80.65428 -8.63028
-10.96392 99.20589 -10.24043
-7.980695 99.09662 -11.6441
-10.02406 104.0143 -8.592964
-6.836916 103.1957 -10.18074
-9.170041 102.658 -9.745895
-9.417369 107.7332 -6.759672
-3.171229 111.7752 -6.120401
-2.804533 112.3534 -5.979026
-4.777571 113.6582 -5.567672
-9.138714 79.61401 -8.648079
-0.9367285 84.29794 -9.544475
-7.154051 88.13472 -11.62051
-5.285842 92.53349 -12.78021
0.6328914 82.55505 -8.9758
-1.388055 80.25495 -8.679605
-2.079892 96.14344 -12.64867
-9.394986 92.7883 -12.24455
-3.663819 106.5938 -8.362491
-9.132012 97.29681 -11.77229
-1.07803 106.5986 -8.409919
-6.889157 115.1482 -4.821822
-11.11047 84.10609 -9.164495
-10.53554 80.28014 -8.643698
0.7118868 83.22178 -9.142443
-3.580379 79.56554 -8.655035
-11.41934 89.08376 -11.01933
-1.005184 91.1619 -12.55816
-0.8388798 92.03028 -12.70274
-10.50759 85.17365 -9.711537
-10.87305 85.48287 -9.836789
-1.755709 81.7914 -8.836113
-1.545062 82.18728 -8.900053
-2.540641 81.15639 -8.750893
-11.43864 96.14221 -10.88216
-1.264649 98.41476 -12.16656
-0.8444165 96.03215 -12.66441
0.1441849 93.09506 -12.80394
-10.69402 94.47356 -11.6425
-9.367799 96.01699 -11.97124
-9.814925 94.06912 -12.06812
-9.837804 101.7225 -9.864819
-9.679177 103.7005 -8.942074
-2.652264 103.2823 -10.25588
-0.361292 99.21632 -11.93867
-9.54079 106.8521 -7.215577
-2.462965 107.2809 -8.027739
-1.343679 110.3075 -6.506422
-5.868512 112.0219 -5.760646
-4.465867 113.3999 -5.672675
-2.812279 109.3457 -6.939841
-5.006991 114.5196 -5.418336
-7.10613 113.7359 -5.005137
-7.419131 111.3037 -5.712341
-5.825121 79.87131 -8.662907
-9.604269 80.36892 -8.656993
-9.052541 82.32931 -8.843624
-2.068394 86.68715 -10.82696
0.6943847 85.12169 -9.924712
-5.041218 80.54186 -8.692559
-11.31594 87.54483 -10.63628
-1.044537 90.24954 -12.33834
-9.759619 87.01231 -10.84907
-10.11449 82.6227 -8.857359
-3.185899 81.89083 -8.840759
-5.440556 81.59653 -8.791959
-9.790691 99.45703 -10.83169
-1.770625 99.20739 -11.93836
-1.668116 95.30088 -12.74833
-11.3009 93.53279 -11.41051
-6.051283 94.85863 -12.78506
-9.794303 102.7564 -9.384571
-6.934346 100.2986 -11.46721
-6.375916 102.6986 -10.50979
-8.942897 103.6019 -9.338104
-6.817537 103.6961 -9.909909
-5.164837 103.1156 -10.33435
-8.448627 105.9547 -8.141954
-10.10435 106.3519 -7.244117
-1.323657 104.7335 -9.401431
-1.462337 106.5575 -8.428535
-3.301415 101.1517 -11.25339
-10.55101 98.46171 -10.76177
-7.62621 108.2653 -6.915803
-7.568635 106.3591 -8.108108
-0.5674648 107.98 -7.633154
-5.232793 111.0725 -6.13716
-5.905343 111.4866 -5.914666
-8.113638 80.36776 -8.670669
-4.611904 83.64626 -9.263288
-4.632049 82.64603 -8.977912
-0.7914079 85.73945 -10.2806
-11.24982 90.37599 -11.33377
-4.849854 89.17171 -12.0142
-2.167556 90.25114 -12.34168
-9.248236 83.5602 -9.11296
-5.175344 81.6665 -8.801205
-6.382226 81.66186 -8.78963
-6.351066 82.11069 -8.856776
-9.103053 82.97778 -8.963926
-10.50473 96.16445 -11.43129
-3.193353 96.71526 -12.55368
-8.403188 100.2947 -11.09812
-5.669678 94.1232 -12.84111
-7.133027 93.95077 -12.74618
-6.129672 91.86967 -12.69807
-7.000579 98.29295 -12.09246
-9.73858 101.63 -9.961277
-8.586879 105.1185 -8.60736
-2.022165 101.9232 -10.9244
-0.6410276 106.4021 -8.51326
-5.841739 105.2042 -9.127058
-4.126866 99.79562 -11.7568
-3.206901 100.5526 -11.48942
-4.308146 98.96449 -12.01518
-5.087921 101.9209 -10.92582
-7.165406 99.83699 -11.58954
-10.31092 98.53696 -10.87401
-7.729721 107.9577 -7.065845
-7.213336 108.0599 -7.083423
-4.098096 107.414 -7.859784
-5.423893 109.0654 -6.821771
-6.10687 109.862 -6.413209
-2.711636 106.9356 -8.213969
-7.614968 105.6147 -8.595407
-5.153496 110.7444 -6.245052
-8.690999 80.68458 -8.679409
-6.253699 83.95673 -9.343077
-5.967808 85.79127 -10.28994
-3.411726 89.28141 -12.04285
-10.36039 83.70152 -9.088987
-7.838475 95.81003 -12.45115
-5.108212 94.46061 -12.82665
-5.337286 93.21808 -12.82888
-6.951807 98.73544 -11.97554
-4.394571 94.07014 -12.83384
-7.737305 98.3444 -11.93406
-3.671568 96.48315 -12.59931
-4.22894 98.40543 -12.17578
-2.917264 91.63982 -12.65071
-1.74384 91.89997 -12.68464
-3.844118 96.19343 -12.64742
-9.227539 91.76312 -12.21434
-5.055483 105.3456 -9.068258
-5.045423 104.8994 -9.336094
-3.57506 107.9041 -7.623352
-7.095151 105.3567 -8.876209
-8.725782 95.79387 -12.23253
-1.960153 93.5299 -12.8222
-4.875101 95.3999 -12.75461
-4.371397 90.08733 -12.30804
-8.731596 91.88461 -12.36521
-7.115816 90.1012 -12.29452
-8.739391 91.35253 -12.29801
-3.663918 90.22605 -12.33629
-4.308331 88.32817 -11.67355
-9.402106 88.10938 -11.35185
-8.868586 86.62338 -10.77455
-8.804314 87.66164 -11.29191
-5.753585 87.75166 -11.41115
-2.32247 85.44809 -10.11662
-5.571699 86.89613 -10.95678
-3.988073 86.42604 -10.67892
-7.385034 87.64695 -11.37556
-4.409988 109.3365 -6.836618
-5.351691 88.44154 -11.73189
-4.452819 84.41009 -9.569267
-6.142195 89.11551 -12.00846
-7.634013 89.99413 -12.2176
-12.95144 79.51408 -8.500666
-11.30472 115.3766 -1.607674
-10.99 116.4892 -1.62676
-11.88303 116.7256 0.4588176
-13.59317 90.91143 -9.99802
-13.36696 95.21361 -9.626523
-10.9419 105.3634 -7.293223
-12.57442 100.3241 -8.505071
-10.72504 105.4177 -7.407661
-12.44398 101.1155 -8.251598
-20.28983 84.82705 -0.7544383
-20.18308 85.66008 -0.819227
-14.16922 78.98707 -8.256183
-12.21092 116.5219 1.769855
-9.787465 114.8714 -3.419751
-18.37803 93.7213 -1.403325
-12.37428 92.42445 -10.8313
-17.30228 93.8852 -4.774889
-17.40937 84.53326 -6.440864
-19.36843 89.91135 -1.373085
-11.85818 114.5824 -1.135117
-12.40999 116.3642 3.770267
-13.80917 111.6985 2.412829
-10.10775 116.5332 -2.725436
-15.4735 107.2899 1.050828
-15.95339 101.7301 -2.902118
-13.66505 102.1851 -6.455363
-12.95086 113.9221 2.872955
-10.68841 114.0752 -2.952947
-11.1616 114.3965 -2.296348
-20.10206 79.50001 -2.394318
-13.10177 113.4639 2.755542
-15.19257 81.14562 -7.846805
-18.45232 93.42435 -1.487301
-12.59228 80.46687 -8.550416
-12.91539 78.93558 -8.538142
-16.69672 95.81905 -5.003829
-12.25125 92.82587 -10.89804
-11.17183 102.9086 -8.454361
-12.00987 99.14795 -9.483018
-14.1436 110.9168 1.668045
-10.06452 111.7047 -4.588586
-18.70356 79.24286 -5.107062
-20.18988 78.9001 -2.113891
-12.99511 113.7837 2.28017
-14.29957 88.27582 -9.213139
-19.6622 89.01395 -0.6622677
-18.76041 90.05061 -3.376693
-12.48783 90.69049 -10.72277
-13.21635 89.81323 -10.17534
-19.83044 86.58974 -1.938931
-12.83714 82.21017 -8.618231
-15.58416 80.61113 -7.666554
-15.39825 78.43133 -7.832701
-16.18147 81.15992 -7.35581
-16.67781 99.01705 -2.891205
-12.33063 99.33482 -9.144088
-12.86017 94.61395 -10.20468
-18.832 91.56107 -2.06989
-17.7862 95.62091 -1.905963
-18.01292 94.11204 -2.699723
-16.13691 93.3064 -7.064703
-16.24827 103.7359 -0.2415344
-12.26371 102.7072 -7.661253
-11.66788 101.0185 -8.970581
-15.21968 108.2723 1.695631
-11.22278 108.6588 -5.376619
-10.27851 111.0056 -4.832526
-11.62411 113.396 -2.260165
-12.23959 112.7624 -1.876043
-11.08976 110.8944 -4.356217
-11.8644 115.5177 -0.455046
-12.28897 114.9056 0.2399098
-13.54118 111.9466 0.5737103
-19.14831 78.75721 -4.422317
-20.01323 80.29406 -2.669659
-19.91694 82.06815 -2.886671
-14.32367 85.58313 -8.671188
-13.17657 87.04283 -9.654211
-17.30155 79.32339 -6.608472
-19.05667 91.3382 -1.187742
-14.85933 88.64553 -8.831634
-19.40786 85.95467 -3.406542
-12.74244 82.22405 -8.631439
-14.68603 80.10118 -8.033319
-17.87787 95.63213 -1.342324
-13.77064 96.28327 -8.922442
-11.94887 99.99619 -9.191567
-14.08146 98.11173 -7.887624
-18.91379 92.10165 -0.7687187
-16.84677 93.92422 -5.691103
-15.04548 100.9401 -5.170701
-14.07381 103.8701 -5.048518
-14.82798 103.424 -4.131243
-12.77046 103.1034 -6.980999
-14.86661 104.2388 -3.534498
-14.6342 104.1962 -3.976077
-16.67798 102.2201 -0.04174855
-11.53273 103.4689 -7.891213
-11.42663 105.6365 -6.807845
-12.99207 101.2122 -7.676276
-16.05032 100.3968 -3.511165
-14.29047 110.5579 1.441184
-14.68646 109.2482 0.3684611
-15.4747 106.1889 -0.4850512
-11.49817 110 -4.511214
-13.41349 111.4596 -0.7959761
-12.05973 114.0747 -1.148193
-15.80236 82.73801 -7.609597
-16.67816 82.66619 -7.061137
-12.70581 86.92055 -9.854778
-19.10867 89.74117 -2.560729
-14.01548 88.0419 -9.374004
-14.53774 89.38632 -9.163104
-15.9499 90.43394 -7.83574
-17.57286 81.757 -6.353743
-18.12184 82.47431 -5.774172
-19.25717 81.43047 -4.269409
-18.7802 82.6563 -4.959003
-17.68276 84.27776 -6.170703
-13.0224 96.92737 -9.414679
-13.82086 98.33631 -8.082932
-12.66465 100.1211 -8.512188
-18.36358 92.74543 -2.691977
-18.51526 92.08653 -2.774634
-16.10818 100.5115 -3.312687
-16.22851 100.3997 -3.094199
-15.42471 105.0892 -1.649779
-12.62376 104.5216 -6.382733
-11.98598 106.1858 -6.059795
-11.86741 106.7868 -5.827888
-12.66058 106.7597 -5.129334
-14.7876 100.1186 -6.018937
-14.61634 98.76349 -6.924682
-14.15941 101.9705 -5.957061
-16.41817 97.83105 -4.356712
-17.19079 98.57207 -1.510891
-14.40294 108.2814 -1.655059
-14.26299 109.2364 -1.165814
-13.97331 110.2444 -0.8207676
-13.58541 108.9749 -2.765008
-13.74823 111.3719 0.2765408
-12.39828 107.6342 -4.919873
-13.74153 108.2185 -2.973541
-13.98269 110.8592 0.2506935
-18.88498 80.27926 -4.86688
-18.00422 83.16639 -5.888274
-16.60984 85.49064 -7.142371
-15.60188 88.89817 -8.194828
-19.46361 84.79493 -3.544126
-16.90528 95.77348 -4.59346
-15.7333 95.16345 -6.965885
-14.64595 94.66617 -8.495224
-15.23523 93.91647 -8.027988
-15.2596 94.49796 -7.82594
-16.08492 99.30647 -4.143376
-14.66008 97.01601 -7.659034
-14.2666 98.74966 -7.38979
-15.3461 92.04613 -8.32303
-13.92109 92.16592 -9.700852
-14.49667 96.5164 -8.05318
-18.056 92.14354 -4.061748
-13.15878 106.0129 -4.984039
-13.70478 105.242 -4.736557
-13.01148 108.896 -3.606135
-14.96937 106.2817 -1.853382
-17.20404 96.16624 -3.579481
-13.52278 94.03004 -9.763394
-15.28674 96.29292 -7.147914
-15.82072 90.64193 -7.959684
-13.15161 104.3775 -5.911445
-18.0295 91.04713 -4.638882
-16.10214 90.29889 -7.678435
-16.37739 90.70325 -7.30978
-15.90491 89.38623 -7.913144
-17.50811 86.22902 -6.25003
-18.8045 86.22778 -4.537467
-18.82176 89.02 -3.716982
-18.34721 87.32754 -5.0729
-15.67715 86.48016 -7.921989
-15.35398 86.69219 -8.181794
-15.40949 87.84441 -8.27654
-16.46509 88.08693 -7.312634
-17.82506 88.31002 -5.66111
-15.38696 85.68067 -8.060066
-16.80867 86.22915 -6.973022
-18.38668 88.57317 -4.728327
-18.15361 89.82269 -4.793589
-10.88169 123.0935 9.131435
-1.123598 128.0001 12.56197
-1.964483 129.5788 12.90045
-9.024344 122.5411 10.57662
-11.6134 124.7995 8.44223
-9.493404 126.6189 10.88552
4.141819 122.8166 12.08552
-6.970185 123.0248 11.55864
-0.7600995 123.3383 12.14318
-13.39819 126.1807 4.914861
-13.35747 125.9163 5.028049
7.669588 127.8105 11.95812
-10.20739 128.0199 11.3793
-8.467406 128.0105 12.04354
-6.203138 128.3602 12.56137
-4.051668 128.0144 12.5662
-7.699327 128.9401 12.63839
11.9191 125.4634 8.142843
-8.32121 125.7981 11.16189
5.95789 123.067 11.83617
10.23227 127.424 10.74372
-1.219183 122.5996 12.0822
8.625047 127.3692 11.45574
12.8861 121.7034 3.725929
-12.34969 126.8497 8.047385
-12.8977 122.776 5.613268
12.74417 121.7536 5.736489
-8.624852 123.2285 10.8065
8.982738 127.8321 11.62391
-0.4369198 128.7247 12.68437
0.10676 128.4782 12.6229
-10.32107 122.3755 9.598133
10.53987 126.6927 9.970464
13.09826 125.9806 5.895855
12.51789 127.2084 7.755486
-10.82285 127.6839 10.68095
12.93345 122.1517 3.359633
12.60648 125.3939 6.964668
-12.77408 122.6155 6.001347
9.351709 125.3382 10.37281
3.236647 122.8802 12.10246
-11.33194 126.6657 9.433268
-12.31132 123.2568 7.3273
-8.966896 125.5784 10.78153
-9.627082 128.5952 12.06927
-4.417696 125.6668 12.15576
9.461008 126.3671 10.58796
9.216022 126.0646 10.61534
8.853971 125.7204 10.7063
7.464483 123.9644 11.36031
13.30729 125.0697 4.882257
13.11043 126.1281 5.886025
10.86245 125.7762 9.347136
12.59069 123.3127 6.7538
-11.28088 122.6927 8.672923
-5.511206 128.9471 12.77514
2.070375 126.0708 12.27501
4.445629 127.2739 12.24106
1.92509 128.2925 12.55036
-0.4250564 127.1802 12.41737
-1.622117 127.9848 12.56848
-2.839772 128.1199 12.59916
-3.243877 127.8231 12.53512
13.14774 123.9059 4.889451
-7.676126 122.8666 11.29475
-3.692604 122.7781 12.09463
-2.456969 123.6752 12.17931
-7.810583 123.4873 11.21248
12.2514 122.0013 7.08999
5.303329 123.3643 11.98703
0.1215182 125.8767 12.28734
-10.43407 124.1367 9.537934
-7.09514 125.8976 11.6555
-1.683063 124.1859 12.20665
6.809572 126.0628 11.61074
7.41766 122.6724 11.39248
7.425983 124.517 11.32086
13.21219 123.9181 3.883496
12.81125 124.4201 6.455544
12.84249 124.8076 6.494696
-6.013706 125.7663 11.918
-6.839033 125.5563 11.69035
-5.297087 126.4359 12.16551
2.537163 126.263 12.26655
3.111423 124.8172 12.26903
1.340577 124.6531 12.23478
12.9036 121.8734 3.612273
-11.03172 123.7937 9.021979
10.30035 123.7361 9.630127
0.7697718 123.25 12.13513
1.783724 127.0898 12.35847
1.516195 125.1089 12.25364
-12.62035 122.3868 6.351397
-12.07484 127.1113 8.734033
12.22967 123.4801 -0.7500501
12.28335 123.3053 -0.4493994
13.02048 124.1703 1.465385
13.51413 126.1166 1.593092
6.081081 119.8977 -5.574312
-13.55596 126.2929 1.860573
4.792502 120.7018 -6.278125
4.144258 120.4253 -6.369484
-7.289313 121.0588 -5.371606
-9.918129 120.0562 -2.900752
-11.35856 124.9374 -3.740671
11.71429 125.2049 -3.242596
7.362307 125.0513 -7.134022
7.199601 124.9511 -7.160908
9.864015 124.3354 -5.108498
-12.43132 125.0267 -1.540686
-12.75715 121.8768 2.590385
-7.30477 119.7 -4.915778
-7.799322 124.3808 -6.577091
-12.48052 121.1146 1.919723
-13.03627 122.7896 4.103932
13.42482 126.1188 0.9645045
11.1837 121.8775 -1.793525
-3.931454 125.1264 -8.09733
-12.82487 123.2311 1.425536
-10.9116 124.2634 -3.843826
-13.50698 125.6866 3.646307
13.09696 125.159 0.4891524
-13.72359 126.975 2.92851
11.73053 122.6732 -1.196848
-13.03514 124.417 1.054374
-8.97306 121.4941 -4.410807
11.45186 124.0947 -2.847827
-12.95541 122.5174 3.19696
5.885092 124.0945 -7.272421
-2.202529 120.3243 -6.473269
1.21573 122.3575 -7.172624
1.076545 123.5586 -7.576556
-2.182583 120.9894 -6.66824
-7.101344 122.2312 -5.958877
-11.97689 122.4798 -0.5704934
-13.28015 124.6707 2.244884
-12.61933 126.0081 -1.922952
-11.81947 124.8967 -2.803511
-12.39281 124.757 -1.410444
-11.07795 121.5694 -1.881902
11.22607 121.25 -1.392734
10.62762 122.7162 -3.232625
11.24064 122.8134 -2.328682
2.436491 119.8748 -6.407083
8.26331 124.6737 -6.499916
-0.712884 119.8047 -6.331669
2.47903 124.5691 -7.94737
-6.152275 123.7696 -7.032333
-2.945888 124.4001 -7.880472
-4.537987 120.2537 -6.218167
-6.50074 121.292 -5.851941
-0.1794255 120.8851 -6.629649
-6.841831 123.6464 -6.677986
-10.0273 124.0204 -4.76002
-9.128329 120.4238 -3.8104
-9.64498 121.0189 -3.535402
-9.971154 124.633 -5.259594
-8.246673 123.6467 -5.994557
-11.76823 124.1351 -2.296206
-12.11685 123.8685 -1.33075
10.28561 122.4746 -3.523689
4.3022 120.1125 -6.243046
4.024816 121.762 -6.831147
-4.128461 122.4789 -7.06246
-7.741296 121.7872 -5.409334
0.3553341 121.4719 -6.855145
-0.5680924 122.9184 -7.362906
-9.391184 124.3266 -5.51352
-8.366026 121.8356 -5.024745
-7.632447 122.4998 -5.784501
-6.512386 122.9063 -6.514512
-10.48619 122.6794 -3.371502
10.71015 122.2548 -2.83046
9.048306 121.0364 -4.131376
10.30414 122.6367 -3.601518
9.084761 124.5068 -5.870722
1.088929 121.5229 -6.869071
4.266515 120.8743 -6.485338
8.155129 123.5169 -5.950684
5.417952 121.5111 -6.394934
-5.106499 123.4593 -7.216188
-3.994375 121.6455 -6.798549
10.16726 124.7855 -5.13524
12.0355 123.7595 -1.430259
5.088347 123.1893 -7.108251
4.689169 124.309 -7.639493
3.11222 122.6338 -7.244322
-0.7686615 121.7131 -6.947327
-11.302 134.6752 12.45719
-13.49156 131.7286 10.73591
-12.95022 128.2236 8.104447
-10.01008 128.6245 11.90955
-14.10142 129.5171 6.47544
-12.1599 139.2526 7.23432
-13.93156 128.9575 5.97469
-12.70674 130.1192 11.0654
-5.925632 129.2164 12.84269
-6.455294 130.0576 13.24361
-13.46762 135.1689 9.800354
-2.079953 130.537 13.0978
-9.22023 140.4447 8.551432
-7.923165 129.0014 12.66347
-9.911389 141.778 6.792799
-6.744061 135.2973 13.25086
-14.76742 133.0858 7.817141
-4.064799 130.5108 13.22046
-14.41431 134.1391 8.583482
-14.10569 130.4484 8.649122
-14.57068 133.8797 8.193919
-14.06764 134.8097 8.887895
-12.20671 135.7223 11.06223
-14.36456 133.9735 8.842484
-12.56214 130.4551 11.36191
-12.82302 134.2321 11.27411
-13.25148 135.3078 10.03267
-10.62288 136.8342 11.42364
-12.54217 135.3953 10.92995
-13.33713 135.7462 9.474624
-13.15557 130.5246 10.74929
-13.58415 129.8083 9.336166
-5.275784 129.7168 13.03087
-5.455781 131.2934 13.5288
-10.81639 130.5452 12.64267
-11.72451 133.0397 12.57351
-10.75426 134.0317 13.02402
-11.77321 131.9991 12.48054
-11.21571 129.4222 11.88262
-9.338935 131.8986 13.61731
-8.155984 136.6326 12.35264
-8.240344 134.3923 13.63876
-14.03817 129.9955 8.143979
-11.84396 140.7581 6.071924
-12.08834 137.7496 9.022272
-10.94631 128.6792 11.4823
-11.2963 130.6253 12.43711
-12.5619 128.7594 9.905069
-7.99921 133.0625 13.8698
-7.37125 131.642 13.8189
-8.977089 137.4544 11.53823
-11.27577 138.2605 9.352366
-10.12306 137.9489 10.56539
-8.017134 137.8099 11.39594
-6.192916 133.7418 13.67859
-10.48936 141.7656 6.363374
-8.830574 141.8785 7.361166
-5.573118 132.1514 13.6514
-10.36416 136.0915 12.22973
-10.59514 138.0526 10.13081
-12.19187 138.673 7.838546
-9.166033 142.1389 6.924609
-8.505073 137.746 11.37588
-13.0179 130.9076 11.06364
0.415589 129.8972 12.91711
9.46511 128.7737 12.18207
2.330391 130.1785 12.99287
9.580847 131.4746 13.47003
3.733835 132.4206 13.19349
5.787776 136.1892 12.53129
5.920894 129.1435 12.7455
1.215266 130.2384 12.98653
12.22295 128.0686 9.424382
12.87981 127.8005 7.796701
13.66799 133.0803 10.51987
9.675687 140.8113 7.852433
3.091038 131.105 13.17024
9.0755 140.7497 8.23424
3.688071 130.1097 13.01218
4.451968 134.9759 12.78354
11.915 127.8145 9.432983
2.581743 132.0604 13.02384
4.704434 132.7824 13.3888
5.432998 134.0343 13.42054
8.107465 138.3745 10.83357
6.557678 130.7648 13.50028
11.47562 132.1053 12.71016
12.22591 128.7965 10.39269
9.78151 129.3318 12.51014
13.13076 129.2275 9.479214
14.23686 130.653 8.403041
6.197659 129.7992 13.09227
5.175871 131.3823 13.42684
5.973167 136.8901 12.08166
10.42668 138.2119 10.06973
5.484168 130.6662 13.32085
9.782454 128.3372 11.72544
10.71735 128.3973 11.28635
7.194125 130.1543 13.31163
11.72661 130.5771 12.15217
11.58804 136.7325 10.7607
12.94818 131.1433 11.24703
8.019335 132.7334 13.86649
8.764765 141.6079 7.536459
9.763608 140.9978 7.623987
9.99016 130.5896 13.07592
13.36588 129.916 9.872788
11.16347 131.5635 12.7936
10.17106 138.9586 9.475975
10.17243 137.8865 10.56463
12.048 135.0635 11.66589
6.301365 136.2154 12.65074
6.953117 137.2702 11.87289
10.87065 139.8231 8.087636
8.264296 138.6347 10.55987
10.55239 138.8907 9.299705
11.12176 132.8598 12.94006
12.80392 134.837 11.02059
11.01003 135.758 12.08953
12.82972 132.5546 11.58904
10.74271 133.1982 13.13309
10.87675 130.7652 12.74803
7.859668 134.5807 13.56384
6.703367 134.7371 13.42489
6.701914 133.8432 13.67715
7.761984 136.3902 12.62011
10.41069 136.21 12.0867
10.61974 135.4275 12.55446
9.189104 130.941 13.42141
9.714146 133.4816 13.55473
5.247821 155.4407 -5.787766
6.199223 154.147 -6.112816
-5.29975 155.4859 -5.610887
4.387504 154.8533 -7.565088
7.043087 153.4814 -6.025652
5.822771 154.7054 -4.823776
3.772959 155.5816 -7.718335
2.146597 155.8559 -8.430352
-0.9744562 155.0596 -8.789881
-5.919407 154.233 -6.461422
-4.949894 154.3418 -7.534593
5.768963 154.3131 -3.468011
-5.658979 154.9624 -4.224844
-3.678407 155.7071 -7.557247
6.25455 153.9689 -4.337832
-0.2613717 156.7034 -8.45545
4.703674 155.4975 -6.841093
5.527312 154.0527 -7.23139
1.161095 154.181 -9.050726
-0.031463 154.7187 -8.986395
1.832252 156.6278 -8.338081
2.015885 156.7533 -8.198334
-2.630854 155.4174 -8.456965
-3.211401 156.3982 -7.734725
-5.038171 155.6434 -6.242601
2.641477 154.4721 -8.779009
-4.403774 154.3908 -8.029076
4.549896 156.2327 -6.454085
