# .PCD v0.7 - Point Cloud Data file format
VERSION 0.7
FIELDS x y z
SIZE 4 4 4
TYPE F F F
COUNT 1 1 1
WIDTH 1657
HEIGHT 1
VIEWPOINT 0 0 0 1 0 0 0
POINTS 1657
DATA ascii
-15.53159 12.59005 -12.41775
-18.35189 15.44845 -13.08472
15.64805 98.07645 -5.738539
-13.82897 101.1121 -6.798909
21.44576 31.2083 -10.01336
20.91031 27.49935 -10.54237
21.29977 41.41782 -9.470938
20.42596 44.95814 -9.449188
19.90468 55.11543 -8.003573
-21.51711 39.20841 -9.93542
-19.01871 52.78512 -10.36108
-18.44205 48.70389 -11.30092
-16.66272 48.37715 -11.85936
-21.2547 44.58663 -9.197848
17.16279 11.25806 -15.40591
21.74787 17.19497 -13.31088
18.35612 87.50093 -5.201885
20.05736 58.13541 -7.040164
8.709349 120.3202 -4.14919
-17.05991 13.47043 -13.12723
14.46764 99.44743 -6.803322
-13.99574 100.2428 -7.03115
23.37472 42.02709 -7.246999
-19.96316 36.17004 -11.43682
-19.78953 39.46368 -11.37021
17.74333 12.35671 -15.9677
20.77146 20.25524 -15.31872
21.60946 18.57337 -13.47892
19.84956 66.1394 -6.028775
19.23608 58.10587 -8.894665
7.155799 120.369 -6.666602
-16.95149 94.94945 -5.60197
-10.38729 103.1805 -8.826229
-19.742 36.58266 -11.53523
-19.26434 38.14528 -11.7014
-19.02821 40.85347 -11.66436
-20.50796 39.02439 -10.93595
19.2982 16.14549 -16.61204
20.76648 21.76597 -14.91751
18.97694 80.90403 -5.112238
18.99829 58.46952 -9.834939
21.6866 54.2402 -6.36946
13.3598 99.99279 -7.868591
13.50182 100.8928 -7.29073
-13.01241 95.88639 -9.747886
-17.3162 47.0898 -11.87499
19.68437 15.61222 -16.65793
18.58331 68.396 -8.018552
18.79125 71.06351 -6.674341
19.18998 58.82648 -8.873648
-12.78488 99.41366 -8.689953
-15.93569 93.54271 -7.251467
-18.99582 44.13604 -11.41066
19.93525 22.97109 -15.56552
12.49708 103.4318 -7.075379
-18.31306 45.11361 -11.69932
18.92229 57.88701 -10.24806
19.01679 59.3448 -9.414189
19.18395 55.1757 -10.2598
19.61656 50.46894 -10.08115
18.96827 17.70146 -16.48289
-16.09707 39.66733 -12.11533
16.72711 25.79122 -14.92379
16.60451 61.90308 -12.07578
-14.17806 41.2504 -11.43586
15.40229 21.25185 -13.9707
18.62519 56.88894 -11.20937
14.21257 60.28387 -11.39307
-14.93104 42.40559 -11.70161
12.65211 58.46085 -10.76267
10.09337 68.56772 -10.67674
11.98679 114.6315 -0.7677249
-22.03013 30.93596 -9.542629
-21.28876 34.34371 -10.48086
-20.67991 30.91835 -10.92162
-6.205441 123.9994 -7.104514
0.8953614 125.4958 -8.330031
-1.428102 121.8146 -6.987787
3.968913 122.8917 -7.254268
-21.03908 28.41158 -10.42274
15.31786 2.277632 -15.67281
-0.6503583 0.8618882 -23.56415
-1.340994 0.8221438 -25.68876
19.70713 87.42623 -4.507875
-18.46954 20.39087 -12.82931
7.730555 110.5566 -5.91799
6.761995 109.5154 -6.46616
3.55146 113.4331 -5.777848
-6.317302 112.1978 -5.626884
-3.164698 113.1915 -5.835147
-4.582311 114.9624 -5.494788
-1.71355 110.8018 -6.507563
-3.384448 107.6259 -7.7955
-6.601581 108.7671 -6.823801
17.53198 7.081218 -15.38389
-19.58631 74.68787 -6.377466
18.5779 77.68224 -5.808214
17.88656 77.85464 -7.530363
17.30288 77.35336 -9.236884
19.71266 77.95033 -5.03311
18.38587 80.76931 -5.627456
17.35723 84.72038 -6.916922
18.05499 86.56353 -5.653856
17.44851 83.32324 -7.065471
17.25922 77.63712 -9.253595
15.25984 81.75143 -10.03113
14.55637 86.45262 -9.736745
-17.88435 19.32232 -12.94834
-17.01456 22.06036 -12.8925
21.52635 36.22485 -10.27987
-6.831892 0.7822382 -14.54805
-18.28118 71.48884 -7.192316
-19.67686 58.00882 -8.27636
15.03941 96.01763 -7.585532
13.39159 89.38171 -10.05369
14.32668 88.14318 -9.687277
15.4984 87.35766 -9.282107
14.34447 93.9652 -8.998709
-13.58149 90.35998 -10.00604
-14.94338 92.70172 -8.661839
-12.28416 90.13538 -10.78713
-14.33778 89.72183 -9.658948
21.41455 37.54232 -10.29457
22.01584 45.30575 -7.602269
20.14782 45.33038 -9.873192
-22.55951 52.5598 -7.190193
-20.39499 53.82996 -8.22492
-15.25918 15.69514 -12.30675
-12.94417 12.98907 -10.99154
-14.09104 15.93102 -11.55501
-10.19291 14.68736 -10.46091
-9.858823 19.22144 -10.30251
-9.409353 19.50676 -10.28395
-10.72328 13.15203 -10.51022
19.98973 33.90577 -12.93636
20.44601 29.44842 -12.62364
21.09444 24.90894 -10.50583
20.77478 27.12291 -10.99449
20.81228 25.92152 -12.77371
18.06582 65.66399 -10.33647
17.77826 67.04333 -10.50458
16.2124 7.074867 -14.58318
14.57441 6.170315 -14.62884
15.45337 10.5191 -14.21118
17.42994 11.38362 -15.65474
15.01205 16.56662 -13.79012
15.99838 17.63256 -14.47094
16.56216 15.54464 -14.95547
16.32948 14.24457 -14.73835
13.58793 13.92739 -13.54884
13.06992 13.51103 -13.55873
12.76218 17.83827 -13.11038
13.05875 9.072025 -14.15329
9.429773 15.88597 -13.22109
12.09699 16.10629 -13.22591
9.49854 16.93966 -13.07694
9.173232 15.06623 -13.33483
8.545924 13.93894 -13.50238
9.214611 10.20779 -14.1405
10.5432 7.099664 -14.74215
10.01863 5.458435 -15.25593
4.914879 1.890304 -20.6947
11.34726 9.541606 -14.15862
7.173871 7.938205 -14.72253
5.202317 14.71966 -13.16617
9.934758 1.832349 -17.0214
3.524465 12.13626 -13.57066
5.909538 0.8228604 -20.82136
3.929633 6.993758 -15.12769
4.827557 0.9481758 -25.15279
3.305318 1.419773 -23.35547
4.289739 1.422875 -22.00856
2.907223 0.8273467 -25.52656
1.76229 1.882222 -25.22133
6.084558 3.459006 -16.66126
2.768018 3.029922 -23.16236
1.36631 0.6589173 -26.04112
1.155319 2.189366 -24.3644
4.153257 2.034673 -21.01501
4.667819 2.784468 -17.43741
2.970937 9.683585 -14.21145
2.790105 3.633899 -20.52579
5.491149 2.852151 -17.22245
7.828516 114.2531 -4.62963
5.371115 115.4953 -5.280724
6.903282 117.1523 -5.206476
5.925278 119.3709 -5.517646
13.26291 98.88181 -8.43879
11.95292 102.674 -7.928613
10.27108 106.1873 -7.482932
9.244622 105.2063 -8.463655
11.51657 106.4122 -6.33289
6.151151 105.3642 -10.03088
-6.994006 102.4387 -10.61565
-9.497631 98.98266 -11.12655
-11.87195 98.33925 -9.884234
20.8587 24.77934 -14.16126
-15.92812 38.62643 -12.15347
-13.26221 35.13586 -11.13832
-5.386549 29.56138 -11.12177
17.97711 56.42511 -12.04916
17.84784 53.70425 -12.48287
-15.6327 43.90588 -11.88111
-13.85708 45.17047 -11.09205
18.37733 63.65201 -10.17683
-8.732627 124.0274 -5.861124
-4.699844 120.4859 -6.283516
-4.517405 120.8826 -6.4263
-2.177283 120.9943 -6.729605
-7.23335 122.4715 -5.996375
-5.30755 119.6884 -5.834104
-7.237734 119.7985 -6.029587
2.5725 118.075 -6.858372
-20.43167 78.01013 -6.443243
-19.20976 88.66631 -5.52263
3.566832 112.467 -5.962211
8.049558 109.068 -6.461889
-11.37451 81.5294 -10.64667
-17.57615 76.27366 -7.499011
17.94572 70.65966 -9.470869
16.4298 80.03402 -9.819139
-10.07185 22.48846 -10.21804
20.04711 34.25621 -12.26859
-6.795681 3.988034 -12.46528
-4.560941 0.6713002 -16.53925
14.43814 97.39431 -7.763783
-15.89806 82.04059 -9.610976
21.07015 42.38464 -9.391556
19.69853 44.44124 -11.5145
19.60861 48.87933 -10.53451
-18.20263 53.62778 -10.98003
-19.50205 52.26545 -9.764719
-20.69493 59.81812 -7.001446
-15.74991 60.08331 -11.16672
-14.74081 53.4903 -11.17088
-13.63367 18.9514 -11.35825
-10.73382 8.867383 -10.70184
-7.313722 6.725933 -11.66356
-8.593814 6.069969 -11.37374
-6.013718 13.47744 -10.92646
-7.774119 8.570106 -11.28096
-7.129927 14.60152 -10.72174
-8.563724 18.70123 -10.31679
-5.878669 20.65475 -10.20832
-4.41034 15.68892 -12.05056
-5.268889 19.53724 -10.34204
-4.973816 16.89809 -12.52064
-11.20697 22.86963 -10.41197
-5.309609 20.32034 -10.32129
-4.237335 19.80149 -11.03963
-3.574859 12.97697 -11.91193
-14.8008 21.40548 -12.07361
-14.39371 23.5583 -11.8434
-4.831324 14.20497 -12.466
-3.879319 9.92838 -14.09358
-4.410701 11.41268 -13.52281
-3.761476 14.59636 -11.375
-9.398883 23.05071 -10.12294
-10.35537 22.13386 -10.26956
-12.18498 26.05612 -10.69376
-3.423946 10.68786 -11.95192
-4.105419 16.23704 -11.85059
-4.544805 23.96884 -11.61416
-16.2532 25.60914 -12.67371
-7.821453 24.36814 -9.946211
-13.2355 25.7832 -11.19215
-18.34372 26.11781 -12.59591
-7.295589 33.78323 -9.833863
-10.44878 27.52063 -10.13759
-19.51809 29.80532 -11.8003
-7.106728 27.39082 -9.834771
-19.03353 29.8012 -12.11924
-17.84582 28.33788 -12.66808
-17.34388 31.6251 -12.59305
-14.48662 35.98937 -11.78129
-7.226601 27.90479 -9.791545
-17.77411 30.77662 -12.55142
-9.328096 30.84179 -9.786812
-5.277662 29.79465 -12.64779
-5.461869 28.31954 -10.76181
-14.20202 32.35366 -11.67735
-5.169453 30.0022 -15.17519
-11.86266 32.41844 -10.46426
-8.461022 30.54197 -9.690657
-12.35723 28.61451 -10.73715
-10.64522 32.82931 -10.02839
-16.36197 30.48637 -12.59
-11.73345 29.40816 -10.4606
-8.627719 34.38751 -9.632316
-8.069376 35.82822 -9.668187
-1.633886 32.00353 -15.52008
-0.9099299 31.36264 -15.28529
-3.620978 33.39654 -15.81048
1.960826 23.70668 -13.23331
18.88982 41.49513 -13.83817
20.21554 29.07337 -14.41677
18.97696 26.47119 -15.60476
17.38691 25.43943 -15.33674
18.201 29.05176 -15.36404
-18.68942 61.1417 -9.251939
14.10041 3.33699 -15.42477
14.45668 17.9134 -13.48907
14.82361 16.52649 -13.69277
10.19367 18.02674 -12.95686
5.520622 10.222 -14.14655
2.656596 6.305038 -15.49133
3.530722 14.27866 -13.06233
0.9894294 10.75947 -13.82751
-1.262242 0.8112481 -24.78701
-0.08562823 1.830765 -20.89832
2.033627 4.271425 -20.98847
2.524699 3.970373 -17.01939
0.5672426 117.1018 -7.123034
-1.385666 117.0616 -7.348718
2.367941 118.6922 -6.314533
1.938119 118.4263 -6.67698
-0.226026 114.8113 -5.743031
4.088748 116.7179 -5.658193
5.800411 113.9987 -5.290563
0.9300146 119.2636 -8.170496
-0.7622451 117.0668 -7.210138
-5.865892 118.2404 -5.304703
-4.323171 117.9514 -6.633249
-6.024282 118.2878 -7.401083
-7.334662 118.6432 -6.782023
-6.324423 120.1349 -6.79935
-5.603568 119.9466 -7.033134
-14.41357 93.63567 -9.005395
-11.95335 38.62382 -10.32563
-11.34086 41.51614 -9.981953
-10.88359 39.23104 -9.91061
-12.62945 40.06818 -10.64042
-9.963397 44.16959 -9.653653
12.577 55.56364 -10.88266
10.03718 58.27748 -10.53674
11.03287 59.79122 -10.47164
18.29785 64.87802 -10.01221
17.41456 65.83755 -11.11129
-5.815223 106.6671 -8.157999
-10.64074 105.1875 -7.59121
-1.901602 119.793 -7.448565
-1.513365 119.4262 -8.295568
-0.7272279 118.7378 -7.362164
0.211647 119.7886 -6.95564
3.338189 119.2419 -6.730895
-18.60111 87.06252 -5.645582
4.343355 106.2254 -8.54318
-18.21575 68.28544 -8.194964
-17.72902 75.21442 -7.44606
-18.57837 75.05541 -6.453918
19.39847 50.28672 -10.90549
-5.067573 4.382071 -13.2253
-4.442633 0.3273329 -20.68722
-3.658734 0.3967769 -20.4241
-1.210799 2.622838 -19.89782
-0.6210717 3.241069 -20.69065
-2.716995 0.6083468 -17.725
-2.232845 4.262495 -19.76427
-3.263324 4.05649 -14.69524
13.40316 93.89701 -9.889736
10.12611 90.99157 -12.15534
19.51045 45.08241 -11.99505
18.49161 47.2313 -13.16892
17.97917 48.65462 -13.32317
-16.04997 54.07317 -11.489
-3.622878 7.27142 -12.75705
-5.24431 21.23783 -13.13012
-4.657843 19.92281 -12.39128
-5.253352 24.53195 -14.85187
-5.146314 16.85578 -14.53102
-3.460521 17.79462 -15.28583
-1.993187 12.62053 -13.48046
-3.337724 21.40672 -15.5687
-5.431458 18.62737 -14.14658
-3.416423 14.26104 -14.25729
-1.840265 20.66677 -15.12615
-1.80601 16.60617 -14.46485
-0.2295863 21.36121 -14.38307
-5.275377 11.25012 -13.95981
-1.375174 17.81771 -14.49669
-0.5975017 21.44625 -14.60382
-1.579146 16.35404 -14.30147
1.027904 16.15262 -12.9902
0.7300069 15.89418 -13.07925
2.110207 16.00702 -12.73779
0.08736647 29.93638 -14.83743
-1.239304 26.46371 -15.26869
0.157878 31.92322 -14.88694
1.861665 33.95447 -14.11804
1.341326 22.68803 -13.54097
5.80625 20.29196 -12.29295
4.993951 16.49894 -12.79104
4.011739 20.32662 -12.24727
6.856089 21.77674 -12.22092
9.560678 19.48853 -12.74807
-14.47126 23.18924 -11.88634
-5.255552 26.35973 -13.69392
-4.952091 32.88826 -15.50174
-5.548238 32.14334 -14.55195
-4.821253 33.07702 -15.60896
-4.054282 34.39794 -15.76369
10.32914 19.78799 -12.74855
16.10291 25.5571 -14.46543
15.66161 23.74473 -14.12093
10.43678 22.13363 -12.49317
13.3689 28.78385 -12.61082
0.6062346 11.67439 -13.54976
-2.012189 10.50455 -14.16648
-2.954814 10.88699 -14.62268
-1.049039 5.31054 -19.73417
-1.536184 6.579265 -18.26074
-4.171727 7.227186 -16.27768
0.09976323 5.519795 -16.74578
0.6956126 6.094653 -15.87165
0.2786107 7.857382 -15.03183
12.80858 97.08365 -9.555671
10.22379 102.7328 -9.152879
8.292551 101.7986 -10.50452
11.43685 99.62395 -9.735201
10.00081 98.1777 -11.14383
-7.480728 38.83516 -9.992293
-5.656251 40.3324 -14.87952
-6.437271 41.53191 -13.24382
11.75871 46.48095 -11.05813
-6.707608 37.64164 -10.59227
-5.997127 35.61927 -11.72238
7.778347 58.12048 -11.63752
16.57914 66.1347 -11.50835
-7.182984 102.8616 -10.4808
-0.2545762 113.33 -5.769731
2.109658 111.465 -6.416337
-0.6553498 111.1649 -6.404699
17.09481 73.39288 -10.16013
15.50519 72.88769 -10.94923
13.13654 72.09819 -10.43807
16.76249 67.385 -11.37784
17.06105 67.43378 -11.14664
15.42372 69.72263 -11.14963
17.84159 72.25777 -9.377105
-3.627948 8.141552 -14.70132
10.25759 95.65462 -11.6414
8.677588 95.88425 -12.23094
12.51685 94.05536 -10.55069
17.55059 45.54255 -13.7296
17.20362 44.88854 -13.85318
15.61381 50.0213 -12.88876
16.20113 50.81915 -13.11612
15.0167 43.86263 -12.94805
2.56399 45.88212 -14.30297
14.87057 46.74864 -12.66321
-7.218108 44.63169 -11.20767
-0.3935097 13.03655 -13.25844
1.399664 26.64396 -13.84735
1.685658 31.24361 -14.0379
4.539683 31.92389 -12.18078
4.405705 22.02986 -12.0819
-2.579548 33.86644 -15.74135
19.78468 37.48689 -12.94459
19.70503 38.7978 -12.23793
19.15888 43.06916 -13.42967
18.92704 41.12233 -13.86917
17.52479 36.99856 -14.55863
15.03166 38.72794 -13.22853
16.92373 37.40814 -14.40515
14.54087 23.07889 -13.38175
8.235169 28.31773 -11.67487
11.56755 25.38937 -12.327
12.5377 26.19769 -12.48967
12.81125 24.15143 -12.68301
13.22781 26.8164 -12.65069
14.57467 29.93577 -13.18811
8.556552 25.41554 -11.98573
2.127289 27.83017 -13.4557
5.57396 27.5798 -11.77108
11.32538 28.98018 -12.02511
11.93104 27.5846 -12.24921
13.86272 29.98437 -12.78723
7.530676 32.29799 -11.39491
19.69619 33.08574 -14.46355
16.53386 32.29237 -14.47684
14.70398 34.04298 -13.16017
-2.955567 6.678659 -18.15104
-1.682292 7.539408 -16.6532
8.405881 96.44853 -12.1983
-7.302314 44.49372 -10.98103
-5.107629 37.72374 -15.33288
-5.082401 37.15786 -15.37707
10.00016 63.55536 -10.62544
14.40228 67.46825 -11.02001
-18.38633 69.75439 -7.415797
-17.21937 70.0034 -9.862565
-17.3277 69.13538 -9.946729
-18.5187 65.50826 -8.351495
-19.6379 62.48718 -7.324284
14.30664 67.36456 -10.98697
13.15071 68.82413 -10.51213
11.28288 73.60366 -10.44143
-5.841891 3.611849 -13.11051
-3.025337 5.334377 -16.68622
-2.522916 5.542585 -15.91426
-2.889786 8.583325 -13.26129
9.63732 90.32451 -12.39077
14.85648 42.77277 -12.91559
14.7107 44.75025 -12.67245
11.83602 38.53061 -11.49741
8.087275 44.90532 -11.02227
12.48991 42.03911 -11.53116
12.06081 37.65516 -11.62247
8.647099 45.42828 -10.90378
9.124575 40.95971 -10.96187
2.354721 40.65048 -14.20436
12.68763 40.10086 -11.7222
10.73413 48.36096 -10.73344
10.28762 41.56363 -10.99304
11.64812 53.57557 -10.70029
9.427971 48.85871 -10.71866
7.656677 49.50408 -11.23648
5.463812 47.53047 -12.6407
10.32047 51.3991 -10.62132
13.64675 50.26371 -11.66666
7.364441 48.50037 -11.34951
13.67477 51.84565 -11.59239
13.81355 52.85175 -11.6109
11.98032 37.02664 -11.63806
11.68242 34.14391 -11.7092
9.954364 37.86409 -11.15648
10.10786 55.02105 -10.56277
-14.05906 51.04552 -10.98339
-14.0648 47.08175 -11.12402
-11.22133 45.74941 -9.850471
-13.22062 46.6518 -10.70754
-2.238153 35.61396 -15.66082
1.591881 34.74108 -14.318
4.941782 34.34119 -12.07416
5.972545 38.66383 -11.72031
6.636871 35.73828 -11.42722
3.272998 33.46275 -13.11872
5.537022 30.81221 -11.74063
5.856766 31.90103 -11.65563
7.973888 33.72556 -11.32156
10.4011 33.17118 -11.54053
11.75606 31.03603 -11.95751
14.25229 40.755 -12.59003
4.306714 25.18636 -12.09073
-3.339909 40.48115 -15.68108
0.5983475 40.78468 -14.88707
-2.093821 39.45858 -15.56514
0.2068177 39.25578 -14.99996
6.045599 41.00989 -11.77985
2.376625 38.32642 -14.09247
1.930311 43.162 -14.46691
3.08177 44.56514 -14.02817
0.9277208 44.69855 -14.76281
-1.377728 42.15842 -15.33756
-1.762523 44.94238 -15.28577
-1.125734 44.77799 -15.18158
12.25757 62.7328 -10.52891
9.685726 64.48642 -10.82432
13.55306 64.22111 -10.84629
-15.38443 66.34811 -10.83776
11.72825 71.69326 -10.33769
10.13953 72.56474 -10.90574
9.626678 65.01727 -10.86967
10.56336 91.67397 -11.8738
8.098709 89.76192 -12.87564
14.42373 85.86232 -9.797905
10.13803 86.74786 -12.06213
10.98144 90.21517 -11.61038
11.33999 81.73351 -10.72366
7.244187 83.92895 -13.25362
4.008702 84.30833 -12.86572
9.680005 84.05059 -12.21587
5.069086 47.3185 -12.9448
7.524025 35.91825 -11.28359
-0.5258343 48.09949 -14.94574
4.324782 42.3854 -13.07196
3.948938 44.37027 -13.49409
7.522479 45.14728 -11.2117
10.27399 64.00291 -10.5235
-17.96585 67.10482 -9.195449
7.556592 71.27861 -12.88115
7.567795 71.62577 -12.90026
6.875401 88.71999 -12.9399
3.924997 88.43308 -12.67651
5.219085 84.52046 -13.04158
6.571778 85.77695 -13.12772
7.718773 91.2069 -12.79245
-1.340513 46.77232 -15.12795
-16.09773 63.70185 -10.98937
-16.20573 61.89272 -11.15413
9.744368 72.18511 -11.15592
12.77409 83.29783 -10.15176
9.571582 68.86205 -11.04766
5.628236 95.57354 -12.7253
5.477427 98.72506 -12.09891
7.039625 100.3435 -11.43042
2.321212 100.7064 -11.19399
2.8502 97.8293 -12.40556
2.395116 98.36349 -12.25609
3.476181 103.7325 -11.09658
3.272755 106.4376 -8.465283
-2.54666 108.8131 -7.214966
4.033762 105.1637 -9.379395
1.173701 107.7645 -7.768015
0.2945602 109.336 -6.884785
0.8364028 104.6965 -10.19927
4.097723 102.701 -10.76102
-2.100625 110.0313 -6.632582
-1.345382 106.0933 -8.661345
0.2525226 100.5847 -11.24642
-0.7183829 104.1523 -10.91915
0.8614507 99.36475 -11.81788
-0.4996231 103.3491 -11.26409
-7.975155 102.9446 -10.16342
-5.701375 104.5467 -9.519663
-1.89472 104.9272 -9.401027
-7.436428 99.65522 -11.59425
-2.583966 103.9587 -10.7152
4.069642 91.61041 -12.88026
7.039124 50.23258 -11.63304
1.945236 50.01176 -14.51252
2.067135 48.02779 -14.48041
-14.32026 63.61847 -10.6588
-0.3938915 51.87835 -14.74773
-7.044712 48.15913 -12.74748
-5.85595 47.79523 -14.94026
-7.120022 47.49002 -12.29401
4.67304 52.44022 -13.5566
-8.593536 48.76876 -9.993282
-3.680885 49.80677 -15.28968
-10.46683 48.64666 -9.684684
-9.661846 47.16829 -9.658614
7.84766 54.37029 -11.36401
6.918309 58.16682 -12.32546
6.486638 59.49342 -12.75737
3.858232 57.37469 -14.08791
2.425164 53.52485 -14.35907
1.100243 52.01767 -14.5886
-1.406743 49.98039 -14.99162
0.2501935 55.68655 -14.48542
0.2359904 59.8521 -14.24314
2.720232 56.3254 -14.28456
2.345239 44.81565 -14.35814
8.791898 64.60249 -11.31999
5.879304 65.03291 -13.48349
-14.69448 65.20942 -10.76536
-13.09433 61.5234 -10.23259
-12.38655 65.93326 -9.934546
-13.08284 66.23883 -10.12259
-12.26993 61.53755 -9.928859
-10.99391 65.70042 -9.953648
-8.933899 65.24957 -11.43732
-6.131233 66.95989 -14.49545
-8.12851 61.5076 -12.52531
-5.605448 66.26645 -14.56525
-7.282308 64.05585 -14.05441
-8.718042 60.00235 -10.92398
-18.1584 60.31694 -10.19055
-16.25014 61.01674 -11.21083
9.070968 79.8649 -12.38858
11.8724 79.92985 -10.39339
8.301109 78.035 -12.8346
15.37864 78.86687 -10.32836
10.71691 78.32697 -10.8945
14.47017 75.5988 -10.54987
10.77671 81.35706 -11.06387
-0.6689537 97.30619 -12.50116
-3.511913 98.71409 -12.12123
1.700767 88.97627 -12.85163
-8.497343 93.15269 -12.5703
0.8659877 90.29194 -12.92428
4.243987 93.91748 -12.86007
1.607792 93.92152 -12.87035
-4.036861 51.58858 -15.21524
-6.27437 51.60896 -14.58421
-6.1483 47.17027 -14.54938
-8.88509 52.5644 -10.16181
8.247948 55.84455 -11.1898
2.25409 59.29121 -14.23897
-0.2899757 62.4079 -14.11262
-1.814327 63.12795 -14.21518
-0.434066 58.7482 -14.35793
-5.089818 59.77357 -14.88007
-7.944992 59.96332 -12.66693
-6.080807 59.47986 -14.72719
-9.065808 59.14555 -10.50894
1.789891 63.90071 -14.00835
-4.422752 55.34103 -15.06055
-5.139776 52.53153 -15.10898
-6.498192 52.51611 -14.43087
-5.466052 57.30814 -14.95065
4.063881 62.88665 -14.03252
6.157969 62.79308 -13.19783
3.217831 68.02257 -13.86851
3.280143 65.82305 -13.96406
2.334753 68.7224 -13.76356
0.1444979 68.20464 -13.70658
1.963102 70.50484 -13.62281
4.937314 71.6578 -13.7437
-17.80987 56.8955 -10.98886
-13.51153 53.72791 -10.60235
7.651186 79.78945 -13.17113
-4.645369 95.27164 -12.77001
-4.210798 98.62128 -12.13423
-1.963392 89.14404 -12.76461
-2.903666 89.05042 -12.6933
-6.228818 88.06393 -13.1436
-0.5132579 91.14399 -12.93183
-0.301187 93.91497 -12.87463
-3.716809 94.00855 -12.85882
-5.675873 91.47914 -12.7085
-3.424573 94.9709 -12.79543
-5.917994 97.5321 -12.38115
-5.995642 92.12139 -12.73554
-5.512255 92.15356 -12.76094
-6.771012 91.52863 -12.84986
-7.800254 98.42057 -11.87408
-11.53202 90.84274 -11.32362
-7.407154 97.61357 -12.17396
-9.745576 90.93868 -12.31899
-8.436829 92.15236 -12.7118
-9.470737 87.0817 -12.67372
-10.33887 88.94975 -12.10584
-4.233951 87.71947 -12.677
-1.469863 46.58035 -15.15724
-7.468754 57.85402 -13.32132
-6.33227 53.86143 -14.58011
-7.874244 55.71803 -12.0451
-10.01309 56.09315 -9.869198
-11.80778 61.43356 -9.853123
-14.59069 52.21193 -11.1795
-12.39536 52.64164 -10.09274
-9.652689 55.36753 -9.908481
-11.6824 56.58116 -9.840787
-10.76376 54.28595 -9.725389
-12.04019 52.79082 -9.979568
-1.177091 68.31589 -13.76519
6.974781 72.53444 -13.29791
7.158759 77.16067 -13.34234
4.96082 76.78828 -13.5331
4.361183 74.35769 -13.61016
5.156529 77.67831 -13.50519
-7.939106 76.7614 -13.65898
4.667555 81.3606 -13.21702
5.881002 83.56435 -13.2356
-2.523814 98.04344 -12.33715
-10.73706 88.33573 -11.7695
-12.67456 83.55051 -10.16591
-12.363 84.58206 -10.30074
-15.99135 84.10455 -9.265808
-10.79108 50.48934 -9.723091
4.904387 81.73779 -13.22389
2.585287 78.2049 -13.1532
3.841224 80.94724 -13.11753
3.272209 77.89676 -13.26459
0.8731915 83.47855 -12.70579
-3.347332 86.10181 -12.65803
0.8270654 85.65633 -12.69067
-2.31048 76.47346 -13.3031
-2.525769 78.21643 -13.20582
4.617004 74.1496 -13.64162
-3.198569 68.34641 -14.08305
-6.044969 78.44081 -13.82381
-7.672623 84.40264 -13.34892
-9.975638 84.03954 -12.21348
-9.383383 81.41254 -12.60309
-8.124703 82.02509 -13.39118
-3.15001 86.34617 -12.62911
-2.842244 77.00437 -13.35182
-3.877683 69.6202 -14.11228
-4.310415 72.13569 -14.02207
-5.554368 82.86781 -13.41803
-3.873713 82.61363 -13.0784
-2.620444 84.26556 -12.73878
-2.642266 84.97767 -12.68682
-4.752795 81.79978 -13.35302
-1.914102 82.45839 -12.80628
-3.351446 85.53323 -12.70845
-4.462617 61.69508 -14.72799
-0.5027659 63.3873 -14.06089
-0.5817354 65.05138 -13.94975
-6.174158 66.70219 -14.49821
-7.383172 68.6572 -13.95433
-6.9436 71.21304 -14.18548
-4.952453 75.78762 -13.85595
-11.2663 70.65373 -9.99083
-4.395504 79.81528 -13.43657
-8.862391 79.49702 -13.01193
-0.7559585 64.08585 -14.03074
-9.423747 67.54427 -11.05026
-8.043211 72.8427 -13.51572
-9.173841 70.26357 -11.81294
-6.987375 75.83951 -13.88924
-8.262535 74.91286 -13.39124
-9.17261 76.55668 -12.49749
-8.885847 75.04457 -12.71673
-12.07413 72.15876 -9.939645
-7.62508 71.03193 -13.75016
-8.473113 73.65294 -13.10251
-16.66982 79.15543 -9.2487
-17.35568 74.81911 -8.708499
-15.78486 74.61994 -10.2948
-15.57942 78.94479 -10.07785
-14.41456 76.17408 -10.28357
-9.671248 77.83788 -11.98439
-12.41502 78.20426 -10.04707
-11.96432 75.53258 -9.996056
-14.21438 80.00137 -10.06219
-10.00554 77.8704 -11.55
-15.32421 89.38438 -9.064028
-16.34135 85.78194 -8.361875
-13.27285 88.01548 -10.10148
-13.56753 56.65992 -10.55723
5.481265 155.3204 -5.575879
4.605512 155.0576 -7.346409
8.982059 142.1955 6.855163
3.055789 156.4444 -7.916264
8.230294 148.8516 0.9663517
-11.20865 142.8712 4.175191
-5.738106 154.1537 -6.985702
-9.038315 146.4893 2.523377
3.721472 155.1585 -8.027955
-4.18289 155.1451 -7.721269
-7.518647 152.0732 -2.760443
-9.294689 146.8845 1.94063
3.075709 155.6427 -8.179861
-9.566214 146.8011 1.822504
1.126621 129.1633 12.58526
-14.88172 133.4251 5.162799
-9.767622 126.5897 10.37387
13.90332 134.9985 9.091825
-7.121297 129.563 13.00134
3.614074 132.2259 13.44056
14.80577 134.8401 5.629628
-10.10291 140.4686 7.267318
-10.26058 141.2346 6.293502
10.30331 123.2918 9.651404
8.252724 140.2862 8.903716
-12.86423 124.0628 6.22117
14.20986 130.1591 7.260783
12.29742 120.7025 6.611775
-11.78087 140.0863 6.243855
-7.587103 131.4979 13.71689
-6.041076 132.8252 13.73415
10.80841 126.1026 9.340341
14.73723 132.0883 5.471962
-4.971042 129.2032 12.51618
4.743559 127.8442 12.10993
-14.62427 134.0119 1.967166
-10.11854 125.7058 9.78123
10.2906 125.3668 9.632594
-14.44243 131.8799 2.19606
-11.97048 126.6783 8.533425
11.40553 123.5701 8.615092
7.962716 133.062 13.83635
-14.41519 130.9492 3.410646
8.081445 134.6356 13.54807
-14.23305 135.5707 7.601715
6.841676 131.0932 13.66659
4.037301 135.0195 13.05123
2.029392 133.6483 13.21602
-1.604783 136.2934 12.23002
-14.52466 134.2347 8.115689
-2.591897 132.8271 13.19626
-6.659698 138.1372 11.07975
5.630094 138.5748 10.52649
5.601358 135.5827 12.96251
7.482829 139.5947 9.567629
8.623621 131.4869 13.69518
-12.96495 122.6982 5.132808
-13.10013 124.0939 5.514084
-14.0337 128.963 2.293126
-13.34531 138.0973 6.290101
-14.10853 131.8856 9.583797
-13.02645 132.72 11.36059
-14.70682 132.0525 7.825977
-11.7391 134.4393 12.27085
-11.02129 130.9846 12.7099
-11.96996 133.1709 12.31941
-10.21428 139.6235 8.171688
7.521207 132.6302 13.88173
10.57556 135.9234 12.24058
7.933116 139.0759 10.09387
-13.45573 126.7635 5.308184
-13.45472 125.6415 1.955688
-13.55628 126.8781 4.723086
-13.76694 128.1367 5.644271
12.60748 123.0099 6.601446
14.84235 133.1933 5.256093
12.4619 134.1759 11.646
8.588413 131.025 13.56262
-13.3055 123.8543 4.820806
-12.95493 136.8542 8.746975
-14.01644 128.7777 2.540555
-9.109894 130.3033 13.21206
-6.432921 135.1261 13.27744
-9.097541 139.2398 9.278624
6.800082 132.4909 13.84521
10.37537 129.2863 12.21571
-10.24103 139.3657 8.467932
-10.88696 126.1933 9.410586
12.79908 125.9791 6.665396
-5.294976 134.6531 13.26021
11.70811 137.0768 10.22618
-13.94999 128.9032 6.005342
-8.502706 133.8653 13.72585
-7.336786 137.4869 11.67342
-4.666529 136.6818 12.09466
-11.24623 128.2807 10.84373
4.535468 138.2749 10.88708
11.32045 130.9268 12.55297
9.82772 125.5462 9.971022
10.59886 127.3894 10.32958
8.540123 137.5865 11.47207
13.33343 129.2442 9.1062
13.30875 125.5389 5.193086
-3.563511 135.1726 12.82884
9.36721 128.4695 11.97484
12.71489 128.389 9.045873
12.80208 129.6421 10.53312
-4.222084 129.5976 12.68306
-1.638036 131.7175 13.11677
-7.647525 135.9491 12.91695
-23.85973 33.00478 -6.906528
13.67512 113.6203 4.456287
-24.55086 38.69294 -6.986006
-22.0009 40.69664 -2.081543
-25.70066 54.7878 -5.43449
-22.63389 25.77446 -7.674287
-22.12163 33.62334 1.592399
-21.75343 39.86255 7.249121
-13.35897 115.7085 3.42336
-12.86729 48.03473 11.19965
-13.59742 114.0929 2.358991
-7.203364 121.2518 11.5612
19.50533 44.11509 8.789945
1.258021 127.8668 12.06826
22.86698 26.71969 -3.865212
-13.73754 114.6534 3.076819
22.62723 24.32149 -7.16532
-22.75041 24.73316 -4.395054
12.67392 116.1347 5.566787
-11.38022 123.7954 9.137262
14.96494 66.50491 9.681399
-23.00412 40.0008 -4.141622
13.72794 112.1959 2.464349
22.82591 25.27553 -4.385763
21.72391 34.6752 2.208492
8.304922 44.79696 10.5206
12.45988 117.6883 4.60085
-23.2732 29.99578 -3.223186
22.72432 23.45227 -4.748387
-12.92113 118.1789 3.613587
12.75975 118.6775 7.627247
17.05566 100.7682 0.0004325594
-13.84075 112.2928 2.117915
-22.26822 30.88514 0.1168693
14.64367 109.4582 0.6688804
12.49395 116.9288 5.951551
12.11257 118.3709 7.235567
-19.4585 41.97759 12.18868
23.04942 82.46244 -4.451551
23.27375 79.93093 -4.609602
23.96652 66.83852 -2.823265
-13.9369 115.6342 4.335014
21.41502 91.12357 -3.306537
21.10413 91.70557 -2.905007
12.52394 119.424 6.651914
-22.53746 28.82745 -1.47924
-23.74109 37.31038 -4.117849
-23.02391 27.44583 -6.903912
-24.84929 50.00529 -4.753694
-24.13755 75.09976 -5.609271
-9.079322 123.0756 10.93115
-4.8496 128.0718 12.04083
19.88664 37.47688 6.589924
25.23526 44.63531 -6.260748
22.80584 30.88072 -1.049512
23.98938 32.23626 -3.343077
24.18599 74.91582 -3.332382
24.97759 59.75898 -5.074906
-13.18541 120.5824 6.479686
-14.43083 109.5992 -0.1569283
15.41187 107.6179 3.167025
-14.83296 108.3835 4.495575
12.94319 117.1115 7.090477
-22.78071 28.6063 -2.239103
-24.3963 35.47886 -6.624673
-23.16321 27.48914 -4.466719
-23.45999 34.9209 -3.549796
-23.26859 28.3226 -5.492893
-23.92084 45.7637 -4.765289
-20.71108 93.1785 -4.658065
-12.77869 45.6933 11.39857
11.17456 119.8043 10.61322
-1.433968 127.1985 12.13408
20.46244 34.00155 4.44179
24.70347 34.59289 -5.414013
24.7946 44.36007 -5.349
22.41015 26.59432 -2.274798
23.67574 30.41155 -3.761553
24.03233 31.46451 -4.396663
22.60534 79.03387 -2.372237
5.936954 45.92489 10.19477
25.3087 60.91465 -4.024086
12.23026 120.342 8.04021
12.63587 117.1944 9.089936
-13.68745 110.7919 5.631474
-16.69615 102.5101 -3.567287
18.513 94.53278 -0.5472232
17.08665 102.7024 -2.277606
14.54447 108.6983 5.070158
15.65638 107.02 2.422697
15.64586 106.7709 1.245466
15.68262 106.3782 3.951149
11.59496 108.8762 8.979334
13.89379 111.8877 4.545655
-23.60071 36.13987 -3.823867
-23.99993 39.3476 -5.268711
-22.81821 33.01777 -2.295648
-22.09507 33.91718 -0.7707925
-25.32126 60.00831 -6.265976
-25.30605 50.94441 -6.738906
-21.04609 40.65966 10.0121
-18.90409 44.07427 12.07742
-22.01043 85.04553 -6.199152
-24.60505 73.11922 -4.249848
-6.296047 50.11509 9.840147
-0.1858381 123.9004 12.17939
-4.13208 124.4661 12.21996
-2.798977 126.0753 12.224
18.24884 39.63084 11.58922
20.7819 33.15139 3.480951
22.8408 24.41587 -5.596677
5.931067 44.60852 10.43859
25.02489 65.8663 -3.689772
23.46437 79.70955 -3.168063
13.31414 44.0584 11.30455
25.4625 55.05011 -4.667701
25.17419 60.88661 -3.623446
-8.127025 120.8953 10.97205
11.58955 121.3138 9.050063
-14.07237 110.6653 0.269465
19.31131 93.41425 -1.51654
15.18037 107.6488 4.336901
-24.22613 36.1112 -5.012724
-21.9184 36.59545 6.077353
-25.56395 62.10529 -5.406526
-25.72053 57.06343 -5.31789
-23.13783 54.06947 -2.894425
-21.72811 38.35787 7.306542
-21.08767 42.82426 9.667195
-20.27301 47.3197 10.50224
-18.46929 98.5339 -4.283314
-22.4694 83.38574 -3.464333
-22.8134 84.00541 -4.046981
5.921181 122.5378 11.8761
4.413412 123.1863 12.09993
-0.7770033 123.5655 12.16637
-3.48336 124.2767 12.23441
20.11418 36.98418 5.851616
23.72093 31.12135 -3.125969
25.08861 65.41175 -4.96845
24.84708 69.48937 -4.751059
24.36777 74.58772 -4.319413
23.43363 78.00378 -4.742658
22.46543 86.78535 -4.48495
13.24695 42.86724 11.46207
25.35061 49.87343 -5.840672
23.9364 57.56261 -2.929681
22.60771 57.37669 -2.53994
25.3993 57.61469 -4.262028
-5.886986 122.1258 12.18649
-12.51775 116.1208 6.462716
-12.40066 121.4307 9.697867
-16.53726 102.702 -0.1355131
21.4857 90.35764 -3.134862
15.28218 105.7368 5.786259
-24.53636 41.50659 -7.429504
-21.68748 38.08976 -0.8845803
-23.07269 37.1742 -3.049282
-21.50148 37.90166 0.5637385
-21.60142 37.06696 0.6937352
-25.15245 66.81027 -5.468071
-25.04827 64.98176 -5.683892
-21.6916 41.5297 7.542477
-20.58641 47.83941 -0.05184843
-13.74322 48.49619 11.34276
-21.73655 89.27776 -5.265666
-24.1326 75.16377 -3.829732
-23.84225 78.1457 -4.348353
-10.82565 48.72697 10.76254
-9.105936 47.5244 10.61563
19.55738 39.60379 8.469172
23.50768 29.91235 -3.655644
7.729465 47.10397 10.12533
4.356339 47.00489 9.913511
22.92881 68.52088 -2.433112
22.0972 69.61967 -2.236909
22.44537 82.2499 -2.607959
21.95071 82.79344 -2.431816
17.93795 43.9252 11.46352
16.57679 47.22147 11.47187
24.3342 47.60362 -4.447214
23.0044 53.33849 -2.862657
21.063 60.05854 -1.475345
-8.752217 116.3502 10.95039
-17.93178 100.8035 -3.249996
17.47379 100.6901 -0.8435868
18.45897 97.43145 -1.328271
16.73391 102.742 2.06027
-22.02659 40.59837 3.826402
-24.2152 67.14132 -6.763645
-24.77482 62.80389 -3.742202
-21.25437 46.24276 8.842826
-21.87301 45.08699 6.498415
-21.92961 46.58762 4.939491
-15.01594 47.62109 11.69311
-21.57444 84.55608 -3.076845
-22.93544 83.21522 -4.065471
-10.4976 53.83232 10.26045
-5.652598 48.36681 10.03233
-9.552395 48.15362 10.61244
19.97372 42.45291 6.761862
19.17188 40.59225 10.02334
8.225925 45.63827 10.39065
10.04719 49.95977 9.983443
9.948566 48.69333 10.13784
4.237983 49.01015 9.571341
20.86691 67.15212 -1.391226
20.39865 68.13299 0.5276145
20.62415 63.5573 -0.561628
22.83508 64.96286 -2.374239
21.25855 78.51466 -2.224319
20.90369 80.94584 -1.961091
21.5877 74.0267 -2.125418
22.25993 80.48381 -2.432625
23.70152 61.74823 -2.741436
7.943767 116.0506 11.50855
-19.05917 97.22278 -2.907031
-17.68142 97.71785 0.2470258
16.07507 102.4128 5.502706
17.09788 101.0098 1.587889
-21.48432 40.36849 -0.9806165
-20.13147 61.60655 0.2992251
-21.05427 67.69621 -1.610277
-20.8559 66.27541 -1.313415
-22.0866 63.22788 -2.271993
-20.95248 44.98564 9.765419
-21.53898 43.00399 2.670839
-18.26784 45.25177 12.09263
-17.96315 50.7378 11.43618
-20.51297 92.5628 -3.251804
-24.19013 73.56047 -5.060089
-9.899385 49.12095 10.57297
-9.010459 46.65695 10.69538
20.46636 39.73599 5.259119
18.92374 42.72248 10.53391
2.225899 52.84531 9.672405
3.96664 53.24825 9.56041
21.24033 67.36234 4.091323
20.49095 73.38007 -0.9337684
21.52501 68.70907 -1.932798
23.19465 51.91879 -3.049551
21.11425 57.63404 -1.332105
8.963236 117.444 11.67125
12.92344 116.3286 8.568056
-17.96687 98.77611 -2.057637
-21.62286 43.1009 -2.342906
-25.2113 63.38316 -4.170444
-24.47537 64.28309 -3.470826
-23.77259 55.60398 -3.218227
-21.43242 42.2902 2.246437
-17.72473 48.01968 11.82812
-20.56474 90.21674 -2.632559
-23.27264 81.907 -4.308749
-22.70915 85.203 -4.273937
21.13127 43.13356 4.746545
10.32647 48.98738 10.15521
1.178167 49.87817 9.469204
20.4104 71.87981 1.111439
20.91151 66.47723 1.957562
20.62709 78.9092 1.46471
21.4778 52.51427 0.8351524
-23.09429 44.77177 -3.772889
-24.19899 70.64384 -3.298547
-23.97662 73.77792 -3.227114
-20.63827 75.76654 1.7238
-21.2316 44.07011 2.18705
-19.94375 87.76661 -0.3908783
-20.51033 83.42703 -0.197519
20.27426 36.03327 5.278786
21.66983 43.76963 4.080395
21.16975 49.20611 5.376991
19.43412 44.60656 9.102469
1.423316 52.76469 9.689173
18.91613 92.43829 0.07446209
23.45712 48.91732 -3.516846
21.91342 51.50446 1.903262
-21.07175 43.17769 -0.8798149
-21.11829 73.91164 -2.030631
-23.89458 56.91709 -3.23534
-20.44811 54.11563 -0.4448724
-21.89634 53.4453 -2.105339
-16.6962 52.56863 11.35817
-20.63808 85.33331 -1.069492
22.08267 42.70305 3.234458
22.09303 45.14972 3.496548
1.992724 54.16908 9.8228
21.09972 67.98615 2.953992
21.06457 66.51067 5.119434
21.0614 65.71546 5.221741
20.48411 63.13276 6.75638
20.6511 80.00592 1.054861
-17.52865 98.32985 -0.07066628
-17.20921 100.3558 2.323875
-24.43633 49.39549 -4.312254
-20.77831 66.18729 -1.183953
-17.12626 52.91465 11.2937
22.56768 40.94127 1.694944
16.82104 50.90717 11.03917
15.01412 71.19198 9.54425
20.43224 83.48282 -0.5739667
21.95864 52.30529 3.708257
-17.636 98.45164 2.164637
-23.57038 48.95199 -3.52927
-21.231 45.62757 -1.912485
-20.76692 70.38615 -1.075497
-20.64031 81.35254 0.4402516
19.98786 48.73943 7.374933
14.41965 54.519 10.41029
-2.863556 52.96946 9.337933
19.91401 60.98802 7.870126
20.58475 80.07098 2.374094
21.77625 53.64341 1.922816
-20.13248 69.82828 1.595202
-20.78812 75.51416 -1.154219
-23.90442 76.38041 -3.73923
20.2508 47.42655 6.669227
19.47198 48.38712 8.979149
19.36358 46.79291 9.356418
18.04996 51.2183 10.77864
4.149429 52.9332 9.519009
0.6763018 55.41225 9.932313
19.89522 67.59454 7.490969
20.52244 64.66399 6.584124
21.98383 52.91964 3.351357
-19.58667 89.46308 2.291334
-18.33488 95.184 2.05409
-22.62014 79.30064 -2.978176
-19.61434 49.75097 10.81882
-20.88995 51.93295 8.889216
-21.31434 48.23685 8.402498
22.09536 43.67774 0.1916842
21.39091 45.62249 4.701052
15.17281 55.47706 10.49274
-3.696504 49.89479 9.54368
-18.74052 89.61934 5.646444
-20.70965 81.18159 -1.598072
-21.76312 49.16058 6.271592
21.36156 51.03312 5.196709
16.04297 47.4743 11.39774
17.62413 67.66989 9.555599
-20.68539 72.57176 0.3278235
21.80278 50.36977 4.284264
-1.817704 49.53546 9.504559
22.31972 41.12679 -0.4860644
22.48492 39.3099 -1.29138
22.78982 37.26722 -0.7881958
23.26095 36.78234 -3.043572
14.7564 45.37411 11.44444
22.4329 41.33437 -2.476714
21.70082 33.02753 1.747187
21.86349 44.77456 -0.995059
-13.58292 115.4302 3.445121
-16.47941 102.7769 -0.9181263
-16.54572 103.4868 1.410344
-16.54412 102.8211 0.07528016
-17.29981 99.45238 3.291617
-16.65493 95.45647 6.967812
-16.01301 105.4744 3.568299
-15.91102 101.4104 6.152052
-16.07239 104.9982 3.867813
-14.66334 107.0063 6.216662
14.59906 106.9631 6.328733
13.34503 109.6151 6.77574
-6.930002 123.5369 11.72442
-12.04373 119.6772 8.886154
-12.05697 116.5077 9.615902
-25.35986 52.14172 -4.90828
0.6929442 47.35315 9.783528
18.20206 95.67998 2.368504
18.89953 92.83694 -0.4725599
19.0447 91.97585 1.081821
21.53156 89.28412 -2.672885
21.36349 87.49897 -2.372194
19.60424 89.52453 -0.2500647
19.9397 87.90693 0.07175805
15.24344 46.43956 11.40631
24.00934 51.7629 -3.470522
18.03614 95.98724 0.4915802
-12.3805 58.24412 10.38695
-9.327504 50.20644 10.36142
-10.98776 54.21661 10.34335
-17.09421 55.87244 10.99574
-12.60474 54.66044 10.66076
-7.252501 49.68644 10.06161
-6.957267 48.56335 10.1789
-6.189364 49.16993 9.968961
22.68504 64.25037 -2.372972
-21.88772 47.92525 5.579486
7.276934 51.76126 9.449267
20.44233 71.32545 1.216276
20.56762 77.47691 0.617301
13.26441 113.4631 6.792945
8.050548 114.6256 10.70441
8.383976 115.8699 11.26104
10.72798 107.1266 9.701253
9.435192 111.7289 9.527566
-20.5176 62.97234 -0.5778527
-20.89112 57.7073 -1.131816
-20.63521 58.64165 -0.8105721
-20.09032 56.0914 1.166788
-21.29193 54.69093 4.243669
-21.82686 60.69316 -2.060018
-20.02275 60.03629 0.8656006
-21.01444 64.17709 -1.451796
-21.74642 63.28519 -2.067485
-20.06376 59.30961 1.660728
-15.62512 57.65156 10.88331
-21.22523 60.36111 6.361083
-19.99052 63.72128 1.01149
-21.24106 58.6064 6.971817
-21.14633 46.79144 2.494131
-22.64171 44.47421 -3.475292
-22.8703 49.14571 -2.971272
-20.99162 48.36659 2.453213
-20.98603 43.73575 -0.7539765
-20.42783 49.97553 0.9479638
-20.53724 50.18051 -0.5495753
-22.08222 51.6181 -2.322783
-21.24476 51.70224 3.582149
-21.64473 51.06675 6.708217
-21.3058 52.82862 3.939413
17.76814 70.32792 9.275887
20.99158 61.10549 -1.529956
22.74839 63.44642 -2.409654
21.51012 60.71439 2.766016
21.63531 58.00074 2.474445
21.33567 60.29961 5.03599
21.85154 55.19046 3.70212
20.9617 57.08682 0.1634095
20.89779 56.49456 -0.2047331
-20.53706 82.52369 -0.6929958
-20.72298 79.43861 0.8002656
-20.48578 78.53146 2.926072
-20.7438 79.12042 1.132114
-20.41903 76.3475 2.754258
-20.12114 76.9216 4.100054
20.60763 59.76706 6.633517
-20.36175 75.91541 2.87333
-20.54966 72.5592 1.137214
-20.19569 70.40687 4.106072
-20.422 71.66297 4.826005
-20.3372 73.25754 6.392372
-20.08584 75.3564 4.144671
4.511727 51.89706 9.446845
21.33261 54.8156 5.428309
20.62557 57.60323 6.616743
19.05319 51.69813 9.812474
19.40696 55.29053 9.034834
19.98718 50.96961 7.508842
19.13564 56.87432 9.361959
15.81074 53.89745 10.76259
18.13168 57.34153 10.13481
12.8863 54.81095 9.9989
-19.59009 89.65057 1.791785
21.40442 51.66149 0.3936473
22.46736 47.76946 -2.981667
22.38039 46.08613 -3.093199
16.05041 48.11245 11.33004
-19.14285 89.42902 4.609267
-18.03204 91.11197 6.397784
21.99899 43.70528 -1.641391
23.04253 32.57917 -0.8098089
-15.09422 108.6328 2.186762
-6.739628 122.7298 11.64896
2.842864 120.6874 11.96499
-6.651163 115.3919 11.63671
-7.914075 116.9848 11.11672
-6.203201 117.6908 11.84539
-7.103879 116.5724 11.4171
20.2008 86.33179 0.233581
-8.906377 57.04767 9.555034
-14.45939 62.86184 10.47458
-5.272667 51.59721 9.468105
-6.65629 54.96929 9.333662
-1.69805 52.67101 9.443253
-5.407681 56.41915 9.284995
-6.61797 57.53105 9.264141
8.654259 111.5163 10.21831
9.737218 111.3076 9.507844
-21.81822 58.13062 -1.997043
-20.00486 67.51776 2.855165
-20.8972 66.17892 6.108001
-21.02388 64.04099 6.069077
-19.80127 65.3815 8.716734
-20.67097 66.55302 7.164483
-18.94484 62.43946 9.748382
-18.05803 64.50479 9.987373
-16.71773 61.76259 10.51608
-20.14054 69.46243 7.850748
-18.07543 55.94868 10.7781
-17.79969 68.20719 9.791597
-19.76535 71.48769 8.069685
-19.24685 69.521 8.780641
-16.97374 67.55342 10.07695
-18.59906 55.45954 10.61191
-18.81592 56.89245 10.36927
-19.91156 58.23192 9.455112
-16.38001 55.91466 11.04398
-12.32666 59.67334 10.275
-20.9736 54.16514 8.327424
-21.62609 53.52513 5.805813
-21.20129 55.45421 4.124351
-21.30779 58.98063 6.169232
-20.9475 45.45678 -1.108514
20.55782 77.08556 1.260886
20.82729 75.30996 3.420981
20.82967 73.86487 4.537764
20.02166 83.02826 4.67021
18.2742 79.19208 8.314207
21.63962 54.92532 4.505971
-15.89363 94.94585 8.043899
19.3207 83.82061 6.223444
19.30124 85.7525 5.873631
17.69935 86.22584 8.190451
19.48643 90.03673 2.00781
17.47416 76.99223 9.010409
19.78585 56.66643 8.254098
20.36925 59.30804 7.078427
18.41027 64.52732 9.439861
16.95966 65.60185 9.80316
19.11806 62.00933 8.974138
15.5067 67.73984 9.688864
12.19838 66.94788 9.385586
17.8575 62.61859 9.86058
19.73183 60.56344 8.198121
16.26667 69.23792 9.655656
14.10537 64.50033 9.606905
15.34555 59.48565 10.19514
19.14974 70.81693 8.319691
18.1984 73.92561 8.832131
11.90735 58.88713 9.487115
16.63101 72.7366 9.457533
18.07496 75.51889 8.802814
18.61049 77.76333 8.153485
12.90845 60.12933 9.588207
13.94947 73.26496 9.541283
19.52177 75.38898 7.394084
16.28229 76.63765 9.391107
13.39808 73.29819 9.648461
16.42235 77.3679 9.365488
11.01044 74.49256 10.53662
16.9117 79.81509 9.127722
8.669177 74.83208 10.75223
11.52405 81.34393 10.51783
14.95856 84.99878 9.97658
15.10648 79.42899 9.810931
13.29147 76.64716 10.02209
11.4189 75.61264 10.52868
11.41944 78.64128 10.69499
12.73368 81.15208 10.49642
-1.516815 56.00599 9.814931
-2.491676 56.83744 9.765783
12.53829 58.70932 9.605299
23.00821 35.44967 -1.136169
-13.14902 103.4359 8.537486
0.4688704 122.4573 12.08591
1.190465 121.4603 12.11837
-4.779027 118.387 11.87998
-1.275721 121.883 12.09514
19.90402 88.23927 1.254948
6.508225 72.08544 10.63645
7.049644 58.2583 9.625446
10.23974 112.227 8.902892
9.034657 107.107 10.43977
8.767621 107.6341 10.62699
10.1978 105.5651 9.835873
13.11911 107.3411 8.147605
4.11791 118.4255 12.89484
6.06601 111.9017 12.24848
0.5404541 117.6138 13.47455
-0.1231928 117.3039 13.5438
-0.1093767 115.194 13.06361
-1.71501 117.0227 13.09311
-4.179135 119.9407 12.63649
-3.422876 117.9111 12.25375
3.990688 113.3415 12.99998
0.7973378 114.3314 13.03119
4.99084 116.7949 13.08363
6.276064 115.9235 12.07501
0.4661404 110.4636 11.97082
2.315957 108.325 12.27435
3.823173 111.2753 12.24923
4.191557 108.9487 12.23727
2.02316 107.8818 12.30538
-16.76606 59.8339 10.67847
-20.8272 59.84723 7.814306
-15.24174 62.74768 10.5222
-14.38253 62.66615 10.4778
-14.1601 60.69247 10.57178
19.17393 88.53996 5.107182
18.37348 94.65839 3.054081
12.44514 64.03159 9.398664
7.931193 74.22311 10.69167
7.239688 73.18862 10.66415
13.14858 66.98482 9.422115
7.461102 69.2074 10.72984
6.373615 67.58262 10.71581
7.56551 65.08654 10.339
9.584571 64.60966 9.724465
8.989079 61.03351 9.508515
5.415035 67.04381 10.7006
11.34071 58.64985 9.429452
7.996829 75.74142 10.57633
11.80325 66.9761 9.408635
6.727892 56.77435 9.53494
5.42001 57.05663 9.786751
7.606356 56.37938 9.389089
17.64915 79.90264 8.694477
13.31638 89.90497 9.963341
4.953656 80.21711 10.11112
-4.322634 55.32217 9.333036
-20.39272 85.38955 0.5370155
-17.93238 89.71903 7.080764
-16.36158 89.93456 8.712057
-14.5746 100.7047 8.257954
-14.8545 94.90591 8.894843
-15.86208 99.59753 6.836907
-15.91026 95.9903 7.768869
-16.35447 95.20267 7.419779
-17.40428 96.67113 5.092979
-15.69881 98.64114 7.342239
-15.2117 97.568 8.15541
-13.35938 97.75652 9.016357
-12.15689 98.26652 8.993866
-13.42579 93.65373 9.538424
-17.27509 95.48402 5.897364
-13.26269 100.5451 8.586194
5.525773 83.45622 10.17095
-8.046269 93.77281 10.08097
-8.246834 92.99435 9.994118
-6.989104 105.8937 10.98374
-8.846897 96.72763 10.03147
-13.10759 88.41813 10.07915
-12.58487 88.59634 10.09904
-8.84272 87.23519 10.02865
-13.10677 89.58855 9.988141
-9.676127 99.50972 9.895817
-6.230097 90.41798 10.17298
-12.45579 103.434 8.894129
-3.323884 61.72728 10.14544
-10.5512 62.70066 9.590049
-7.578871 63.52512 9.448496
-10.50925 64.75372 9.48031
-9.013505 59.43015 9.413812
-10.72775 67.28761 9.460468
-12.94799 66.19404 10.06319
-10.76331 70.00513 9.497265
-8.079419 66.51791 9.609868
-9.789105 67.45377 9.412377
3.082332 58.46143 10.19075
5.790966 60.73529 10.16591
6.351749 62.8161 10.30232
-3.100854 60.03346 10.01239
1.294654 58.34518 10.20936
5.945132 67.48471 10.71991
1.456576 60.00791 10.34106
-0.1888621 61.19092 10.37028
-1.953328 62.01375 10.31327
12.95269 104.8611 8.65515
14.39922 102.2503 7.993684
14.94848 102.6908 7.257803
12.2021 102.3425 8.947468
13.21894 99.23369 9.043741
15.06836 103.6407 6.831071
12.56905 98.97215 9.210916
15.91343 100.534 6.508573
16.82677 100.0045 4.791903
17.62297 97.46632 4.107718
12.76234 108.9103 7.91826
3.898357 109.0128 12.23316
-4.294799 116.5574 11.94459
-4.440373 112.8794 12.18311
-7.406969 114.8204 11.29033
-3.802148 114.1701 12.11029
-4.131277 111.0434 12.22456
1.285908 105.7857 12.29784
0.0454698 104.9612 12.23591
0.8115528 104.4406 12.18432
0.9379661 98.98583 12.07946
-1.715535 99.28384 12.0512
0.06950641 99.22473 12.19496
-6.583576 103.624 10.77987
-6.086877 101.7067 10.668
-9.050885 101.3152 10.051
0.6373895 97.23314 12.08932
-3.146685 102.1727 12.01403
-0.0104468 95.03634 11.76127
-2.749933 92.94366 10.514
-6.241627 108.3122 11.53681
0.4001775 96.08627 12.01738
5.302968 97.63818 10.71668
-5.783551 99.14036 10.40998
-4.399945 105.1515 11.94369
7.999969 103.2367 10.53304
-6.573495 112.2374 11.57601
6.372784 97.96954 10.46374
7.285892 97.02539 10.1469
8.87088 98.91657 9.694122
7.692597 101.2944 10.46322
8.859599 105.9718 10.37193
9.133451 105.6404 10.24458
4.716879 95.78146 11.07369
7.498468 100.72 10.46877
5.380419 98.90385 10.85062
16.68503 96.53741 6.604474
14.87983 92.49429 9.213423
17.06875 92.7113 7.296669
16.31373 89.68979 8.802526
16.32201 87.30293 9.176684
16.50668 87.89191 8.986275
-17.751 87.9721 7.827621
-19.49492 86.31557 5.225409
-19.66304 85.39605 5.085556
10.9325 67.91595 9.717901
11.07696 56.44769 9.504824
8.036543 77.77868 10.36564
8.83568 80.73189 10.18246
7.578734 81.11839 10.12049
8.133784 81.02135 10.13422
11.6838 87.88136 10.23986
5.093905 77.30857 10.11651
4.338738 80.08416 10.1129
4.942104 70.30122 10.54711
3.730024 73.24097 10.27311
15.265 85.57172 9.842317
-11.05978 88.64056 9.97681
-5.652821 94.80069 10.18518
-4.248787 92.11674 10.19121
-2.319197 88.55455 10.24983
-4.153804 90.51777 10.17644
-7.07499 87.05295 10.06295
-7.017622 87.96306 10.0542
-11.40703 87.00524 10.1381
-13.36401 79.7402 10.08241
