# .PCD v0.7 - Point Cloud Data file format
VERSION 0.7
FIELDS x y z
SIZE 4 4 4
TYPE F F F
COUNT 1 1 1
WIDTH 1667
HEIGHT 1
VIEWPOINT 0 0 0 1 0 0 0
POINTS 1667
DATA ascii
10.60127 46.46001 3.471388
7.009523 45.8161 3.417093
3.859299 47.03986 4.330001
17.79495 51.93117 3.312903
18.49274 51.33696 1.328996
18.7314 55.1804 3.463736
18.02854 58.75681 2.978871
17.4449 56.69467 3.631595
16.50768 55.07605 4.378222
18.872 62.27666 2.911859
17.61752 59.70526 4.427327
11.9709 132.9462 12.41254
9.768826 138.3898 10.17533
10.44638 137.1433 11.43579
7.98035 138.6207 10.53211
-19.41819 73.0901 5.055779
-16.51001 65.50266 6.689676
-18.47777 62.71714 3.718421
-8.122372 46.9035 4.00835
-3.688494 45.21205 3.27709
-0.8105505 46.17276 3.946735
-19.40891 51.72599 0.4084207
18.3453 65.60921 5.061076
19.15291 75.62653 6.027773
19.78166 73.90969 4.378263
19.85371 76.72984 4.771233
-18.14869 74.83504 7.337744
-17.99879 79.17406 7.9986
-18.12401 76.18594 7.575719
-17.28694 81.13819 8.739391
-17.1337 79.62647 8.805888
-17.97879 82.42756 8.102142
-17.8271 82.65126 8.245345
-18.95086 85.5048 6.572094
18.46955 90.73011 5.620565
19.70734 83.25648 5.403043
18.34759 89.66879 6.41712
15.79313 96.23344 7.353198
17.37142 97.6974 3.413081
19.70197 78.16515 5.34972
-17.5096 96.92271 3.494393
-16.45289 98.34377 5.575654
-18.2402 92.32435 5.084087
-16.7531 101.3597 3.860814
-19.12292 87.98019 5.516645
15.45351 106.1724 5.044875
14.0989 115.2682 4.292011
15.93926 105.1661 4.295043
-11.8462 113.7651 6.932162
-11.55379 115.6913 7.27282
-11.86266 113.4608 6.99221
-13.82265 117.7032 5.91302
-12.89724 116.6297 7.191383
-13.09594 116.4842 6.243244
-13.50817 118.2012 6.848294
-15.8306 104.2944 5.232164
-14.94167 104.4821 6.797027
-14.61591 110.7782 4.505783
-11.16388 124.1857 8.956743
-13.00337 127.521 7.758178
-13.26479 121.1686 5.218135
13.32373 120.8552 5.181303
-11.13193 138.3122 9.203815
-12.22887 136.0417 10.73608
-9.5907 136.8459 12.27327
-3.953245 135.734 13.19912
12.4793 45.82689 2.827811
11.46324 46.98793 3.68518
2.872279 47.79675 4.745995
5.380472 48.40406 4.907936
18.78961 53.6818 1.418253
17.36141 51.23212 3.506009
17.49615 51.11839 2.988099
16.38306 51.08681 4.504098
10.76611 49.97948 5.074864
17.83395 59.79497 5.007884
16.47645 60.37982 5.395199
18.97017 62.38098 3.981701
13.07604 129.7891 10.24505
1.431366 131.9124 13.95498
12.44212 126.1759 7.322136
6.127312 137.8961 11.26524
3.223047 136.5656 11.28999
-15.79395 65.21207 6.998546
-16.57598 60.73516 5.60899
-9.058884 48.11058 4.429354
1.688611 46.28952 3.981674
-19.39714 51.31643 0.4115911
16.47185 64.52357 6.442141
15.83199 70.33927 8.240081
18.07663 76.9593 7.752015
-17.39298 75.75053 8.195001
-18.7236 84.41371 7.089275
16.11259 98.71918 6.126762
16.75022 99.15756 4.668337
-17.9983 94.42033 3.948851
-15.4529 101.276 6.586134
-16.87334 99.1215 4.392738
-18.51884 90.51882 5.622318
-15.41703 101.7547 6.566319
16.19333 103.6641 4.528515
13.36389 115.1767 7.217423
15.63102 104.2406 5.656241
-13.52161 111.1134 7.318471
-14.21513 120.0854 4.242949
-14.05866 107.4883 7.030712
-14.81042 107.7157 5.517759
-12.84541 108.4593 8.047829
-14.23948 109.2324 5.617212
-9.789485 124.2846 10.0823
-11.64934 136.3305 11.07465
-9.961477 136.871 11.97792
-8.309856 138.0705 12.31911
-8.402634 136.5206 13.18385
-7.233925 137.7337 12.29841
-2.462999 134.9248 12.23955
5.899654 48.52981 4.932057
13.35585 49.68489 4.588381
13.02473 48.54426 4.303993
15.98361 50.60531 4.574811
16.10262 56.17347 4.783921
16.224 56.63909 4.717446
14.79954 55.56282 5.97001
15.19054 57.3302 6.129927
12.30446 126.9066 8.100451
3.978069 135.3648 12.83109
13.08964 123.5998 5.52272
-7.890669 49.79195 5.643395
-9.628343 51.43595 6.135976
-11.77903 49.42006 4.607188
-19.28439 53.41451 1.77724
18.78126 68.9716 5.297561
17.90779 69.64525 6.617198
-17.65868 75.14336 7.908668
16.63401 97.85453 5.488861
-14.84271 102.7218 7.154272
-17.79483 88.7817 7.556405
-16.28419 101.8345 5.032594
13.76755 113.5571 5.454002
-12.73208 112.0522 6.89583
-11.91653 126.1992 8.605119
-1.512164 134.4241 13.2999
13.65415 52.90643 5.369664
14.27804 55.3335 6.188151
13.33104 127.023 6.75604
11.56885 125.2953 8.415039
11.72989 122.7962 8.149757
12.43148 118.9538 6.689698
12.50619 115.9708 6.168467
11.46912 114.6733 8.001748
-10.29011 49.0619 4.612835
-3.309507 46.67785 4.22586
17.2151 66.63225 6.495727
18.66766 77.86996 7.107975
-17.09626 73.97421 8.211324
-16.60625 72.86908 8.362809
-14.59552 76.53271 9.652445
15.83006 98.65244 6.557782
-17.9705 84.71525 8.020738
-14.44915 93.33833 9.064985
-15.85947 95.34561 7.538148
15.18364 106.8981 5.39086
11.42664 114.2992 8.528205
13.18849 112.0298 5.246859
-11.01415 122.1158 8.988914
-11.97721 126.6585 8.840034
-6.966951 117.4684 10.7056
-9.356726 123.3585 10.35645
-8.309411 122.9115 11.00203
-7.805506 128.7854 12.52016
-1.389361 135.1414 13.23016
12.15328 50.32689 4.915637
12.49735 57.05298 6.025303
10.2763 57.48908 6.143565
14.76444 58.44427 5.784511
14.10391 59.94582 6.151123
10.5926 127.2333 10.86026
12.12505 123.0733 7.616539
12.05463 116.5553 6.200022
15.78019 69.33079 8.042812
-11.64047 77.28313 9.862864
-13.57827 76.69092 9.745406
-16.31277 78.01968 9.208663
-12.74559 99.70864 9.138093
-15.41353 83.56997 9.818815
-14.60098 87.85731 9.889137
-17.59185 84.64092 8.427384
-16.64329 93.2634 7.406064
-8.951998 97.84705 9.380009
-13.71986 95.36928 8.913322
7.60128 114.7445 10.44628
-10.54116 111.4655 8.891655
-10.28517 126.6987 11.11941
7.398478 48.3523 4.764487
10.23122 55.89545 6.128305
11.7428 56.82096 6.053222
12.27489 54.72152 6.335312
1.724185 135.2119 13.23327
5.200054 136.8175 13.61154
5.978067 137.2504 13.37872
17.6191 66.88165 6.224072
-13.28231 99.79699 8.989972
-13.40843 101.0417 8.325237
-8.584668 99.07632 10.68153
0.1922681 97.31393 11.24826
-17.84797 87.94376 7.702528
-14.75762 88.50296 9.781205
-16.55539 96.77372 6.114101
11.09957 115.8495 7.710571
11.15611 117.5429 8.379438
9.268954 50.46467 5.455791
9.777395 58.75714 6.383948
-0.904694 137.5229 13.7722
-8.282778 100.7339 9.71725
-15.62373 82.66319 9.747791
10.16419 115.535 8.738027
7.067804 112.107 12.65576
8.425444 112.8402 11.68328
3.634642 50.92457 5.755347
2.278614 137.2807 13.85204
-0.2759307 137.1572 13.04435
-8.437626 100.7777 9.673804
-0.1105905 135.9492 12.8168
-14.23641 71.46905 8.926887
12.24417 114.1775 9.126844
-13.26212 72.92334 9.237914
9.91241 111.7347 9.809265
-11.86519 73.85335 9.393863
-7.694929 76.73586 9.817299
-10.89116 77.77819 9.914592
11.30353 112.1879 8.035804
10.50007 110.3488 9.324869
8.383494 108.8683 10.57122
10.88862 109.388 9.390149
12.06645 110.365 8.409638
4.608037 104.4917 11.70622
9.28756 109.0202 10.14463
8.809813 110.346 10.10806
-11.06987 51.68117 5.760269
-8.44516 52.39436 6.475726
-15.58141 55.1765 5.193859
-1.552021 50.99736 5.864645
-13.396 47.12905 3.616764
19.16106 83.20313 6.511648
7.053655 137.392 13.74203
-17.9157 71.04908 6.897451
-18.21679 65.42118 5.143466
-15.81499 80.68301 9.592795
-14.0869 82.71993 10.1702
-14.13213 81.89381 10.16536
-13.8616 83.81294 10.21755
-12.66802 80.84354 10.17254
-14.55981 86.71474 10.00038
-7.076109 79.79114 10.12285
-13.43532 84.41756 10.25376
-12.68828 85.14305 10.26635
17.19862 92.42031 7.038623
16.59222 95.03451 6.783212
-10.2929 119.9356 9.374839
-12.64694 118.3673 7.899093
-9.158677 118.6641 10.10797
-10.67814 119.2951 8.847406
-7.589264 115.8831 10.98973
-12.21614 118.9766 7.412205
-10.49695 117.5834 9.418257
-10.69635 115.3778 9.877427
-9.052958 112.6449 9.567833
13.78793 130.1497 9.233929
-17.25658 63.89489 5.723816
-16.1452 63.84709 6.447179
19.30533 80.77263 6.278993
17.52021 81.07666 8.528115
18.08154 80.84414 7.971725
16.90335 84.30444 9.015032
15.35957 83.57114 9.827353
15.87569 84.30968 9.619126
16.47224 84.31559 9.290125
18.10843 85.881 7.76018
17.46376 85.21619 8.493029
17.57933 86.89603 8.187483
12.17387 82.3975 10.26814
17.98061 72.28588 7.107156
15.83132 76.826 9.329112
2.437565 68.86925 8.591929
15.6896 76.23415 9.29849
16.51195 77.46929 9.027829
15.88396 75.28532 9.098483
17.21239 76.01352 8.376411
16.95503 71.49557 7.874999
14.68888 71.67747 8.887096
15.49269 73.5629 8.982791
13.42121 72.77827 9.214054
16.02133 67.40936 7.453907
15.28619 66.717 7.561839
13.51235 65.42113 7.602895
13.22693 65.37038 7.615303
9.372622 56.71621 6.160699
17.22845 69.45786 7.181679
12.4044 64.3959 7.429889
13.09775 62.48069 6.922104
12.09193 65.35919 7.675299
10.30617 60.93665 6.810445
11.20588 66.28593 7.926513
11.05249 62.86217 7.174075
10.77295 63.14182 7.251192
7.448023 65.37125 7.838812
8.062671 56.58743 6.238487
8.449112 59.38954 6.625752
11.38871 67.69023 8.244508
2.734078 62.48014 7.390138
0.003928301 61.1016 7.183606
7.090949 56.53669 6.301576
11.34284 65.59541 7.765589
10.42517 62.02157 7.03369
8.722468 65.34218 7.798991
8.244637 52.43478 6.055749
9.165098 54.23808 6.200822
4.921786 54.66502 6.245004
6.157374 55.62191 6.281549
10.1428 55.03977 6.203104
6.359819 53.17181 6.097363
7.3919 49.89898 5.389606
5.90841 57.42885 6.482785
4.724435 60.01099 6.932955
8.326944 52.50422 6.066399
14.89384 95.08677 8.427323
-13.7533 111.4791 6.680022
-13.07571 50.14661 4.766111
-12.51001 48.88274 4.487441
-12.32121 109.5224 8.762998
-10.48829 108.8318 10.47689
-0.4992974 136.4897 12.86099
-0.6806155 136.6047 14.83437
-3.467425 135.3671 14.48655
-0.146229 137.037 14.62854
-1.714365 46.75863 4.314642
-0.1657778 46.69002 4.267645
-0.9891652 49.47319 5.507531
14.45985 107.4245 6.423779
-13.01607 129.3379 9.921151
-0.1652294 133.06 14.12166
5.594216 137.2223 14.27602
-9.749903 98.62538 10.34464
-4.238125 88.72865 10.39279
-11.77449 96.93015 9.128168
-12.37218 102.6344 8.887111
-14.31379 105.8852 7.270397
-13.92792 102.7616 7.972703
-10.22964 104.0045 9.73808
-13.04837 107.6905 8.168182
0.395478 116.335 11.78673
8.207398 112.6581 12.10167
6.824476 112.5135 12.36795
-0.6001185 66.24803 8.082663
13.28327 107.8737 7.765893
10.986 100.5049 9.197742
-15.49824 52.08544 4.779557
-15.38282 52.61651 4.683041
1.413995 49.02709 5.291963
2.212168 56.95399 6.560332
-0.6923199 50.10832 5.668601
2.006933 52.33783 6.010472
1.98487 51.5396 5.879216
0.5354181 57.44564 6.645501
-0.4672048 54.8849 6.324797
-0.4709831 55.63968 6.412535
1.527148 53.19829 6.13291
-0.8966603 53.63155 6.182048
1.573948 55.7899 6.431819
0.4217979 55.78142 6.435456
-1.033174 57.74292 6.680943
1.008205 60.86993 7.143166
-3.735758 57.12267 6.529428
-4.970141 58.10461 6.631187
-1.728016 58.27351 6.749322
-4.115031 64.31989 7.694007
-4.040842 58.33554 6.703845
-6.231318 58.86176 6.701172
-6.917181 58.41208 6.576794
-6.489711 56.67 6.329509
-6.616705 55.53473 6.232764
-0.04543537 62.01666 7.330727
3.736773 61.34521 7.181787
-7.058103 56.2768 6.256238
-6.14017 52.85799 6.223847
-5.734355 51.89511 6.190121
2.094884 60.1471 7.017757
3.098926 59.61713 6.918241
-11.57249 55.56867 6.555391
1.175379 62.67482 7.435127
-8.666611 54.73525 6.303933
-9.776736 53.89945 6.610778
-11.31788 53.87434 6.700665
-10.34629 52.0129 6.248939
-13.12678 55.85297 6.766374
-10.85495 56.32897 6.270584
-11.49744 56.70699 6.271921
-14.07176 57.56509 6.334447
-10.12869 58.89747 6.378795
-14.66842 49.14347 4.268854
-14.33114 51.69857 4.796717
-12.90235 51.20993 4.831488
-13.52694 51.38803 4.808226
-15.97673 53.74592 4.748325
-17.22141 69.99134 7.308307
15.93354 97.46992 6.766299
11.20439 105.7001 9.466473
15.24591 98.36176 7.27636
14.81561 100.2514 7.382944
14.513 97.52052 8.154002
12.59396 98.88782 8.778112
5.603813 95.7035 9.83205
9.980395 95.79707 9.203759
8.464738 96.31833 10.09575
4.798628 95.47069 9.61367
8.042785 95.42574 9.199431
9.499867 95.2653 9.164467
-8.154502 116.1958 10.75988
-7.223668 109.8413 11.50766
-7.962283 113.7929 11.78821
-4.54028 117.9173 11.58059
-7.199162 118.8838 11.29207
-7.650434 117.8023 10.62553
13.37778 86.99494 10.19583
17.65557 86.21224 8.230407
12.91109 81.58601 10.19232
3.198122 65.83398 7.992323
13.498 61.40792 6.614641
6.468866 67.30975 8.253703
5.699769 66.16549 8.030523
4.365386 66.11715 8.037099
9.599332 70.76556 8.899291
3.230501 67.26958 8.273522
1.57471 66.5526 8.140093
-1.298341 64.59747 7.770665
2.482807 63.47652 7.56425
6.417568 69.16586 8.628047
11.66983 69.27951 8.584555
6.63946 69.04016 8.601345
11.94645 71.86953 9.072879
10.42064 72.02675 9.121962
8.544395 74.84943 9.553755
-4.528111 73.16125 9.33585
9.313707 70.14771 8.784844
7.347224 69.33332 8.650741
4.493833 68.70835 8.551977
5.437379 70.42932 8.872915
16.47035 91.33754 8.250012
8.693383 92.99528 9.173195
13.48642 94.72984 9.118101
14.8196 94.17188 8.688586
15.48779 93.82623 8.352509
14.48178 89.92873 9.676307
-7.534006 108.348 11.97726
-7.680274 108.4774 11.90694
-4.483858 108.8653 13.09466
-9.288563 107.4001 10.86058
-7.426699 107.9185 11.87291
-8.276094 103.6447 10.38026
-10.04634 105.7635 9.907644
-11.02673 104.0477 9.467118
-5.930496 109.969 11.74855
-2.687604 136.2592 14.64507
-4.964226 137.7662 13.38658
-6.568286 135.9744 13.88017
-8.546206 134.9103 13.50027
-5.638638 133.8006 14.05221
-3.121999 134.4396 14.41478
5.613472 136.0999 14.44626
4.377226 133.0791 14.06624
-9.623129 91.45378 10.03889
-12.70986 94.91154 9.247522
-11.95992 96.64624 9.12439
11.92429 105.1314 9.150309
7.964509 100.5153 9.757244
-12.88968 54.28666 6.133015
-12.46017 58.50446 6.06194
-15.67034 59.58599 5.633236
-15.06022 59.88338 5.906235
-6.651368 61.36007 7.126341
-11.25011 60.83782 6.738204
13.44811 101.6136 8.301153
12.83119 102.5238 8.647919
9.73519 101.947 9.612692
9.448723 100.1995 9.442353
8.958438 101.2157 9.655337
8.504278 102.5407 10.15254
7.406285 101.6898 10.22095
7.808843 100.0112 9.701303
12.53654 86.2981 10.22168
10.24983 83.27343 10.33757
4.786961 69.7473 8.749494
0.5148555 68.00179 8.4261
-2.100807 64.29346 7.71006
-2.033354 68.21898 8.465699
2.727285 68.36976 8.493278
5.348048 72.39088 9.212751
1.292225 70.73806 8.943979
-4.768827 64.4756 7.711774
-5.003738 63.25204 7.489716
-3.788439 63.31048 7.520857
2.860476 71.3469 9.047776
-3.398163 67.94165 8.405268
-4.460346 69.18513 8.645288
-0.3468384 66.37989 8.108403
-1.937631 69.74362 8.760213
-7.066679 72.02818 9.142329
-1.177505 69.93885 8.797867
11.79298 74.55227 9.482555
8.778337 76.32858 9.763332
7.919044 77.08206 9.861467
12.97446 75.51375 9.599897
7.516087 79.14733 10.06593
11.9788 79.5033 10.07958
13.38834 75.80656 9.610851
13.10647 80.04736 10.12031
9.912676 82.10971 10.30142
8.51163 72.77084 9.254471
15.86571 89.52935 9.108721
-4.746991 111.6946 11.89783
-6.070962 109.4093 12.26162
-10.74396 102.3689 9.424589
-8.809798 103.9054 10.21584
-7.652114 103.9902 10.60599
-6.10707 102.8395 10.92545
-2.499923 106.9386 12.32697
-4.503752 107.8774 12.60956
-2.828737 105.3919 12.21113
-1.652583 106.6918 12.32111
-1.430149 104.8106 12.22769
5.851568 100.3616 10.25151
0.2244149 104.6303 12.23041
1.471149 101.5078 11.55481
-4.84961 101.4387 10.8972
-4.599801 100.3161 10.60396
-7.557282 99.46564 10.49812
-4.287561 100.2465 10.67946
-4.319399 98.64377 10.97217
-0.8484881 100.3063 11.23304
-2.723375 131.8586 13.9354
-3.465858 134.7407 14.45347
-4.694555 129.8839 13.32105
-5.162765 130.786 13.68964
-2.902125 131.4914 13.88102
-12.03323 130.7224 11.96665
-9.462303 127.923 11.80554
-13.41899 130.377 10.21357
-8.779898 132.6563 13.7885
-9.404285 134.5116 13.41643
-10.30743 132.1651 13.34493
0.03234143 133.8537 14.3873
-9.408844 130.1663 13.09597
-11.34584 131.2937 12.66104
-8.988899 128.5764 12.20432
-0.6681314 130.1501 13.53824
-1.566275 130.5241 13.68999
0.7974317 130.5378 13.70226
0.3033746 128.9859 12.79578
3.825208 130.4498 13.64001
5.473504 136.5654 14.4889
7.511534 135.7238 13.80026
8.018727 134.258 13.70917
12.50779 132.3696 11.9331
11.11319 134.0941 12.80385
-8.672409 93.41008 9.122071
-13.06888 90.53716 9.85579
-13.64335 92.65318 9.469057
-12.75567 89.48556 10.03063
-10.39645 93.72469 9.335592
7.86702 107.3818 11.01556
-14.12819 56.37573 6.660353
-12.63714 61.20065 6.67908
-15.01364 60.25643 5.994787
-12.50106 62.03793 6.895648
-14.6598 61.93642 6.568356
-12.46419 60.48956 6.514851
-11.05933 63.22892 7.26334
-9.407516 63.15793 7.336474
4.132062 101.2017 11.01948
2.194794 97.42873 11.04998
2.887062 98.70059 10.55994
-0.1792899 97.87321 10.95208
2.656634 98.60619 10.56497
2.729174 98.12885 10.64221
1.6558 100.4317 11.20569
1.78705 95.94689 10.24874
6.668304 97.73409 10.55135
1.048355 87.9002 10.13249
2.666315 87.9912 10.13593
-2.510156 97.41031 11.07125
-1.624241 98.48534 10.78265
14.1089 90.19541 9.759889
12.91475 83.92979 10.27348
11.3659 84.91901 10.28491
4.592833 90.10391 10.54099
8.62888 87.47923 10.0564
10.6594 84.4866 10.314
5.274853 85.0086 10.2385
9.282798 83.58978 10.3521
10.93758 88.06424 10.10825
5.598897 86.93194 9.963125
-5.253352 61.43935 7.179044
-5.293483 60.12214 6.960955
-3.360326 74.90063 9.598018
-6.670758 70.67447 8.910592
-7.036651 69.31332 8.651313
-9.56571 69.03856 8.568621
-5.467608 73.02765 9.311645
-6.194245 72.34563 9.199345
-6.412505 114.6501 11.91765
-6.070228 114.1454 12.2978
-1.881913 109.1891 13.55321
-4.538745 112.5491 13.08677
0.8338587 111.349 14.03823
0.1935216 108.8132 12.95261
-1.099671 112.3866 13.28849
-2.426353 113.2533 12.32319
-5.173561 112.3164 12.24191
-3.432052 129.4197 13.07343
-12.95291 130.1621 10.76368
-13.641 129.4459 8.892503
3.399549 134.428 14.38334
4.545333 137.3491 14.02683
2.957862 133.7085 14.23908
1.618202 136.2302 14.84696
-10.06547 129.5219 12.51277
11.82812 129.6168 11.58373
11.62039 130.4886 12.23082
8.861804 106.8468 10.63583
9.384692 105.0735 10.06528
-12.4271 68.38441 8.378327
-17.00026 68.58469 7.12411
-18.23532 68.61388 6.007019
-13.75681 67.59283 8.105984
-17.03607 66.06624 6.506958
-10.39028 70.14854 8.775924
-9.327575 70.79456 8.90904
-10.73782 68.26528 8.389462
-10.43759 69.22475 8.5938
-14.20162 68.3267 8.220446
-10.40111 65.62897 7.798202
-9.583196 64.0619 7.502553
-5.572245 66.30517 8.057022
-8.600449 62.30062 7.214964
-6.391343 65.05901 7.794991
-9.701514 62.61311 7.221433
-10.85653 68.6808 8.476553
-8.209529 61.04827 7.003567
6.854961 103.686 10.86751
2.700905 102.0516 11.56789
-1.162319 102.8556 11.89502
7.17308 94.95877 8.985718
9.196909 78.63345 10.01761
10.40601 80.65285 10.17374
7.765625 79.58002 10.10077
-1.321835 73.39211 9.378981
-4.611621 74.16124 9.488273
-8.812061 80.15445 10.1503
-11.10824 80.15336 10.13656
-10.73873 83.60173 10.34578
-9.220755 82.94107 10.36996
-10.9442 84.57654 10.3136
-9.473929 85.0941 10.27283
-7.811962 77.651 9.914116
-8.984158 76.23376 9.749957
-10.17044 84.23016 10.34201
-4.31311 75.24589 9.643284
-8.288861 79.53676 10.09451
-6.404569 76.0344 9.737376
-6.397374 80.81409 10.23025
-5.696941 80.90823 10.24764
-6.916887 82.97279 10.40678
-5.836582 82.79842 10.40807
-0.5739203 88.52078 10.34584
-3.774587 79.85653 10.14042
-3.837016 80.35725 10.19551
0.1449072 77.98325 9.961917
-2.909106 75.51936 9.683244
1.232269 74.97049 9.609493
-1.326383 78.33121 9.995945
4.101309 85.98396 10.06399
-3.243774 83.04836 10.43673
-1.41702 82.27984 10.41455
1.8034 80.5992 10.22814
0.9230725 80.39568 10.2037
-0.4162785 79.27908 10.08388
-1.571056 83.04456 10.4453
-6.473471 74.7434 9.564648
-6.040259 74.42336 9.520944
-9.062849 72.22586 9.160135
-6.066417 112.1248 11.2775
2.423217 109.563 13.08235
-0.3003734 111.3739 13.84361
-0.5573602 113.5948 11.73973
-2.878864 98.85793 10.72729
-6.413374 128.7952 12.56977
-3.199883 129.6078 13.21413
-5.016141 126.8287 12.02118
-3.546988 128.059 12.21666
-3.25694 130.7555 13.75177
-7.472272 124.8601 12.34475
-7.729639 124.1784 11.83678
-2.9266 125.3106 12.26798
-2.76969 128.1342 12.24693
5.238376 132.3208 13.9716
4.898564 130.9724 13.76736
7.624982 132.7257 13.93816
7.883542 130.2034 13.34612
5.89579 106.4413 11.64993
5.307194 107.0272 11.889
4.991508 104.4547 11.57306
7.886937 102.2965 10.27206
5.897427 90.48836 10.45356
3.469633 88.8768 10.48176
2.796944 88.28108 10.24563
3.622995 83.3968 10.40773
4.142968 84.3447 10.335
1.981434 87.64243 10.07602
4.153399 85.09398 10.21552
6.150161 86.21471 10.05591
6.385553 92.0562 9.726965
0.4223942 88.49908 10.32454
3.056898 91.3711 10.18198
-1.231104 90.58908 10.53805
-1.185936 87.39495 10.04118
2.49761 83.99224 10.35202
0.9530075 82.74164 10.45651
4.984346 93.16242 8.827184
3.701871 92.96889 8.845512
-0.0904016 95.45876 9.636767
-3.52282 89.78168 10.66699
6.93912 84.88168 10.27001
4.583884 83.43207 10.39952
7.313653 81.85447 10.33111
-1.343693 85.00504 10.20927
2.325678 94.66703 9.238569
-8.811999 86.59755 10.05772
-4.287019 85.52943 10.1195
-7.858526 87.84029 10.06204
-3.213902 84.1745 10.35231
-3.033035 84.39196 10.32279
-3.973566 94.67988 9.035164
-3.026742 92.23457 9.259908
1.988146 92.33263 9.110658
1.815251 89.50364 10.58805
-1.964435 95.32605 9.457226
-5.215298 84.92006 10.25428
-7.564295 90.80502 10.3208
-6.156844 86.45606 10.0192
-8.267153 87.24014 10.05136
-10.98539 90.21049 10.20379
-5.117718 90.43258 10.52346
-9.832786 94.02901 9.261518
-7.45782 94.98641 9.107034
7.154374 96.46087 10.41791
4.788341 80.94752 10.25928
2.377542 81.82185 10.37746
5.674587 78.67595 10.02563
-5.205088 76.50704 9.797428
0.7004121 73.05444 9.324926
-3.267589 114.7502 11.79714
-4.101767 116.8194 11.73104
-6.897436 119.0454 11.42356
-3.267273 114.2053 11.8477
0.2777992 113.774 11.69627
-3.186334 120.3209 12.73164
0.1753437 119.7449 12.78266
-4.838142 119.1032 11.72704
-3.767972 122.1307 13.04392
-5.635411 118.5019 11.30051
0.7164536 112.1203 13.54605
-4.971556 122.0175 12.80828
2.718492 112.635 11.91454
0.3123226 124.5729 12.26969
-2.645784 120.4381 12.85064
-0.8303533 118.7396 12.51752
-2.473481 122.7606 12.98048
1.234446 119.6774 12.59144
-0.0886944 117.0188 12.04456
2.178566 115.6328 12.00309
4.184527 113.9232 11.71319
2.259542 121.24 12.81736
-3.437654 126.4816 12.15974
3.318519 118.8176 11.82754
3.582767 119.0374 11.80019
3.191748 120.6631 12.6017
2.858934 120.7106 12.68727
2.640705 124.1345 12.32701
-1.658697 122.764 12.9272
-3.240207 125.4913 12.25009
-7.315032 123.0433 11.81807
5.199226 121.5176 12.25339
2.004059 126.7138 12.16608
3.257735 128.8456 12.63346
2.540065 126.1218 12.2136
-2.602832 122.9348 12.92861
2.434612 123.1969 12.59909
3.311264 129.4697 13.168
2.727126 125.3829 12.2427
4.283956 128.0468 12.13881
7.289792 127.6308 11.70718
7.009283 122.8542 11.6783
5.238623 122.9126 12.35628
-1.0285 106.3249 12.29268
0.5558026 106.3649 12.28118
2.332722 107.9932 12.28815
-7.276998 97.88828 10.5955
-6.472717 96.55473 9.315648
-6.863325 92.51169 9.188719
-6.655396 95.91163 9.189753
-3.179793 90.30656 10.62618
-6.182317 92.8011 9.024067
-6.610022 94.558 9.009503
-6.038853 97.68739 10.60537
-2.432401 94.05253 8.953072
-1.238145 92.13364 9.19465
6.768672 105.1116 11.0282
11.12621 90.13339 10.16137
8.759135 91.48642 10.13847
11.32071 93.53971 9.462718
8.383031 88.71459 10.20599
8.627668 93.4066 9.073197
5.601232 89.4808 10.51365
5.979487 91.73196 9.991923
-1.256228 91.34141 10.00205
2.034843 74.81745 9.586164
3.246959 76.67854 9.824877
5.006791 109.5873 12.13556
3.157614 111.3002 13.76984
3.594045 113.8596 11.85165
5.440488 112.0867 13.00663
5.484201 111.5641 13.26224
3.851276 109.813 13.00985
3.39336 109.4904 12.72011
6.488188 115.4031 11.27138
5.942175 112.8716 11.63821
10.17007 117.2914 9.606153
4.2075 108.8644 12.13387
8.050585 115.6252 10.62806
9.992427 121.6366 9.82285
8.210542 118.1473 10.77182
11.54453 121.2768 8.259406
7.182247 123.4756 11.65602
6.574106 122.3474 11.83829
6.063765 118.1811 11.27129
7.096074 121.4827 11.54331
8.096066 120.4631 10.87071
10.41896 121.7891 9.47479
3.99257 122.3265 12.63375
9.152794 124.383 10.66922
8.928224 125.1608 11.09331
-6.943835 120.0425 11.78651
7.150483 125.6434 11.56649
10.88848 126.4468 10.06828
11.76656 126.4639 8.644229
10.47891 125.8947 10.17731
11.08132 125.4383 9.064497
10.96402 128.4041 11.20886
3.66795 103.8533 11.82025
1.382095 104.1397 12.14185
2.323987 104.9424 12.20382
-7.017859 60.40856 6.944865
6.609261 74.66595 9.542098
5.25628 72.85719 9.285283
6.877369 80.95176 10.2402
-18.44754 62.36535 -4.781315
15.70397 105.6609 -0.2281109
13.40421 120.0656 1.956908
-13.79649 118.3001 2.098953
19.64257 58.10468 1.02729
20.08109 51.25422 -2.714092
15.83402 102.6152 -2.569366
20.05586 73.28735 3.26568
19.88207 88.3778 1.343351
-20.03989 74.62528 3.733467
-19.52925 55.13345 -1.193369
-14.53407 113.324 1.910512
-19.94264 50.4884 -1.449425
12.29001 41.63708 -10.76125
5.796372 36.17997 -11.36011
20.07504 49.83727 -1.590159
20.05788 50.1538 -1.505267
-17.61149 97.68195 0.6497743
19.98082 72.31258 -1.887591
-15.11436 109.2691 1.291207
-13.70553 120.1011 2.698595
16.92302 101.7797 1.493945
-19.90404 68.8039 -1.181071
15.37825 108.4711 2.521465
15.20507 107.7457 0.2003267
14.00099 119.8461 3.313794
-14.28833 115.7017 2.360074
19.6784 64.67785 1.627761
14.15125 128.2232 5.699577
12.76566 111.6036 -2.654606
12.33683 112.0299 -2.991841
8.396008 105.1969 -8.619861
12.80978 107.6447 -4.498888
11.10209 109.3829 -5.163414
-20.38192 84.3733 -0.4160147
8.592806 93.40473 -12.49277
-19.54821 57.46382 -1.253956
-14.21095 114.7172 1.4656
13.13103 117.7024 0.01940995
-8.326576 36.88065 -11.44644
-11.44635 36.95283 -11.759
-10.93327 38.88756 -11.37487
-19.75961 66.05141 -0.8262836
-14.73295 38.59784 -11.89828
-21.74655 44.46189 -5.256567
13.64134 118.7645 1.859995
-19.9536 47.7681 -0.8289617
14.11392 118.6967 2.756463
-19.52498 59.28635 -0.6560348
-19.63264 58.81968 -2.566018
-19.88162 72.13342 3.589241
-19.73919 49.68362 -0.5590153
16.72492 102.7805 1.813697
13.78187 119.3823 2.289268
-19.11305 91.28973 2.579889
-20.25289 77.6936 3.691375
20.18568 86.2948 -0.1100402
-19.17434 89.89445 4.116522
14.35601 114.5382 2.138933
-0.2312356 103.1053 -10.26022
-15.31781 101.6874 -4.27981
-10.35168 104.6387 -8.060673
-13.01712 112.8481 -1.733612
-20.308 48.85362 -2.970647
21.40252 45.41668 -4.834365
13.23338 121.3912 1.507172
-19.9869 48.80169 -1.299485
-13.74961 115.6185 0.7668911
-18.84349 88.48512 -3.854607
14.49021 111.869 0.8202679
-17.04042 100.9821 2.315716
-15.95173 106.0511 2.024533
-13.97562 117.553 2.201563
-19.62603 52.928 -0.3650073
-13.43 123.2901 2.810168
-14.11332 127.6536 4.848801
-13.93897 125.2621 4.273115
16.76525 102.5596 2.149659
19.64262 62.85589 0.8681943
20.63089 78.93879 1.227638
-19.73791 68.97713 -2.135261
18.427 94.08095 1.535824
20.43504 79.5364 3.131654
19.46292 59.66011 -1.610471
20.37105 48.24662 -3.285849
17.75184 96.51194 2.536845
18.39642 93.85097 2.570307
-19.5173 61.98956 0.1262273
-20.46717 77.58492 2.574339
-20.17171 86.19336 2.484315
-19.62382 89.39674 1.999652
-18.21455 94.83358 0.8675967
-15.50382 107.9488 3.263485
-16.28888 104.2106 0.6895914
19.81781 69.2463 2.771208
20.32705 74.3074 2.210165
-19.65495 65.55157 1.643062
19.92532 86.82594 3.37296
19.0192 91.63362 2.578312
19.83169 88.10948 2.660624
20.44424 78.91569 2.987765
19.63293 62.19341 0.174734
-19.26159 58.37524 1.311671
-19.34946 62.28043 1.73408
-20.32136 78.412 3.565039
-20.16798 81.51714 4.232267
-19.04382 91.38736 2.892757
-19.83586 87.81057 2.9985
20.41005 76.30051 2.49451
19.69147 88.58283 2.966409
-19.5059 59.93976 -0.3203215
-19.56444 60.60026 -1.558355
20.57639 78.58256 -0.0101544
20.59689 79.71268 2.088123
20.16935 80.40159 -2.189375
20.65569 80.27449 1.040161
17.94672 43.34511 -10.8032
9.776972 107.3446 -6.90446
14.51215 109.1646 -0.924596
-2.744835 40.7485 -10.44289
-19.61891 47.64705 -7.737328
-13.29195 115.228 -0.2764961
-14.54386 107.8752 -1.671091
-14.87773 111.0421 1.929492
14.4523 113.7712 2.272477
-14.51783 113.2916 1.766617
21.46432 44.61867 -6.911887
20.0059 53.30772 -1.29944
19.32889 53.29721 -4.901727
17.00466 101.3932 1.776623
16.82829 100.56 -1.162342
16.90551 99.49416 -1.785044
16.7889 102.1258 0.6039501
16.04263 104.4805 -0.122088
15.52869 106.5385 0.1154698
13.94181 106.7623 -3.508084
14.85875 105.0857 -2.937756
14.91449 103.3978 -3.984549
13.58361 105.4089 -4.797108
13.78286 105.1078 -4.717525
14.57985 104.2206 -4.053091
-16.11325 101.5375 -2.62236
19.52822 54.92127 -3.426632
17.43365 98.86021 1.064232
-18.58098 92.2907 -2.306217
-16.91631 58.08025 -6.608681
-20.23393 47.96223 -6.157316
-19.28246 48.4906 -7.702267
-20.97478 44.96297 -7.760478
19.99396 68.24617 -0.03125443
20.32789 73.58959 1.560741
-20.11189 69.58524 0.8208733
-19.62015 65.53983 -1.639436
-20.44754 75.0867 0.4920079
20.43676 84.32533 1.108156
19.43581 64.02657 -2.325198
-20.59208 82.35941 0.2861545
-20.51429 76.90471 1.819504
-20.4685 84.00954 1.922561
-20.25416 85.3103 -0.4879796
-20.41899 80.18186 -1.231612
-18.68637 93.11843 1.755323
20.34761 84.59086 -0.4805406
-18.98783 89.35621 -3.131076
-19.60273 59.49638 -2.84813
20.20084 84.39499 -1.456355
19.89176 82.35372 -2.895052
-5.481755 98.12871 -12.2508
12.24163 40.17461 -11.18515
6.771514 92.55775 -12.72929
13.45963 106.9902 -4.085624
13.01517 112.3566 -1.99609
-6.616974 102.8317 -10.38651
-12.98674 112.2771 -2.022994
-12.48608 108.5699 -4.336856
-21.07524 45.58458 -2.847065
-21.11674 46.04653 -3.862148
-14.32948 112.7894 0.7535086
19.58407 48.57702 -7.296867
16.05044 99.42701 -4.128274
15.46218 101.3466 -4.196366
14.77425 103.4393 -4.215869
14.59536 110.8837 0.5211404
13.22507 110.4637 -2.577305
14.45701 102.9363 -5.011098
-16.29491 102.2881 -1.524038
-15.17992 107.8883 0.1406237
19.16939 56.97899 -2.929003
19.48462 60.20534 -1.561001
-17.75118 96.69114 -0.2783987
19.90874 71.03553 -1.885375
-20.22541 72.15657 1.741704
19.58188 62.55112 -1.155437
-19.26824 64.68494 -2.864829
-19.51192 63.91573 -1.741513
-20.59485 80.38806 2.233681
-20.22135 79.77316 -2.014764
-20.21405 83.19057 -1.714676
-17.99528 87.28244 -5.58219
-18.84181 92.59486 0.2484519
20.08912 86.41669 -0.6749759
19.6266 89.56136 1.446244
-19.85712 87.90679 2.732667
-19.61947 57.47523 -1.997975
-19.54187 56.04896 -1.484209
18.70979 41.81645 -11.05986
9.041824 37.23834 -11.43933
21.31045 44.20811 -7.697781
0.1512097 101.8128 -10.90637
13.55442 113.7197 -0.5048255
-9.111162 40.7018 -10.84679
-10.8155 102.9626 -8.665847
-20.12092 43.51929 -9.672261
-14.4177 109.782 -0.7831181
-13.12187 108.7057 -3.563405
-13.04023 107.5532 -4.270138
-8.570133 102.5686 -10.03086
-21.28562 44.72055 -7.250115
19.68944 49.33759 -6.335746
16.49106 98.17252 -3.960849
14.08356 114.3428 0.8896846
11.83947 110.9108 -3.967271
19.80702 56.93899 -1.063302
18.88623 57.69022 -4.026633
-17.35369 98.77171 2.566349
19.71753 67.80279 -1.787866
19.96395 71.54988 -1.76467
19.1641 70.07578 -4.015456
17.69223 77.73454 -6.302006
-20.31397 72.85073 0.2182619
-17.64442 66.64082 -5.988681
-19.36874 60.5802 -3.345
-19.0757 60.54414 -4.326245
-12.25099 55.08344 -9.12155
-17.52494 58.80965 -6.048176
-16.4417 57.97595 -7.06948
-20.59734 78.94894 0.2090149
-19.89141 84.21374 -2.621657
20.43064 75.79562 -0.2627981
18.34304 94.40319 0.8057546
20.25541 78.18149 -1.795378
20.12017 81.12732 -2.341755
1.13273 101.5688 -11.02796
17.83579 44.91808 -10.22797
11.80978 37.59658 -11.72271
2.472566 34.76326 -11.46377
-2.693435 35.631 -11.30354
17.06251 45.22577 -10.25689
7.784394 101.4729 -10.81103
13.51135 113.2969 -0.7871659
-10.28818 39.57526 -11.17584
-12.25207 41.22059 -11.07819
-8.049477 101.7346 -10.59623
-15.62605 39.27029 -11.90041
-14.36856 108.7173 -1.522922
-13.71498 106.8875 -3.787345
-15.91042 104.503 -0.7085358
-13.61436 105.56 -4.64253
-14.86717 104.3236 -3.462674
-10.17222 104.961 -7.986645
20.13696 49.72269 -3.300588
20.24018 48.54565 -5.159145
16.21524 99.89478 -3.452533
-15.14332 105.4827 -2.055847
19.06191 58.73297 -4.184139
18.30288 54.77054 -5.281261
19.4688 60.88735 -2.018807
17.38468 63.22076 -5.953459
-19.12365 54.14849 -6.249063
18.78729 91.47684 -2.309239
20.32233 76.40397 -1.182709
19.70111 76.09073 -3.240508
20.20382 76.05054 -1.683674
17.90941 79.16528 -6.041132
17.0478 42.0609 -11.36647
15.87408 46.41245 -9.865382
15.7155 39.9608 -11.81151
8.747777 36.81774 -11.50243
11.00054 38.21524 -11.46978
0.7856473 36.28771 -11.13913
-1.67853 36.08726 -11.19793
8.824162 104.8876 -8.667683
8.206829 104.5726 -9.050476
11.20762 107.2029 -6.112503
-11.98401 37.96252 -11.65418
-14.22676 39.65832 -11.65422
-4.998581 102.2944 -10.72219
-1.726147 101.9783 -10.8398
-15.68338 42.53089 -11.19061
-19.38307 43.15494 -10.34391
-14.0787 109.2975 -1.742664
-11.70513 103.4432 -7.771397
-15.79849 105.1577 -0.4301469
-14.91459 103.7039 -3.796039
-14.88221 104.0158 -3.652623
19.38611 60.828 -2.833456
-19.64158 66.89566 -2.004778
-18.59232 55.45761 -5.977173
18.43951 92.64777 -2.511819
17.1928 75.19217 -6.850108
1.415964 102.8381 -10.4042
16.52773 46.48931 -9.819459
6.830235 39.05398 -10.79842
5.888878 37.42669 -11.10111
-1.447346 38.04478 -10.85424
19.71796 47.51111 -7.587152
18.84032 49.43058 -7.678609
17.27067 50.13171 -8.004032
-16.23375 39.70553 -11.89551
-2.987609 101.1431 -11.22415
-0.319455 101.8686 -10.88476
-14.59666 99.89068 -6.419236
-16.48514 101.296 -1.727056
-19.70119 66.67937 -1.558767
-19.31757 66.01752 -2.983576
-15.92118 55.78077 -7.486503
-15.93799 55.05307 -7.467687
-14.42502 54.39603 -8.642992
-13.48454 56.99085 -8.846764
-14.35135 54.77216 -8.68691
-11.26149 60.49483 -8.616313
-15.3659 44.44568 -10.51568
-12.27083 56.27177 -9.009365
-7.501498 57.7786 -8.879942
-12.25204 53.0685 -9.302714
-14.60737 47.40717 -9.543272
-15.00134 53.12936 -8.298326
-13.76737 51.41351 -9.275069
19.63122 89.12573 -0.4973947
5.407902 65.24667 -8.688871
15.00704 79.96574 -7.920501
19.30524 74.70774 -4.081717
18.20968 76.30305 -5.782454
17.88646 72.29625 -6.220648
16.08692 75.33717 -7.622846
15.35783 83.42999 -7.908166
6.137341 100.603 -11.44105
17.05043 47.64519 -9.235697
8.241302 41.18977 -10.33922
6.120325 40.71978 -10.35062
-6.058587 37.19133 -11.21297
19.88502 45.40334 -8.894507
9.092558 103.44 -9.358532
7.472731 101.6807 -10.79493
18.80091 60.39215 -5.087273
18.36166 61.76212 -5.304696
-19.72795 56.37806 -3.362445
-5.307819 60.0995 -8.869231
-14.02887 49.4614 -9.461796
-14.05479 48.43192 -9.658031
-13.07539 49.65041 -9.56284
-15.89462 53.54444 -7.596052
-16.26021 51.19632 -8.126659
-18.68637 50.8533 -7.820827
-18.79086 50.1482 -8.026059
3.721827 94.12666 -12.82219
2.015914 99.65515 -11.78959
8.544107 39.14133 -10.93295
7.068255 41.35779 -10.23393
-4.877688 35.96349 -11.34307
-5.416495 39.90188 -10.7141
-2.265698 39.41198 -10.64531
18.36759 50.74168 -7.117312
6.71135 100.8794 -11.28434
3.3243 99.68594 -11.7883
-8.102802 57.55436 -8.84924
-14.78175 44.41051 -10.45457
-19.61855 53.29847 -5.262751
-19.31409 50.64242 -7.032731
2.804372 101.555 -11.04162
13.06465 41.70243 -10.89668
5.807662 40.24412 -10.456
8.439516 41.6844 -10.2072
-5.012382 40.44374 -10.59866
-2.600054 41.44014 -10.32809
0.6018107 39.01108 -10.64836
12.01941 58.24913 -8.714009
-7.230331 55.65218 -9.013403
-19.46558 51.77805 -5.912237
17.96817 81.56956 -5.950988
13.62361 84.30044 -8.748672
19.25932 82.73824 -4.213342
17.47522 83.84649 -6.370043
11.35654 43.7237 -9.908203
-5.729612 42.75818 -10.27256
-0.2435717 37.83844 -10.86748
13.95295 62.18672 -8.059799
18.24865 65.84412 -5.082662
-19.58245 46.60372 -8.621634
13.51906 81.5727 -8.417207
16.7542 79.04353 -6.993006
-0.9520206 96.25417 -12.61913
2.699998 39.3362 -10.58534
0.3073785 41.29182 -10.26568
17.57117 52.58265 -6.799395
15.02724 58.1272 -7.195172
15.83193 63.31366 -7.129336
15.97711 64.9825 -7.242523
-16.42993 49.4877 -8.762033
-17.54074 47.29635 -9.57902
14.25716 79.15129 -8.213117
-4.513924 97.87483 -12.30566
-1.176223 99.59808 -11.80497
-3.751545 98.73055 -12.07142
-2.910555 95.36815 -12.74825
-1.871403 98.14664 -12.2239
-0.06942307 96.84831 -12.51786
-0.8243139 97.23024 -12.43676
4.584494 97.16991 -12.46531
7.519954 97.80669 -12.12445
6.974295 42.71192 -9.914325
-8.062104 41.73836 -10.56826
4.234539 40.87665 -10.29375
16.75358 58.59394 -6.477506
16.9582 56.61058 -7.221495
-18.52197 47.02277 -9.304741
10.4773 78.73848 -8.701858
14.82091 78.09067 -8.091099
12.69663 75.43745 -8.755058
12.54552 80.90416 -8.56678
18.44543 90.13661 -4.092462
19.88119 84.66864 -2.467867
18.81391 87.01353 -4.336908
3.328114 44.30507 -9.823538
17.23442 58.69064 -6.306935
13.91798 75.51574 -8.53896
3.332683 91.90129 -12.66665
11.30742 78.00748 -8.70583
13.00058 81.90687 -8.544359
19.92643 85.1748 -2.172575
8.882456 95.44047 -12.24299
-1.747662 94.29069 -12.80546
4.718021 91.83263 -12.67262
-0.8909714 92.7747 -12.76397
2.361289 95.35223 -12.73724
6.891754 96.3886 -12.52788
8.821109 81.45662 -8.934893
-1.828801 93.34903 -12.80069
-0.01507802 92.39491 -12.71772
-3.965934 90.26077 -12.31793
3.180907 91.3021 -12.5829
10.24275 77.6167 -8.747071
6.774863 88.89439 -11.92828
-2.453169 91.33926 -12.58217
11.68538 96.83722 -10.52022
0.7581487 90.41096 -12.36111
8.08041 94.81174 -12.53445
7.407165 93.77469 -12.7273
9.36013 96.63644 -11.83755
17.46367 88.05926 -6.159235
12.74297 93.93643 -10.41947
13.9266 93.79768 -9.424592
10.56844 92.43435 -11.78882
-20.24801 47.6281 -6.477508
-17.09433 68.34328 -6.744494
-19.62029 88.51146 -1.369852
-19.60287 86.90419 -2.506925
-19.74668 85.06805 -2.800644
-19.38309 88.22063 -2.579168
-19.35514 89.75015 -1.603723
-18.80043 90.02519 -3.278124
-18.48763 93.86411 0.3814325
-18.19412 93.97028 -2.050498
-18.53231 93.29429 -1.154151
-17.94853 92.00187 -4.316398
-15.90612 100.2054 -3.945168
-17.44269 97.86622 -0.9224183
-16.2298 88.34589 -7.546955
-16.50839 91.78032 -6.941603
-18.02846 91.28917 -4.480658
-15.89291 91.93301 -7.703587
-20.20999 76.98457 -1.769173
-16.29563 89.14104 -7.500741
-16.1832 89.15895 -7.617091
-18.68748 86.06792 -4.723534
-18.16246 84.83469 -5.61411
-15.14162 85.35672 -8.190268
-13.16054 85.24467 -9.124793
-19.21598 83.93422 -4.154624
-20.52456 48.09071 -4.197209
17.66078 97.34502 0.2071908
13.48064 103.7512 -5.872904
13.7949 101.1759 -6.799625
10.30235 104.0737 -8.371848
10.75312 102.5252 -8.934429
10.98886 101.0592 -9.457823
11.43097 100.8634 -9.223535
10.98984 103.0686 -8.489613
-20.08893 77.97739 -2.366224
-17.44726 77.99522 -6.502992
-19.39618 79.24039 -4.026127
-19.54107 76.85261 -3.684868
-18.4616 80.42301 -5.422729
-19.49503 81.27779 -3.844423
-11.88424 85.90665 -9.780214
-17.05872 80.4892 -6.770415
-20.08766 75.73748 -2.104165
-18.44271 81.59329 -5.429833
-16.93121 80.0923 -6.878277
-7.636325 102.2057 -10.50168
19.81129 69.03561 -1.78548
18.67311 69.92776 -4.942206
-19.40395 62.08044 -2.397024
15.80136 98.77071 -5.050242
-12.10837 39.64999 -11.37456
-13.64785 42.86102 -10.82616
-9.484593 40.73631 -10.87473
-8.627383 39.50794 -11.02416
-6.649495 38.56393 -11.02628
-19.11338 45.70609 -9.356856
-17.60014 45.9414 -10.00293
-17.02932 47.12396 -9.735542
-9.379533 100.1759 -10.74602
-10.23914 102.5513 -9.233607
-15.3898 92.77649 -8.131402
-13.02926 101.3601 -7.567649
-16.12521 64.19241 -7.115727
-18.03122 61.6625 -5.336729
-17.63251 61.77987 -5.777349
-15.67636 59.41483 -7.63923
-14.24746 64.76987 -8.029874
-11.67273 61.85524 -8.514604
-12.91386 60.76346 -8.48781
-13.17136 65.34979 -8.295127
-18.235 66.12633 -5.154546
-17.84649 68.67301 -5.99262
-9.667502 57.64334 -8.777266
-6.891819 57.48643 -8.936983
-4.571598 57.22142 -9.05483
-8.969596 55.5204 -8.888865
-6.609201 59.39182 -8.849203
-5.383539 61.26049 -8.808911
-4.779387 58.4274 -8.976886
19.60134 72.08609 -3.150759
19.20273 72.05461 -4.139698
-19.57457 55.4188 -2.229845
-19.08885 59.59905 -4.484197
-18.89775 58.32965 -5.171636
-19.8248 51.88581 -2.102303
-19.59126 53.7695 -3.560036
13.47705 42.9205 -10.59572
8.702512 43.10675 -9.794545
-9.954976 47.08199 -9.595213
-9.197843 47.92335 -9.517035
-9.22168 52.80482 -9.03866
-9.147544 46.23809 -9.784498
-10.45978 50.14601 -9.217753
-10.60527 45.19684 -9.95362
-13.33405 46.26545 -9.751277
-8.216476 42.71252 -10.40418
-11.23543 42.71939 -10.61033
-14.28257 45.45255 -10.0127
19.48329 63.64856 -2.042074
19.5008 62.85273 -1.984732
18.68312 64.22724 -4.202749
17.61953 64.43476 -5.665772
17.9543 67.16279 -5.682227
0.1268489 41.541 -10.23135
11.3135 61.12267 -8.675998
13.61247 62.85369 -8.193003
11.46917 53.9567 -8.65468
13.497 58.44599 -7.912367
11.83771 59.35994 -8.735541
14.99617 57.3912 -7.232552
9.712895 57.8944 -9.022249
13.61004 53.80642 -7.890374
10.65414 54.06396 -8.992255
8.026832 64.33496 -8.653181
10.38848 63.39444 -8.600137
6.961362 60.67691 -8.788943
11.52246 64.60261 -8.488194
11.17097 60.095 -8.775486
9.059391 61.94358 -8.719797
11.62918 62.88161 -8.534995
14.1481 68.72353 -8.383182
-6.006823 47.05995 -9.831971
-1.610369 43.92698 -9.945189
-5.72758 45.7215 -9.935007
-4.71892 45.92633 -9.868484
-5.955547 45.72559 -9.943513
-5.704945 48.07157 -9.744729
-3.063426 44.62104 -9.918046
-7.092978 49.98827 -9.498035
-5.470846 48.87485 -9.678206
-4.968948 49.92014 -9.577108
-8.51677 52.04766 -9.155754
-8.869081 53.60264 -9.008749
-6.671934 50.92877 -9.43943
-2.14111 46.33911 -9.699911
-0.0130565 43.60548 -9.939261
-7.269145 53.69022 -9.145116
-5.073393 55.89133 -9.141191
-4.376908 53.64625 -9.289324
3.030779 46.79293 -9.55922
4.889131 44.1709 -9.829049
-3.250111 55.26025 -9.153268
-2.869788 55.39011 -9.134644
-2.854329 51.61219 -9.349267
19.37503 87.0157 -3.115139
18.73316 90.02734 -3.45923
18.63681 87.77254 -4.481971
9.838111 78.57198 -8.728936
4.802943 90.80297 -12.4826
6.654515 92.29771 -12.71103
5.748098 90.07657 -12.31198
9.702157 91.10518 -11.9962
10.8259 88.34007 -11.06713
12.09463 91.81684 -10.99645
17.44963 89.2888 -6.056914
12.05671 82.00732 -8.707275
13.55175 83.13274 -8.588212
9.582168 84.70838 -9.669614
12.37791 85.27299 -9.359392
9.939739 85.88065 -10.21766
13.07841 87.01926 -9.684458
11.24668 87.28872 -10.5825
8.289209 84.20358 -9.610081
12.65753 86.20702 -9.628782
16.79971 88.23775 -6.962759
13.84574 87.78212 -9.42926
14.24606 89.87805 -9.435318
15.00641 86.25819 -8.37271
14.44234 85.68173 -8.611975
-1.300156 87.14651 -11.12615
-19.81348 68.19025 -1.538233
-19.63481 73.43978 -3.213866
-19.73137 72.91081 -2.886412
-18.53596 72.12515 -5.309886
-19.88044 73.25011 -2.424564
-18.21555 92.47167 -3.387989
-17.22177 93.6441 -5.119641
-15.71791 94.52907 -7.228442
-11.48491 95.38815 -11.03134
-16.8999 96.9558 -3.809798
-17.67712 96.74973 -0.9033933
-16.84178 99.57647 -1.967652
-15.28987 95.96966 -7.260122
-16.92629 98.6194 -2.483772
-17.31112 95.80885 -3.546055
-16.95633 95.42728 -4.687784
-13.04824 94.7715 -10.01517
-10.77814 95.14715 -11.47386
-13.13237 90.8363 -10.28912
-5.859014 96.60156 -12.57277
-12.46424 92.09573 -10.79206
-11.85934 89.11919 -10.83739
-11.11004 89.03155 -11.12691
-6.449153 89.11277 -12.00048
-11.93277 90.05326 -10.94045
-11.28809 91.55882 -11.42641
-7.354847 95.52348 -12.58949
-7.682905 89.42009 -12.04326
-11.83416 92.76624 -11.1517
-10.78206 93.35562 -11.68456
-3.630947 93.34441 -12.81243
-5.990271 87.58337 -11.32042
-9.213045 92.82784 -12.26764
-9.933161 92.62394 -12.03389
-5.618582 91.13757 -12.57626
-6.930464 88.05329 -11.54891
-10.29393 97.2067 -11.28669
-2.879298 94.2216 -12.81525
-3.425487 91.97649 -12.68911
-6.585095 90.5971 -12.42872
-1.540195 90.2131 -12.30108
-10.00997 96.07801 -11.68203
-3.352902 94.78957 -12.79025
-3.955547 91.38073 -12.60002
2.416481 87.96016 -11.49507
-2.68022 90.15095 -12.28966
-9.513334 86.97106 -10.81906
-0.711612 85.79843 -10.51925
-1.683025 86.77982 -10.95481
-9.470104 99.89562 -10.81472
-9.011073 96.52934 -11.97897
0.4770886 89.74268 -12.16717
-11.86582 99.21996 -9.562583
2.583343 89.35891 -12.04917
5.434599 85.59568 -10.36913
1.25422 87.69616 -11.3724
-1.0532 84.63461 -10.03696
-12.14389 98.26067 -9.700225
-11.76923 100.4822 -9.104637
-13.32982 95.99104 -9.431798
-16.69958 84.5061 -7.034213
-13.61948 80.78217 -8.343494
10.61613 97.89738 -10.89461
6.24333 97.89519 -12.28279
7.65508 100.6378 -11.19522
-17.95739 75.64799 -6.08412
18.65354 67.24971 -4.660227
17.72849 70.52312 -6.301731
17.7318 94.388 -3.378523
13.97211 90.00491 -9.660627
16.36831 94.65047 -6.205209
17.98801 94.97472 -1.716365
-7.5899 100.3521 -11.31669
-10.34777 99.70161 -10.42948
-14.25577 100.3474 -6.647938
-13.30416 63.54597 -8.203553
-12.63659 63.69422 -8.318773
-11.82346 62.76998 -8.45785
-14.06036 66.48672 -8.228612
-12.72379 68.09618 -8.575537
-14.70578 67.63684 -8.150199
-9.941008 61.35846 -8.623664
-7.757628 61.034 -8.731438
-7.163753 61.82006 -8.728346
-11.02259 61.65517 -8.561977
0.2102934 62.55267 -8.78537
-1.356536 58.70376 -8.939065
18.19337 69.91129 -5.664285
17.49755 71.22705 -6.579071
14.07359 70.25456 -8.477895
13.05977 44.78656 -10.0792
13.31617 47.43355 -9.666692
10.64082 42.99366 -10.02231
-12.2867 48.15372 -9.530492
19.10465 67.83418 -3.864064
15.59808 83.96956 -7.796447
15.58312 55.94743 -7.500172
9.788137 52.22263 -9.199369
10.77946 52.52413 -8.854562
9.910705 51.75197 -9.131995
8.435919 59.01559 -8.907305
9.38617 53.57603 -9.2664
4.72614 60.33655 -8.805326
9.133812 56.80281 -9.110501
6.523227 56.95125 -8.955012
-0.5511568 41.82561 -10.20419
-6.165382 50.09379 -9.54698
4.596979 52.03777 -9.162227
13.55743 75.13217 -8.643106
7.82287 81.40988 -8.987044
8.091084 81.16646 -8.942352
2.777977 77.18812 -8.807019
8.095072 78.22015 -8.77605
8.768084 76.02129 -8.781878
8.296399 75.50228 -8.785821
4.524043 76.02074 -8.787679
3.63866 80.85204 -9.045966
3.719862 83.69721 -9.672248
6.046971 84.40408 -9.832441
8.566142 85.38805 -10.09182
4.911797 83.74004 -9.64824
4.784537 85.98692 -10.56758
3.989753 87.17715 -11.13763
5.330046 85.33157 -10.24767
7.8533 88.69724 -11.79532
8.324117 85.8407 -10.36835
2.392174 84.55425 -9.995833
9.074845 77.59706 -8.759192
15.15463 84.2317 -8.077252
14.04978 89.22781 -9.528538
-17.98433 73.23849 -6.067076
-18.77469 74.34846 -5.019217
-15.14489 100.1864 -5.413126
-11.04289 87.07692 -10.55344
-12.38376 84.85181 -9.207368
-6.759812 86.80246 -10.93215
-8.996581 86.6105 -10.75562
-13.94663 86.13382 -8.987498
-15.73885 81.42421 -7.608248
-17.74302 83.34734 -6.144945
-15.86879 72.62645 -7.816102
12.53755 93.06469 -10.67869
15.17682 91.4726 -8.572194
16.7557 90.21385 -6.880975
13.53828 94.3372 -9.671705
14.27576 98.32002 -7.565982
16.21629 98.90066 -4.113496
15.18067 93.64571 -8.167632
15.49929 93.51501 -7.818484
16.65618 96.6395 -4.589348
15.57363 96.74132 -6.519383
15.53361 97.69051 -6.109441
14.33992 98.82221 -7.263887
11.06163 99.82977 -9.921304
12.8035 99.25244 -8.74434
-11.7584 63.45671 -8.430348
-18.73766 70.74398 -4.924369
-18.17304 69.31402 -5.650616
-14.39129 68.56634 -8.321493
-2.728073 60.32616 -8.878741
-1.019313 59.47894 -8.902098
18.26504 69.28483 -5.508161
15.38378 68.51864 -7.907013
13.42231 67.67662 -8.443239
14.43254 69.06436 -8.310309
15.19698 68.19611 -7.992177
11.17415 44.41356 -9.633078
14.69356 50.44539 -9.359674
15.85221 47.04324 -9.637057
14.09181 51.50336 -8.72334
15.95494 50.27434 -8.669819
16.72745 51.97562 -7.800436
12.19677 46.73891 -9.276906
6.25079 52.32279 -9.268903
5.394234 50.58145 -9.338084
4.920617 56.69731 -8.911645
5.810948 47.8367 -9.611732
3.658196 51.06696 -9.193746
