# .PCD v0.7 - Point Cloud Data file format
VERSION 0.7
FIELDS x y z
SIZE 4 4 4
TYPE F F F
COUNT 1 1 1
WIDTH 1663
HEIGHT 1
VIEWPOINT 0 0 0 1 0 0 0
POINTS 1663
DATA ascii
2.651597 7.548933 29.3979
-2.974635 19.59376 8.638943
-1.893785 21.7955 8.648527
0.1844977 8.819961 9.704615
-32.54724 23.83931 10.88554
-35.54507 13.759 14.25744
-31.03145 8.473179 8.187233
-26.76541 44.33429 3.80995
-32.33846 26.19264 9.699339
-29.04409 3.011446 2.194598
-21.92594 5.542953 7.664173
0.2931783 47.88322 6.737876
-24.58284 50.18937 1.907051
-2.136935 66.26765 7.801114
-19.74087 66.40182 1.633037
-20.12949 85.58929 3.239156
0.5325308 92.96033 9.60297
-20.02868 72.43601 3.096981
-18.30462 79.91983 7.733464
-3.030529 81.36851 10.04036
-2.848379 75.90836 9.551083
-0.8799818 96.51055 9.952498
-3.448699 3.32435 25.94962
8.848275 6.334409 20.34629
0.08451399 18.14284 9.169425
2.335843 11.42484 10.18178
-35.79886 8.824863 16.19897
-28.77012 37.08722 6.411851
-30.61904 31.71033 7.940232
-28.68778 4.226846 -0.2632841
-22.12252 6.26449 6.639163
-20.74854 4.533236 8.963641
-0.9092177 35.02791 7.821663
-22.78625 50.92578 2.053344
-5.299189 3.449002 13.32319
-3.823418 3.574396 22.57625
-1.013949 55.782 8.907464
-16.23147 99.05875 5.813241
-20.04928 82.41032 4.565028
-5.239313 76.6529 9.652143
-16.16895 103.8474 4.477151
-14.12108 101.7711 7.830894
4.743959 8.093378 28.22432
-1.285419 28.62658 8.289568
0.04251069 13.60762 9.426026
2.324928 16.19322 9.91419
7.111761 7.15747 14.30248
1.243696 16.16363 9.546517
1.355237 17.61539 9.474497
-11.4433 102.9452 9.24826
-31.77172 21.87366 11.83515
-24.72048 43.35244 3.208351
-25.86015 39.76292 5.116626
-27.08905 36.32673 6.564999
-28.57667 30.47305 8.651289
-16.99782 3.23791 8.700872
2.777351 42.91007 9.653962
-0.04547022 51.57264 6.050956
-1.288396 32.47888 7.995131
-5.63613 3.722042 12.80276
-3.720837 2.849518 22.4825
0.325312 57.72401 7.077303
-18.46441 52.99496 1.369927
-18.96869 85.49742 6.564305
1.491661 6.695523 29.82717
8.69486 6.741488 18.87201
0.9113503 17.5362 9.373161
2.330921 6.370986 10.46646
-12.54945 104.511 8.852752
-25.41335 47.94372 2.88273
-30.96641 25.61521 10.57952
-10.84733 1.339776 10.6802
2.001992 45.31006 11.60971
0.8340743 35.47684 8.155806
-18.60803 49.64977 1.330914
-4.330534 3.477206 14.90537
-5.45281 68.27361 8.264246
0.437025 55.5343 7.585745
-4.281313 86.30873 10.09428
-19.15678 85.85251 6.156343
4.755219 11.47658 26.50605
6.186902 13.61045 13.17807
4.098817 9.022203 11.20561
6.27949 16.66287 13.61312
-26.27784 32.52837 4.262473
-0.3324801 36.36956 7.799867
-5.98873 3.016831 12.51245
-3.950923 4.58818 20.62286
-4.668539 63.44734 7.126106
4.63593 9.558056 27.59507
7.80291 8.838965 23.51164
4.506136 19.07308 11.19306
-27.41675 29.00265 7.728766
4.066468 33.34295 11.0855
-3.796879 6.330575 24.93108
-5.600604 69.10642 8.441166
-2.243186 61.40517 6.646978
-15.03092 61.61746 6.360868
-1.459117 85.93568 10.09371
-5.500787 88.63304 9.98206
7.989582 10.23335 21.67983
-26.88163 29.25659 5.497188
-2.998281 9.054276 26.20104
-5.522068 65.30762 7.577215
-17.36886 65.51295 6.001022
0.5496343 9.372044 28.63573
-27.68229 25.52195 7.720184
-10.19483 3.789387 9.188261
-10.60824 69.94194 8.653814
-16.63046 62.73951 5.856585
-15.17058 60.74441 6.095573
-18.23889 65.60861 5.178335
-6.874118 82.60873 10.11394
-11.61006 78.4823 9.932556
-7.811403 75.96002 9.586072
-1.358757 11.85567 26.96017
1.299333 7.499569 29.50067
-28.66419 21.54509 4.700161
-6.20958 8.125319 11.47648
-4.702264 5.445131 14.35365
-9.518621 72.14208 9.039973
-14.71174 64.23199 7.106123
-17.30179 64.78135 5.891297
-4.712952 91.19415 9.75431
-9.865673 86.0554 10.16638
-27.61647 26.71124 3.054652
-7.164405 11.75808 9.794566
-5.807073 9.29365 12.11855
-6.611052 8.258669 10.90883
-11.2266 68.21056 8.285263
-8.789458 92.44415 9.61646
-15.35378 83.18275 9.798423
-27.5699 26.61755 4.286158
-11.26923 6.727278 6.906421
-5.503345 11.36482 13.32643
-18.50423 83.67206 7.443876
-19.90991 81.39179 4.937161
-11.4822 88.69161 10.05545
-13.65705 84.10747 10.21718
-10.85809 82.99993 10.17708
-10.89214 74.74231 9.447514
-7.004077 12.23486 9.969604
-2.808346 90.84734 9.786779
-17.12121 83.90555 8.868978
-14.21279 75.57634 9.574457
-5.254707 11.78736 15.65916
-8.94836 96.53786 9.319704
-18.53223 75.64456 6.959004
-18.98327 77.1302 6.545001
-12.17277 6.537265 6.355746
-12.33135 9.211041 5.232181
-9.867791 97.44953 9.256113
-17.81727 15.58649 0.6888935
-9.461243 13.60333 7.025804
-9.526543 96.04249 9.297374
-4.822992 97.34199 9.767167
-13.04534 100.7413 8.512453
-2.34779 103.4513 11.94381
-6.847386 99.70026 9.937284
-6.083148 101.5249 10.56623
-17.84382 94.67435 4.302903
-18.4627 67.1622 5.352262
-19.24053 71.97189 5.171058
-13.82828 72.09566 9.063224
-19.23493 74.02004 5.585882
-12.51806 70.54713 8.807859
-14.04099 71.47661 8.91693
-16.11582 97.11302 6.614372
-14.09205 100.3774 7.931926
-35.29253 9.005165 16.15763
-31.48913 7.071466 7.754947
-32.58797 5.210915 2.935596
-31.35413 10.01282 2.383319
-30.30676 10.34343 0.2895562
-31.40582 5.647353 0.2343127
-30.10473 10.64264 0.1247047
-24.47934 7.252307 3.669228
-0.5313602 27.20094 8.52177
2.862608 26.96843 9.646013
1.417906 25.23136 9.045096
-23.0098 46.5322 0.7002398
-25.30918 36.97174 1.675228
-25.93546 34.3716 2.339437
-22.38388 38.53951 -0.7266474
-18.98087 51.56041 0.888529
2.853474 42.07915 11.66954
-15.97438 87.95445 9.289804
-13.762 90.59629 9.762312
-12.88708 94.42078 9.238806
-15.3964 92.99549 8.627497
5.184404 22.57815 12.07351
3.894841 19.43187 10.66502
6.770181 18.43794 15.65079
7.061786 16.61239 19.1209
7.082129 13.2521 22.19438
7.665079 12.237 21.04962
7.981568 11.44831 18.56141
4.390423 25.22122 11.04849
5.537455 20.30447 12.52991
7.826175 10.67136 16.52375
5.550199 23.17289 12.8616
5.476102 26.75493 15.70732
6.068175 15.61323 22.79
8.488851 7.041798 17.96999
5.888109 21.41769 19.19973
6.751549 18.61017 18.47919
4.511527 26.43132 18.851
5.249388 22.13 20.15134
3.589476 27.50327 19.39707
0.528094 26.22628 21.78907
5.085731 27.54456 16.74656
5.709702 13.78448 12.55526
-30.04955 18.4788 11.76448
-31.14575 17.96306 12.70797
-28.75438 18.98113 9.00693
-29.16567 19.42784 4.644357
-29.09562 20.13872 3.672864
-4.214663 6.356935 20.97453
-4.658048 10.00976 21.3726
-27.1641 27.71041 6.440061
-26.14359 32.68218 1.117435
-26.31717 32.17594 1.489658
-3.155051 56.99578 8.041326
-1.666038 14.65376 25.81583
-4.016021 8.157651 24.27769
-16.48818 8.459891 3.311024
-22.71522 8.151556 3.524849
-27.53866 6.629747 -1.038058
-24.4977 7.902077 0.9761447
-12.69491 11.69995 4.447912
-15.32261 18.4019 2.156226
-19.11348 67.65607 4.258395
-30.25882 13.49277 6.148118
-29.35303 15.55549 8.413509
-22.51314 36.70271 -0.803584
2.645388 40.82367 9.169924
-21.5806 43.54311 -0.2558165
-19.8634 40.89304 0.6767012
-19.91733 44.64822 0.3445237
-19.14592 50.26332 0.6871158
-17.35266 86.38229 8.465693
-15.82361 95.69342 7.418278
3.642138 17.15727 24.60424
-28.56376 11.44492 -0.968758
-4.331373 12.81109 22.89178
-6.029221 53.68494 9.14271
-3.915655 14.96629 23.2741
-1.567948 16.57735 25.15931
-28.21447 24.03741 2.917229
-25.53186 25.70972 -0.9536925
-23.2452 26.49755 -1.268754
-23.73014 30.14776 -1.116614
-26.03724 23.10431 -0.9766772
-21.71699 24.51263 -0.9921288
-19.27929 26.53572 0.3681363
-21.98352 29.61141 -0.9673808
-22.14326 27.45338 -1.073472
-22.2589 35.10681 -0.8695765
-20.02867 34.4472 0.4633554
-19.06033 33.05672 1.186996
-19.23961 39.6154 1.38007
-18.30694 39.85237 2.354473
-16.76229 50.10704 4.15747
-18.12503 47.89507 2.294083
-14.21051 48.37555 5.134202
-17.05852 48.95107 3.864443
-13.04392 44.91743 5.086829
-10.32052 53.32772 5.638271
-6.467086 16.51984 11.18865
-4.494945 16.38443 21.92594
-5.642242 13.21764 13.4808
-5.860951 15.55963 13.85923
-7.341574 16.48548 9.332927
-6.427439 17.4001 11.5001
-7.868943 14.50675 8.624817
-9.853774 21.26902 5.885874
-8.596412 14.11793 7.810879
-10.32643 16.04959 5.933179
-11.9056 19.24494 4.3716
-13.74389 17.37567 3.193646
-16.9679 18.82831 1.187738
-16.5876 15.4583 1.398332
-17.4772 14.902 0.8751745
-17.8185 13.85928 0.6671349
-16.3366 12.40024 1.586566
-22.36118 11.15852 -1.276614
-24.39376 11.95751 -1.545356
-26.76137 12.87138 -1.427372
-30.56854 11.65355 1.133372
-28.4088 13.51931 -0.8067474
-21.78812 14.25226 -1.030506
-23.7859 12.42687 -1.463156
-12.29133 14.82589 4.43353
-29.80271 13.01616 9.467699
2.658694 41.84858 12.50864
-18.33323 54.22111 1.753352
-12.91233 53.64534 5.388299
-16.04804 57.19797 4.832468
-15.00727 54.15021 5.126155
-8.985522 54.39645 6.529672
-13.27186 60.12881 6.248083
-6.973548 59.60598 6.227445
-2.145149 50.62087 11.52753
0.8958194 51.88001 9.742046
-1.973564 48.15214 12.67218
-4.337845 51.5068 10.88388
2.77704 41.55769 12.49087
1.41495 39.56092 15.30677
4.962054 28.23616 12.32855
4.176253 32.56786 11.21545
2.644514 37.279 15.24424
4.116592 34.72366 13.81761
3.949551 32.36234 16.07006
1.874156 17.26554 25.35984
-28.71159 18.54508 0.4984307
-29.02093 20.41349 2.84356
-29.56836 16.7089 1.441912
-28.18453 20.84752 0.4370165
-19.68719 20.63009 -0.1951997
-24.25349 19.21194 -1.464707
-13.77793 59.98398 6.189857
4.127461 11.08072 27.17401
0.6707456 13.47759 27.02827
-19.39689 30.19816 0.6386091
-16.6198 30.5142 2.685954
-15.96631 33.07977 3.351884
-17.04193 36.73497 3.158661
-16.6996 39.82279 3.624073
-12.57405 34.27258 4.58674
-14.78487 39.8417 4.489196
-11.57817 37.59132 5.012223
-12.43918 41.6851 5.039639
-4.873274 18.82558 20.59985
-4.589769 21.21528 20.65981
-5.385716 20.33438 18.99856
-7.076348 29.28478 10.69436
-14.00562 23.98169 3.170203
-14.26908 27.54895 3.469111
-14.625 30.87364 3.669011
-16.69954 31.22442 2.726664
-20.65921 23.21865 -0.6011229
-16.07142 22.25389 1.850377
-14.92411 26.65968 3.084391
-17.55101 24.9936 1.362621
-13.82487 23.51066 3.19698
-8.893655 54.21371 6.686268
-6.816826 50.91705 9.630298
-8.743851 51.25514 6.914441
-6.139765 51.02558 10.2382
-7.402608 47.54515 9.073892
-12.26808 46.825 5.210638
-4.363284 45.61785 13.3624
-11.83014 48.85421 5.264628
-6.02056 52.68248 9.639854
-0.005289079 40.81192 15.52077
-4.617328 44.82688 13.48877
-4.448402 54.51389 9.262779
-4.124416 42.15646 14.71502
-3.122508 41.28753 15.49301
-4.728786 39.72419 15.08721
-6.658252 39.22853 11.78207
-6.499803 40.52581 12.09762
-7.044639 35.99044 10.57563
-6.828932 42.83615 10.78537
2.232456 33.93989 17.43125
3.386756 30.97418 17.77299
2.559593 34.66798 16.73744
-0.5046322 37.00169 17.36949
2.327147 30.20104 19.20943
-4.227406 26.18918 19.77578
-2.940798 33.27779 18.47157
-4.008275 33.20953 17.80269
-2.047564 30.39005 19.88884
0.8974403 17.83806 25.25966
-1.119297 21.40238 23.61568
-12.03705 36.11576 4.820891
-8.723479 37.86512 6.598186
-7.449177 40.11688 8.900411
-7.31867 33.30451 9.603056
-6.605341 31.61581 13.19641
-5.983459 30.94434 15.45965
-6.386556 25.55319 14.51836
-6.235978 32.18417 14.54777
-8.403511 27.73162 7.172191
-8.804139 30.49467 6.605732
-12.4786 29.60945 4.256837
-10.8094 25.29612 4.899029
-7.58612 22.03649 8.807342
-7.738259 25.75122 8.429132
-6.608566 21.56808 11.78071
-6.243622 19.1944 12.89784
-6.31118 21.39867 13.98214
-6.283965 24.41877 15.01018
-5.976954 21.4816 16.4824
-4.720489 23.87305 19.7549
-5.228949 24.93062 18.53679
-1.40691 25.01038 22.14798
-21.25363 18.75968 -0.8541474
-8.511152 43.86687 6.881069
-9.544253 39.44466 5.901795
-8.810667 39.6965 6.50588
-9.530733 42.28638 5.932974
3.160495 37.3093 14.46634
1.998996 23.65639 22.49669
-2.511169 30.72753 19.62053
-4.331429 30.9763 18.23702
-6.130941 30.16332 15.23925
2.965667 105.6397 12.22
-5.119123 6.017903 9.106036
-3.891939 20.81623 8.349592
10.75454 2.513114 -5.080984
20.38606 82.96154 3.189315
-10.35462 6.47412 6.045989
20.00895 87.51708 1.822681
-7.641813 15.57964 6.79741
19.18322 61.70578 1.500129
1.977453 62.25809 6.859723
9.885189 0.9462773 0.1234623
1.718616 77.69434 9.755135
5.44992 103.3168 11.18249
8.866655 6.465017 -5.159206
1.906149 73.03834 9.140864
20.11267 70.94386 1.401852
26.49457 2.876931 15.61885
29.23718 1.222619 10.00659
19.93193 88.00063 0.8834691
30.02375 2.507629 -5.369331
44.41893 6.593955 -3.67586
41.46805 7.846775 -3.124024
17.10994 69.66006 7.324798
15.69502 106.8724 2.536331
17.69922 93.63634 5.459789
16.48946 103.7603 1.712338
24.04132 51.19308 -1.28624
31.50624 32.93506 -1.8462
2.495556 101.6103 11.46967
-6.530975 3.704015 8.835965
2.33722 84.4374 10.11471
32.77995 3.339569 -5.627409
43.2649 6.439931 -3.346215
16.00353 105.7184 1.458786
-11.41326 5.445753 4.858523
-5.817147 9.599169 0.4525177
11.10502 1.47937 -2.303098
-1.813802 42.36369 1.917347
19.52716 63.81667 -1.205213
20.04451 71.33372 2.094528
5.540808 82.2687 10.09815
20.18763 86.54656 1.446606
16.54486 103.4403 1.146092
3.331955 88.53102 9.977703
11.52405 107.3511 9.30051
25.0793 35.1205 1.349609
37.28342 4.747143 -4.619696
38.61749 8.249085 -3.522511
37.57825 11.00487 -3.381413
16.25072 104.7004 3.108106
-8.872023 16.20691 4.227717
-2.923481 39.74916 6.136265
-6.798141 3.769784 1.184989
9.431062 0.834659 0.9840406
-0.7214112 50.42658 3.285692
19.25055 64.12125 2.519301
4.161516 72.51221 9.062132
18.22329 59.29424 2.779372
2.133893 75.20808 9.459954
19.54585 89.93717 0.9984135
18.26768 94.70622 0.819966
4.874582 100.83 10.71974
12.60332 105.697 8.797995
14.65893 106.6039 6.429494
29.04542 3.085344 9.471451
11.98627 2.639934 11.4707
38.6526 19.25354 -2.900495
40.15195 15.94444 -3.194734
16.70087 102.8389 1.825393
-6.873848 19.1384 6.773328
-8.293551 9.09529 7.305425
-6.948113 6.71291 0.8254156
-3.063511 39.09235 6.164868
-5.525601 3.560444 1.275892
11.2413 3.302102 -2.467088
28.64949 42.94382 -1.763187
1.477103 58.93624 5.467919
18.57346 61.27433 2.855058
1.584128 67.72453 8.1334
7.693726 70.89378 8.792364
4.675835 73.40515 9.205671
13.37074 68.81072 8.448297
1.293317 59.58418 5.822428
20.41908 74.56685 0.3000445
2.14706 76.95938 9.676936
6.763713 83.38342 10.14044
9.16181 91.61361 9.731324
7.161263 98.06615 9.646845
18.8316 92.56407 1.806457
9.595549 102.9829 9.810902
29.16722 2.274082 5.096222
32.90272 27.12515 -2.062694
29.15015 35.88129 -1.776798
8.782336 2.535915 4.169857
38.52121 20.19546 -3.001233
33.44135 18.38941 -3.342343
37.80989 16.99455 -2.57476
-5.861639 23.31493 6.845829
-7.360487 22.13448 4.833447
-10.59672 9.059703 2.188352
-4.086237 32.39595 6.663554
2.309535 6.835392 -2.88634
9.622407 6.38644 -4.732152
9.602078 1.469385 0.9836913
24.78412 48.9066 0.07595909
24.88318 43.62486 1.724312
24.62248 45.34771 2.338672
22.76162 45.65668 3.653483
18.34339 35.37973 8.895334
21.04403 54.42126 -0.1176511
-0.8464589 48.76822 2.906723
-2.512981 44.04324 5.12834
19.11407 54.98128 0.6241013
19.69069 77.88692 5.293311
3.751326 79.54645 9.930805
6.33858 83.91868 10.14389
19.49045 89.8793 2.126902
19.93293 87.32961 2.780522
19.62099 82.6618 5.63945
5.720521 102.3135 10.87694
10.71451 101.1105 9.285136
7.944252 101.9504 10.15085
29.07495 4.040998 7.374805
26.59294 1.223681 16.0922
31.53029 37.34439 -2.575795
30.7898 5.077434 -5.369867
33.02186 24.26403 -2.489439
-6.789447 24.94775 2.771318
-3.830099 38.09563 4.591515
-3.270747 39.32843 2.871592
5.939355 2.284993 -4.943083
9.54083 0.5638006 5.4453
8.946171 5.346241 6.166028
25.47708 41.61287 0.02544608
24.0294 36.52446 6.478534
0.4146474 54.08979 3.866778
4.690078 67.14577 8.004725
17.46102 79.74917 8.518971
19.41261 90.36063 1.910284
19.48075 82.51501 5.922325
29.04147 2.174541 10.21668
23.14591 1.485052 18.47655
24.33796 4.554824 16.95595
25.87767 7.26847 14.73448
33.06472 27.98751 -2.033368
13.10137 4.11766 13.95935
12.43317 2.452682 11.94399
27.53624 5.075044 -2.581896
30.94206 22.07341 -3.344363
30.12915 8.207834 -4.925022
-5.415418 27.18855 6.347043
-6.014551 8.584059 0.5824811
6.284637 4.956109 -5.103397
19.79536 54.10545 0.4622196
27.38413 39.40563 -1.441764
-0.6561471 49.90398 3.06924
-0.9416778 45.10638 1.999356
-0.3932125 44.47633 1.510309
20.49397 54.9314 -0.05359696
5.43025 88.08183 10.01702
16.06129 83.95528 9.504873
19.62537 2.773407 18.6428
18.15368 3.079264 18.28498
9.858974 3.032479 8.299758
27.44328 6.254141 1.50517
-6.070259 28.23734 4.141951
-2.661412 9.869351 0.2848813
-9.157172 12.40329 1.172146
24.6395 41.88859 2.96805
0.07019594 42.39633 0.863974
1.596342 42.81289 0.8314373
15.76541 79.6992 9.555117
12.76149 81.26189 10.1711
18.04724 85.12631 7.879796
17.33719 5.045174 17.73373
26.79457 11.40621 -1.232312
-4.285686 8.107675 0.7406847
-7.815502 18.79297 1.376023
20.01585 45.5831 4.08203
14.7796 74.3963 9.298484
4.986063 90.46433 9.830791
27.82412 3.532179 13.25398
9.278962 4.815759 7.94654
36.17685 15.15509 -3.057432
-5.981964 13.9479 0.1125606
19.40344 46.44584 3.68993
13.55358 81.16653 10.12022
11.84293 7.199303 13.19457
9.006413 6.448667 7.210847
-6.340502 27.05816 3.189904
-3.364003 14.73017 -0.0800394
25.22661 40.11558 0.5696032
14.11387 76.3623 9.624559
6.697956 92.96808 9.595426
30.50622 12.86825 -4.513171
0.8461776 6.751916 -1.520505
-7.841927 15.57178 0.5784314
24.97937 36.48785 2.982135
11.59419 72.41927 9.100447
0.3415519 7.189974 -1.137649
10.78767 84.85391 10.21444
17.9726 74.45325 7.451365
14.52819 93.50322 8.966105
33.65343 17.27957 -3.480231
2.125696 6.825014 -2.730804
25.79349 26.66047 4.739941
25.34803 39.5625 0.2485537
18.53881 73.97881 6.674372
33.50658 16.54488 -3.65038
25.25666 32.4186 4.239829
26.59677 36.67163 -1.249546
8.804441 72.22178 9.037708
18.36678 73.04498 6.739285
12.39798 87.12127 10.16729
29.91509 15.08829 -4.161804
28.64964 31.69959 -2.190549
19.84546 72.58115 3.822885
-1.580768 13.21142 -0.5309051
26.29399 30.1924 -1.251846
25.95278 27.27515 -0.7724722
18.7297 71.79741 5.931409
29.6545 16.92879 -3.94584
-4.778729 18.45942 -0.389617
17.04148 88.53133 8.421356
-1.362912 19.33988 -1.343768
-3.241076 21.57819 -0.983228
-6.877743 23.06026 1.754844
18.82954 86.83669 6.528319
27.98141 19.21302 -3.10747
0.9042784 13.68421 -2.396004
-2.973717 24.82973 -1.051525
-5.853227 27.32082 1.882848
16.6463 68.06589 7.255102
-6.831127 25.25043 3.560454
9.419241 65.51888 7.63431
14.36144 65.94693 7.595826
17.09815 92.98159 6.94489
13.52895 61.647 6.669279
14.32858 63.99171 7.136785
-6.419135 15.59064 7.73561
-9.054158 15.07679 4.767859
17.29178 99.37917 2.00971
15.73666 99.87955 6.398687
16.05139 96.01669 7.073743
16.68546 93.48547 7.257685
14.28378 92.97147 9.185229
-9.037087 10.20724 6.547507
14.21559 105.5777 7.475288
18.77085 62.16844 2.8367
17.15549 56.89417 3.692621
30.00018 31.79259 -2.06589
32.22318 29.06674 -2.017524
9.295728 6.0423 4.660843
2.811365 54.10464 4.519027
18.39251 53.96094 1.637471
16.76482 102.4341 2.259323
28.40601 9.596588 -3.841118
29.41335 27.34847 -2.753029
27.47696 28.53719 -2.205434
25.35435 28.7177 1.244187
25.4489 27.17927 1.454089
-1.69955 47.06543 3.577692
7.988194 77.45341 9.772426
12.03688 78.22722 9.91223
20.28549 7.963241 17.48016
14.2338 5.43192 15.60916
28.46781 8.146751 7.364974
28.31999 9.108136 7.599242
27.88537 12.01679 7.656611
27.47738 10.57868 10.84386
26.51141 12.85695 11.91066
24.98123 8.347061 15.26999
28.21672 7.974188 9.863414
27.27247 8.107787 12.39439
10.83424 3.780831 10.36416
-7.33778 19.25164 0.8785949
14.4149 78.25874 9.880547
8.670014 96.45578 9.376359
13.50394 95.69018 8.929893
25.05594 41.67626 1.134738
25.13925 32.61751 2.621605
23.07323 34.51152 8.172761
19.4258 65.78004 2.744009
-1.236184 23.78743 -1.830909
-0.6644311 29.28965 -1.294055
-0.186994 28.6207 -1.544552
5.614341 35.68848 2.370649
3.059839 28.23207 -1.912439
19.17595 62.94969 2.06755
14.37543 96.10388 8.434153
-5.039008 32.28141 4.809802
-4.083205 36.51889 3.262217
-4.469861 34.12659 2.683542
-0.7244908 38.35226 0.3208651
-4.963058 30.69473 1.837407
2.061972 34.76678 -0.7546201
3.273924 33.61462 -0.7439897
0.1798825 38.28294 0.0461033
2.141926 38.6977 0.06554096
4.327852 38.45341 1.332607
4.662101 38.2889 1.790317
6.17735 33.7618 3.053118
4.935824 40.02461 3.287685
8.00991 9.106321 -4.861484
-0.01574767 15.46645 -1.915859
6.910837 11.19082 -4.63184
2.25597 9.770869 -3.01041
1.541806 13.57691 -2.86223
7.100736 13.66404 -4.061996
4.227508 14.75992 -4.119062
8.079822 16.24121 -2.594465
9.749367 12.59055 -1.597001
8.290524 17.57137 -1.715356
9.528965 5.945653 3.810787
10.32399 8.246514 3.004105
1.759063 49.49904 2.482666
4.975563 57.62145 6.219388
6.539623 57.71025 6.041559
9.999326 59.46905 6.0903
5.415385 55.55547 6.895044
16.36753 53.816 4.446511
10.53466 57.1259 5.642815
15.39026 49.46588 4.721626
15.04846 57.9569 5.385745
11.02363 53.26646 6.562017
15.72706 49.16396 4.450963
10.85513 51.36319 7.478781
16.225 45.58108 5.087441
17.45734 44.74543 4.88803
16.61023 42.01073 6.327406
17.0685 40.71865 6.754579
16.30636 103.4429 4.17649
27.33988 20.96943 -2.477304
26.77459 22.89389 -1.884638
25.88438 20.65935 0.5639436
26.81166 16.39677 -1.688616
5.96139 76.39539 9.629995
12.06497 10.44347 14.02752
24.99813 17.19574 12.30449
25.67862 12.49194 13.14444
26.55609 13.43583 1.754876
26.78753 13.69704 3.017331
26.87161 18.18234 -1.910789
26.37851 14.63935 1.503214
25.76082 21.70287 1.206772
27.28295 14.5709 5.488845
24.56186 19.68769 11.87166
17.43849 65.43681 5.96184
3.089349 20.31805 -3.346413
7.084715 24.94702 -0.262298
7.564013 23.57203 -0.05280241
7.625965 19.11883 -1.920987
7.395291 27.37793 2.376522
7.172925 17.88084 -2.874001
8.312602 22.6114 4.408852
2.502837 18.70129 -3.400265
8.030922 23.70982 5.537448
8.449312 17.42201 9.28423
6.861075 29.78388 6.100162
3.699595 30.84378 -1.1975
4.31565 43.73634 3.935233
10.02323 13.06365 0.7711319
9.638586 14.28968 2.754733
9.199951 12.87735 5.350739
9.21158 17.83419 0.8936439
3.191554 57.8976 6.025789
6.631181 57.1596 6.169998
10.92949 51.79891 7.272863
13.29225 44.90086 7.760383
19.8618 50.36775 1.747355
19.43409 52.07737 1.142901
14.66486 38.89163 8.605824
11.77659 43.84112 9.237809
8.460598 42.87997 10.03432
7.411717 46.62782 9.090142
19.02193 37.02108 8.098619
18.82773 38.69619 7.364805
10.40945 41.5204 10.29366
27.95665 24.19646 -2.710698
25.99124 21.88756 3.553224
23.1367 32.5455 8.789318
17.56775 11.15571 16.75686
25.68485 18.80887 10.89936
22.86543 16.07223 14.26399
22.54535 20.44396 13.10722
21.1512 32.41734 9.759377
22.02541 10.57483 16.36887
21.4013 21.60259 13.29313
18.51994 11.24072 16.78627
25.14265 14.43266 13.07749
26.99682 17.62453 6.278393
8.001708 20.53874 -0.7368248
8.819094 19.20841 0.3717051
1.486219 22.62573 -2.818012
6.620827 32.03128 4.603575
6.493876 32.80121 5.277909
6.017504 49.27307 8.039213
4.610086 50.703 5.981651
2.966462 53.66634 4.504719
8.137736 53.23796 7.506538
9.945558 53.47243 6.874665
4.074711 50.11337 4.958023
4.452064 49.50767 5.817725
2.930933 49.02976 3.197138
7.495682 42.70839 9.73495
8.392414 20.01473 5.961637
13.27859 37.65838 10.05168
13.39568 34.53876 10.94881
17.4366 35.88771 8.761882
23.32006 35.50984 7.58285
22.41191 32.39368 9.265211
17.90668 33.46127 9.838782
13.88142 32.91099 11.17543
20.5444 30.80807 10.56502
21.50374 28.01303 11.15946
13.31945 32.96848 11.41668
12.31397 30.46689 12.76752
25.69195 27.88797 5.980893
25.54475 29.25134 5.288281
11.71675 8.715634 13.4021
25.97739 18.48643 10.58947
21.07526 26.88496 11.71762
21.8854 23.35894 12.52503
22.38855 25.20849 11.65646
25.26442 29.8092 6.911104
26.30279 23.10262 6.94031
24.05827 29.7556 8.969717
19.12313 28.62303 11.78536
15.35901 28.7649 12.71897
17.95008 15.19029 15.8893
19.36709 18.32822 14.9216
6.3326 33.48164 3.743001
4.27501 42.04649 2.853154
4.866367 42.10404 5.070778
9.051781 39.58385 10.78053
8.410004 18.30076 9.509944
9.116281 38.90047 10.95684
26.74986 19.2297 7.963709
15.22245 14.4768 15.70285
11.73632 11.11127 13.77757
8.711313 20.90272 2.505453
8.453895 16.89894 8.965513
8.775686 13.22625 9.172647
8.602757 17.0324 9.914848
8.942284 17.31278 10.99591
9.120408 19.22444 11.61753
9.134603 21.88208 11.88599
10.30266 24.55678 12.93701
8.173851 19.65008 8.776991
8.549771 23.48291 11.24858
7.022628 29.39544 8.212691
9.501519 34.57719 11.76731
8.625287 31.55752 11.49239
9.052406 10.66684 9.713173
12.26386 20.68143 14.10652
16.85832 19.35908 14.95776
17.9306 22.98764 13.87831
12.83204 24.79063 13.74965
8.694789 23.95737 11.52357
7.277839 29.31942 9.313116
8.179187 30.86854 11.19222
11.59408 26.76496 13.27201
7.522923 36.21714 10.42697
9.17323 25.49617 12.09407
5.632925 40.08332 7.420514
5.695111 38.23526 6.818184
15.59152 59.35705 5.548648
41.92134 5.687458 -8.301929
36.03375 5.168044 -6.639556
41.94533 13.92448 -4.341554
13.67036 80.12037 -8.322893
2.272785 67.92576 -8.501436
15.3921 0.3167402 -11.77161
9.4986 56.63325 -8.102039
19.819 79.79032 -3.104062
31.62211 36.47369 -4.05609
16.35544 51.90178 -8.240491
14.58207 108.3474 -1.141867
19.43902 88.23698 -2.353144
2.781403 97.91315 -12.21834
18.92274 64.39432 -3.724982
4.696096 105.4688 -8.992299
19.07688 64.23402 -3.279575
17.83114 90.37936 -5.154643
-6.761346 34.6426 -19.65665
3.18768 9.018762 -30.67906
25.03235 7.768306 -20.03353
-11.33619 9.764075 -30.04794
-6.013229 24.52979 -25.79814
-4.638522 10.01126 -32.95164
-0.8575894 78.90288 -8.816638
-1.326437 91.18177 -12.40341
5.805224 109.4167 -6.61789
-0.4298517 105.0974 -9.210533
-0.3850351 58.85389 -9.75267
-2.983096 44.85092 -16.92762
2.99132 109.2713 -6.965039
-11.0443 11.15275 -29.53979
0.7610232 16.10497 -29.43675
-9.328932 10.96938 -30.77938
7.162252 107.5506 -7.385755
41.77765 14.33771 -4.402252
36.88118 5.638591 -6.864005
29.65836 1.971293 -8.983644
18.8703 55.45406 -4.77595
18.7809 66.74412 -4.340112
20.24947 85.25969 -0.5973136
-0.9958092 94.28404 -12.672
0.8877286 70.75484 -8.675065
18.76604 77.93462 -5.037739
1.855535 81.05378 -8.996796
16.42944 101.6549 -1.603216
-6.676548 31.92863 -21.49706
-6.682486 11.43831 -31.7502
-9.259368 13.59596 -29.49802
38.61306 21.22688 -4.84918
42.13436 8.93082 -7.828807
31.25179 34.6442 -4.80075
27.49025 2.380424 -16.52978
-4.470284 45.10986 -15.62558
15.38765 3.578387 -12.65219
3.560278 62.30097 -7.91984
19.12371 56.95482 -3.404258
18.96591 85.95905 -4.284973
8.362847 88.62334 -11.70507
6.080405 96.53654 -12.57143
9.054279 68.91946 -8.608334
19.5093 73.70609 -3.560198
16.89943 97.40186 -3.46397
1.337914 102.6528 -10.49175
4.089459 1.789636 -5.989042
-8.490667 21.16032 -26.0655
-6.260077 12.56845 -31.35162
-7.36666 15.83335 -29.38695
31.68649 22.68553 -5.689655
42.27828 12.20145 -6.280458
33.53468 6.881165 -6.457745
28.56245 40.47884 -4.07946
34.74782 29.34378 -4.696204
27.66323 3.761451 -12.25888
17.87523 1.199786 -18.65362
-6.495267 35.5589 -19.41895
24.5879 45.24304 -3.465763
-1.354172 54.43221 -12.39988
1.074678 64.29943 -8.151716
20.18966 52.1262 -4.262637
16.72096 56.97666 -6.262911
17.5132 92.58461 -4.976129
13.16614 97.21876 -9.162123
-0.08998427 89.5621 -11.97986
0.8497324 94.41985 -12.67912
14.3864 97.43761 -7.807604
19.57463 69.56951 -2.861473
2.244987 75.83484 -8.774771
16.46331 98.77002 -3.613512
14.66098 106.0468 -2.694379
-5.353358 34.6597 -21.01588
4.234865 5.503262 -23.54727
-7.522058 30.11935 -21.70566
-6.126295 17.01802 -29.30312
43.45059 8.04822 -7.424155
30.31441 36.70282 -4.502177
27.27045 3.527648 -16.40455
28.13644 3.239563 -10.97699
23.23145 6.18672 -22.04582
16.66346 1.308644 -14.56132
-4.133759 38.04976 -19.90075
15.42925 1.265823 -11.95167
-2.187675 54.1883 -12.27267
0.1429952 56.10332 -10.78621
21.02071 51.90801 -3.368666
14.08738 96.87431 -8.384049
3.033085 82.18217 -9.16658
13.95063 69.26717 -8.449882
3.700236 5.521637 -21.87589
-6.902993 32.9021 -20.70055
-6.91954 20.12959 -27.51482
-0.3990964 25.20937 -25.76438
-0.913906 12.86702 -31.581
-6.482024 19.5198 -27.99333
-1.797965 20.48823 -28.2788
36.56958 21.48357 -6.452171
30.13758 40.33018 -3.335672
34.78886 27.82053 -5.381435
19.71186 7.137506 -21.52466
16.31633 4.434127 -15.87596
-3.897737 41.51615 -18.28928
-5.70225 38.44487 -18.47839
21.16632 48.34608 -4.830861
26.42599 44.13077 -3.613855
6.573223 1.178093 -6.958402
0.6616876 55.19018 -9.746752
2.005677 58.83417 -8.00682
15.02095 58.79016 -7.164173
5.136335 68.50952 -8.556053
8.856587 64.38456 -8.151377
11.55522 79.95941 -8.590725
17.1443 72.92778 -6.892336
2.974953 4.611348 -20.12807
0.9817033 2.965131 -10.66438
4.688311 7.159467 -26.21762
1.186075 13.26001 -30.5442
-1.398145 19.10357 -28.83194
5.165747 97.90814 -12.28463
4.499166 101.7137 -10.95813
31.10098 3.583443 -7.563352
27.80947 36.13249 -4.248736
16.6204 3.289034 -15.95411
0.9857074 45.67069 -14.43416
-1.697071 39.36076 -19.64453
10.82108 2.362297 -8.622948
2.084909 2.971986 -6.625173
1.939927 54.52157 -7.656685
0.766652 51.13627 -10.57301
4.253533 60.08834 -7.805504
15.29126 57.67222 -7.100396
2.239465 79.06289 -8.825886
18.6195 74.07951 -5.263689
14.73096 70.09315 -8.251658
16.39076 75.76779 -7.43997
12.16156 72.02596 -8.766408
14.93081 79.63811 -7.958055
1.114295 6.273948 -14.20323
-6.023617 14.77237 -30.39863
-1.200841 19.51998 -28.60472
0.4689168 21.0065 -27.32114
2.485058 102.595 -10.52819
3.820146 98.41943 -12.11337
37.80091 11.72879 -7.503911
-0.9194311 36.59796 -20.74455
18.8377 46.37786 -9.352162
13.80593 5.445647 -10.93313
5.203198 9.27178 -5.886655
15.65747 57.57011 -6.89908
17.51243 58.12597 -5.384955
10.04256 59.29345 -7.610439
10.97235 74.61514 -8.787762
8.298188 74.11306 -8.780705
14.92481 74.47414 -8.248649
4.551723 8.697562 -25.31648
-0.1237646 14.98353 -30.37197
7.67417 102.9431 -10.12999
5.609747 100.2386 -11.59146
33.29084 24.56044 -6.055329
1.032835 4.034977 -10.00178
2.163981 52.14415 -7.462025
15.70243 66.07806 -7.51583
12.37599 78.83757 -8.592268
0.9044371 5.319388 -11.84898
9.467976 105.2114 -8.199367
12.1372 4.693673 -9.234927
13.82781 64.78293 -8.116646
1.035761 6.571668 -10.53487
12.41016 107.4361 -5.016841
7.923811 100.4946 -11.15456
14.85441 5.13848 -12.35464
15.35055 64.30966 -7.55169
11.7429 64.63036 -8.19471
12.27548 68.93379 -8.634551
0.8963625 8.828611 -12.65492
1.228469 3.276178 -14.71901
10.71053 97.45023 -10.94906
14.10622 8.82417 -12.6338
10.88849 5.196842 -8.385845
11.60012 69.71277 -8.674881
11.09486 100.6654 -9.529989
3.757582 97.02366 -12.43714
6.423714 89.8618 -12.23403
12.39423 93.62119 -10.72781
15.00978 6.693049 -13.54086
8.245579 7.757744 -6.846528
7.71959 79.15324 -8.762076
13.76984 100.0599 -7.380389
7.200853 94.47491 -12.71701
16.18019 4.879644 -15.7771
6.57597 10.29613 -6.114557
10.20428 78.43301 -8.717712
10.26832 75.03158 -8.785089
15.83108 82.10381 -7.572563
2.161361 91.49192 -12.49156
6.188041 13.17206 -5.895537
7.416752 76.84277 -8.772904
15.24435 9.957377 -16.39467
8.220594 12.07896 -6.657617
15.4564 100.154 -4.864195
16.03423 13.32733 -17.89902
7.522928 8.5741 -6.5393
17.31475 7.92002 -19.45387
17.75288 12.93291 -19.42261
41.91045 13.64191 -5.636697
19.76556 83.34366 -3.078041
17.5673 85.92003 -6.233758
16.36229 86.38777 -7.371879
10.48079 87.81097 -10.97149
13.82258 86.81622 -9.207615
10.13514 86.10928 -10.32157
16.89012 90.03817 -6.713851
9.587086 81.71577 -8.835446
12.49705 81.63986 -8.60149
3.928638 70.95016 -8.691728
-8.814506 12.23418 -30.44898
41.51412 11.04073 -7.449966
22.30074 48.06788 -3.63424
25.87599 43.52348 -3.615248
22.29132 44.00608 -5.298121
30.26967 24.58504 -5.308265
29.74162 19.4362 -5.611308
33.56368 23.0961 -6.173465
27.28949 24.40813 -5.624519
32.38194 20.41548 -5.879265
29.92415 4.979127 -7.997192
29.01535 6.345068 -8.454588
27.3058 9.57771 -9.929482
27.73141 4.72293 -11.28622
26.18439 11.16693 -14.23617
24.07225 7.162956 -21.2303
-4.057095 31.28622 -23.2399
-1.316122 31.95805 -22.95269
-0.1525867 33.26919 -21.89856
28.39011 32.61111 -4.611105
17.41816 81.98635 -6.452802
1.24524 44.05649 -14.6771
1.18415 44.53584 -11.66946
1.195325 44.98811 -8.939537
1.024773 45.50683 -10.0778
1.359449 46.51699 -8.385662
2.654312 44.45584 -6.967908
9.218158 61.37547 -7.756665
1.616019 22.18403 -25.84717
4.000253 14.66971 -25.06468
2.139491 25.92014 -23.37226
3.445387 20.53121 -23.23132
-2.294764 28.42199 -24.71625
3.873004 15.37404 -22.07355
2.5049 15.47895 -28.25541
-1.554173 28.50444 -24.57933
3.125963 13.37555 -19.60757
3.085807 25.6403 -21.00073
4.011975 11.47822 -22.51888
3.477262 19.36862 -20.32556
2.372482 18.86501 -17.0899
3.65422 12.58037 -21.22104
1.978406 14.10193 -29.49178
4.010109 13.66348 -25.90112
3.662307 10.87208 -28.89717
35.69708 16.81924 -6.912162
35.79304 13.02532 -6.968011
30.75772 16.5017 -5.844465
36.68367 14.85611 -7.207545
3.451654 6.107063 -5.981661
1.763541 8.778198 -7.53408
0.909111 10.76453 -12.75823
1.10821 10.84612 -14.01369
2.270211 96.40326 -12.49311
8.036018 71.16925 -8.720233
21.96262 6.878925 -22.01753
21.8053 6.202044 -22.18144
25.88687 7.970281 -18.46694
26.47346 7.200521 -17.031
14.15114 15.06568 -15.36517
17.45633 18.35967 -18.36325
11.56782 90.15885 -11.14511
12.98893 94.0117 -10.2179
7.59227 86.92556 -10.98352
6.312066 87.09902 -11.05233
31.53297 33.16243 -4.930328
24.70776 43.20017 -3.663131
28.0011 28.07397 -4.938594
27.45588 26.48547 -5.250374
25.38349 24.74637 -7.419213
24.97397 26.53759 -7.483103
26.28129 19.12343 -8.0021
24.26522 29.30539 -7.80209
27.96155 10.30342 -8.51909
28.08862 15.39469 -6.982437
31.97541 12.97274 -6.043555
28.44414 12.40892 -7.386542
-0.3794063 33.56243 -21.87211
22.48681 41.44395 -6.790496
23.10314 38.66822 -6.572247
14.82932 43.31373 -12.15091
24.2098 38.20475 -4.814293
19.41618 44.49012 -9.781744
20.272 31.04786 -14.83052
20.61669 46.83479 -7.441087
17.5667 40.37715 -12.52325
19.02519 49.54443 -7.82065
16.35001 43.19613 -11.89983
17.30971 39.15426 -13.03162
16.88495 52.60292 -7.579835
12.5054 54.35598 -8.532775
13.35517 53.54646 -8.666098
14.13312 53.57104 -8.353257
11.79568 52.41256 -9.474719
17.79499 5.158937 -19.92614
8.495512 50.23415 -8.953426
5.595568 50.83032 -7.150632
1.89509 29.12223 -22.09356
3.192126 23.43413 -19.34348
3.054777 21.78487 -18.65203
2.298601 19.42212 -16.84288
2.449927 29.79743 -20.61655
2.928765 27.80347 -19.69174
0.915921 13.53399 -12.6698
1.214243 13.50347 -14.32803
1.41937 8.64615 -15.41118
1.826002 10.51181 -16.50054
7.600641 58.86283 -7.716691
4.496539 11.43737 -5.865758
2.175051 14.21429 -7.216975
8.359267 13.99465 -6.691054
8.228704 16.30302 -6.63177
10.86332 15.53854 -9.029807
10.82404 14.34538 -8.713319
24.67628 14.57097 -17.26747
25.61103 13.57526 -15.14047
26.70055 17.23302 -7.99024
25.97394 10.55616 -16.22157
26.21463 8.267161 -17.23658
18.33303 12.72315 -19.80212
4.129167 88.96726 -11.84248
23.60475 31.92305 -8.397412
25.27399 34.91107 -4.785915
24.02371 32.30117 -7.05723
25.62389 29.83335 -5.580897
23.67838 30.94946 -8.683113
21.47331 37.15801 -11.19561
24.05196 30.94049 -7.60463
23.25248 31.41306 -10.04425
24.00339 27.63475 -9.552604
23.52003 24.67363 -13.82561
20.91721 31.2551 -14.36804
17.48556 30.1313 -15.70211
19.18151 27.94701 -16.23137
15.51459 31.52781 -14.98364
25.87064 14.63878 -11.70032
25.76384 15.19764 -11.7852
27.35828 11.21882 -9.147408
17.31573 36.29473 -13.93919
12.88246 41.01762 -12.26548
18.18156 47.02071 -9.469522
5.044835 57.11359 -7.713775
3.508563 54.71416 -7.203372
8.278517 49.50843 -8.747938
7.839413 48.6602 -8.332775
10.07406 47.82249 -9.889883
15.58474 45.16455 -11.4035
11.22151 45.56093 -10.35811
11.24697 45.26972 -10.35455
10.30688 21.38406 -9.195379
5.375399 42.68089 -6.428346
6.717547 44.43745 -7.060419
1.09133 40.68396 -10.22304
1.161488 35.08752 -20.01712
2.433704 26.58528 -16.46125
1.159927 14.04038 -9.506969
1.398431 15.62078 -8.753967
0.9623749 17.62485 -12.41233
0.9247064 17.41136 -11.39744
1.184085 17.37887 -13.86784
2.311113 28.92942 -15.91557
1.802759 18.68531 -7.941124
7.062467 17.74053 -6.085251
2.256323 22.79087 -7.227898
4.403155 21.02457 -5.84436
8.754274 20.96452 -7.154898
4.930412 29.70485 -5.963902
19.42074 11.54775 -20.48265
20.07678 18.12894 -18.97126
25.11528 16.8533 -14.17458
23.59935 21.01419 -15.69876
24.61828 19.19356 -14.39063
13.65511 14.69916 -14.40115
12.33033 19.26704 -12.73543
22.63508 20.96885 -16.92707
20.61178 23.0963 -17.43412
22.04902 18.44354 -18.36084
17.70504 28.644 -16.1
16.85852 26.89608 -16.38751
15.85871 25.4609 -16.29335
18.59768 25.10601 -17.09965
24.1179 23.80722 -12.4563
5.591645 87.06119 -11.01896
21.44917 34.0374 -12.66908
17.98787 35.47083 -14.08505
13.34645 33.37648 -13.64007
15.01765 37.37972 -13.61805
12.57159 37.36656 -12.62239
8.819312 38.42984 -8.356369
5.20562 48.5454 -6.810965
6.2675 39.01895 -6.524167
3.415581 38.04058 -6.427806
1.736868 39.89428 -7.812515
1.651593 39.6446 -13.6253
5.907966 30.40046 -6.012971
6.955552 38.22906 -6.815818
13.24308 31.48997 -13.79494
6.201401 25.76844 -5.968151
7.776803 35.95866 -7.219545
9.998885 35.01089 -9.872326
7.719041 30.96008 -6.911157
10.32993 27.61684 -9.820691
4.290054 46.5838 -6.55231
1.767921 39.63729 -15.83355
1.046008 35.89254 -19.73955
1.962647 38.03023 -16.15648
0.5755735 38.63326 -18.89494
2.017033 25.93867 -15.36276
2.827465 35.19217 -6.707273
5.568494 22.17499 -5.808966
4.841831 29.16029 -5.945792
6.381898 25.1407 -6.01502
21.02693 14.62978 -19.89809
14.5955 17.59293 -16.12102
21.7722 14.68742 -19.74601
16.16828 24.78774 -16.55999
13.80071 23.79736 -14.93589
10.99246 32.54713 -11.29065
11.5952 30.05185 -12.05887
11.62685 27.17348 -12.02787
11.71083 21.33034 -11.85292
1.157461 35.69754 -11.13223
1.568505 35.5554 -13.05378
1.370988 34.29455 -12.32585
2.629466 30.9963 -18.38486
2.092769 26.60398 -7.441072
14.89675 21.83256 -16.13701
11.53865 20.90996 -11.50893
1.90171 28.28207 -14.78558
1.765939 27.48628 -14.50193
1.138981 32.4306 -11.3424
2.595462 30.18107 -6.871489
1.422545 33.07336 -8.60323
12.10214 20.00779 -12.43789
2.470222 32.8964 -17.84867
1.406569 25.10273 -13.66698
14.3147 19.4683 -15.70889
-10.77389 17.95352 -25.53436
-12.11195 12.08415 -27.78962
-5.940884 101.3211 -11.17055
-10.59723 96.23911 -11.35317
-12.97714 78.61161 -8.541503
-19.45532 74.56825 -3.716854
-6.77327 74.26914 -8.771629
-15.37364 107.8299 2.264879
-19.63155 65.60008 -1.548092
-1.261021 68.33141 -8.528151
-6.80185 35.26348 -18.98513
-11.90854 13.40639 -27.02873
-17.18085 88.97755 -6.413517
-38.33715 9.641208 13.02894
-1.585541 99.29504 -11.82299
-20.6309 79.13223 1.140166
-27.21342 4.139 -18.87166
-19.38696 56.7356 -2.438337
-18.21872 85.92776 -5.459397
-19.31711 59.04001 -1.341549
-31.92123 11.33534 0.9679354
-15.30855 107.3347 0.3554526
-20.00814 68.55501 -0.01599663
-11.93671 7.902583 -22.12637
-19.98837 87.71076 1.390062
-1.616775 104.5231 -9.523667
-15.20418 107.782 0.4542924
-1.713792 30.03965 -12.18141
-18.88153 92.44848 0.4654703
-19.64009 63.93721 -0.06714516
-3.590901 107.7231 -7.720071
-33.41034 14.59017 4.148682
-38.62353 8.540318 13.94547
-11.00402 16.9376 -25.89257
-10.54838 7.771277 -20.88066
-4.108792 43.72853 -12.84843
-6.548193 2.683157 0.1218413
-19.65771 64.16619 -0.09529857
-4.54454 79.17712 -8.792268
-4.4251 88.90146 -11.82267
-18.06167 95.3276 -0.2493909
-2.718326 99.2997 -11.83077
-8.595963 109.4834 -6.153742
-28.59828 39.3442 4.743573
-33.68755 23.8852 8.023371
-37.70694 9.109233 9.62723
-36.72201 12.24189 8.912842
-15.18915 106.7468 -0.7761071
-10.22363 21.76919 -23.09856
-5.712259 39.9348 -15.3449
-8.038944 29.59127 -21.32504
-1.003573 4.343908 -1.240196
-24.07871 50.21098 0.1827652
-19.35265 61.47529 -1.648267
-19.63184 67.00978 -2.004731
-1.823214 81.35674 -9.023352
-20.50748 78.1121 -0.1295244
-2.870311 87.92001 -11.38718
-18.28439 94.52681 -0.1488467
-16.68024 102.9856 2.076457
-5.399426 102.0347 -10.88038
-9.575207 106.3292 -7.470386
-10.38682 106.7597 -6.8494
-31.09363 31.71358 6.535522
-32.80459 2.563681 -1.44185
-33.11152 24.4866 6.503476
-38.37217 9.017494 11.63026
-10.47793 21.14265 -22.02892
-6.577081 8.35271 -18.92365
-4.549336 12.28858 -17.23119
-4.571503 45.13658 -15.05129
-0.3232322 4.367596 -11.51612
-0.5337127 2.20337 -1.346317
-27.52068 42.43505 3.157672
-22.64405 53.99604 0.09645334
-20.83284 56.79856 -0.5245259
-18.72129 60.33832 -3.517156
-1.553577 65.05752 -8.230406
-1.746296 62.8672 -8.02002
-20.3072 72.95236 -0.05340012
-2.3493 79.9361 -8.864872
-20.61316 82.27063 1.188545
-19.86769 88.42176 0.6042135
-1.980243 86.89915 -10.9168
-9.280518 90.34901 -11.98262
-6.570535 99.44208 -11.7969
-12.95826 109.5903 -3.246221
-8.425335 107.2906 -7.293742
-31.16116 4.777786 -11.22175
-32.09125 28.48736 6.34683
-29.58809 36.39744 4.868212
-9.819296 2.224415 -1.313406
-34.57699 20.68046 10.67457
-37.14885 7.06682 7.863759
-35.02958 16.48861 7.142976
-12.89073 11.69524 -25.61196
-5.741005 37.52604 -14.76763
-7.552199 33.00731 -17.99788
0.1225814 3.929409 -8.006139
-0.7039562 5.45745 -14.01029
0.1190789 5.141537 -2.403952
-9.54748 1.50561 -1.011974
-28.16676 38.63784 2.521844
-23.9005 48.24399 -0.9820643
-22.18769 48.36385 -4.156157
-4.047999 58.23015 -7.370369
-4.699058 65.40707 -8.269565
-7.523742 81.7561 -8.92146
-5.904052 84.5201 -9.725815
-11.973 86.49345 -10.00177
-4.420282 101.0019 -11.28262
-15.43446 105.4401 -1.298811
-31.07459 5.330364 -12.66287
-30.84494 4.627899 -5.882459
-31.90666 29.30438 6.904908
-12.64518 0.4683816 -4.011655
-33.83424 20.96956 6.477666
-10.18546 22.22352 -21.83248
-4.708498 44.54539 -15.53601
-0.7007442 4.761024 -14.11189
-6.303927 3.601524 0.03188843
-9.914524 5.915585 -1.929937
-24.22731 46.43515 -1.22424
-3.329379 45.82841 -11.9082
-18.49771 68.60548 -5.087047
-18.62449 71.93396 -5.194786
-10.82018 77.68293 -8.721128
-7.970922 89.01656 -11.867
-4.105734 96.63397 -12.51954
-11.59544 98.36684 -10.08655
-31.1622 3.763099 -15.03316
-24.63982 3.916803 -18.80798
-25.5264 4.74669 -18.85571
-16.637 7.848767 -12.48998
-31.81276 27.91771 5.229316
-15.33584 4.944491 -9.820628
-13.47245 2.727278 -5.833006
-31.54572 6.447429 -1.93124
-31.71739 22.38935 3.565253
-33.55488 8.315411 2.683575
-9.498491 22.5585 -19.27788
-3.943189 45.70741 -12.84935
-3.53465 60.79583 -7.893377
-13.30787 71.38144 -8.64446
-19.21807 66.31647 -3.356238
-19.23007 76.39517 -4.257525
-20.10776 77.02262 -2.160657
-18.70317 73.50294 -5.119105
-30.53534 6.085325 -14.96112
-19.81276 5.877314 -15.95909
-28.30966 38.83583 2.918304
-12.32901 4.035789 -4.395599
-30.32608 7.49378 -5.434021
-9.503435 23.06251 -19.36337
-10.42363 16.81388 -20.1696
-17.02653 73.92737 -7.045809
-31.21165 4.62371 -13.35545
-17.50637 3.444818 -12.94705
-31.15842 13.83302 0.4838041
-8.205518 17.88552 -18.02444
-29.83937 9.844148 -13.57188
-14.07454 8.475319 -8.491576
-35.10192 11.21976 5.813822
-3.505877 23.88175 -14.52676
-4.428012 25.48317 -14.72725
-7.033672 29.52012 -16.11199
-14.30469 102.9685 -5.207683
-12.52016 10.19703 -6.172297
-12.43911 8.514054 -5.623492
-3.092522 29.24834 -13.36834
-25.44611 42.18782 -0.6707629
-31.57338 13.43168 1.047997
-1.171234 28.39294 -11.78216
-7.527041 32.50905 -17.55927
-32.2423 13.09725 2.03368
-31.43103 15.75755 1.527264
-33.38339 16.41308 4.529171
-31.07336 14.51769 0.6003286
-31.36425 18.12313 2.042214
-12.58367 10.86227 -23.25465
-9.018592 75.0685 -8.783089
-5.944404 76.8788 -8.766892
-9.343331 77.17004 -8.747227
-11.40656 76.61273 -8.758699
-15.20061 74.73449 -8.130042
-13.95392 72.6967 -8.523599
-14.52068 69.95103 -8.329551
-5.155221 71.40954 -8.704663
-5.489052 73.47406 -8.760448
-18.52756 85.12785 -5.09447
-13.88541 88.23096 -9.483148
-17.08434 80.64397 -6.744724
-18.43475 90.17284 -4.080916
-15.74011 86.08547 -7.849646
-11.73141 90.65478 -11.13396
-16.85283 92.04073 -6.381098
-14.30095 101.6503 -5.895604
-12.71564 101.6316 -7.718607
-9.420242 98.07102 -11.42203
-14.50049 98.5029 -7.180071
-7.668468 95.05421 -12.56049
-17.18036 96.23903 -3.55955
-8.904074 95.44979 -12.20501
-18.47287 92.56652 -2.474683
-10.37978 92.46442 -11.84881
-12.37622 93.6019 -10.73732
-14.06832 94.54862 -9.110719
-11.96129 89.54275 -10.83385
-13.80859 91.09569 -9.810552
-4.747768 104.0342 -9.82156
-19.10711 55.75093 -3.442638
-18.16822 59.85084 -4.543586
-16.46428 56.69498 -6.529332
-18.35542 55.2849 -5.097791
-29.40236 32.90437 2.755904
-28.60529 31.12327 1.273265
-1.972071 8.123955 -16.1254
-0.6959057 7.58867 -13.68374
-0.3691641 12.20861 -11.76053
0.5935315 12.39641 -6.073308
-1.357125 11.76365 -14.78458
-0.9727936 14.4663 -13.68588
-1.002955 12.19735 -14.03767
0.2205925 8.626053 -7.990773
-1.280682 16.38062 -13.94084
-6.314367 18.9601 -16.77332
-1.979527 18.80653 -14.34326
-3.368643 21.14737 -14.95297
-0.9695727 17.3452 -13.28676
-3.868903 15.80839 -16.18555
-8.222838 20.28305 -17.7578
-9.942636 19.58487 -19.6792
-5.209566 19.50544 -16.1577
-6.289079 14.45485 -17.52058
-4.172211 42.94752 -12.91846
-2.552546 42.65429 -11.34562
-2.191495 38.16612 -11.5414
-8.028565 29.0693 -17.64905
-7.13895 84.20784 -9.549894
-31.57882 24.4196 3.853784
-32.2006 24.83141 4.917919
-29.77955 26.53123 1.865511
-29.03815 32.659 2.174143
-28.16847 28.98932 0.1827965
-26.60176 27.12961 -4.743716
-26.87767 29.23168 -2.096524
-31.73848 7.306808 -1.110354
-6.047509 58.95189 -7.785286
-5.998148 59.55756 -7.795156
-14.98104 63.2936 -7.539024
-14.89445 62.37037 -7.473808
-15.82344 57.59266 -6.806177
-15.9524 61.00623 -6.726439
-6.727134 66.75259 -8.411344
-16.96807 79.04288 -6.846247
-19.50531 5.204515 -15.63144
-16.97668 6.160032 -12.67657
-18.4123 7.394866 -14.63095
-30.30854 7.496082 -5.672371
-29.53168 12.23914 -11.44502
-28.66384 15.10179 -12.47909
-27.75584 12.18221 -15.95101
-28.83001 13.45749 -13.48805
-25.94315 11.55659 -17.27498
-29.95498 9.621553 -13.35797
-29.19826 7.641636 -16.476
-1.945973 51.25514 -10.32133
-2.726038 51.29182 -6.127481
-7.88254 19.21066 -17.62687
-26.18047 39.52278 -0.2294677
-0.7119402 27.71445 -11.11958
-0.1594751 24.7715 -9.9522
-0.2390704 22.4845 -10.55
-4.743255 36.08075 -13.66225
-0.1869059 28.93137 -9.728794
-5.873299 36.80055 -14.87199
-0.186919 31.1545 -9.358487
-0.3279904 32.09513 -9.666443
-1.064826 37.28219 -10.40505
-0.3496854 36.76615 -8.74317
-15.04803 78.55962 -7.966105
-15.11383 80.04301 -7.878356
-14.33265 83.8377 -8.379431
-14.72471 83.57631 -8.164702
-8.747639 73.33676 -8.763646
-6.770471 65.39613 -8.270367
-8.80743 66.19481 -8.366339
-14.59489 64.7163 -7.912054
-16.6563 66.58566 -6.952794
-15.12574 89.99587 -8.680624
0.7708205 6.705188 -5.540457
0.5879666 11.32944 -4.87354
-18.50548 52.9135 -5.666989
-0.4916832 6.917061 -12.98131
-0.9423969 46.04425 -8.879088
-0.9502969 43.06245 -9.358961
-0.7233505 42.22847 -7.005495
-0.9253742 39.38742 -9.785653
-8.240391 10.64017 -1.510454
-3.263348 7.413445 -0.5543576
-0.6088833 7.802241 -1.95227
-3.300096 6.03096 -0.3651231
-7.886945 85.75615 -10.25211
-28.55166 24.86263 -0.352755
-25.76849 36.22128 -1.82096
-25.48756 33.62857 -3.589495
-26.10731 40.50914 -0.0982907
-23.3824 44.47222 -3.799862
-32.12337 7.755056 -0.1833713
-13.20202 59.45749 -7.550371
-1.290653 49.26383 -7.075213
-1.917848 45.71528 -5.757384
-17.03333 10.55095 -13.35315
-15.56594 10.46615 -11.39412
-15.45612 13.21732 -11.67519
-7.664693 49.02124 -7.311409
-29.33195 12.72494 -5.809215
-29.69143 12.50738 -3.577514
-28.95928 16.3492 -3.518489
