# .PCD v0.7 - Point Cloud Data file format
VERSION 0.7
FIELDS x y z
SIZE 4 4 4
TYPE F F F
COUNT 1 1 1
WIDTH 1669
HEIGHT 1
VIEWPOINT 0 0 0 1 0 0 0
POINTS 1669
DATA ascii
39.80071 86.53296 -7.621442
37.72021 89.99612 -1.973004
36.96211 90.70557 -4.703507
36.35608 91.55905 -4.099192
34.80829 93.13319 -1.28777
13.10581 87.44495 -17.68854
12.80723 84.33217 -24.9099
8.75201 85.62948 -26.70921
-8.697117 102.622 11.87011
-7.712191 106.6605 11.70187
-9.281701 97.9718 14.71709
-0.4741611 109.943 16.11212
2.342691 109.9927 14.33744
-34.09027 83.94225 15.78899
-27.5885 81.8816 22.89113
-25.17027 82.81712 23.12404
-10.30914 95.29562 13.72508
-18.58332 81.76919 22.98312
-18.02393 84.50889 22.09508
-20.37662 79.8154 24.20212
-14.2443 85.66186 18.37041
-16.33001 80.67632 22.82302
-14.05662 86.79826 17.93621
-15.5989 90.25796 19.52082
-13.00239 81.76584 17.20033
-29.00179 95.64156 -1.063038
-29.4673 95.26819 -0.8392048
-35.18291 84.20144 13.66576
-33.92339 87.55978 -14.4235
-33.80089 88.12991 -13.63567
-30.61942 92.8214 -3.136086
-25.69225 88.01891 -22.28428
-31.25411 86.16979 -19.9066
-27.93494 96.44942 -2.919781
-23.01915 101.0461 -1.747173
-10.42963 86.85942 15.79105
-16.92338 82.35843 24.12977
-15.56994 83.60299 31.12267
-6.870433 84.18109 37.76981
-9.139657 101.1292 12.14157
-21.93113 104.8518 2.034006
-10.3842 105.9173 13.26245
-12.60226 107.4619 11.44106
-9.064923 108.2761 11.93338
-11.49675 104.6411 13.23088
-9.594509 85.83628 -17.46718
-9.637321 96.85617 -13.59402
-9.590553 86.19541 -18.81514
-8.845524 90.12468 -14.52272
-8.473698 104.6141 -9.396611
-17.78518 106.3545 -2.008332
-15.08851 109.1993 -2.581403
-12.14949 113.3671 -3.17875
-7.454821 99.86848 -12.55061
-6.190776 108.3999 -9.131838
-14.29597 109.0051 -6.86095
-3.998235 110.8213 -8.62664
-9.101478 84.77022 -21.49644
-10.75187 87.10836 -24.43019
-8.288371 97.20464 -12.72173
0.593546 89.02091 -25.88579
3.897121 85.06068 37.4684
9.516845 91.90544 17.53267
8.394855 102.2297 13.35518
9.077796 95.94627 14.71451
15.46961 80.99285 25.38634
15.31611 82.26702 30.1245
12.66075 83.55894 33.24476
10.41385 86.24519 32.93681
5.656095 107.5939 15.90905
8.080076 99.65643 13.90897
9.44743 111.2735 10.94564
11.56742 111.93 9.744099
10.84193 103.4422 15.65187
11.37874 107.3722 14.0115
11.78636 108.2664 13.29402
20.27573 106.5769 4.256821
19.90843 106.8473 3.539092
21.57029 104.6601 6.501679
21.94251 104.105 2.325057
15.71413 112.3643 -2.614875
19.10885 109.0177 -0.2109414
18.78522 109.4241 -1.207532
22.36453 104.4248 0.5299047
11.07989 89.62216 17.53698
19.11751 81.45613 26.50826
26.11703 82.34306 26.05997
11.31407 83.28979 20.01933
11.63867 81.15586 20.5246
14.78919 78.09461 24.59127
11.56186 98.83246 -13.72977
11.68689 96.44419 -13.93701
28.39301 97.61942 0.2418385
36.25715 84.6414 16.05755
30.33661 96.13873 0.5637026
38.19621 87.07346 7.762192
34.48072 92.62694 2.880387
9.923844 112.2117 -7.090557
10.40318 111.7761 -7.169635
10.77332 111.2843 -6.778357
14.66458 100.787 -15.69624
11.59241 110.4327 -5.69488
12.71749 111.4547 -4.529991
8.238632 106.4108 -10.37514
9.860509 99.30978 -14.03165
2.317458 112.568 -6.508434
10.00203 98.53783 -13.02008
9.385803 100.8862 -12.14444
2.718139 83.50456 -19.35572
0.7593893 82.30923 -19.08053
26.0511 87.18504 -23.67182
12.18155 95.35747 -16.27783
26.24995 87.38117 -23.44389
30.43254 95.71776 0.08885662
35.92399 87.22404 -15.94187
35.13615 86.90988 -17.57074
36.71922 90.92799 -4.977136
31.78184 95.2813 -7.958405
34.70759 93.49157 -3.886085
15.69818 84.86939 -24.87935
11.68417 90.8028 -17.58274
11.12125 85.97415 -25.73075
13.00583 84.00039 -24.47466
10.34846 87.75263 -24.96316
6.27 86.20348 -25.68047
-8.478984 99.41183 12.75704
0.2285142 110.907 15.65682
0.1253459 109.0894 17.31659
5.046792 110.3613 14.52966
3.405293 108.7841 14.7212
6.656535 107.4097 15.44904
-30.37389 84.95422 18.88437
-31.49094 85.43602 17.32369
-24.58928 82.75735 23.2825
-10.5462 90.85201 14.44582
-12.2856 93.62394 15.51129
-13.59673 88.49828 17.25845
-9.788493 93.95806 13.68684
-20.44113 81.26549 23.82651
-16.26931 80.5127 22.78003
-24.12531 99.61425 -0.6590087
-25.62718 97.62492 -1.308488
-29.54075 95.73882 1.768975
-37.83664 83.92978 7.192815
-35.37809 86.04423 10.0743
-32.46802 88.73952 -14.95867
-31.88636 87.9689 -16.92822
-35.69016 88.11523 -6.985007
-25.46266 86.19705 -23.97296
-19.5316 85.37245 -26.30582
-26.41564 98.47799 -3.400972
-9.881605 90.1149 14.94483
-11.67317 90.42756 17.02791
-9.520632 93.83586 15.06155
-11.90046 86.65678 17.85089
-12.63712 88.50924 18.14098
-15.28123 85.15674 29.56319
-15.96562 84.56139 28.73055
-13.30021 87.71441 29.7352
-13.51388 85.28986 32.23515
-9.322778 84.104 36.77374
-4.972194 84.79918 37.80013
-2.947542 85.79646 37.32364
-10.01305 99.4192 13.60805
-11.04285 93.727 14.50863
-19.74317 107.5639 2.488858
-10.96696 103.0871 14.44393
-10.35036 100.5188 14.018
-9.843479 93.15847 -14.28317
-9.612212 95.40778 -13.23195
-12.31665 83.92352 -24.61902
-12.52878 85.25598 -24.231
-16.62212 85.71989 -26.00454
-10.65178 83.36218 -22.61213
-9.780212 84.39246 -19.62186
-7.492122 88.9611 -15.4107
-8.676591 101.3345 -10.81838
-8.910422 102.8521 -11.90763
-8.541131 107.9179 -9.111371
-18.04352 105.8483 -2.206574
-19.37324 106.466 -4.959952
-14.25109 110.7057 -5.771522
-7.757959 98.78983 -12.80711
-7.23352 106.2306 -9.076569
-8.954986 108.6416 -9.964639
-8.539988 84.60593 -19.42392
-10.83731 87.08639 -23.86984
-8.411956 85.59794 -19.50665
-10.37958 88.60193 -23.25792
-10.52301 87.88208 -23.11777
-5.006925 87.05239 -28.24598
-7.589895 92.96333 -14.5858
-1.95422 87.16277 -28.12165
2.531588 85.45259 -25.78833
7.697768 85.80601 35.29404
2.4298 84.77523 38.03362
8.840044 93.69948 15.68373
23.9882 101.7094 2.587029
10.26802 100.2901 15.94111
10.51645 99.83313 16.23085
9.765781 96.45229 15.35108
15.46426 83.37218 26.99821
9.817901 89.39658 16.89969
7.024943 103.9448 14.69929
8.03414 97.26775 14.87088
13.07624 109.6348 9.632243
9.353669 102.7655 14.53989
11.23604 108.8758 12.73999
17.20379 108.7831 5.672826
23.59064 102.0942 1.342224
13.03508 112.9541 -3.959997
12.59735 110.1226 -5.460859
26.2022 102.562 -1.02414
11.58727 84.53968 18.246
12.49886 89.93296 19.10184
12.88455 88.42056 19.60989
18.69411 82.48912 25.97839
15.60287 80.50124 23.49196
25.09548 83.84837 25.43464
30.86093 82.3408 23.77554
10.56113 83.76839 19.16379
10.79532 102.6589 -12.54787
12.18301 96.25395 -14.70297
28.93174 99.55837 -0.8625804
26.58366 100.0937 0.2670422
35.68836 86.89526 13.66236
36.29152 83.73025 17.2182
34.35168 83.48914 19.8184
30.89414 96.26031 3.002526
38.45067 86.13064 9.301912
37.26323 88.42 6.991302
34.65886 92.25974 0.5541101
2.225163 113.3148 -8.071046
8.122338 106.6961 -11.19941
9.173405 102.6487 -10.82186
7.875869 108.0278 -9.939608
6.344447 108.8281 -11.69442
4.272752 111.2629 -9.635772
7.834747 107.9677 -10.6491
10.40248 96.73449 -17.47635
10.14629 97.87032 -14.76246
4.43983 85.07847 -24.17666
3.567479 83.50097 -22.03952
0.5758061 81.2395 -16.69122
2.150716 83.10904 -21.60849
23.10777 86.81647 -24.7274
12.53659 92.61182 -15.73811
13.2799 89.24138 -18.39383
26.98772 87.42529 -23.11086
33.32098 95.1549 -2.386672
34.89603 88.57635 -15.23013
36.08723 88.82079 -12.63798
36.68711 87.06673 -14.96381
32.71698 88.1922 -18.52718
37.47243 88.96225 -8.712857
16.15919 85.85273 -24.71754
20.90145 88.41794 -23.94882
12.48338 86.21085 -23.94094
12.61318 84.90831 -22.42733
-9.072128 100.3638 14.46822
-9.191801 103.218 15.7275
-10.91735 98.11693 15.98686
-10.04222 98.48688 18.72268
-10.08308 101.4527 16.40797
-8.895036 102.9161 16.51623
3.812778 105.3787 18.12062
2.517479 108.5848 15.65448
-28.68151 86.50716 18.92403
-31.01631 86.27972 16.97137
-26.24114 85.30451 21.29967
-12.60405 85.1955 16.83723
-21.64929 81.56267 23.9272
-12.71829 82.97478 18.89458
-14.64852 82.25515 20.89174
-13.01614 84.96978 17.2372
-25.95648 99.8261 1.073123
-34.01151 90.05188 -1.966651
-36.27456 85.57828 8.467601
-36.86733 83.71454 10.8631
-30.07849 94.63615 -4.596187
-17.12649 88.57889 -24.2724
-28.89612 88.35594 -19.66982
-28.33894 88.1749 -20.32762
-27.15436 98.07619 -5.781142
-27.98377 97.06675 -4.624902
-11.09874 93.29468 16.17888
-17.87043 80.49159 26.29647
-6.394407 85.82588 36.50411
-21.04099 105.9435 2.192334
-13.40702 108.8798 10.80698
-13.07692 106.7299 11.9504
-9.006649 101.4948 -12.581
-9.369288 97.25908 -12.32374
-19.36691 87.1744 -25.1008
-9.52376 88.55872 -18.06222
-21.77611 102.6478 -2.99572
-17.84347 106.8565 -3.721068
-14.00051 111.7225 -4.625144
-21.36593 102.5881 -2.318034
-3.70156 109.1341 -9.313485
0.1903059 114.644 -7.499382
-12.10252 110.1632 -8.605394
-8.788198 89.95264 -18.93577
-9.580134 85.58136 -22.18103
-6.459891 89.48072 -26.30012
-0.3973832 88.63927 -26.66923
0.7819703 86.26883 -27.43703
8.607163 84.89633 35.5765
4.572262 87.52903 35.18791
1.841376 88.90723 34.67297
9.432705 94.09986 16.92675
25.82957 100.4101 3.228016
29.43864 97.62621 3.388647
15.35862 82.40065 25.26533
11.57323 84.70557 33.32117
17.07399 109.8744 4.233706
24.35667 101.8959 4.439409
16.34031 108.695 6.847723
23.61031 105.5159 -1.489702
15.39754 91.74961 21.50025
12.03987 92.29496 18.35352
19.41035 82.19911 26.32865
27.26676 84.85184 23.93056
28.59332 85.14305 22.97053
27.69292 87.47325 21.68455
27.88872 90.14018 19.21489
12.80096 83.33601 19.72692
11.68525 98.41985 -13.54835
11.85031 97.4968 -16.03413
12.32263 94.76768 -17.24451
34.65595 87.0657 15.07137
32.8795 86.5555 18.02873
33.80956 83.44204 20.40453
32.52551 94.60497 2.97679
37.7128 88.61313 4.790252
35.1197 90.99693 6.505964
8.119987 106.099 -12.00412
5.931467 110.4982 -10.55429
10.89245 93.72089 -19.83965
10.07234 98.56692 -15.68328
9.238858 102.1448 -14.05915
3.808302 84.09051 -22.5225
0.5159416 83.08121 -18.46011
2.260528 83.13731 -21.94702
13.07183 90.25105 -18.74525
27.64029 89.11396 -21.28411
28.55688 87.62926 -22.19987
31.22486 97.60603 -1.967211
31.71722 96.67374 -4.473698
29.01484 99.87955 -1.331474
29.48169 98.15138 -6.680706
37.125 88.5933 -10.72689
39.49913 87.15295 -6.636527
16.50421 86.18449 -24.74347
11.26639 93.40823 -18.03158
11.04213 88.16609 -24.11812
-11.66924 96.18921 17.24051
-8.633992 103.0082 14.16564
-8.336529 104.5238 15.9578
8.916496 101.7135 16.94623
-33.32243 86.53487 13.53291
-32.69559 86.89799 14.05346
-28.97554 96.54845 2.892391
-34.88987 87.1934 8.994351
-32.69177 87.32954 13.46777
-27.2942 88.3627 18.43526
-26.88851 85.37061 20.95072
-26.64119 83.49622 22.27272
-15.02256 89.45196 18.99607
-16.87609 83.05499 24.4614
-34.64508 89.3733 0.9069338
-36.32116 86.66797 4.972055
-20.16216 87.91168 -24.47082
-12.22717 89.95912 17.68424
-12.29857 94.45357 17.22717
-12.27935 95.22624 17.62604
-11.69664 96.24085 16.51353
-10.08546 97.79408 19.21671
-12.05779 95.52431 19.98798
-12.21636 99.45171 15.88377
-12.88611 96.51159 15.95159
-13.29117 107.5576 11.64591
-12.23629 104.0938 13.48173
-12.7019 101.4496 15.33985
-9.34549 91.6125 -16.69445
-16.69634 87.98804 -24.61194
-13.24444 86.35015 -24.39481
-4.295516 84.4275 -15.61473
-22.97078 102.7606 -6.639231
-24.54207 100.0603 -2.557139
-13.54974 107.3422 -9.557315
-13.87677 107.664 -7.765502
-11.14081 109.8108 -9.17363
-15.40056 106.4954 -8.530755
-9.419835 104.0088 -12.87894
-12.58214 109.2818 -8.655623
-6.066442 105.6867 -10.61976
-6.810112 99.78671 -12.73527
-2.110573 115.4131 -8.399711
-9.647314 111.1962 -8.467261
-3.133947 88.02469 -13.25232
-9.836311 88.56493 -24.72908
-9.193646 90.12334 -23.97708
1.935279 87.90882 -25.30563
-3.181406 87.05655 36.22308
15.23677 80.77597 24.96395
15.33813 83.75734 26.84205
13.65272 84.49786 20.70913
14.87931 85.96436 22.26641
15.58063 85.05776 23.29783
24.58357 85.24004 24.72079
27.36642 87.8709 21.58135
26.45322 88.88929 21.35864
30.58577 85.66422 21.12742
12.68218 98.93166 -16.63844
35.25576 87.70509 13.13518
33.22362 84.91968 19.44747
32.35478 85.60912 19.60395
32.37262 94.48074 4.779349
36.76978 88.51294 8.200171
36.03796 88.82525 9.432066
3.678894 107.1395 -10.72456
10.20739 97.78794 -16.98053
4.088214 104.6655 -13.50913
-0.03721392 85.63908 -16.83039
1.654888 86.40591 -18.80512
2.675617 85.83572 -21.91217
2.480021 89.77751 -23.32059
1.936745 84.45086 -20.18747
30.78855 88.28474 -20.09669
30.6104 97.6653 -5.076587
30.27516 97.99863 -5.152221
30.21382 96.22658 -9.225543
31.48476 95.87901 -7.276083
29.22594 97.77372 -8.006251
38.11176 88.67981 -7.29398
18.54656 87.81518 -24.32057
12.26779 87.38657 -18.88046
-8.180721 102.3547 13.993
5.830018 101.0243 21.23449
-31.51499 86.23167 16.45931
-24.99792 85.56428 21.63808
-16.25116 84.27372 28.28313
-34.87698 89.04044 0.6119096
-35.18324 86.22047 10.21922
-35.57413 86.92143 7.46384
-11.45291 96.497 18.49267
-9.70035 85.30775 35.46763
-12.30845 96.54842 15.37403
-14.66949 109.0122 8.170752
-15.64643 110.2423 6.772327
-17.60414 109.1283 4.974973
-17.90764 107.2893 8.349332
-10.22057 88.92738 -19.38595
-10.39593 92.91583 -18.82412
-9.488775 100.2828 -14.78907
-9.407515 101.8154 -14.11563
-11.81576 86.22724 -23.10923
-4.896634 84.01034 -15.87486
-13.14327 108.1366 -8.557787
-12.72879 109.1272 -7.237463
-2.274934 106.9728 -9.189849
-7.383208 84.04519 -17.52074
-8.273728 92.72916 -17.80198
-8.879555 91.31523 -23.08234
-7.968804 95.63779 -19.19403
2.851363 88.1574 -22.41528
-4.03424 86.91611 36.19676
30.96089 95.09921 8.265539
28.94606 97.76345 6.845485
14.37871 80.33293 23.89794
13.63441 84.59895 30.72481
12.92147 85.74632 19.78198
13.98534 86.74844 21.06256
15.43873 87.08574 22.83622
15.81504 87.0192 23.10905
15.96804 82.04137 24.03575
15.02078 93.69143 20.66526
13.51006 94.24254 19.8365
13.18662 94.9763 19.43889
15.87787 80.36153 23.87035
30.44958 85.27132 21.57685
35.9608 87.90623 11.43814
34.45477 87.77306 14.37533
32.52815 93.53861 7.651338
6.643624 103.7787 -15.11428
3.879135 108.1305 -10.96228
5.644305 108.8347 -11.76302
9.19972 98.28999 -17.84775
1.331892 85.33818 -15.66697
29.74878 88.34938 -20.76905
34.57555 92.73426 -7.004688
33.4599 93.20013 -8.818661
34.15882 92.33688 -9.162797
36.4481 90.44102 -7.683328
16.13061 88.97067 -23.22303
8.177421 87.67601 -25.40536
8.615195 102.5967 16.64316
-16.30219 85.0759 24.18091
-34.90522 87.78133 7.551632
-12.23626 94.43351 22.65295
-7.792917 101.4742 19.57688
-16.72613 109.6681 4.934172
-20.19145 105.1721 8.623675
-10.91618 90.6238 -20.22165
-12.41169 111.3459 -5.380764
-11.1804 111.7643 -7.447314
-5.867769 102.2636 -16.70115
-6.54862 85.43465 -17.1262
-8.147583 91.46196 -17.59752
1.309494 112.1387 -9.755135
-2.384497 91.92274 -25.14595
25.81271 100.3712 6.125448
28.35975 98.3727 6.718917
29.15292 97.73929 4.29152
13.61891 84.61697 30.73021
12.82559 89.44015 26.38321
22.94175 103.6239 7.376983
16.26142 89.98512 22.4312
14.91471 99.88892 17.82182
35.69276 88.43061 11.03196
32.44244 87.95637 16.9082
31.2082 87.37444 18.90469
4.042415 104.0187 -13.84246
3.744408 108.2672 -9.203439
34.84555 91.72129 -8.90109
30.97272 91.15041 -16.42835
15.86369 89.58853 -22.81928
13.4444 91.26693 -20.36862
15.06703 91.38708 -21.62529
10.00393 89.64198 -23.78078
8.266373 92.28227 -22.44736
7.330793 92.39536 -22.32297
7.429213 94.52625 -21.042
10.81613 89.76892 -23.1164
6.877889 95.63348 -20.32188
10.2356 94.7142 -19.80852
3.95436 104.8994 18.78245
-15.77351 85.71877 27.13613
-16.19206 85.14229 23.64747
-16.03242 85.71313 25.68675
-9.704663 98.82598 18.67969
-18.06862 108.8444 6.000607
-11.00517 87.58707 -21.47976
-6.206455 84.07263 -16.73583
-1.747769 94.31869 -23.49901
14.51716 83.62978 21.9607
13.69155 98.00695 18.61513
10.25291 98.36131 16.07226
11.40339 94.15797 17.47662
34.90332 90.97671 7.307314
32.80809 89.02704 15.09515
31.11031 94.93249 8.240364
6.30614 103.4707 -15.33161
3.705123 105.5513 -11.99545
31.48997 95.37801 -8.388474
33.33654 93.04977 -9.44885
15.86102 92.13982 -21.49827
5.495313 90.35374 -22.89185
2.965423 103.8234 21.67347
5.53526 99.21536 24.33937
-15.82232 86.20892 25.57413
-15.15814 88.27511 23.04378
-12.80471 94.3985 20.74914
-10.51767 96.8876 22.80865
-19.87853 106.591 6.933
-3.430924 109.4758 -8.72506
-4.827387 98.93076 -12.97732
-5.760597 90.42161 -25.92562
12.76071 85.3162 31.21404
11.50114 84.97226 33.13498
15.88439 89.40356 22.4827
13.65357 95.85651 19.39159
18.57358 94.53143 20.65854
14.76717 95.30001 19.96411
32.41966 92.26928 10.78115
30.87416 95.007 8.764086
3.647735 106.384 -10.69736
3.445126 107.1117 -9.109209
33.93499 92.02631 -10.38072
33.09212 92.11945 -11.88379
16.0683 92.66312 -21.26328
6.737117 91.11497 -23.01377
-0.1399935 108.1964 18.02082
-15.08259 88.09087 21.58614
-13.81934 88.91094 27.29095
-10.72808 97.2452 21.66686
-6.419275 97.73034 25.95206
-8.267258 95.22432 -18.67751
14.66523 84.24896 24.17288
14.30347 86.8326 25.77768
33.31874 92.38926 8.342502
31.83808 92.73973 11.10733
32.34563 92.1562 11.13093
30.32684 93.95695 11.86713
34.85294 89.79757 10.21552
25.86979 93.34663 17.91241
3.929957 109.7732 -9.867744
3.899761 114.5382 -7.031291
2.02036 104.3162 -9.698081
27.9466 97.52881 -10.71921
13.44253 91.43729 -20.33115
13.62134 98.43974 -17.37156
13.08037 99.34778 -16.65629
17.08284 88.94659 -23.51138
5.502453 91.6327 -22.09006
4.216017 94.37364 -19.27615
4.647731 86.10045 -24.04243
-2.072756 108.1681 17.1139
-14.5637 89.62452 21.14712
-14.65622 89.14156 24.31097
-8.866102 96.62771 25.16894
-7.457068 96.59399 26.35545
-4.813904 94.61615 29.40408
-9.415196 98.28469 22.78778
-7.478455 97.39188 -17.4573
-6.78359 94.16068 -15.9211
14.2863 86.21012 23.80299
16.76134 99.38412 18.18408
29.99642 88.58429 18.84492
30.2718 94.55201 10.99823
1.362468 105.3022 -9.597799
1.531627 107.5759 -9.228871
28.72149 95.41137 -13.008
27.02874 94.04842 -16.54895
27.23761 96.4567 -13.30667
15.2443 102.2772 -13.15268
11.42341 100.8644 -14.65077
12.14282 102.2429 -14.6202
4.290064 92.91796 -19.99804
3.16197 86.32159 -19.29706
-0.9508411 108.6629 17.01828
-13.56227 86.27658 19.29478
-10.33841 96.5056 23.5561
-4.82301 97.98621 26.46652
-8.515972 100.2659 20.6427
-4.567591 107.2906 -13.39218
14.47906 102.5399 16.279
29.30111 94.76546 12.32591
2.479152 109.7362 -10.75294
2.304525 111.7649 -9.766148
1.527894 109.5408 -11.80638
1.169318 104.0842 -10.4782
32.28994 92.23701 -13.02098
29.08302 96.95177 -9.884122
27.26413 98.76308 -9.627764
12.75148 92.62194 -17.88102
4.759783 90.39411 -22.1268
-2.009325 105.6563 19.92683
-7.164588 96.16612 26.94907
-5.216755 100.0836 24.43788
-7.022688 100.5443 22.82662
13.62074 99.8916 17.62779
2.165509 112.6532 -9.014408
2.206666 111.7564 -7.417233
2.271415 110.7244 -7.680391
25.96331 97.2822 -13.56811
13.49642 93.39742 -19.65653
13.06031 91.8519 -19.36166
21.63056 93.15719 -20.36503
-1.023614 107.5416 18.09668
-4.7146 102.4562 22.5712
-10.41939 95.52002 24.6023
-13.43736 92.06853 23.13932
-4.444738 101.1624 23.83527
14.74068 100.0923 17.69332
29.71895 90.68183 16.90773
1.524779 105.5811 -11.44975
0.8827872 111.1551 -10.62523
28.54207 95.04166 -13.79265
22.06539 98.41151 -15.39277
27.90011 99.38385 -7.305209
13.163 95.85561 -18.44709
18.7241 92.7318 -21.34618
21.92595 87.75205 -24.26354
-4.180833 107.5835 16.89606
-9.070979 94.64083 26.99925
-8.282928 94.74273 27.53496
-13.84047 91.75138 21.57224
-1.2665 103.4754 22.14586
-5.708622 102.2755 22.14157
-3.83428 103.1875 22.28723
11.76966 101.6359 16.6726
10.75373 104.47 15.2097
27.7909 92.7255 16.71649
30.81875 90.89423 15.36847
29.6829 91.45601 16.07917
0.5433438 109.9093 -11.65969
28.12759 93.34601 -16.43512
31.33902 90.25678 -17.22977
24.99242 101.3827 -8.562115
27.99391 101.2882 -2.458639
24.42058 89.65977 -22.22947
21.37451 92.09779 -21.26804
-3.765014 108.0835 16.63396
-2.011522 103.0526 22.62852
-6.680583 102.9473 17.54634
-5.863928 104.3925 17.14963
-5.432982 105.5004 17.68815
30.41431 92.82939 13.38797
30.8514 93.43728 -13.19656
32.26212 90.68475 -15.57655
25.93718 99.41655 -10.52518
26.48207 99.47859 -9.600182
25.59816 87.96352 -23.20232
-5.06686 104.9777 19.75481
0.1814858 102.709 23.31309
-5.850782 104.539 19.28253
28.89785 92.36652 15.92762
28.18386 95.69312 12.67974
32.00031 91.38235 -14.85663
33.2077 88.94489 -16.95427
27.91224 92.83308 -17.21815
26.34595 100.7345 -7.475036
-6.174313 105.5232 15.66796
1.042544 99.24686 26.1754
26.35396 93.4521 17.37574
25.18038 88.58491 22.28448
23.94377 87.10435 23.79279
22.96185 88.26214 23.38109
20.27072 84.39245 25.63347
32.26516 89.12553 -17.76201
26.61454 102.3667 -3.965492
13.36159 108.9533 12.40593
14.26194 107.8826 10.55766
14.66644 107.1765 11.97709
25.19624 91.66712 19.93606
29.82894 88.9566 -20.07701
26.50613 93.66406 -17.38619
25.18544 103.8747 -3.92903
21.81398 104.3349 7.829341
30.39317 89.52165 -19.01176
2.962825 100.1371 24.98651
18.36797 107.1809 6.373861
18.7066 106.8201 8.149829
19.29517 105.8465 9.870605
18.37974 103.8281 11.8989
19.64754 103.177 11.99161
17.69267 103.1755 13.32332
19.67522 101.7483 13.16264
20.37051 102.5514 12.23289
25.65499 94.07932 17.38989
22.03879 100.9732 12.82029
24.1702 96.55718 15.81391
23.91483 95.68115 17.02068
19.3033 95.13458 20.21926
18.04825 101.3744 16.1939
15.8174 95.977 19.85554
25.38123 99.7737 10.87114
24.38996 100.1486 11.73353
21.42455 103.2506 10.97686
25.19566 97.23265 14.37502
18.46431 96.72873 19.47531
28.10921 95.5667 12.95992
25.76356 98.9208 11.57853
27.63453 94.62442 14.75445
19.43875 95.88506 19.76946
24.79902 95.48089 16.60748
19.61485 97.02409 18.99522
25.91372 100.3917 6.965328
24.01411 102.646 6.947028
25.53223 92.17554 19.26097
25.19595 101.4176 7.441335
22.61688 103.2141 9.439687
25.19039 101.4082 6.945659
26.58962 99.89427 7.67307
21.60802 104.1222 9.475248
19.61075 106.1481 8.185629
20.968 94.71376 19.9992
16.37178 90.89559 22.1409
19.34184 90.3622 22.76425
23.12191 90.86356 21.66352
18.75669 106.9009 6.245272
22.31113 91.85416 21.33978
20.88472 92.71737 21.27081
-14.98286 78.79236 19.17352
-33.8535 90.30448 -5.603339
-17.01738 109.9491 3.207061
-3.23411 84.9968 -13.48401
-9.097669 113.9464 -5.548233
-2.102771 111.0471 -7.816077
36.83372 90.00147 3.150826
-36.73277 86.66029 1.390627
-35.92767 87.76913 -0.5059499
-7.62304 83.9388 -16.27834
-5.944652 86.54834 -14.88583
13.7194 82.10936 22.88736
13.08706 83.25445 21.96482
14.16149 107.473 -7.714272
10.75652 102.8845 -12.88258
10.03071 105.1607 -11.10306
13.55143 104.3608 -12.9288
14.536 102.6244 -13.76504
11.8107 105.8094 -12.32182
10.04847 107.1943 -10.8906
13.03582 106.6097 -10.71829
-16.84293 83.19074 21.48455
-31.99456 92.66743 0.3212208
-30.11955 94.75861 0.4733518
-30.21385 94.88026 3.7631
-33.11796 88.4925 -14.2672
-33.4821 89.48127 -11.60588
-30.137 90.08752 -16.29922
-33.52191 89.9738 -10.21131
-32.32152 90.70213 -11.648
-32.66576 91.51466 -7.522128
-30.52963 93.80154 -8.211555
-21.81489 105.0676 4.285089
-20.02257 107.1649 4.827476
-21.61737 105.343 3.497635
-21.6031 105.3582 3.402006
-22.13647 104.6477 2.556246
-24.31252 101.3945 7.062553
-19.2063 105.8657 8.799987
-27.29553 98.45572 4.773393
-15.63218 105.7348 12.49332
-22.99544 102.8816 7.221251
-17.47115 104.9266 11.3336
-18.80635 103.6021 11.4169
-23.19885 102.4578 7.65206
-26.71532 99.01609 5.373
-18.65363 103.4117 11.99444
-21.59394 101.2235 11.55132
-19.84849 103.6775 10.29707
-18.04896 103.0435 13.16456
-14.41488 102.7879 14.57079
-18.6899 101.736 13.85034
-21.43866 100.2497 12.91132
-24.49398 97.52994 12.40445
-23.00906 100.5991 10.78491
-20.80794 103.0141 10.3749
-20.07774 99.86418 14.41682
-20.49279 98.68266 15.0615
-21.91208 96.74079 15.59478
-18.99146 99.19552 15.55911
-20.75852 97.3941 15.86944
-21.7359 95.84043 16.41956
-22.7326 102.0043 9.341157
-24.51178 99.30751 10.26881
-22.74978 98.00256 13.80145
-22.69803 96.94031 14.80762
-14.93079 98.54722 16.94951
-13.87892 93.40627 17.2816
-19.32847 96.72231 17.0134
-18.34655 91.06901 20.08574
-12.6397 97.86062 15.93833
-16.02702 90.58207 19.73983
-15.59612 93.14489 18.90782
-17.7343 87.27801 21.23752
-14.8302 91.89066 18.57831
-20.45915 94.13973 18.17665
-6.980916 101.8113 -11.94745
11.3804 87.35054 19.78465
13.24623 85.9798 22.10268
10.32799 93.02486 18.16371
12.61613 91.60906 21.56445
6.581193 104.8857 14.29684
8.436771 97.9883 15.87352
10.3508 98.18227 18.44584
7.590706 101.3656 14.92164
10.47225 97.00528 18.35937
6.11694 99.5853 23.12828
8.293545 97.57026 21.89447
9.208221 97.15906 21.71527
7.880019 96.75862 24.40419
8.624845 94.6861 26.26018
9.872108 93.73775 25.79586
13.52474 86.3358 28.86777
12.77582 90.76867 24.62432
10.96325 93.17501 25.10289
8.548683 91.9554 29.10669
11.55939 89.39604 28.47555
10.92446 92.08243 26.43042
12.76048 89.85452 26.00564
12.23273 88.36015 28.64339
12.84062 89.06149 26.81362
10.56876 87.8231 31.243
9.860246 89.9948 29.81195
10.03906 88.4185 31.18167
7.35869 88.23837 33.33617
7.382375 89.16212 32.48831
5.072007 87.88068 34.70866
6.968087 88.24524 33.54399
3.199137 89.33005 34.05501
9.203864 86.77773 33.43171
9.291065 90.04379 30.29331
9.72746 91.18871 28.75894
-2.562693 88.70757 34.91221
8.323033 91.6433 29.57409
0.2840661 89.06219 34.70099
0.8333222 90.50392 33.44636
0.3381122 87.62432 35.90072
5.954089 92.85287 30.01594
7.507294 92.24083 29.63247
4.701967 91.25584 31.97341
3.074577 91.30432 32.41411
0.9081074 92.80714 31.52794
5.461999 97.43036 26.1877
24.74843 104.8558 -2.622888
20.65332 108.919 -1.819876
14.38539 109.6634 -6.618899
10.49553 108.4832 -10.27573
7.390552 104.5527 17.18324
6.650005 105.8017 14.51163
-14.72452 89.95348 18.63088
-13.11375 83.22995 19.3204
-14.47783 82.94492 20.73131
-28.83293 96.71987 2.879328
-25.52613 100.3505 5.774623
-27.99319 97.28182 6.034638
-25.72252 100.0153 6.092093
-25.80045 98.13209 9.755726
-24.57162 99.34572 10.10883
-24.86978 101.2171 5.517615
-26.84496 97.57323 8.607692
-24.91964 97.79296 11.59299
-26.64531 97.95427 8.353278
-26.52095 94.79752 12.9877
-24.45247 96.24352 13.81308
-25.99178 93.96651 14.4944
-35.46751 88.2425 -8.371985
-31.41929 93.06317 -6.722173
-10.59139 102.6284 14.47329
-19.37635 106.5004 -6.788717
-18.79686 107.3161 -5.761316
-18.33468 106.9478 -4.3013
-17.98698 107.9146 -6.51993
-16.62767 105.7806 -9.086498
-20.78238 103.1343 -1.901658
-15.8939 106.9057 -8.191814
-20.86391 104.732 -7.443787
-19.29357 104.4823 -2.177841
-18.64664 105.6904 -8.845483
-24.53206 99.98069 -9.409634
-19.68719 104.4367 -9.520131
-5.925192 96.72655 -13.69991
5.763293 86.59504 35.54872
8.029635 104.0106 16.60492
8.491673 102.594 17.7972
8.292165 101.6733 18.73429
9.499154 99.48961 19.63144
8.093209 97.20756 22.79626
6.289144 99.44624 23.05242
4.025126 103.8731 20.47247
3.778482 103.0706 21.85656
7.884911 103.6992 17.3899
7.142877 99.11133 21.38754
6.751145 99.34929 22.02538
5.16777 100.1405 23.6821
7.091717 98.02508 23.85979
14.81469 110.1467 8.423387
22.90159 82.78352 26.44702
26.04656 103.4808 -2.436914
2.351581 84.57236 -17.96999
2.608421 87.46135 -17.46741
-8.074287 100.6524 13.51338
-28.09619 90.18959 -18.37011
-5.190108 87.70735 35.24146
-5.285192 87.33609 35.53883
-10.5063 87.40094 32.94956
1.250317 90.26508 33.60921
-1.829698 93.20363 31.19247
0.3924667 91.60305 32.57262
-2.95514 89.00784 34.61331
-5.72106 93.28679 30.23531
-9.665098 89.93556 31.13613
-5.649561 90.05038 33.07947
-2.839669 94.50882 29.96497
-4.576289 95.3961 28.79644
-2.875609 90.70284 33.18401
-9.081487 88.8723 32.54491
-6.139351 93.12259 30.22149
-3.929089 94.04093 30.13749
-7.122341 94.22598 28.75284
-8.271025 93.07287 29.13082
-7.380432 91.58784 31.01709
-13.53846 102.3176 14.7159
-13.29323 99.3444 16.40191
-12.07939 98.59774 15.46333
-9.326712 95.52947 -16.2404
-9.233084 99.42562 -14.82012
-10.46809 98.60832 -16.36942
-12.01606 103.4331 -14.10783
-19.08477 97.54924 -17.63475
-3.892784 90.99506 -25.82608
-7.303891 93.76062 -22.71634
-3.820187 94.03423 -23.85839
-4.871337 93.35894 -24.21487
-3.270337 94.53609 -23.52494
-0.5864118 94.08401 -23.32387
-0.2720762 95.25887 -22.43373
0.5249553 95.00723 -22.17924
1.917969 92.68465 -22.45826
2.721073 91.29064 -21.82154
-0.7291635 90.44883 -25.65777
-2.485605 98.30231 -21.02443
-1.224979 96.65652 -21.87664
-6.457623 95.03336 -22.47852
-4.500094 98.48642 -20.77652
-6.927225 96.87453 -20.38051
-6.511543 97.7692 -20.17252
21.62796 82.6451 26.54425
21.24494 84.05374 25.86078
21.32136 87.55241 24.09459
20.31327 85.60072 25.07198
27.16163 89.67968 -21.0033
28.80363 88.50548 -21.20896
-31.78378 88.75146 12.98923
-30.20029 88.60423 15.41921
-30.16732 89.95579 13.87234
-28.41916 91.89935 13.88656
-28.98586 92.71973 12.08611
-27.12518 85.89243 20.44217
-27.31878 87.97242 18.74329
-26.22324 87.67028 19.69618
-17.20999 86.37383 21.23626
-16.71221 89.07037 20.38233
-15.123 88.1737 -24.20032
-17.38106 89.26559 -23.82314
-11.39496 88.57458 -21.68887
-12.89537 91.61349 -21.46512
-14.52848 90.67151 -22.60881
-22.78805 102.0542 -8.916804
-23.18947 102.1863 -7.611773
-20.86505 102.9503 -10.28428
-21.36839 102.854 -9.841963
-19.69757 104.0498 -9.982915
-9.284335 106.9308 -11.02896
2.062494 90.12823 -18.05214
2.160584 87.71579 -15.55555
0.2701901 88.91875 -15.2178
-31.74285 93.0058 3.631598
-33.98061 89.61138 5.690217
-33.4768 90.54246 4.65262
-12.84447 104.2463 -13.81259
-16.27504 104.2433 -10.51277
-14.88941 104.252 -12.56979
-6.410343 90.72611 -25.51744
17.15902 86.54008 23.97114
19.94292 89.10285 23.38762
5.848143 97.90374 -18.69399
-15.88168 85.11295 22.48669
-33.78563 88.32897 9.626199
-33.00542 90.33309 7.453898
-15.66876 95.0043 -20.11624
-6.838228 91.43137 -16.30407
-3.90981 93.78457 -14.90149
-2.985495 83.8549 -14.19967
-4.615556 84.5928 -14.04821
-2.628651 88.48356 -13.7865
-5.770895 89.54797 -14.41933
-3.318305 86.92592 -14.77626
25.74187 100.4639 5.303623
6.17827 95.26164 -20.36254
3.4818 96.15839 -16.58203
3.499248 92.59673 -18.17761
4.723754 98.36324 -17.77459
12.12461 89.0844 -20.29185
-4.918252 90.65188 -25.95152
2.031203 102.9634 22.87183
14.17661 87.23732 24.32554
13.6364 88.69559 25.15264
-13.67455 89.90085 26.14577
-11.05132 91.19647 28.64681
-13.42124 91.19162 24.76196
-14.10121 88.03409 27.91412
-9.46664 91.43733 29.83581
-11.51076 89.38505 30.05495
-14.34149 87.87966 27.67213
-12.35634 87.36079 31.32142
15.70936 98.31334 -17.64181
16.33609 99.53334 -15.45905
15.13553 98.61134 -17.48503
17.53651 97.86559 -16.80614
17.30409 97.49521 -17.36087
15.23798 97.10622 -18.57119
19.56513 99.42905 -15.29129
18.70297 96.70283 -17.81534
20.03333 97.64701 -16.82916
20.94001 98.30331 -16.04779
20.20692 99.8355 -14.80312
24.16039 95.05859 -17.49047
19.44649 92.81212 -21.1861
24.1459 100.0276 -11.82552
22.69223 103.3251 -8.65808
23.75049 98.18142 -14.46251
19.41583 96.41055 -18.1214
24.8352 101.8111 -8.017947
23.51627 98.84063 -13.89805
20.72557 97.0057 -17.40455
21.63883 92.16103 -21.14208
25.44301 101.5653 -7.433428
16.60742 102.0006 -12.50042
19.34864 104.1442 -10.85568
23.95605 95.69021 -16.98512
25.02025 102.8266 -5.79304
21.95343 95.99879 -17.81056
20.44282 102.2909 -12.26446
21.08136 103.9448 -9.747039
21.38094 104.4967 -8.535025
19.65899 104.931 -9.783346
24.50908 95.05678 -17.28243
23.68526 104.2097 -5.442724
21.64763 103.959 -9.06453
19.39363 104.6194 -10.2957
21.44226 105.8189 -5.908849
20.20663 106.4642 -6.702495
3.660856 87.29321 -20.48424
-13.26738 89.72618 18.82606
-1.575856 110.7267 -12.35789
-2.034462 112.6819 -11.0898
-1.258544 114.404 -9.262832
-3.347007 111.8339 -10.88516
-1.970454 113.3525 -7.85428
-2.235882 108.8942 -10.05703
-2.495612 100.866 -11.20831
-4.917237 95.36137 -14.89769
-6.132231 90.21627 -16.14009
-4.386371 93.12259 -15.15252
-4.16968 96.20451 -14.52501
-2.1088 92.47892 -13.75268
-2.54233 94.71127 -14.09033
-2.773865 90.05333 -14.57858
-2.741028 92.01054 -12.86234
-3.142414 96.33624 -12.49833
24.45146 90.59571 -21.43554
26.59847 99.61288 -9.173499
12.33611 104.3314 15.22555
12.66814 105.1874 14.6544
18.57258 101.2964 15.31285
15.11742 103.7485 15.65503
17.30727 103.1199 14.34431
19.50405 100.2202 15.27385
19.52744 100.5529 14.64415
13.24444 109.2506 10.94317
-1.578847 101.372 24.25494
-1.866111 96.86019 28.1166
-3.271174 98.74593 26.2755
-1.04027 97.93438 27.30104
-3.822161 96.84948 27.76562
-0.2192317 98.89375 26.52974
-0.05283871 97.16056 27.95893
19.15341 97.6209 18.74009
21.80144 97.1273 17.16293
23.51344 95.87418 17.18405
20.27105 98.89335 16.28236
23.82214 98.44953 14.20742
24.24946 102.3121 7.839439
21.35226 95.27066 19.4306
23.39777 90.53468 21.77504
37.92465 88.53944 4.199953
35.29512 91.06923 5.643533
35.76698 90.97765 3.966703
33.96056 92.53281 5.72191
-18.65537 83.23473 22.67966
-21.09256 85.80988 22.23632
-21.19874 84.4994 22.77904
-23.0998 83.02235 23.36679
-22.82482 86.5193 21.73032
-21.73231 88.89342 20.71909
-28.15795 90.58791 -17.87089
-20.01522 102.3603 11.8235
-15.80336 89.61597 19.77705
-17.35376 90.28567 20.24735
-18.1818 88.36687 21.06753
-24.28382 94.50035 15.60921
12.41418 92.86189 21.93407
12.55838 87.66582 21.05111
11.4528 94.71979 19.71243
11.5947 93.4299 19.77287
10.66943 93.85596 18.51669
0.2011421 88.42684 35.2361
4.856482 96.82311 27.05807
1.850302 93.53361 30.80311
-2.446953 93.65435 30.75509
16.79418 109.6628 -5.971057
13.2528 106.3071 -10.84741
13.11409 107.602 -7.933144
17.46775 106.5832 -9.082237
16.80888 106.1865 -9.55346
-14.55061 83.37865 20.81773
-24.22294 99.11034 10.94538
-27.51913 92.48804 14.34387
-23.06968 92.40855 18.12246
-26.21894 92.46753 15.72392
-24.46655 90.92075 18.37307
-27.91565 90.76128 15.69908
-24.7676 92.60162 16.84826
-26.16646 89.25307 18.53176
-25.20198 90.68918 18.06371
-22.43684 90.04224 19.90866
-18.10922 91.57783 19.88899
-32.24683 92.07915 -6.982326
-17.72785 103.9699 -10.50311
-16.20252 101.2644 -15.47997
-15.71075 103.1831 -13.15546
-13.63785 104.1615 -13.98392
-13.54378 104.8468 -13.42415
-11.9877 102.6925 -14.62752
-4.486228 98.86417 -12.85845
-3.249553 96.0477 -12.4578
-2.16358 94.96284 -13.03468
-4.843894 94.45683 -13.82748
-3.862731 91.12176 -13.60653
-4.24409 90.14557 -13.52604
1.591262 101.4112 24.28264
5.56279 97.80102 25.76365
4.554788 97.92389 26.24296
5.255581 95.32018 28.1879
-26.75415 89.58316 -20.13095
-24.34268 90.42719 -20.93654
-23.83444 88.15405 -23.12666
-0.6972344 90.00217 33.93687
-11.17347 100.9664 15.05439
-14.1949 96.65913 17.41467
-2.501371 89.40665 -26.7777
2.243548 90.94198 -23.03865
2.676774 91.18565 -20.01764
2.586867 90.49191 -19.72908
2.735998 92.16466 -20.31326
1.281952 90.4707 -16.40753
-6.715011 98.58446 -16.04133
-5.222668 99.23746 -14.28999
-7.25043 98.16093 -17.18186
-4.090743 99.23574 -13.89814
6.884137 98.20969 -18.7202
-28.27235 93.08637 12.67135
-27.96066 86.22458 19.67961
-16.24675 88.03402 20.34703
-14.15186 93.387 -20.89454
-11.94966 90.69918 -21.35601
-26.4754 98.74322 -6.858675
-25.2681 100.2462 -5.973346
-24.44217 101.2021 -5.762614
-21.57269 99.93122 -13.37422
-25.46828 98.31243 -10.74417
-26.08129 97.6554 -10.81823
-32.09917 92.61456 1.676269
-30.50152 94.53379 3.95392
-11.94289 103.9843 -13.65957
4.797228 87.93614 -23.39584
-15.42897 85.84287 21.76859
-4.094438 86.5923 -15.6786
-5.850868 88.16091 -14.60371
3.710103 89.19618 -19.97976
4.176449 98.08097 -17.30173
4.183609 100.8483 -15.75652
6.088744 100.6868 -17.0388
4.990709 101.4526 -16.13955
24.26785 92.25571 -20.07242
16.76753 103.3688 -11.57863
24.16416 96.36833 -16.1431
21.75385 107.701 -1.69483
22.00596 107.613 -2.142627
21.43664 107.8311 -3.369242
19.59559 109.3509 -3.356007
18.62623 108.5229 -5.367592
16.3213 109.0026 -7.040099
19.62297 105.5286 -9.064458
-13.89637 91.09357 19.95759
-2.762607 99.91705 -13.21357
-2.046339 102.1115 -12.00601
-5.970537 95.20396 -15.33976
-2.478046 97.65373 -12.30339
22.5982 97.84024 15.45279
-20.22543 88.52444 21.116
-23.27241 89.919 19.65923
-22.46602 88.22002 20.90038
-20.02795 90.13895 20.40124
-29.3912 92.5103 -13.86861
-29.57504 93.22134 -12.36363
-29.86109 94.42219 -8.737073
10.52642 92.26447 18.54126
-29.07852 96.19296 5.073415
-28.74426 95.23756 8.606021
-29.09558 95.49552 7.139939
-31.49957 93.31506 3.749495
-28.63355 96.50063 6.016107
-14.34606 101.8835 -15.5999
-15.36609 99.77358 -17.01073
-12.35611 100.1435 -16.39394
-10.52155 94.21494 -18.39243
-14.00864 92.65139 -21.30078
-11.50501 94.27222 -19.23439
-12.83946 99.18314 -17.12341
-12.1515 97.28684 -17.9895
-18.91208 97.72007 -17.57178
-2.882145 102.48 -10.46495
-1.899912 98.80286 -12.80739
-1.963612 101.9126 -11.91367
-3.740338 99.07745 -13.8606
-3.958586 94.33084 -13.09625
0.4253284 99.66159 25.88371
3.648372 94.46951 29.58602
-26.10291 90.57377 -19.62728
-12.77351 102.6913 -14.89443
2.434493 94.08677 -20.90503
2.127316 96.41817 -19.98141
2.64263 94.00009 -20.2576
2.693717 95.69023 -18.32771
0.7034883 94.60422 -14.26054
1.631837 92.23099 -16.25651
2.207447 95.90616 -16.50199
2.563719 100.3955 -16.63727
2.643567 96.88092 -17.91311
1.532067 95.15026 -15.26688
0.570996 91.6535 -13.83514
0.4783795 93.13301 -14.02466
2.615602 90.2223 -15.81034
1.416012 91.58033 -13.57294
0.5595448 94.296 -13.56391
2.575289 91.61475 -15.43869
3.503241 90.07231 -18.67299
2.544393 94.31677 -14.41778
0.6047354 96.05524 -12.96377
3.386378 95.81478 -16.58188
3.286443 98.12206 -15.01203
-2.123329 100.0421 -19.83803
-3.817856 102.2677 -13.08913
-3.619399 109.5682 -11.07183
-1.46983 101.9833 -18.47284
-1.992664 104.4755 -11.31516
-4.557882 103.8701 -12.89259
-4.099271 107.4612 -11.70769
-1.969981 105.4526 -10.33294
-4.62977 104.9035 -12.74076
-2.688138 108.2666 -10.484
-3.026147 109.7763 -12.94806
-3.611089 105.0676 -16.3002
-2.72108 107.4374 -14.81498
-1.127272 109.5246 -12.93357
-1.184676 105.426 -16.09286
-4.133893 102.7653 -13.02811
-2.233967 106.0245 -15.87096
-2.738252 108.3564 -14.10732
-5.562415 103.878 -15.50778
-0.3008398 106.8447 -14.78519
1.266204 105.1319 -15.28044
-2.216304 104.1761 -17.12759
2.521787 103.8623 -14.00022
-1.583375 101.1897 -19.0119
2.576846 102.1432 -15.41957
1.536034 101.6127 -17.41044
2.524513 99.97247 -16.69458
2.447493 100.8043 -15.19258
1.052645 99.84441 -13.14898
0.701827 97.2662 -12.35156
1.857071 98.68385 -14.51308
-30.90864 92.85625 7.908787
-29.71215 92.60891 11.00116
-18.57541 91.29209 -22.39791
-17.03252 93.93671 -20.7693
-20.16778 89.78023 -23.15425
-21.26917 90.78997 -22.06784
-27.43403 97.7494 -5.754262
3.865305 101.5552 -14.91539
3.656139 100.1949 -14.94574
23.64441 101.6831 -10.04379
14.74789 105.8335 -9.163579
14.64533 106.7903 -8.33965
23.22362 106.1932 -3.241827
-27.87583 95.40017 -11.59707
-26.81868 96.06609 -12.26967
-29.31952 94.56337 -10.09456
-29.20414 95.66305 -6.26731
1.364818 96.84476 28.11051
-28.57693 94.74023 9.841522
-12.90847 92.59618 -20.91295
-16.70418 94.87863 -20.16584
-18.74529 93.39146 -20.89295
-1.890547 102.2318 -11.49591
-19.86883 95.41882 -18.97797
-27.47624 93.77415 -14.69509
1.582032 97.33934 -19.96148
-1.647508 99.90829 -19.85289
0.8736472 94.74532 -12.82793
1.755301 97.18007 -11.96866
-4.980618 101.9744 -17.98962
-3.662167 103.4732 -17.39443
-3.842307 101.7164 -18.59419
2.696818 101.2578 -10.91748
2.61568 103.9015 -9.948952
2.892771 102.6851 -10.66367
2.063247 99.51254 -14.59791
-31.81042 91.87349 7.511017
-20.72022 88.18918 -24.16362
-21.17424 92.09525 -21.09884
-22.90469 92.48219 -19.93523
-28.37791 92.94939 -14.66484
-29.31524 93.72079 -11.95291
-24.52119 97.32626 -13.60742
-26.42173 95.44899 -13.76724
-28.72035 95.79326 -8.40407
-27.15879 97.23929 -9.25736
-18.01869 94.48512 -20.26919
-22.36394 92.64591 -20.09483
-22.06377 94.86945 -18.30659
-19.88038 94.76054 -19.5098
-22.46665 94.54444 -18.35598
-24.38685 94.01032 -17.49236
-25.13939 95.92786 -14.65758
-20.12297 97.11123 -17.46019
-17.29281 101.1639 -14.17245
-20.47045 99.80244 -13.89911
2.703017 92.30189 -21.12679
2.695058 97.27425 -12.71797
-2.974946 101.6943 -18.77384
2.746148 98.20612 -12.41335
2.165169 99.99176 -11.10994
0.9589946 99.05318 -11.7459
-24.62121 95.73741 -15.41879
-19.04338 99.20637 -15.47882
-19.74653 97.87616 -16.96928
-23.83789 98.93657 -12.27199
-24.4098 99.81605 -9.999239
-19.89356 98.63937 -15.70645
2.888869 101.5163 -12.07036
-21.54981 101.5449 -11.45291
12.2647 94.95308 18.6773
3.651264 87.94134 -20.08309
24.0242 98.36087 -14.03901
0.9521832 113.6187 12.61878
9.801632 120.3202 9.79065
3.311217 113.2307 12.31332
9.493296 113.846 9.266682
2.850748 122.6207 12.09352
3.98418 112.5441 12.50856
2.459076 121.8631 12.03514
2.079904 125.345 12.22297
3.745813 127.7747 12.19343
6.456636 112.4271 11.259
5.287912 114.1503 11.38523
4.504688 137.5564 11.14716
8.505103 125.9068 10.68645
2.211473 117.2248 11.85799
12.44306 115.8394 4.068543
12.91848 113.8828 3.300981
0.4759634 115.094 12.14456
2.691979 113.6629 12.27484
7.110714 115.026 10.5133
6.945694 131.5389 13.77307
5.831658 143.0009 6.746088
8.73562 121.8691 10.70254
9.707826 119.5632 9.713116
10.75456 122.5047 9.178836
11.33899 113.3756 7.579367
10.58938 120.6827 9.170771
11.56871 126.0473 8.641284
9.336394 116.2699 9.396132
11.02256 114.7808 7.808976
12.21855 126.6992 8.148761
11.77244 115.5796 6.6652
11.67064 128.6595 10.85868
8.04828 131.1447 13.66188
12.71858 114.6443 3.456598
12.3469 117.5493 3.657604
1.040332 114.0978 12.41892
12.42562 122.0231 6.756672
9.179145 120.8323 10.30329
6.94341 120.4589 11.22122
2.549874 117.8753 11.8457
5.177039 121.0724 11.71562
12.45729 121.4118 6.408728
12.58048 123.897 6.912371
11.60057 122.0701 8.229057
8.331716 119.1831 10.47003
9.734647 131.6876 13.46147
2.987467 126.308 12.17859
5.679113 127.5575 11.89987
5.036169 132.0843 13.46493
8.04429 138.3652 10.92904
12.59373 115.2225 3.5017
3.53411 122.6728 12.09191
3.833844 123.6478 12.20265
12.33357 115.6863 4.999872
7.470293 119.7558 10.91584
5.009372 116.6353 11.41807
10.66211 118.4291 8.707819
13.71595 130.5768 9.744245
13.39328 129.9032 9.729331
12.3368 132.4749 12.08573
5.670534 125.1895 11.85686
6.914727 127.8519 11.90788
6.395423 129.559 12.8847
5.355067 136.1942 12.40804
5.687919 138.4929 10.6391
7.316962 142.0222 7.690146
6.908256 143.6848 6.168662
11.45065 136.6651 10.93982
4.410443 117.7595 11.59985
4.456403 122.9436 12.09462
12.29632 117.59 2.716418
9.06935 118.06 9.851212
9.392891 117.1618 9.508316
12.6606 131.055 11.51717
8.653514 132.6398 13.83025
4.087547 132.9438 13.12606
5.228133 132.8448 13.53385
5.768286 140.0037 9.347862
10.92704 137.243 10.78722
8.674294 136.9035 12.10717
1.92354 118.9278 11.88306
5.638093 119.6696 11.42569
10.94271 132.8767 13.06841
9.678435 138.0477 10.7107
9.07198 135.3831 13.12379
8.092966 134.9807 13.44883
6.896497 113.4799 10.76411
7.128753 138.6308 10.74902
-0.3062586 116.924 -5.982409
-13.39716 125.1972 3.349604
-4.908557 116.1357 -5.433663
-6.102293 118.7078 -5.296454
-4.987144 117.8436 -5.528267
-13.74535 127.1412 2.781642
-6.386422 115.2796 -4.981017
-1.966791 117.7473 -5.973249
-13.04159 112.9146 0.2428817
-12.18461 115.0732 0.0329762
-3.983015 118.9668 -6.035426
-5.143241 117.9377 -5.494993
-12.21375 115.3271 0.5205593
-6.754622 117.1744 -4.840126
-12.49987 123.4198 0.05936792
-11.95526 119.6842 0.87238
-9.051405 120.7662 -4.056415
-10.40428 122.5671 -3.388804
-8.583205 116.4776 -3.895086
-10.73919 116.1609 -2.055228
-12.02891 119.0178 1.272697
-11.26215 116.8269 -1.042041
-7.997511 121.2267 -4.991388
-10.8843 120.9808 -1.92964
-10.84232 118.5479 -1.470674
-12.89265 123.1163 1.951644
-11.74398 120.7878 -0.1771548
-9.377199 120.2536 -3.578558
-10.91311 114.7057 -2.463598
-12.97546 126.8067 6.676632
-7.852365 123.5736 11.1913
-10.89639 118.6865 8.492786
-7.562392 112.2878 10.79055
-10.38441 119.9961 9.223393
-13.03803 112.7534 4.967397
-14.56547 130.9721 7.54399
-7.805697 125.0568 11.05162
-13.06514 123.6437 5.340192
-12.96132 113.8869 2.666634
-7.876791 144.7783 4.795795
-11.68664 139.1224 7.677644
-11.45127 120.7234 8.199454
-4.64188 114.7861 11.57898
-13.41527 126.3377 5.0456
-11.55735 124.6502 8.435063
-2.007378 114.007 12.35942
-6.28588 124.4078 11.75023
-11.24192 128.5491 11.13163
-10.9869 124.5889 9.000854
-7.280015 144.1651 5.55864
-11.62869 114.6708 7.010895
-6.393401 126.0996 11.53849
-6.612106 134.1886 13.63884
-4.775979 129.9772 12.91931
-7.043891 113.6458 10.59597
-9.297814 119.4473 9.9927
-13.199 125.1244 5.465739
-12.60403 120.9882 2.551725
-11.32646 127.3524 9.728063
-12.7208 127.6258 8.018332
-11.68946 132.8447 12.61034
-5.513865 130.0734 13.06688
-12.14453 118.4328 1.769065
-0.7601829 114.0055 12.52333
-13.2528 112.9604 3.440468
-10.37332 118.8791 9.086368
-4.902565 122.4334 11.96841
-7.131114 118.9211 10.86223
-4.958494 119.7772 11.60405
-5.950902 116.2023 11.06654
-12.98338 126.2131 6.346737
-13.18611 124.6669 5.194153
-14.13165 129.9733 7.588455
-14.39144 132.4847 9.209124
-10.84641 130.3522 12.61402
-7.615934 143.6925 5.956846
-8.726609 142.8294 6.408883
-7.730552 142.9519 6.659576
-6.333902 123.3712 11.79618
-9.481053 130.9761 13.36367
-12.21456 117.0256 2.163256
-4.161934 117.865 11.64918
-12.37387 117.6963 4.64328
-3.64372 122.2688 12.03373
-8.31194 116.8322 10.03333
-12.47475 119.3928 5.366984
-12.38302 113.8002 5.840073
-4.098638 115.2817 11.69789
-13.33665 130.798 10.61002
-12.86546 128.8799 9.618135
-8.469232 135.9926 12.86865
-13.94744 135.3069 9.278191
-10.42001 129.3169 12.25025
-6.088763 127.8842 12.0469
-7.2164 137.3632 11.82604
-12.42857 116.0564 3.057489
-12.39413 116.3228 3.526261
-4.207832 118.3165 11.65222
-13.87916 130.7811 9.647866
-13.38738 132.5258 10.90303
-6.975194 135.2184 13.27664
-6.9786 133.7565 13.77505
-10.69229 136.0609 12.07628
-7.938436 139.9155 9.42524
-12.42968 134.1345 11.69829
-7.064668 129.7678 13.13168
-12.41268 117.9122 4.257893
-12.58132 131.672 11.77558
-9.476093 130.2324 13.10198
-9.125778 115.396 9.42631
-6.502205 116.9187 10.84553
-10.19163 132.1656 13.38965
-8.735781 138.3417 10.7646
-10.31888 113.0078 8.739186
-8.421762 134.3666 13.59381
-11.70577 136.4383 10.96006
-10.93374 134.1431 12.86388
12.24626 118.9935 2.080909
12.82942 114.0368 1.503702
12.27117 115.8739 1.46989
12.0157 120.4078 0.714878
13.5256 128.0357 6.502779
7.536835 116.1409 -4.455964
7.55287 117.1662 -4.454344
12.39927 114.3984 -0.003488925
13.53316 126.0576 3.646276
13.3929 125.7569 1.350693
13.64962 127.4294 4.650033
11.02833 123.1689 -2.913977
13.40433 126.3513 5.090074
12.23789 121.5424 0.6967652
8.954986 115.3733 -3.89002
5.442975 118.7111 -5.532719
11.19237 122.5237 -2.155861
12.5171 122.1361 1.289893
11.98052 117.3328 1.10106
7.488685 117.5662 -4.524476
11.05669 120.172 -1.34336
7.617527 118.95 -4.583503
3.931555 117.5534 -5.793075
10.57034 116.8131 -2.029498
11.99597 118.8957 1.161883
9.850189 122.161 -3.852443
10.04344 118.9263 -2.634826
10.38748 119.0406 -2.18704
12.35259 122.9284 0.0688054
0.04757887 112.1795 13.77372
9.988595 112.2382 10.31872
10.90873 112.4231 8.878731
8.482268 112.0415 10.55085
-2.289096 115.9673 -5.817784
-9.669518 113.651 -4.207541
-13.27764 112.3959 0.1180839
1.077781 121.6403 -6.998673
1.320865 126.664 -8.617118
0.3680159 154.383 -9.095991
0.8413212 128.9393 -9.299241
0.5825002 123.4575 -7.543364
-0.2354157 147.5838 -11.05018
-14.02298 111.9734 2.676108
