# .PCD v0.7 - Point Cloud Data file format
VERSION 0.7
FIELDS x y z
SIZE 4 4 4
TYPE F F F
COUNT 1 1 1
WIDTH 1662
HEIGHT 1
VIEWPOINT 0 0 0 1 0 0 0
POINTS 1662
DATA ascii
13.5855 126.2697 2.304967
12.99206 126.4535 6.39715
13.21966 124.0905 2.83879
12.9689 123.5698 5.601712
10.20064 124.7019 9.619967
13.21857 125.2119 5.437458
11.10924 125.7337 8.987983
12.19426 123.4248 7.538597
9.730075 123.6159 10.04592
11.22895 122.6215 8.722413
14.48022 131.1019 5.271802
14.36099 130.8357 3.711831
13.55086 127.7517 4.960011
13.75557 128.4263 4.614477
13.66979 126.822 3.02783
1.265238 121.4441 11.98168
1.392802 125.5691 12.20147
6.719313 127.5446 11.89968
2.617712 123.684 12.16649
6.346753 123.32 11.76779
2.00091 133.4548 13.48426
3.513548 124.7086 12.22858
1.314624 118.826 11.85294
1.663517 120.2564 11.90687
3.998461 120.3243 11.79495
2.952959 120.4781 11.91538
4.604704 128.0901 12.33862
2.551654 119.843 11.88154
4.31524 119.0931 11.66186
4.249616 118.779 11.66158
5.353383 118.9383 11.39523
6.349585 120.497 11.36918
6.814738 119.3241 11.02436
4.927743 124.2631 12.09292
2.786279 127.7671 12.32298
6.708445 127.1587 11.75681
4.868359 125.4464 11.99471
0.8785077 119.9819 11.89091
3.26082 125.0875 12.23052
3.942133 122.5437 12.0419
2.739699 126.1769 12.20729
1.967315 124.2429 12.18564
6.677617 122.2411 11.60435
1.710009 126.5205 12.2085
1.001843 122.5534 12.05532
1.019635 123.4771 12.12852
-15.67908 105.6403 4.727879
-18.37087 93.76318 2.840795
-19.81009 77.34091 4.924647
-12.00964 109.7721 8.28256
-20.30045 83.95312 3.14031
-20.11044 85.87738 3.072003
-20.29891 84.41792 2.976155
-20.38935 79.33395 3.261756
15.09944 86.41064 9.846906
-9.299366 108.3466 10.18711
-10.88993 74.11003 9.397425
20.39862 74.34214 0.7411098
-7.094038 74.29869 9.422089
19.6156 80.06019 5.633768
-18.63371 93.09828 2.302486
2.189779 118.2229 11.83713
-10.06798 117.1785 8.991284
-17.30608 99.35013 2.210305
-7.676107 115.7276 10.21346
-17.43138 101.3346 3.358207
-7.004875 117.5754 10.68744
-15.83663 106.3813 2.920171
-12.60178 114.0199 5.062994
-12.38834 116.1495 4.081017
10.65431 117.189 8.453424
-13.42927 112.4549 3.359296
11.18598 115.5077 7.601238
-5.638136 117.1499 11.17911
6.412408 117.5548 10.92853
-4.541302 113.4139 11.60032
5.203709 74.18129 9.401037
13.87344 75.11308 9.507508
-19.32374 73.68365 5.304202
18.95408 74.47179 6.160094
-6.00984 115.5854 11.03581
20.3477 73.94953 1.089699
19.86869 74.91003 4.227649
16.28986 73.83801 8.657775
20.51562 77.08352 1.558737
-2.664495 114.6336 11.81719
2.989973 117.2328 11.80656
-4.850342 117.6263 11.46017
18.2128 94.82456 1.283426
-3.771499 116.1723 11.73045
18.75988 92.86499 0.2015996
-5.577995 116.2694 11.2089
-8.609159 116.1574 9.778213
6.108675 116.4776 10.99539
12.26278 116.2194 5.224851
8.43029 117.5598 10.07021
9.2962 115.6917 9.346519
10.51359 114.2608 8.411588
0.03419129 116.9925 11.83179
16.40939 103.8907 1.095328
-8.156561 117.2293 10.15289
-2.529271 116.2173 11.8355
14.23952 110.6604 2.950539
14.08278 111.027 2.045083
-0.5513166 117.0202 11.83154
-6.208699 116.062 10.94732
-8.212985 117.5418 10.17094
13.35311 112.6176 3.521947
9.52116 115.6043 9.155444
-2.511351 110.1312 12.08744
7.77404 107.1954 10.84743
-18.65097 83.02959 7.273141
-13.3648 76.37727 9.704555
19.36887 90.58672 1.676362
-14.31499 103.6093 7.604329
20.35145 81.19293 3.560716
20.40763 75.35832 1.84783
-13.72037 111.4881 3.934314
-13.68454 107.8243 7.291245
17.83499 96.40432 0.4922586
13.7302 111.6364 3.512761
14.84624 108.8013 3.891646
12.21005 114.8492 5.780396
12.47818 110.642 7.397716
-17.73152 84.99516 8.222229
-19.56935 86.40708 4.947203
-20.01867 79.7606 4.645713
-19.78815 75.43423 4.651115
-7.710772 74.71857 9.479856
7.909815 81.3273 10.16481
19.1317 81.67652 6.533325
15.56708 75.3984 9.206815
20.21122 79.38714 4.050136
20.10383 74.15591 3.299719
20.31142 74.33831 2.043178
20.30944 76.29538 3.017845
20.55851 78.46861 1.898625
-14.09875 110.7551 3.562838
-14.62537 109.3358 3.939468
-17.1525 98.83409 3.530963
16.12243 96.04704 6.971724
16.06119 105.3332 1.196293
12.76732 114.1348 4.239741
16.44798 103.8727 2.777271
13.02814 112.9377 4.668807
-1.690983 114.8269 11.82022
-19.64042 88.16299 3.629212
-20.2526 80.82976 3.900481
-19.47547 87.29841 4.791442
-19.90549 83.62573 4.725462
-20.32518 78.54995 3.450511
-19.13016 74.68695 5.904929
-16.86522 75.45515 8.55859
-10.62128 74.47351 9.451138
6.338703 75.34338 9.552535
-3.750998 75.47788 9.5764
18.53301 88.20923 6.608447
-19.37805 90.19058 2.564904
15.7195 75.94303 9.220791
8.535584 76.19431 9.659221
20.49923 78.85835 2.56331
20.44507 82.25419 2.977683
20.15406 84.04083 3.802593
-13.51493 110.6059 5.732852
-12.50343 111.6394 6.823951
-12.9066 113.7648 3.897397
-16.19306 104.877 3.179698
-14.87418 106.3116 6.225759
-17.55683 97.71098 2.150513
17.7967 96.3054 2.338456
18.24678 94.58747 1.973137
18.02464 95.53019 1.167429
16.95222 101.4075 0.9068106
15.8562 106.3 2.63805
12.92607 112.4051 5.50209
14.40618 109.9952 3.615195
14.61303 109.8402 1.868677
-19.81801 86.84069 3.830656
-19.85492 86.62735 3.809451
-19.43882 88.15195 4.373053
-20.01596 82.21284 4.615914
-10.05739 75.85623 9.6298
-19.89154 78.56189 4.870347
-16.62373 76.13407 8.764771
-17.87861 77.06433 7.89758
-16.38813 74.56827 8.726293
-14.61244 74.97466 9.413229
-13.71175 74.81387 9.494623
3.588979 75.40178 9.56152
-5.09652 76.93637 9.761418
19.14252 91.50492 0.7396467
-19.01157 91.23217 3.162894
16.91715 78.92318 8.906446
15.26243 76.228 9.373304
10.73222 74.6112 9.45208
20.47101 77.91488 2.422012
20.2659 81.27396 3.867218
19.24014 78.37665 6.215516
19.61074 86.65996 4.678598
19.8965 81.65108 4.985019
16.91459 76.54775 8.656337
-13.96181 110.3155 4.824369
-16.31384 104.0426 3.591536
-16.65869 102.9016 2.727649
-15.04773 107.9384 4.362393
-17.29317 98.29334 3.171089
-18.1587 94.53393 2.799189
17.28749 99.67931 1.391138
18.54509 93.63602 0.5641306
19.2768 90.63057 2.472331
16.77405 102.3296 1.13509
16.19557 103.1217 4.819766
16.52027 102.3539 4.125176
14.19086 110.5904 3.4245
15.54253 105.5622 5.188468
-18.46267 86.40856 7.133471
-19.59774 79.75797 5.651077
-19.17579 81.74889 6.460178
-3.233266 74.37837 9.431422
-5.322849 74.18215 9.405739
-11.72761 74.08863 9.39553
-9.31593 77.94392 9.878395
-8.529334 75.8335 9.626612
-7.092858 75.91334 9.635586
-11.4834 76.78682 9.749127
-7.207275 77.72615 9.854499
-6.758926 75.98292 9.64407
-6.214419 76.7039 9.733465
-18.21471 78.11898 7.64889
-18.79492 76.64268 6.732607
-14.12382 74.11395 9.344675
1.012951 74.96521 9.506927
1.410114 75.29201 9.548922
19.02796 89.59873 4.776882
19.67744 86.23814 4.655272
-18.79296 92.50999 2.319645
13.12104 75.83714 9.625776
20.36698 83.9521 2.794848
19.57385 82.90688 5.689014
20.08198 78.11452 4.253129
18.36254 76.52148 7.335409
17.88193 75.84962 7.784888
17.67848 75.56879 7.93428
-14.47045 107.5725 6.152158
-15.80502 104.696 5.015626
-14.87346 105.2041 6.713517
-16.24334 102.6508 4.865972
-13.10368 108.2345 7.806073
-17.09724 100.3047 2.76535
-16.39946 100.673 5.066262
-16.71413 97.29333 5.517687
-15.56893 100.0827 6.561358
16.94691 100.2226 3.597338
16.89269 98.86974 4.341442
16.95086 98.36411 4.39109
17.36971 96.62608 4.163634
19.32042 90.77853 0.7406474
16.55824 103.398 1.528507
14.48968 104.9038 7.274439
15.69313 106.3918 3.816808
-19.57787 85.91319 5.124756
-18.27416 87.2792 7.258437
-14.08768 88.92801 9.874768
-17.91424 85.79446 7.958648
-18.01513 88.20864 7.394137
-2.807553 74.41179 9.435797
-16.42942 78.25512 9.148141
-18.59725 78.00389 7.205038
2.786201 75.18611 9.534369
19.56415 88.03139 4.058031
18.43565 91.53442 5.11133
20.03836 85.4202 3.740796
-17.6773 93.43074 5.653661
-17.29308 93.74581 6.247508
12.24657 74.94913 9.493865
13.71781 76.73205 9.705333
10.49587 75.78807 9.610949
19.17172 80.70938 6.494018
18.38235 79.02979 7.546977
17.83795 81.92034 8.226555
19.12664 79.63129 6.541013
17.72741 78.08488 8.147189
14.20269 81.77482 10.10843
14.70312 77.65309 9.748879
14.46549 78.42015 9.856674
14.86671 80.15861 9.921825
14.1323 79.21337 9.981015
-15.75469 101.022 6.126984
-12.6338 112.0217 6.399656
-12.57526 108.7535 8.138742
-14.59187 105.2449 7.08477
-13.75738 105.5808 7.93336
-12.7759 106.8816 8.507746
16.9283 99.54242 3.962813
17.46461 97.28584 3.20864
17.76511 95.22003 3.735136
18.20651 94.40788 2.793327
18.84979 91.2296 3.947991
11.30236 112.4982 7.926941
14.55613 107.9348 5.69502
15.55008 105.9203 4.923127
11.97965 109.1726 8.54555
15.25574 103.5108 6.447505
11.12297 108.3625 9.359441
15.21622 106.2166 5.584502
12.40505 112.6297 6.470038
13.10866 107.883 7.946492
10.23577 112.5322 8.786344
9.656839 111.7104 9.335622
11.57852 111.7871 7.871712
-18.83356 84.06718 6.926637
-17.72671 83.27594 8.326276
-5.020136 75.97604 9.641866
-3.108927 76.39796 9.693385
-0.3304464 76.65356 9.723055
0.06669999 78.75429 9.965883
-17.78321 79.89433 8.21687
-0.6791222 76.21922 9.668984
18.64675 89.19791 6.017643
19.40812 86.67581 5.300913
19.1675 85.14342 6.2528
-17.08525 95.90472 5.430655
19.16709 83.95773 6.388086
17.74314 79.46206 8.250105
16.58557 79.85618 9.17101
15.47383 81.35926 9.738297
15.58505 82.12975 9.717945
11.62643 79.62016 10.07096
-12.69039 107.7881 8.391092
13.47523 110.5184 5.872392
-19.33471 82.09497 6.183981
-18.49027 90.78918 5.506352
0.7172637 76.66192 9.723351
2.330197 77.10232 9.77698
-17.23961 78.66697 8.631199
16.68574 84.09376 9.13738
-14.87489 95.2885 8.362303
-15.893 97.15777 6.918327
16.99109 80.51434 8.88943
16.10889 83.20242 9.521365
16.55981 83.39428 9.226053
14.50747 82.81049 10.08678
11.15607 81.2644 10.16773
15.56574 84.30888 9.71186
9.306319 83.42426 10.22677
-13.27509 109.5495 6.884901
-13.05697 109.8493 7.070615
-10.54673 111.3545 8.865417
-18.55207 81.42524 7.395214
-14.71463 84.47366 10.03842
18.18633 85.20242 7.726439
-17.52464 94.91863 5.008442
10.02945 81.99253 10.19226
-12.66541 109.7549 7.606558
-17.67046 81.67207 8.394205
-18.31552 83.75264 7.666892
18.38716 84.18285 7.56284
10.10183 81.24916 10.16483
12.48967 83.36665 10.22625
5.126328 83.42147 10.23036
6.803204 84.20769 10.23785
2.682391 81.42418 10.16799
5.53123 82.45777 10.20676
9.661871 84.2354 10.23871
8.317278 84.53933 10.23764
-3.832866 87.98795 10.13123
4.024705 84.20263 10.23926
11.74923 85.5549 10.22807
6.968625 85.69402 10.22295
12.2698 85.36598 10.23275
7.863501 84.67197 10.23784
4.801676 81.98083 10.18959
6.711758 82.09032 10.19492
4.212474 93.5058 9.414029
7.166288 89.86946 9.957887
7.255083 86.09669 10.21233
-12.33759 116.7066 3.78811
-12.06957 116.0749 5.84537
-10.17639 114.1458 8.697688
-8.419078 115.4509 9.808281
7.111481 114.0006 10.4864
-0.7245201 115.5571 11.82796
0.3274015 114.4537 11.81282
19.74046 80.03786 5.370048
15.0253 104.1361 6.716689
12.41788 101.4974 8.787064
14.19961 107.2114 6.854611
15.16471 102.8531 6.732382
14.25883 103.9875 7.63045
13.08242 102.3693 8.49229
16.8243 97.48651 5.207835
15.75802 97.62064 6.920252
14.278 105.3667 7.428786
13.92205 106.9139 7.38104
12.78417 103.4684 8.692212
12.44172 104.7177 8.90562
11.86153 106.9625 9.118256
11.97252 106.4412 9.10136
-18.82654 92.01154 2.984099
-18.5702 91.48273 4.775203
-14.97296 90.19597 9.416101
-13.3876 82.81799 10.23356
-13.06668 77.81247 9.86297
-16.31956 100.0114 5.39543
-12.29418 105.2276 8.961646
-14.57265 104.9455 7.165914
-11.72785 101.5986 9.02696
-13.46156 101.5563 8.270837
-13.90579 99.96368 8.085835
-14.55698 102.7421 7.428756
-11.38541 104.2011 9.314758
-11.6501 106.8572 9.268736
18.54219 92.72327 3.604177
-18.32892 89.18629 6.631688
9.869157 79.56681 10.06241
10.12621 77.61655 9.839957
5.014524 80.00994 10.08789
8.905566 77.98978 9.887968
12.69956 90.2302 9.912633
16.81097 96.14767 5.878249
17.27088 96.33326 4.711603
17.42714 94.01695 5.836304
8.901073 114.146 9.518908
8.019566 114.679 9.996944
4.74801 111.1326 11.74893
7.847653 112.4759 10.17046
8.046239 106.462 10.70525
7.79952 109.5821 10.64254
12.25921 106.6411 8.898018
10.63737 107.3355 9.704966
9.911713 106.8785 10.01156
10.31377 106.8603 9.858669
-18.36358 80.4489 7.609375
-15.50967 83.22611 9.792396
-17.22397 81.72513 8.776704
-14.72573 79.04014 9.813299
-14.62963 79.99126 9.946887
-14.52835 82.98357 10.07128
-14.0065 80.29462 10.09118
-14.4141 85.46479 10.09263
-15.39546 86.62234 9.727249
-15.78197 85.08425 9.628302
-16.42583 85.89275 9.20831
-13.52131 88.67696 10.04036
-13.91569 85.88693 10.16383
-4.565936 82.22491 10.20184
-13.10631 87.79442 10.15549
-13.64171 82.63947 10.21713
-15.75642 86.70638 9.525003
-13.80394 89.70136 9.858441
-10.78166 89.01254 10.03611
-13.94125 90.50175 9.737488
-14.29735 91.88112 9.379539
-16.9101 90.52649 8.055302
19.25669 88.17955 5.033432
18.12882 89.18554 6.988331
18.64251 89.87764 5.656795
17.67288 89.16836 7.594101
18.00776 85.64934 7.883572
15.52378 88.0919 9.502099
14.00115 90.05464 9.78367
11.47943 86.3322 10.20501
16.437 89.71721 8.700041
16.24099 90.42782 8.672019
16.79633 90.67307 8.100593
18.03055 92.40023 5.524295
-15.97976 95.2644 7.439125
13.50775 84.58008 10.25093
-1.04228 80.35266 10.10339
0.2386672 87.75216 10.14659
8.241213 88.7963 10.06886
13.50358 98.79896 8.43154
7.559083 91.31861 9.77055
6.44777 89.54474 9.997172
9.155917 91.15652 9.79196
9.28724 92.61999 9.577174
-11.66548 114.6231 6.937859
-9.417677 112.2126 9.377934
-8.565865 113.7973 9.706203
-9.44337 112.8912 9.27534
-8.910417 113.0692 9.552521
-9.942628 111.7409 9.174481
-1.587142 106.7838 12.30972
-9.602262 109.2547 9.919384
-10.15726 106.6158 9.912812
-11.00794 107.2773 9.526666
-9.092751 107.6773 10.33438
-7.626194 111.9623 10.34563
-8.757143 112.0201 9.75421
-7.973002 110.7449 10.36167
-7.707439 107.0332 10.87422
-7.561693 110.0846 10.66268
-6.735152 109.3891 11.12781
-6.440622 113.613 10.8578
-7.366824 107.5167 11.01158
-5.495337 109.0346 11.71313
-3.093043 110.5584 12.02263
-1.932088 110.0386 12.09455
-4.105345 112.8623 11.73747
-1.528129 108.6519 12.22896
-3.1359 107.8374 12.28915
-4.3408 104.9086 11.85161
-0.8971082 112.5217 11.83665
-1.075549 110.9016 11.98714
-1.936469 111.6497 11.89498
0.3443739 111.6492 11.90508
2.010655 110.7208 12.00285
3.099162 110.4168 12.03636
1.479533 112.4608 11.82897
1.732368 111.1679 11.9542
8.430039 106.0212 10.51875
2.146636 109.7501 12.12917
0.0764787 115.887 11.83006
4.477967 115.7941 11.59749
3.551208 115.138 11.75606
15.49009 102.3864 6.355203
15.15011 98.54479 7.302298
-12.4364 78.92677 9.985043
-10.23708 81.42143 10.17353
-11.12485 78.58768 9.948709
-10.40266 79.30683 10.01651
-15.79488 97.85867 6.795989
-13.97277 97.88261 8.309049
11.63387 79.54769 10.0655
3.453932 77.28291 9.799073
5.544168 78.61118 9.956945
7.274622 77.61794 9.840106
18.08838 95.02419 2.394833
16.70179 96.63216 5.84698
15.7353 96.31675 7.311359
18.1405 91.77913 5.680052
15.31444 91.90033 8.951262
14.66268 95.53996 8.446136
15.80624 92.66982 8.419496
14.39333 91.08384 9.508451
7.266315 108.6986 10.98861
5.401013 107.2076 11.7894
6.517338 108.2425 11.32355
6.070782 106.5724 11.49085
4.867877 108.1665 11.98154
6.066515 109.2338 11.45471
8.061158 111.6015 10.17218
2.434064 107.3251 12.3071
3.807416 107.2649 12.22153
7.726295 105.6092 10.7399
3.494116 108.369 12.25795
6.759089 112.9665 10.696
5.596509 111.2668 11.44197
6.199937 110.1298 11.29567
0.6921037 107.3475 12.28686
2.905839 103.2895 11.83293
6.024078 114.7003 11.04577
1.062308 105.8822 12.28123
0.3086179 106.3038 12.29171
-0.4902916 106.4042 12.29757
-0.4468351 102.7242 11.88643
4.622199 100.3833 10.64728
6.644004 113.4992 10.74168
5.18182 113.964 11.39748
1.650579 108.711 12.22859
0.4389084 110.1073 12.08062
-5.423542 105.4479 11.5905
1.601955 103.6839 12.04677
6.56519 103.0125 10.75965
-3.92512 105.646 12.08543
-0.5967771 104.7894 12.20517
-0.5166431 102.3254 11.79672
-10.55818 104.0266 9.577139
-6.92832 105.1297 10.97245
-1.560542 105.1205 12.23267
1.119578 104.3325 12.15169
-0.7283438 104.5137 12.17674
-1.210295 103.2285 11.97557
-0.2514508 101.4422 11.56119
5.282305 102.8394 11.12536
6.766541 103.4701 10.78225
-11.91682 103.4058 9.064551
-9.591542 99.78177 9.456236
-6.932777 105.3619 11.00526
-5.739976 105.0413 11.40603
-1.833027 102.7576 11.84118
-2.933758 104.2136 11.98517
7.141638 102.9983 10.57844
11.18895 100.3794 9.136604
11.8624 102.698 9.047314
10.36321 103.9501 9.657994
10.6197 101.5643 9.352897
10.92325 98.74451 9.180559
9.483267 100.8083 9.589131
12.9895 100.1111 8.567859
7.399916 94.29838 9.375421
-8.233171 105.0884 10.4913
-6.471647 104.2847 11.00436
-3.32515 101.8641 11.40115
-8.341809 102.1689 10.05765
-6.391221 104.0361 10.98732
6.859783 92.65112 9.558794
-1.19511 81.11803 10.1533
-15.56674 80.86268 9.686221
-11.21373 79.52989 10.03764
-9.570901 81.22531 10.16334
-11.78335 82.60076 10.22152
-12.71269 84.77504 10.25697
-18.08981 88.49004 7.24242
-15.94101 90.00892 8.961006
-17.72676 91.1767 6.800344
12.70635 87.10081 10.17041
13.04101 87.71214 10.13014
11.22952 87.21732 10.17564
14.40121 87.83151 9.940422
-15.89691 95.86737 7.325272
-15.13691 96.88676 7.77193
-15.19023 96.28914 7.889641
3.450566 82.18965 10.19817
-4.697361 85.64152 10.23135
-2.20463 81.85136 10.18641
0.05899052 81.77872 10.18298
-0.5227587 85.09598 10.23928
-0.3991881 84.74232 10.24296
-10.50437 87.24677 10.17377
-1.330909 79.91513 10.07158
0.5930403 80.7907 10.13283
-1.932766 84.86543 10.24408
-1.668164 78.10371 9.895302
4.549758 85.11244 10.2365
-1.746906 86.23126 10.21494
-1.430803 85.23047 10.2365
-2.51537 87.43879 10.16532
0.7880194 85.20209 10.23707
5.684304 87.46456 10.16196
3.620737 86.94641 10.18781
-5.586906 85.49686 10.23646
-5.384873 83.37164 10.23409
-5.254433 81.42776 10.16621
-7.811995 84.23529 10.24473
-6.715997 82.9436 10.22565
-9.001552 82.62347 10.21875
-0.0549297 86.45185 10.20618
0.9011042 87.38975 10.16723
0.796192 88.52164 10.09824
-11.6908 107.6953 9.147221
14.52759 100.412 7.598685
13.64706 98.56093 8.40822
14.02445 97.9924 8.298669
10.16023 93.0237 9.531174
12.12025 96.04034 9.152221
11.50453 95.34172 9.291417
8.088855 97.3662 9.525687
9.271069 96.08186 9.378639
10.12637 94.21152 9.390963
11.14523 95.46452 9.28373
12.43227 92.97969 9.535806
13.24665 91.38675 9.714264
13.18934 92.46484 9.551627
12.28634 93.91101 9.420636
10.99218 90.98288 9.811194
15.20906 93.76389 8.523423
15.71293 94.14874 7.993783
11.75703 90.14304 9.921309
11.15916 90.41092 9.887736
-13.71786 100.2689 8.154965
-12.78341 99.96877 8.659114
-11.32075 101.2381 9.148337
-11.99213 100.5559 8.916877
-13.4348 97.09122 8.722778
-11.16326 97.31609 9.161813
-8.502862 95.73071 9.362015
-5.067611 98.97771 10.18125
-8.689261 94.46956 9.347859
-9.677952 97.03944 9.325424
-4.031251 101.5168 11.12236
-12.4517 96.04454 9.107863
-8.59404 100.7442 9.795969
-8.704686 99.76279 9.629602
-8.249322 102.53 10.13494
-4.65099 94.16582 9.318872
-4.721432 99.72272 10.42745
-4.919082 100.4364 10.59458
-5.904797 100.6805 10.42173
-3.338965 97.47858 10.0228
-6.494982 97.33377 9.6784
-2.909766 95.54322 9.540819
-5.802504 100.2122 10.33534
-3.844446 98.26415 10.18659
-2.081147 99.05936 10.69575
-7.191256 95.46748 9.38944
-1.741865 96.79929 9.987864
-1.923933 96.9697 10.02213
-6.530243 94.49672 9.33799
-6.112188 95.44797 9.42457
-6.092801 93.35191 9.401738
-4.139109 91.67427 9.728456
-5.280154 91.67002 9.73214
0.558109 101.0024 11.43628
-6.947323 97.089 9.604789
-0.2250861 99.98211 11.13387
1.261998 100.923 11.37718
8.250421 101.9899 10.07345
6.248583 100.8211 10.38386
8.495562 99.87495 9.722027
2.228735 99.32745 10.77314
8.454213 100.2611 9.773888
0.7106518 100.6049 11.31426
8.83829 98.43011 9.521976
6.641883 101.5288 10.42839
6.120865 100.1105 10.27121
7.093314 96.79527 9.580168
8.80768 100.7293 9.746394
7.691005 97.11297 9.550696
9.624137 97.2563 9.337729
6.932655 96.2487 9.537021
9.395324 98.12864 9.420124
11.82259 98.57079 8.9969
-5.978918 77.73744 9.853618
-5.928257 78.59027 9.944559
-3.879833 77.85062 9.866009
-3.962399 78.48824 9.934404
-7.916219 79.61781 10.04107
-9.184222 80.94733 10.14359
-6.114156 81.30759 10.16163
-5.465666 80.16587 10.08908
-10.14694 84.45996 10.24884
-8.86399 83.84571 10.24235
-9.963099 85.09943 10.24835
-9.656321 85.50838 10.24537
-6.992229 86.4427 10.20853
-9.453934 84.96061 10.24743
-11.78818 83.12798 10.23599
-11.60346 86.32711 10.21933
-9.53275 87.47316 10.16045
-9.563341 86.31329 10.21606
9.270857 87.88141 10.14035
15.56333 88.61781 9.404922
-15.01903 92.77554 8.90676
-13.78988 92.99435 9.295327
-11.76049 94.62627 9.364766
4.268167 88.68226 10.08486
-9.531058 82.96302 10.2282
-3.708088 94.89613 9.382615
-4.984755 93.56111 9.365973
2.281296 89.63718 9.993272
3.115072 89.89778 9.963016
-2.022404 92.24981 9.622084
-0.5058607 90.23883 9.927357
2.21891 92.07411 9.655259
7.246374 93.77079 9.409435
1.778181 93.9625 9.335286
1.408342 92.59042 9.560044
-0.9545634 93.58128 9.376195
4.164901 98.27413 10.17582
3.12101 90.48045 9.895557
3.879835 92.01818 9.663314
2.162395 97.13663 10.05877
5.646206 93.73375 9.401438
5.928146 94.15981 9.374661
2.41514 95.55005 9.593069
4.412568 94.43465 9.334189
-1.231061 95.60705 9.626135
0.4255374 93.80504 9.352023
-9.807389 92.7365 9.562321
-9.139467 92.33836 9.629382
-10.84314 89.57475 9.979335
-5.470441 86.59283 10.20241
-6.15002 85.14786 10.24306
-7.553938 91.95238 9.68995
-2.862365 92.04651 9.662762
-5.612965 91.80815 9.712358
-10.21176 90.99503 9.816301
-6.317708 90.58946 9.880087
-7.852953 88.46249 10.09191
-11.35473 92.36726 9.628434
-6.743431 87.27516 10.17124
-5.01308 87.89484 10.13671
-13.64599 91.8659 9.585295
-14.17793 93.29843 9.122642
-6.509258 88.90497 10.05529
-5.322101 88.51462 10.09169
-11.63935 91.37608 9.757481
-3.177706 91.22355 9.801293
-2.316777 89.55107 10.00169
-6.321805 91.36184 9.78239
-0.4967791 91.05715 9.821908
-13.27132 95.54462 9.019401
-10.84734 95.32673 9.305043
0.9545497 97.65843 10.33086
0.99181 95.83548 9.712056
1.468399 96.96069 10.05829
4.989409 95.40878 9.49011
-3.619794 81.368 10.16411
-2.980059 82.06647 10.195
-2.939647 82.80962 10.22079
0.3982595 96.93443 10.09079
5.537714 81.7682 10.18169
4.219185 80.48052 10.116
6.719972 77.86466 9.871428
2.279091 79.52357 10.04084
20.37184 74.49258 -0.08936296
11.39018 110.2783 -4.442476
20.29272 77.50999 -1.48233
12.50133 115.1645 1.854466
12.96044 113.5352 1.32376
15.19782 99.94274 -5.432686
-17.27259 101.564 2.15504
20.06063 85.64603 -1.307449
18.61764 92.15813 -2.27608
11.45096 75.93367 -8.769602
-2.700773 112.148 -5.989026
-12.57895 113.9272 0.183994
0.2227095 74.24907 -8.795612
-10.7846 116.3532 -1.946931
-17.28825 99.62566 1.91448
15.67247 101.3522 -3.716949
0.2463028 111.2259 -6.147418
1.058067 114.953 -5.806683
12.9903 111.3741 -1.778839
1.607471 115.2267 -5.781062
16.22439 103.2626 -0.8013318
19.31638 90.25508 -1.085949
-1.189546 116.4093 -5.769743
14.01063 110.5697 -0.05241705
12.28827 115.3227 1.030434
10.07384 116.2903 -2.793043
6.060566 116.2809 -5.047592
2.696109 115.483 -5.705319
17.84659 95.34755 -1.917236
-18.08115 75.57281 -5.933186
-14.53971 74.91132 -8.354284
-13.9805 76.90981 -8.422729
-17.09878 74.98334 -6.889765
-5.57913 81.92281 -8.795346
-19.49983 89.8278 -0.3327244
-20.38674 74.21416 0.5166205
-20.31852 73.81419 1.711443
-20.49525 79.51104 2.832597
18.32666 77.71411 -5.599672
-20.34221 74.5246 -0.1815908
4.010999 115.2567 -5.588284
-19.35567 87.12222 -3.05863
-2.887819 112.3213 -6.099005
19.16592 74.36311 -4.285516
-1.149679 116.6224 -6.351341
-20.35015 75.19054 -0.4225153
-0.6690364 116.705 -6.487096
-14.34167 80.89983 -8.149234
-20.57339 77.6065 1.207635
-20.3715 74.80784 1.850806
-20.19126 86.17943 -0.08273408
-15.87185 106.2897 2.428612
-16.5695 103.0099 0.5841532
-14.27439 110.6052 1.98781
-14.77132 109.4523 2.455505
-12.59066 92.90053 -10.63075
-15.95489 105.9716 1.887214
-17.83276 96.4535 0.8857827
-20.5622 78.23917 1.695038
13.78274 111.5937 1.363284
12.61153 114.2293 0.7966173
11.67505 114.0658 -1.780471
10.68257 115.3894 -2.364094
4.50601 112.9054 -5.745964
-10.08047 115.099 -3.055475
20.38339 84.2719 -0.2828938
20.20785 78.02148 -1.935386
14.36737 75.0849 -8.415009
-18.98134 80.76184 -4.628782
-2.361302 75.49906 -8.770094
-19.24428 74.34243 -4.154465
-20.59926 79.58994 1.99981
-20.21779 73.97432 -1.036823
-20.51107 77.55955 1.972162
-12.99663 113.6618 2.388704
-15.95764 102.5 -2.288586
-12.95932 113.4541 1.087144
16.79283 101.5993 -0.00661289
14.59031 105.3546 -3.226708
20.07144 86.70021 -0.3551782
-19.18051 91.34544 0.5397004
12.91795 112.4147 -0.6913691
15.05993 108.4112 0.9562379
8.048321 114.9641 -4.369745
-5.949545 115.8359 -5.077593
-9.780821 116.1473 -3.094686
20.61654 81.78747 0.445107
20.46203 83.55852 -0.1237948
20.24829 85.41765 -0.3324317
19.67548 74.93937 -3.210544
19.6546 76.3087 -3.360619
16.78674 74.47439 -7.197054
7.103189 74.60858 -8.790074
-20.2038 82.27663 -1.858443
-20.22233 86.31914 0.9514461
-0.851844 81.19035 -8.74578
-8.561064 75.59599 -8.765822
-17.26344 75.74452 -6.755611
-9.225839 76.62212 -8.745721
-20.61702 79.11404 1.115754
-19.37106 77.7066 -4.008978
-12.77914 114.3689 2.759287
-14.06339 110.4315 -0.1707856
-15.31881 107.272 0.2841087
-10.72199 115.4903 -2.3323
-12.38398 114.5531 0.1752261
16.3013 102.9383 -0.8512204
16.81909 97.69778 -3.436651
17.50565 96.52772 -2.091538
-17.411 98.8885 1.470968
-16.68322 95.79214 -5.013193
12.3657 114.2198 -0.2600686
-2.76256 114.0838 -5.780787
-5.712678 116.3923 -5.158227
-2.739783 115.7767 -5.731951
20.40341 82.71227 -0.9495105
19.92165 86.12059 -1.708832
20.38855 79.16985 -1.239032
19.88485 76.11344 -2.740318
18.53737 77.71854 -5.325205
17.35571 75.2627 -6.713196
16.51037 75.70535 -7.350627
11.35493 76.49342 -8.747761
-20.15896 86.63112 1.664389
-20.59182 82.34018 0.5414056
-19.88958 88.12678 0.1416907
-18.721 92.88922 1.912166
0.4269219 75.36018 -8.77389
2.936323 76.10416 -8.757949
0.8470075 76.14494 -8.755157
-10.50506 74.95828 -8.767613
-8.863424 76.31423 -8.751595
-19.09149 77.41799 -4.480766
-15.5788 75.56525 -7.876334
-12.54766 75.29646 -8.743476
-20.51984 83.24197 1.939425
-20.16211 75.14417 -1.605929
-12.79072 113.8315 0.8645428
-14.24796 110.6334 2.516372
-14.90787 108.6809 0.5259881
-9.702359 115.407 -3.307182
-5.084675 114.7302 -5.364208
-11.45845 114.891 -1.603757
-12.46976 113.1566 -0.9851853
-11.81141 113.402 -1.988295
-15.96192 105.3585 0.6843935
-16.17327 103.9731 0.003573585
17.30281 99.3114 0.165624
16.40767 101.6288 -1.653274
15.96242 100.4202 -3.658583
17.48089 95.91895 -2.729725
16.11021 104.9028 0.7934717
18.02958 95.16493 -0.9332358
17.66036 95.39559 -2.624044
19.61927 89.26416 -0.4549197
18.88226 91.30563 -2.040259
-18.32057 94.44987 1.353573
10.87535 112.9896 -3.306291
10.49404 113.9856 -3.146551
11.40208 113.2973 -2.573358
10.59509 112.5072 -3.789261
10.62849 106.899 -6.627908
12.31026 111.2408 -2.924935
8.123018 112.3676 -5.105143
8.299911 110.5686 -5.770327
8.490261 112.2697 -5.013917
14.20707 105.8987 -3.54294
-6.035111 113.6938 -5.834213
-7.768323 115.489 -4.42266
-6.593387 114.5154 -4.995181
19.40656 79.26881 -3.998104
20.47835 78.18324 -0.6516654
19.0543 78.4368 -4.546253
19.37123 77.55811 -4.012706
13.37249 76.93811 -8.579193
12.08311 75.01771 -8.77672
-19.59739 87.73763 -2.044488
-20.34602 83.04038 -1.094177
-19.39465 89.00603 -1.979029
-19.85665 86.16958 -1.945199
-19.18844 91.33791 1.110307
-1.910354 75.58743 -8.768601
6.242663 74.55322 -8.79091
7.063842 75.68539 -8.771167
10.03009 74.71719 -8.789188
-7.909384 77.27264 -8.72399
-4.58018 76.09633 -8.754922
-5.015954 74.38086 -8.791181
-19.24191 75.93174 -4.228292
-19.11009 76.75881 -4.451139
-14.81922 76.19611 -8.182011
-10.66985 77.87171 -8.69705
-10.77742 80.18588 -8.622639
-20.41486 81.99714 -1.127924
-20.47131 76.04234 0.7577358
-20.60856 79.0574 0.4037184
-20.53976 79.4175 -0.3485367
-14.18764 110.7788 1.597619
-15.38851 106.0852 -0.8256273
-7.915736 117.031 -4.237808
-12.35356 116.5393 3.00912
-10.17058 112.0797 -4.297122
-17.52457 101.1917 1.921064
16.49006 100.063 -2.611999
17.73529 96.70988 -0.3257557
16.16747 97.40379 -5.116785
16.94021 96.8336 -3.745032
16.38437 95.88805 -5.530067
15.79444 98.63353 -5.118551
15.37011 99.46407 -5.411716
15.15369 107.7202 0.1615233
18.80009 92.23477 -1.206058
16.53362 89.38245 -7.20453
-17.23631 98.01485 -1.728435
-16.78765 101.3827 -0.3240315
-16.91939 101.2846 0.3552032
-16.09474 104.5129 0.4330734
-18.11398 95.19684 1.307021
-17.72892 96.93145 0.302572
10.19027 113.8878 -3.44659
12.3531 110.6778 -3.298836
10.39471 108.6852 -5.847297
10.12812 107.7114 -6.439567
8.068416 108.7688 -6.579867
13.23428 108.2456 -3.593555
13.64605 107.4864 -3.51627
-1.478167 113.3136 -6.147726
-0.1064111 113.8926 -5.835608
19.60676 84.00086 -3.363828
18.72155 85.45657 -4.773418
19.56836 87.62394 -2.239475
19.94822 79.29015 -2.809924
11.78188 74.8483 -8.786328
-20.19355 84.45712 -1.354811
-19.97243 86.80964 -1.011354
-19.07739 88.3214 -3.303903
-18.71061 92.89026 -0.36492
-18.21242 92.91805 -3.03331
0.8894202 77.75606 -8.694178
9.11803 75.89471 -8.768399
-9.967304 76.78888 -8.74625
-4.972243 75.01584 -8.778603
-13.66272 110.6402 -1.139429
-13.75646 111.5407 1.005549
-14.45107 108.6405 -1.177755
-15.64303 106.8819 2.436932
-9.737471 114.0191 -3.879024
-11.32756 112.324 -3.210173
16.70656 100.1464 -1.878894
15.21138 102.3535 -3.973799
14.40342 103.2329 -4.892096
17.5749 93.42542 -4.433082
14.80056 107.2334 -1.467677
17.76307 93.72573 -3.729273
18.81692 88.38866 -3.888797
-17.35084 99.12909 0.4617828
-17.70411 96.09026 -1.667338
-17.88366 95.97696 -0.3675612
8.950434 107.3361 -7.101608
-2.954869 105.7487 -8.827188
-1.950148 113.249 -6.129092
19.53264 87.85669 -2.233342
15.50468 77.63333 -7.804546
-18.74714 90.15142 -3.295235
-19.50424 86.8051 -2.820322
4.277825 76.93294 -8.727529
5.499627 76.56319 -8.741898
5.395985 77.84001 -8.689928
-14.59415 106.9918 -2.139201
-15.41933 107.7064 1.934587
15.11655 105.2463 -2.263309
16.30882 95.67342 -5.778009
15.71255 95.23016 -6.914442
15.16256 97.47789 -6.753983
14.17034 108.2445 -2.139739
10.90597 108.2047 -5.763124
11.6712 107.915 -5.372238
17.75972 89.59944 -5.501708
18.03019 91.28418 -4.506655
18.38458 91.59247 -3.476942
-15.25601 103.9424 -2.916517
8.90897 110.8792 -5.457723
7.079348 112.5988 -5.322778
0.3577482 113.1252 -6.393195
0.1666302 112.2291 -6.445141
2.344121 110.5272 -6.464254
0.7911077 104.1869 -9.673816
-1.285511 108.3203 -7.455317
1.592687 109.9044 -6.710715
-1.985568 76.38121 -8.746776
14.18663 99.98685 -6.886887
17.97644 91.84982 -4.358209
15.72653 93.14902 -7.608634
-16.05205 104.1568 -0.1938651
6.865827 111.277 -5.809857
7.22069 114.491 -4.775434
-10.99907 94.78102 -11.40177
6.080987 111.9662 -5.723458
4.403821 112.4828 -5.853355
8.711759 108.1917 -6.70749
14.35413 98.08559 -7.557954
14.18781 99.38606 -7.175748
13.81494 97.01791 -8.580025
14.34839 100.4298 -6.451428
11.72214 99.22499 -9.662858
13.65728 99.23264 -7.860961
-2.587001 109.7092 -6.800786
4.527278 110.4478 -6.406041
1.654717 112.5738 -6.42481
4.367321 113.763 -5.894367
-0.04009566 114.8104 -5.728878
1.005046 113.5177 -6.203607
7.755322 108.1049 -6.962347
6.798075 109.1956 -6.584306
-1.549252 109.6205 -6.83509
-4.484806 108.9883 -6.972298
-6.813832 110.3086 -6.152084
2.605049 112.4759 -6.241477
5.970266 107.8792 -7.354116
9.312135 106.0107 -7.787214
13.28045 107.3071 -4.108708
13.5723 104.6967 -5.201108
-6.457546 106.9737 -7.864296
14.91136 103.0465 -4.109076
13.97341 105.497 -4.16404
13.41583 105.1057 -5.150022
13.99261 106.6165 -3.49125
12.26719 106.9148 -5.390281
13.07046 104.4979 -5.890441
14.0087 103.3769 -5.379297
-5.316689 111.1749 -6.082885
17.09458 85.63084 -6.687856
19.51548 82.52619 -3.690457
16.6822 77.69847 -7.104133
18.72363 85.26858 -4.785172
18.62894 84.72073 -5.000105
17.59518 83.73161 -6.256855
17.99722 84.92484 -5.761866
-18.29226 80.156 -5.602014
-17.93271 77.94981 -6.033283
-19.14092 79.1013 -4.418736
-18.95858 76.81482 -4.692735
-17.56913 78.68554 -6.352183
-19.94785 80.25097 -2.812384
-18.83197 81.04263 -4.838423
-20.05007 82.20899 -2.43805
-17.04389 79.74963 -6.78276
-10.65804 85.51608 -9.859374
-17.26162 81.73753 -6.59036
-15.17886 80.27941 -7.808899
-13.66895 81.27095 -8.353927
-18.44736 87.16381 -4.893067
-5.928445 81.37057 -8.732258
-11.09219 82.65465 -8.804037
-12.62133 81.86901 -8.606348
-4.751892 113.6533 -5.617165
-4.962297 113.6521 -5.579409
-7.689855 112.2365 -5.27287
-9.163075 114.8787 -3.824683
-5.531803 112.2248 -5.743653
-6.267365 111.7852 -5.748992
-11.47492 109.2526 -4.855011
-10.77222 110.791 -4.617882
-14.0728 109.145 -1.619509
-10.52229 109.8641 -5.224249
-9.149973 110.2727 -5.643226
-8.592373 110.7369 -5.622964
17.58702 77.69099 -6.366114
14.61232 77.24735 -8.212881
13.22174 77.45833 -8.572187
13.88963 79.76921 -8.268392
16.26063 78.7693 -7.321865
14.09448 79.09486 -8.239935
7.792597 78.58803 -8.664004
8.900683 78.75709 -8.654231
15.08467 80.14574 -7.864455
11.04476 77.58062 -8.704591
12.49097 78.61779 -8.572709
11.00364 79.38284 -8.630474
-12.96354 77.4079 -8.62786
-13.70406 78.5756 -8.389683
-9.096651 79.90334 -8.633772
-10.93371 79.58891 -8.625206
-8.824222 82.48497 -8.836541
-9.512483 77.94157 -8.692335
-9.148114 81.46168 -8.693442
-11.67058 83.23856 -8.896211
-7.180868 80.02905 -8.643337
-8.070108 79.24828 -8.642919
-3.524165 79.09509 -8.655818
-7.932664 82.50874 -8.851232
-8.767971 80.97221 -8.658175
-8.329147 81.99598 -8.764355
-10.63581 82.38599 -8.779403
-2.475719 82.9356 -9.035249
-6.604437 84.13843 -9.371291
-10.28823 83.89958 -9.147016
-7.144735 82.99912 -8.984812
-2.491717 82.18185 -8.864138
-10.84301 84.23016 -9.219944
-9.182318 86.43571 -10.6114
-6.513946 77.07886 -8.729877
-2.166494 76.94189 -8.728551
-4.086873 80.55184 -8.682489
-3.990423 78.58202 -8.665907
-15.37407 87.0507 -8.191363
-14.58113 85.29291 -8.468992
-14.7023 89.13027 -8.970905
-14.39036 86.90417 -8.871174
-7.294018 84.44574 -9.466529
-3.606521 81.09627 -8.722693
-16.67994 85.16095 -7.044992
-2.174559 84.07313 -9.431162
0.7742818 84.3801 -9.568952
-1.233978 83.26105 -9.142993
-3.188232 86.01531 -10.36893
-1.937426 81.58349 -8.787027
-2.813262 81.33999 -8.746861
-16.08226 83.8799 -7.485165
-17.69933 86.37381 -6.010735
0.2937926 84.09526 -9.447886
-17.68691 85.20823 -6.063752
-12.72115 111.0186 -2.581687
18.24295 89.09509 -4.783874
-17.88207 89.46175 -5.264486
-18.76863 87.05441 -4.351637
-17.41296 82.9304 -6.432211
-20.03588 81.12838 -2.557086
-18.74641 82.76698 -4.959447
-16.47165 83.42001 -7.180568
-18.63392 85.51338 -4.889188
-17.19559 83.85304 -6.572248
-19.4147 83.73349 -3.791389
-20.30875 82.90261 -1.404054
-19.85983 82.32483 -2.964309
-19.34294 84.99842 -3.63493
-19.0638 91.2502 -1.232855
-18.82473 91.42648 -2.096229
-17.32415 89.05174 -6.235355
-18.92972 89.04009 -3.386886
-18.43819 90.0827 -4.079028
0.9147138 76.64237 -8.738458
-11.31418 112.9767 -2.877228
-16.84604 99.05743 -2.321166
-15.95451 101.7389 -2.85894
-16.5575 100.0058 -2.583436
-15.43539 97.86562 -6.167422
-12.1059 103.4279 -7.407832
-15.80107 101.0494 -3.622742
-14.68392 100.5277 -5.939667
-15.77313 102.1067 -3.039827
-15.09143 103.682 -3.432473
-15.63421 102.8657 -2.842971
-14.92592 100.4942 -5.579786
-15.24601 104.3432 -2.648844
-14.50855 98.03633 -7.386795
-13.10739 104.866 -5.66148
-13.64927 103.249 -5.920631
-14.44841 97.37569 -7.7333
-12.18003 101.9621 -8.057787
-14.54439 96.69923 -7.907176
-11.23414 97.5984 -10.5785
-13.80325 99.32787 -7.659971
-12.95271 101.6757 -7.457641
-15.95543 97.10932 -5.676967
-17.51248 96.27018 -2.362548
-8.705892 101.0113 -10.69068
-16.1979 96.63804 -5.494298
-17.07583 95.72363 -4.11135
-12.15941 93.55192 -10.85489
-12.79477 101.3068 -7.8125
-13.46013 92.77028 -9.989398
-11.70055 102.8865 -8.029712
-12.5901 103.1572 -7.101718
-13.22361 100.6018 -7.713633
-12.03755 98.13831 -9.790978
-10.04961 95.84188 -11.69174
-10.99871 93.7813 -11.53179
-10.2038 97.25082 -11.27426
-10.8218 93.5528 -11.63851
-13.55354 87.26675 -9.467405
-14.23578 89.6564 -9.406737
-13.4334 93.69469 -9.877619
-14.92274 91.93686 -8.755553
-17.0541 88.36545 -6.631374
-11.83122 95.71371 -10.70657
-11.76794 96.57717 -10.52584
1.226107 99.18201 -11.83194
-11.39729 92.20922 -11.39117
-13.45315 88.82645 -9.854984
-11.76251 89.93911 -11.01333
-14.55769 92.49157 -9.035836
-17.35043 91.93658 -5.579545
-15.226 90.50672 -8.575777
-16.88287 92.34343 -6.220294
-17.22395 88.33327 -6.445698
-16.71332 88.50305 -7.011564
-12.79163 95.93864 -9.912933
-9.900748 98.78757 -10.97231
-15.13144 90.90488 -8.655441
-13.61096 90.62697 -9.939151
-16.47994 90.70358 -7.153104
-17.60916 94.79895 -3.417282
-16.28665 94.75842 -6.262702
-16.06104 90.28605 -7.690418
-7.554523 101.0359 -11.04066
-9.438396 101.7725 -10.0264
-4.153345 104.4398 -9.564023
-2.918388 100.7915 -11.28987
-10.29964 98.94391 -10.71464
-10.42939 89.43789 -11.43814
-5.940036 86.67839 -10.78455
-16.70893 93.1282 -6.235414
-18.16728 93.72771 -2.439582
-10.68026 100.9921 -9.684426
-6.826386 102.6319 -10.43796
-10.17193 93.22038 -11.94139
-10.62607 88.59771 -11.18184
-10.59853 86.56726 -10.43535
-7.527768 85.80396 -10.23325
-10.86749 103.9441 -8.097122
-7.967443 105.7603 -8.394827
-11.7206 89.71699 -11.00643
-7.111784 91.50144 -12.53815
-7.17437 92.50591 -12.67823
-12.64311 89.79891 -10.49961
-8.014515 90.92807 -12.34715
-10.41339 84.77652 -9.494581
-5.435379 85.02686 -9.799087
-9.274802 90.68154 -12.0512
19.05358 81.23713 -4.537234
17.94991 79.98878 -5.972529
17.1248 80.32724 -6.702086
13.2551 80.45812 -8.388996
12.48048 80.21244 -8.540864
17.01686 81.96887 -6.779491
16.06435 83.77533 -7.452241
15.48412 81.68848 -7.715973
0.09283347 78.22276 -8.67628
15.52329 89.02243 -8.263387
15.55159 93.89123 -7.628534
1.810588 96.12742 -12.55529
14.44233 94.30916 -8.790956
13.45941 96.38483 -9.164215
13.58975 96.12877 -9.120695
12.4921 99.95631 -8.706106
14.7107 94.82433 -8.344806
16.62835 93.01588 -6.40815
1.891659 108.955 -7.127486
3.871896 108.3868 -7.312413
1.680581 103.5921 -9.988189
6.715051 107.5763 -7.432157
-1.42913 101.7687 -10.85535
-9.847497 107.9548 -6.472405
-6.517016 106.1659 -8.411335
-7.301659 104.9408 -9.073381
-9.185852 104.2948 -8.826058
12.67039 101.7844 -7.694219
8.911049 101.8251 -10.24363
10.22513 103.1458 -8.912766
7.509227 106.4308 -8.048038
8.847513 105.3323 -8.36635
15.46848 85.82839 -7.986997
19.23538 86.13541 -3.726462
16.70655 88.39449 -7.051626
-11.36032 77.76458 -8.702174
-14.04296 85.96558 -8.86134
-1.436301 82.50066 -8.932096
13.72855 83.94489 -8.61936
4.958885 77.64416 -8.697867
-18.59806 92.28379 -2.20085
-0.2680718 80.99844 -8.721927
-14.3989 106.6551 -2.753835
-14.17896 106.2934 -3.387273
-13.67008 110.2498 -1.555082
-11.26624 108.6979 -5.312587
-12.28087 108.0159 -4.78938
-14.45828 108.2796 -1.481547
-12.66376 110.9798 -2.68807
-10.54378 105.5493 -7.434975
-9.06368 107.0272 -7.263465
-13.35817 110.5086 -1.955413
-17.91213 94.16393 -2.90387
-0.599091 97.44516 -12.2905
-8.264224 86.66834 -10.79977
-8.223095 102.4917 -10.18435
-8.492367 103.919 -9.329777
-3.097059 87.27282 -11.05818
2.873283 90.96071 -12.41018
-0.06624269 86.10371 -10.42061
-3.903159 88.10095 -11.46844
-8.886798 88.32388 -11.49417
-12.41656 104.6112 -6.496792
14.70315 81.75095 -8.048363
12.70201 82.90273 -8.688159
12.94306 82.45921 -8.578018
10.4939 86.39463 -10.39616
12.00759 84.79002 -9.285766
9.276587 85.13715 -9.736356
12.88213 84.38988 -8.959641
9.138777 97.28867 -11.74837
16.80703 92.86588 -6.163886
-2.222259 108.1038 -7.562528
0.7653394 108.3423 -7.452883
-3.039452 108.1004 -7.534037
-1.808699 106.6389 -8.373392
-1.233359 108.59 -7.324784
2.476915 105.0842 -9.193963
3.244444 108.191 -7.477913
-2.210773 105.7924 -8.808819
0.08773196 107.025 -8.17757
-1.604612 107.2126 -8.062045
0.4946624 106.7724 -8.312743
7.840935 103.6378 -9.663265
4.107736 106.7944 -8.207968
4.743285 106.6768 -8.232607
8.918689 105.1126 -8.479004
3.163233 105.8737 -8.755531
6.735389 104.8989 -9.198579
2.245846 106.7128 -8.324319
3.489458 103.9941 -9.798174
1.942387 104.3467 -9.591606
4.056093 101.1759 -11.18061
1.391658 104.6726 -9.416936
10.13913 103.0054 -9.035177
10.20779 102.1616 -9.43181
7.123468 104.3021 -9.467481
-6.211907 105.5358 -8.869349
-5.640852 105.8887 -8.663148
-1.235647 104.1067 -9.712141
-3.548335 103.4782 -10.06247
-3.448724 106.3103 -8.51523
-3.609698 105.1846 -9.13803
2.863167 103.5326 -10.03493
-1.306209 99.54258 -11.7184
3.063878 102.6883 -10.46161
0.2700609 101.21 -11.08704
2.6862 99.02222 -11.90563
2.364144 101.6199 -10.94552
5.74158 100.8054 -11.37595
5.098126 100.1856 -11.60663
3.382116 99.23348 -11.85903
6.128019 101.213 -11.19319
7.059145 99.73556 -11.61749
6.708117 99.70373 -11.69257
-0.2070984 98.85339 -11.92393
3.995182 98.47686 -12.09539
1.882154 98.60583 -12.01541
1.492194 96.44284 -12.49924
8.606594 99.62955 -11.23916
8.487817 99.19646 -11.42325
6.053324 98.15652 -12.21186
8.007968 94.94962 -12.50999
1.292353 99.28947 -11.80025
1.721161 84.29214 -9.529068
-0.7456243 81.88523 -8.831008
3.380633 77.33603 -8.710667
2.551085 80.0993 -8.670515
-14.02911 104.9229 -4.448247
-8.344674 107.0414 -7.445765
-8.765291 106.1521 -7.900218
-9.03587 106.6512 -7.484028
-10.61208 105.5508 -7.388307
-9.56826 107.1939 -6.980026
-8.862376 98.49845 -11.50839
-1.729565 86.90159 -10.85075
-6.084423 88.13561 -11.54781
-5.198081 90.86104 -12.47471
-7.429168 89.01924 -11.91997
10.95229 80.41734 -8.630952
6.749969 79.78786 -8.648116
5.476353 83.96925 -9.332533
7.40108 80.60783 -8.669468
12.41075 89.15808 -10.53757
14.69313 88.22448 -8.881796
14.56898 85.31696 -8.506859
13.73261 88.91512 -9.692252
13.09328 87.83864 -9.879888
14.13307 87.9333 -9.24629
14.87757 90.63664 -8.903584
16.89909 90.41459 -6.646769
15.81248 91.62021 -7.847419
11.45802 85.34388 -9.637455
11.38672 87.6209 -10.61683
9.034007 86.96365 -10.924
9.573045 85.89899 -10.25527
12.10443 88.72575 -10.62906
12.55118 91.21156 -10.67432
17.22661 85.42836 -6.559094
11.27706 97.22692 -10.66692
12.56573 95.82157 -10.13022
12.38461 94.29631 -10.59619
12.7129 97.92655 -9.313616
9.938945 98.04569 -11.20844
10.29481 101.0075 -9.91756
9.272213 100.3645 -10.70841
5.30701 96.25605 -12.63228
3.832622 96.68874 -12.49252
2.962296 97.26257 -12.3554
4.490966 95.94423 -12.65409
5.329018 92.65237 -12.74251
-0.5174748 93.62367 -12.70592
4.539709 95.03274 -12.7489
4.122756 95.13004 -12.71855
2.39252 95.03742 -12.67275
5.161134 91.42747 -12.56746
-7.979946 96.657 -12.2443
1.539026 97.51108 -12.28349
3.434995 93.21489 -12.73331
0.06571683 96.60353 -12.45783
3.058146 93.57355 -12.73141
5.150828 94.10285 -12.80464
4.196021 92.48901 -12.69729
8.189878 93.18772 -12.56171
7.439329 91.66306 -12.54031
7.150474 92.47398 -12.68698
2.907 85.86075 -10.29159
11.60002 94.5379 -11.09266
6.826906 93.50002 -12.77452
8.9346 91.37053 -12.21919
9.172353 87.83103 -11.26353
9.610673 91.75059 -12.08395
12.74126 94.72728 -10.23497
4.580488 90.6148 -12.38625
11.62524 93.24674 -11.2247
12.30272 91.87201 -10.8314
10.26983 90.42528 -11.69399
14.71239 91.58398 -8.967101
13.81605 91.97065 -9.785339
12.51462 90.94576 -10.69206
12.18526 89.82074 -10.77242
1.975203 85.00508 -9.839366
0.9628639 84.53149 -9.632646
3.140266 84.15546 -9.447616
2.625782 81.698 -8.790173
1.824988 86.15234 -10.45358
3.358995 80.16893 -8.669409
5.996977 81.62054 -8.756001
-10.10183 94.63831 -11.86372
-8.445955 95.69238 -12.29344
-6.489633 96.26189 -12.57361
-6.491462 99.21871 -11.84991
-7.272573 97.77397 -12.13403
-7.63866 99.74506 -11.50052
-7.494973 100.6406 -11.20909
-1.625639 100.6178 -11.33794
-3.072495 97.67159 -12.268
-5.219686 99.87301 -11.72354
-5.78685 95.61207 -12.69854
-3.868581 101.3832 -11.07192
-2.721681 99.45319 -11.77124
-1.081473 102.2821 -10.61795
-2.914172 99.93861 -11.61839
-0.5102786 99.5916 -11.69049
-3.064319 88.0351 -11.42891
-5.52214 89.05099 -11.91654
0.5522476 91.2268 -12.44051
-4.276825 92.19318 -12.66447
-1.342184 88.4607 -11.59699
-4.53433 95.18077 -12.73314
-2.154232 90.40603 -12.27704
-3.014218 90.63786 -12.34905
-4.725593 93.14116 -12.76854
-0.8243818 92.07191 -12.58241
6.703866 81.44212 -8.731022
10.81092 83.21504 -8.924722
9.040447 82.00301 -8.761848
10.71836 82.0871 -8.739872
7.16272 82.01437 -8.786118
16.55605 90.71706 -7.055624
5.050181 87.19341 -11.05584
8.253917 88.31448 -11.55012
8.601232 87.84094 -11.33696
1.653098 94.86731 -12.67605
8.929715 89.13043 -11.73396
11.01989 88.98015 -11.12354
11.79121 89.65406 -10.95928
2.399449 86.5466 -10.67635
0.1855631 87.03613 -10.92163
6.576044 88.63287 -11.79
5.316657 89.84795 -12.21105
0.1950369 86.32932 -10.54395
2.993243 88.75832 -11.74367
7.593303 84.63033 -9.563542
6.184076 82.72662 -8.937287
5.560898 84.22011 -9.422014
4.221644 83.34512 -9.147444
4.974358 79.21169 -8.653907
2.403614 78.75214 -8.662481
-7.606206 92.56245 -12.62931
-4.688427 94.38936 -12.78711
-3.690307 100.3721 -11.47837
-0.5246591 91.03709 -12.40642
-3.061454 95.9594 -12.59692
-2.051341 94.44951 -12.70471
-1.542233 94.68722 -12.68023
-2.899722 92.7585 -12.68591
-4.039372 96.04244 -12.61715
-4.106781 95.19208 -12.71552
4.455413 89.34648 -11.99953
5.657544 86.80279 -10.84596
4.653673 88.09836 -11.50775
0.09506192 90.3547 -12.24319
3.328721 92.35635 -12.64533
-1.301728 96.96479 -12.39624
0.6257045 92.84863 -12.66671
-13.8435 129.4841 -0.8171739
-13.48261 127.8649 -0.8636416
-6.956517 125.1244 -7.335145
-7.204512 121.6011 -5.629456
-7.624881 128.0421 -8.602472
-13.76275 128.2632 0.3091431
-7.091279 122.0752 -5.868623
-8.166994 126.4186 -7.497979
-12.24688 116.9261 2.600929
-11.7849 117.9643 0.6406546
-7.259939 118.4257 -4.704116
-10.39219 118.8296 -2.150649
-12.29437 117.3572 2.856781
-11.42177 128.6929 -6.560201
-11.91056 126.7503 -4.298219
-13.01097 128.7987 -3.843307
-8.40603 127.8643 -8.186398
-13.53769 129.8167 -3.224766
-6.142057 118.2986 -5.197397
-11.90101 117.0922 0.7974738
-9.192357 119.0813 -3.472418
-13.42706 126.3561 0.722686
-9.178363 126.2 -6.821483
-10.84021 129.3944 -7.590166
-8.648541 126.7328 -7.43439
-8.162242 128.0347 -8.397377
-9.545463 127.7911 -7.528602
-13.54738 128.852 -1.718457
-13.30242 129.3369 -3.468731
-8.368747 121.3099 -4.784824
-11.15057 119.7073 -0.98206
-11.54325 119.7222 -0.2000934
-10.09474 118.8121 -2.524319
-12.34824 121.5761 1.073835
-12.67981 123.1837 0.9248323
-13.10908 125.3677 0.33362
-11.94371 128.1478 -5.459987
-11.78702 126.2246 -4.075666
-11.30464 125.7598 -4.466774
-8.948392 125.4549 -6.523825
-12.42058 128.1925 -4.607204
-13.13012 127.6202 -2.015295
-13.1285 126.5045 -0.8601389
-9.452679 121.2737 -3.859843
-10.1091 123.4784 -4.350124
-9.09214 121.5925 -4.302255
-10.33396 123.2278 -3.934554
-10.95581 124.4786 -3.948327
-10.27506 120.9341 -2.785169
-12.34993 120.6651 1.717937
-10.22411 125.0468 -5.281495
-10.08394 120.1417 -2.751527
-11.39385 122.6833 -1.939338
-11.54961 124.0286 -2.636807
-9.877652 123.1989 -4.416484
-8.256455 123.6035 -5.943092
-11.14938 124.9188 -3.968083
-1.249632 117.1539 -6.352584
-4.348066 129.1486 -9.691794
-5.717754 128.4108 -9.247301
