# .PCD v0.7 - Point Cloud Data file format
VERSION 0.7
FIELDS x y z
SIZE 4 4 4
TYPE F F F
COUNT 1 1 1
WIDTH 1676
HEIGHT 1
VIEWPOINT 0 0 0 1 0 0 0
POINTS 1676
DATA ascii
7.84346 142.3833 6.736537
-8.92615 138.8385 8.069383
-4.902741 149.7149 -2.01182
3.886064 150.1015 -3.568308
6.710135 145.455 4.143291
-9.325644 136.522 9.02161
-3.062609 124.6514 13.3713
0.573557 123.1335 13.46179
-10.54549 122.4231 7.030179
-6.575675 123.5963 12.35968
0.7521048 124.0954 13.5067
-6.043034 122.9963 12.58094
-2.499121 126.0631 13.34944
-6.602608 124.5393 12.2809
0.1980394 125.6503 13.44277
-4.231094 126.4368 12.91965
0.3538865 126.8133 13.31186
-4.939654 126.021 12.81
-0.4652163 129.5485 12.98645
-0.8642858 122.8062 13.45039
5.964869 123.2809 12.63593
8.450048 124.0722 10.73135
7.392505 124.1441 11.77813
10.37102 123.341 7.630928
8.919682 123.654 10.09354
-8.190464 123.3436 11.08821
-1.725164 128.3914 13.0477
-1.804651 126.1383 13.43291
-0.5587621 129.1141 13.02072
5.395761 122.8976 12.84156
5.469146 125.669 12.69751
0.09457741 124.9378 13.51707
2.984023 126.8289 13.14772
11.09009 122.1587 4.990837
9.738994 120.6634 -1.060761
10.90485 121.3869 1.667075
9.071309 120.751 -1.847389
8.703405 120.6652 -2.338313
-8.312401 120.8904 -2.767706
-11.16126 122.0801 3.395605
-4.28598 120.6911 -4.323073
8.491615 120.6939 -2.403467
-9.885047 121.3191 -1.081034
1.693843 120.7431 -4.258749
-10.95481 110.6386 7.630527
-9.804555 110.5361 9.286391
-5.313505 112.1822 11.78526
-1.60032 110.3434 12.95283
-10.79248 112.8034 6.306715
6.068633 119.1719 11.73575
-10.61337 111.8886 7.496527
-11.32319 111.3405 6.076711
10.57154 118.6904 4.763128
-10.77411 119.8362 4.151087
10.78757 113.0241 6.206858
-10.95141 120.8621 4.567037
10.50265 110.9392 8.168063
-10.4424 118.4285 5.522005
-12.16405 109.1474 5.292412
4.280392 112.5391 12.25838
7.260818 111.0954 10.94969
10.91619 120.7625 4.703038
11.38325 111.2888 5.964603
10.67945 121.9822 6.567373
12.18837 109.3613 2.041282
10.38304 118.8129 6.259493
11.45399 111.6613 2.325257
1.015058 122.3418 13.42113
-2.727726 111.6455 12.75895
-3.234016 110.5611 12.78566
-10.17399 121.2043 7.650849
8.175527 113.1302 9.842172
10.46016 121.4344 7.167273
4.056063 110.9891 12.51431
5.344365 115.9904 11.585
-10.48033 115.947 4.221566
10.0035 118.8414 7.445018
-9.808694 113.4622 8.011571
-10.51368 114.2663 5.918259
-8.91056 113.6817 9.02345
-5.994491 110.5415 11.76337
-10.12338 118.199 6.897443
10.90424 113.7021 4.660806
11.67 110.9924 5.133854
10.2793 112.0727 7.796233
5.360057 111.7767 11.83562
-10.44517 118.0927 4.166515
-9.247496 121.3609 9.446264
10.48608 118.3312 5.223656
9.547903 121.0026 8.873343
-10.73707 114.2765 4.814158
-7.161518 113.9415 10.40134
-5.370608 113.8 11.55815
-6.676884 112.5152 10.97913
-2.272064 120.3988 13.16615
1.027903 121.2627 13.3422
-0.3067242 122.0301 13.37626
6.428903 121.7136 12.17769
10.6091 114.9528 3.990483
12.22259 109.3439 2.23475
-10.45164 117.0473 4.306839
9.572724 117.0426 7.880462
-10.30252 115.2626 6.102112
-6.576849 119.2675 11.47112
-1.571615 118.6526 13.06904
-3.508813 118.6889 12.70238
-5.547523 118.0262 11.72829
-5.619601 119.6111 12.09572
-1.403015 122.1956 13.39591
5.775903 121.6068 12.54129
9.864256 116.3055 7.232327
10.06521 119.8752 7.728817
9.153618 118.6384 8.822528
-10.304 117.2709 5.801283
-9.330416 118.5551 8.705013
-9.712104 116.6836 7.553742
-0.8023546 117.5222 12.96058
-0.4035691 118.0475 13.03063
0.3278531 119.9197 13.22039
-6.506477 116.0262 10.8771
9.474182 114.8249 8.111591
8.453197 119.0943 9.796821
7.596932 120.7153 11.14427
2.521713 118.7574 12.95914
2.42396 120.1968 13.09636
2.444297 117.954 12.89744
-10.13801 116.9914 6.475611
-8.317153 119.0196 10.05313
-10.40151 119.2103 6.453656
0.1021099 117.1372 12.93849
-8.54256 118.235 9.558069
-8.368724 120.7967 10.47037
5.096081 120.4238 12.48254
7.104198 117.0739 10.58564
-8.912203 120.0378 9.619757
-11.18769 110.5882 7.113634
10.23607 112.4663 7.741811
8.23498 117.3935 9.681257
5.197848 116.5967 11.71442
3.856309 117.6561 12.46992
2.999395 114.7846 12.57674
7.430136 116.4421 10.24254
10.14744 112.7379 7.799343
8.17174 115.4599 9.526499
3.554443 111.8726 12.52201
7.688125 113.8432 10.05266
-7.259141 118.402 10.73087
-4.837876 117.045 11.93297
-7.474266 114.1165 10.16736
-1.554232 113.6647 12.83066
-4.119246 116.8888 12.28228
-3.746282 114.8485 12.36004
-0.3937607 115.1126 12.8425
2.915947 116.067 12.5887
4.332935 114.5149 12.05703
-1.576964 112.8407 12.80698
-1.131694 111.8809 12.91158
-2.709432 112.1999 12.7318
-5.57585 111.2615 11.83377
10.07652 117.6728 6.632876
2.829029 113.8261 12.58165
3.259341 111.8195 12.61328
3.223307 110.5432 12.80766
-5.076101 117.6965 11.9045
-14.32621 62.08631 9.161132
-14.39702 55.46454 7.167936
-4.684167 104.4785 13.08641
0.9781039 104.4282 13.18767
-14.32895 73.39994 7.835013
-14.57966 75.32829 8.511542
14.43598 56.72887 0.06194708
-1.806277 102.4876 12.7617
-3.390401 48.56408 7.627916
-14.95839 56.61515 6.938714
-14.53816 58.10582 7.840837
-14.02688 68.16007 8.734578
15.08222 78.98792 4.54419
-15.54318 83.02898 6.886734
-12.25112 108.3653 6.154599
7.734719 90.17448 11.91274
-12.63405 98.51247 9.5949
-14.77686 94.93867 5.556329
-15.24145 96.90389 5.649163
-11.08466 104.3491 9.418764
11.32753 109.8592 8.468148
-6.657934 109.9084 11.54708
-3.842888 109.7786 13.1506
4.337637 52.17846 10.28113
-12.5445 107.5829 5.211121
13.01278 76.15773 10.15289
14.20721 53.7094 0.178128
14.62502 52.24279 0.5416623
12.24806 109.905 5.694455
-12.97431 96.74987 9.003505
12.31063 50.32406 6.925488
9.986572 47.03003 6.866855
14.41021 58.75076 0.0327502
12.75694 47.93654 6.030172
14.3261 58.41318 1.158194
14.42026 68.22471 6.197789
-12.55735 79.71644 10.87363
14.5098 61.5651 2.832906
-9.908462 49.76908 7.790844
-13.30903 54.08076 8.022377
15.54534 78.41931 2.182735
15.11811 81.81242 1.144718
-15.4452 91.06624 6.625603
14.6739 92.78749 0.6374234
-13.6917 53.73259 6.534075
-15.0541 74.70404 7.438403
-13.80156 54.02381 5.607631
-12.95127 105.6374 5.68654
-14.55066 60.92713 7.163612
-4.345481 49.87413 8.009602
13.71587 97.0743 0.9148344
13.24553 103.4776 1.36896
13.0181 105.5837 1.054335
-8.89057 65.20461 11.05653
14.34579 99.5637 0.7134858
10.9391 102.5504 10.16825
-11.89144 108.9452 6.945017
-13.4971 104.2975 5.377315
-12.32071 106.7559 8.383088
13.85121 49.13495 4.596083
14.06607 53.76588 1.519001
14.17858 49.76105 2.900305
13.82559 56.45045 -0.3302019
12.64564 109.6992 4.099003
12.92016 106.2954 1.303814
14.82163 96.97535 5.254683
-13.45103 74.13206 10.46344
-13.40632 65.96218 8.740289
1.293537 52.22915 10.65438
-14.42898 58.10084 8.138261
-12.92803 55.71218 7.823278
-11.26684 52.02198 8.074616
-12.09438 52.42353 8.033211
-13.5898 87.7822 9.369553
15.45217 75.44441 5.074778
15.39892 79.5228 3.601698
-14.56195 96.65019 6.342206
14.60589 92.51131 -0.1246391
-7.219512 108.4884 11.71603
-7.290936 108.4508 11.66323
-13.22498 101.595 6.067209
-14.12101 100.34 5.081306
-10.27439 109.5466 9.492167
-12.62226 105.5682 7.191927
12.03326 48.68382 6.799564
14.41783 51.76377 3.37217
14.0289 61.07439 0.6914816
14.80733 66.23148 1.572098
13.22429 103.8227 1.214091
13.89867 106.2752 2.320622
14.40834 98.97015 1.65186
10.79328 109.4162 9.293082
-14.66577 74.1913 8.638109
-14.04602 69.24625 8.489023
-14.75197 63.6939 7.497666
-14.83745 67.86052 8.163519
-6.24734 49.55024 7.982126
-8.105984 50.88425 8.40659
-2.636629 49.48982 7.856845
7.03345 47.57716 7.238231
-13.2654 56.18162 8.086583
-13.43699 56.43361 7.719188
-12.82639 52.19025 7.500214
-9.880351 52.64183 8.96766
-15.45646 84.07629 6.252143
14.93137 79.84402 1.142181
16.03728 84.0529 4.320904
-14.32382 98.19706 5.729635
15.31854 88.09075 1.748033
1.834053 108.4399 14.02852
0.1600558 108.238 13.89499
-4.479994 109.7236 12.79539
-13.83932 100.0133 5.794458
-12.31941 103.7085 7.518201
7.947788 48.869 8.057052
14.71513 53.73538 3.89294
13.27652 48.87174 5.689925
14.6655 63.81262 1.909253
14.64891 68.39519 3.173447
13.34253 107.6353 4.093043
13.18468 105.603 4.369398
13.8446 98.59477 0.5111492
12.18548 109.8 5.960227
9.25415 109.195 11.22791
8.385864 109.0873 11.50282
2.132586 108.3231 14.23634
-14.574 74.03494 8.357729
-14.59045 77.23761 9.722422
-13.69239 64.78519 8.63765
-14.14018 64.10443 8.075216
-3.064229 49.65234 7.899436
2.776324 47.2317 7.056016
-0.9650449 48.92333 7.764805
4.646511 48.10018 7.654998
-13.15722 60.92336 8.82448
-12.44652 55.66729 8.741023
-10.19969 56.56244 9.150298
-8.601978 50.93432 8.384509
-15.37346 81.63935 6.642661
-15.38499 86.8405 5.766988
-15.44085 90.64352 6.674975
15.02896 71.54428 1.028635
14.6907 68.06242 2.452089
14.9669 75.6925 1.346895
14.45735 71.97131 2.888733
16.01876 82.93282 1.908458
15.3252 84.40816 0.9827538
15.92541 86.45483 1.789872
15.64016 87.65311 1.369323
15.14435 90.70592 1.415575
15.0117 93.56233 0.7777535
-5.091186 107.2937 13.89124
-13.67626 100.4859 6.916582
-11.78901 105.3048 8.977901
11.61768 47.19669 6.550039
9.949799 49.91072 8.236196
14.95763 53.87396 2.941752
14.87454 54.85546 3.075493
12.96841 53.00288 7.077105
11.73213 50.73267 7.571542
11.83467 52.0368 8.103615
12.5328 51.542 6.871176
11.38537 51.44537 8.206531
14.05221 50.4025 4.983883
14.81069 60.69738 3.22688
13.67062 58.65216 1.556319
14.08263 62.95626 0.7880974
14.58156 65.38213 0.6367323
15.25097 65.34712 1.347196
14.53964 55.07779 1.078707
14.2802 56.81413 1.939543
13.13972 105.577 4.165655
14.07602 105.04 5.213699
13.62799 97.87272 0.8361076
14.80197 95.76309 1.32691
11.39271 108.3096 9.113169
9.804806 107.1889 10.65943
4.537971 109.9823 12.77205
-14.78202 72.18399 8.977815
-12.37971 71.25152 10.65441
-13.83123 73.54816 9.992098
-14.64498 76.31976 7.697752
-14.29302 76.66886 9.279002
-11.81329 68.27264 10.63913
-4.046426 53.19314 9.621415
-5.589067 51.54431 8.267999
5.392612 49.03794 8.443214
-12.82682 53.76116 8.215959
-14.69559 79.49965 7.392611
-13.83068 80.83592 9.49782
-14.90804 84.84615 8.037662
14.6924 71.09087 2.997201
14.45471 71.40731 3.084479
15.67546 69.1894 4.010143
15.49368 69.65908 3.401209
15.08681 79.00993 2.290702
14.95671 77.08656 2.574003
15.39653 78.50062 2.738936
15.56327 86.91341 0.6001157
16.10328 87.01295 1.398427
15.43696 86.97776 5.211714
14.68364 90.7505 7.347107
15.54402 88.11284 5.522166
-14.62363 95.7953 6.603692
-15.16753 91.94485 5.472178
15.49434 88.98167 0.69095
15.2751 90.41079 2.419325
14.71204 92.36705 0.00662906
14.65759 95.21244 2.868304
-4.698925 108.3548 13.55126
-12.90323 99.42921 7.530737
14.14547 57.01497 2.661091
-3.3444 59.96235 11.66021
14.72034 65.58948 0.7213439
14.0772 103.5987 2.34746
13.24088 103.4625 4.899042
14.24489 97.47533 3.7907
13.97042 96.81737 1.429131
12.27928 108.3278 6.433018
-15.23358 78.19772 8.533939
-13.21475 65.59111 9.503485
-12.71953 62.76448 9.23942
-14.185 62.84209 9.230533
11.37551 52.65996 8.53963
10.6268 50.91855 8.461035
4.848031 48.93892 8.366165
2.57363 50.04635 9.266866
-15.18951 85.7922 7.467549
14.32027 72.65573 2.112902
15.57012 80.20567 3.548414
15.82899 84.28629 3.888257
15.83742 83.14401 6.292898
15.8468 83.28755 4.918265
15.68777 85.72897 4.954345
15.39213 85.03338 4.334286
15.4957 85.46426 5.786581
16.21199 81.84084 5.428214
-14.82223 94.51253 6.017298
13.92594 96.00482 7.343011
-13.78235 99.17235 7.747529
-13.21546 99.4285 7.40528
-12.5475 102.7018 7.269693
7.507516 51.8372 9.326976
14.15586 96.94109 2.194515
14.78763 96.61047 3.377562
14.60374 95.66171 4.334217
14.57782 95.25927 6.664269
14.00035 99.53506 6.469512
14.09022 93.27692 7.544698
15.451 94.46916 5.84425
14.97622 96.95909 5.495941
15.15079 92.78382 2.936353
-12.91809 67.1702 9.466563
6.012555 52.3918 9.952298
3.726769 50.70109 9.753221
4.696486 53.28494 10.58088
2.573291 49.21135 8.512575
-14.33715 87.44408 9.527246
-15.04396 89.11268 6.560347
16.25414 82.40784 3.997264
14.10411 92.57672 7.80138
-12.5579 98.03195 9.049225
15.23186 58.59927 3.499059
8.995358 53.63449 9.525551
13.85915 99.26631 4.98955
14.90121 93.43535 5.715417
-14.19696 76.64526 9.882155
-14.20175 79.37429 8.541781
-13.24119 77.89249 9.986063
-13.56493 76.02991 10.31427
-11.01661 75.13669 11.73761
-11.26639 74.31524 12.08958
-9.764664 73.70081 12.57527
8.34246 55.13558 10.02815
6.989248 53.81063 10.25015
4.092647 54.15765 10.59737
-14.69083 83.88245 7.873429
-14.60777 84.61616 8.542809
-12.65115 91.72525 9.698582
-12.12145 95.87386 9.869737
-14.25846 96.57822 6.728011
-10.0822 96.1842 10.99184
11.8279 53.10151 8.423787
14.34651 100.3703 3.010086
14.56596 101.3768 5.489044
14.36876 94.15513 7.127825
13.65179 95.3303 8.574802
13.44599 92.52269 9.06439
12.34829 94.39805 9.729881
11.09618 92.52058 10.5286
11.58117 93.33059 10.10133
15.48738 91.96576 4.284805
-14.29932 79.71233 9.63735
-14.34374 81.28165 8.813399
-10.44228 84.50916 12.07943
-12.64012 78.2555 11.29791
-11.51868 78.67081 11.70238
-11.51051 79.86469 11.77488
-9.634435 78.00111 12.28631
1.662631 53.5249 10.9116
-14.08575 91.62491 8.094534
-13.30199 93.80779 8.690416
-12.30937 99.521 8.56999
13.95916 102.1171 2.80133
11.10341 94.38203 10.23601
12.21031 91.31626 10.90028
12.33525 90.93818 10.32264
9.863024 91.40724 11.67341
12.1394 89.62343 10.38065
12.37314 88.61792 10.36957
12.85049 90.06696 9.75284
-14.6172 82.72614 9.137078
8.314639 53.74294 9.829423
10.0523 55.29046 9.769946
11.11027 54.2046 8.669489
5.807457 55.25946 10.06671
-15.29815 87.71549 7.609892
-14.82487 87.07564 8.767675
-14.36484 88.14815 8.262954
-13.5713 94.93192 8.453024
-10.27621 98.70934 10.18472
-13.47308 98.83522 8.901339
13.28541 102.3121 5.285139
15.00418 96.7901 5.773983
11.45478 91.89117 10.86475
9.844809 93.74284 10.6742
11.38022 95.4889 10.35876
14.48132 90.08375 7.928938
-10.72678 77.25831 12.25158
1.320457 56.25109 9.852873
-13.45354 84.68135 10.51395
-4.963331 98.5507 11.53967
12.42813 107.5344 8.596
12.61793 103.1642 8.141722
14.26164 101.5625 6.001369
12.7391 104.0346 6.401443
10.98277 104.6644 10.70497
12.33012 102.6444 9.391389
11.7992 100.3336 8.669356
10.47644 101.1153 9.888235
8.713881 93.37537 10.88305
7.052083 93.32594 10.99499
7.991871 91.20559 12.31284
3.927855 54.97955 10.26411
0.7695478 53.40197 11.00859
-11.16818 84.56782 12.0012
13.67528 102.5234 7.219942
7.819882 91.36945 12.32067
11.24562 55.84005 9.451682
0.9589158 61.08708 11.74898
12.08099 57.29907 8.691679
3.188625 54.83109 10.42765
-13.89465 86.98705 9.899104
-11.74505 84.16071 11.81948
-10.60487 98.23186 9.882532
12.17766 102.9412 9.599646
9.037856 96.19621 10.61943
5.78339 91.71411 12.04671
13.21094 81.27746 10.45724
7.516895 88.62597 11.52742
4.332866 55.4762 9.931599
1.591797 58.07348 10.48874
-13.50087 88.57685 9.311054
-12.17006 86.00811 10.80348
-9.891363 84.71323 12.01093
-12.21087 81.81993 11.07936
11.94813 103.6787 9.913153
0.3307768 55.27845 10.47227
-10.78428 85.78445 11.67538
-11.72579 89.10799 10.55538
-13.46795 90.32822 9.801257
-10.88113 81.28796 11.8615
-10.38118 82.94321 11.99846
11.24273 103.2255 10.4419
7.701128 102.8217 11.78617
11.77773 100.5959 8.633282
10.58498 100.0574 10.82056
11.67331 100.1157 10.25616
12.19269 99.29722 9.407088
-8.571343 81.95078 12.26234
-9.368706 83.89323 12.80615
9.917261 99.53005 11.13839
-8.432752 87.64773 12.10526
12.87247 95.91181 8.635192
13.1841 97.35125 7.87851
13.70312 99.24129 8.237683
-7.013364 86.41756 12.16463
-10.4604 87.2931 12.11215
13.09726 98.64673 8.29235
-9.763106 84.20982 12.35844
-6.121184 85.03033 12.40578
1.232118 50.55587 9.595141
-2.107189 107.8642 14.36025
-1.343928 105.2341 14.02678
-0.8790588 107.11 14.83551
1.644512 107.4137 14.74344
4.238843 108.3925 13.76308
2.362217 107.6779 14.64622
1.771878 105.4762 14.23288
1.295402 104.293 13.14608
5.497783 105.6148 13.718
4.010083 108.7426 13.50382
5.035143 107.6015 14.23582
-0.4887931 105.1627 13.90465
6.145671 108.5075 13.06492
9.847815 105.5273 11.13871
8.796311 107.1775 11.76503
8.823633 107.8615 12.09666
9.948822 103.3461 10.87692
9.323823 101.8856 10.78076
8.087967 104.2442 11.41748
12.11803 108.2269 6.731826
12.77817 106.9776 8.247954
0.05836553 105.2279 13.93627
-4.512103 101.4217 12.72383
-3.42614 103.261 12.70724
-1.783582 105.0083 13.68026
8.984858 106.5685 11.33984
3.778268 101.8483 12.90764
0.0620097 102.7412 12.89597
4.292427 103.406 12.51089
5.287856 102.6637 12.16318
6.16773 102.6804 11.99596
3.290597 101.7637 13.03286
3.584396 102.9173 12.5997
4.242605 103.8248 12.59365
-7.791764 97.11465 11.81614
-5.036399 104.0025 12.61525
-2.76617 102.9136 12.73276
-10.00508 108.4369 10.25787
-11.32707 104.6985 9.230169
-8.554833 106.1077 11.88083
-9.015073 105.4101 11.72398
-5.844129 104.2459 13.09022
-10.98712 103.7502 9.966096
-11.75409 103.0234 10.33151
-9.39124 106.1559 10.8711
-12.25283 102.4773 9.820649
-11.49847 99.8306 10.27198
-12.92151 102.3512 8.740356
-7.930609 98.70087 11.38669
-7.710791 107.8874 11.72808
-10.25851 101.1884 10.48928
-4.126922 101.4951 12.74392
-6.876527 104.8756 13.40631
-9.056208 104.1823 12.54746
-9.009951 100.4452 12.01667
-8.377863 104 12.56935
13.84863 51.59722 5.072742
-10.46598 59.00542 9.56682
-11.22379 54.80767 9.13796
-11.50445 58.98827 8.855165
-10.42184 52.56618 8.817726
-7.304217 52.07183 8.711962
-8.982653 55.41111 9.165104
-11.38828 56.11777 8.856323
-6.231227 55.1632 10.30959
-8.657531 57.02851 10.25282
-9.295014 57.66464 10.21678
-9.00467 58.62703 10.98323
-9.401947 52.58247 9.015848
-6.979572 55.74625 9.863251
-6.464018 55.27278 10.07899
-8.171587 56.50065 10.72688
-6.787075 54.63868 8.935244
-7.999553 59.16726 10.48478
-5.244585 53.8104 9.07735
-0.7646288 55.33766 10.64514
-0.116418 57.95733 10.14972
-1.801084 57.36137 10.03216
-8.787086 59.39473 10.40489
-3.520877 55.30614 11.25573
-8.442651 57.332 11.20621
-6.355624 58.11015 10.48439
-5.880976 61.95981 12.01358
-3.706184 57.97429 10.11643
-6.49218 61.2157 11.94683
-2.729408 55.95387 10.79142
-5.351227 58.96565 10.31404
-9.903248 59.71693 10.49374
-9.551063 64.51762 11.01842
-8.837341 60.34484 10.29031
-7.88268 74.03608 13.01312
-2.33586 61.95633 11.67296
-0.4358326 68.81207 12.00245
-7.311925 67.21329 12.71535
-9.18653 68.03799 12.53644
-10.34222 62.42719 11.17388
-12.31836 65.33896 10.74997
-10.80522 65.52831 10.82606
-12.55867 64.30486 9.588809
-2.848291 58.59272 10.3823
-12.02717 64.04118 10.16879
-11.26418 63.6309 11.12228
-10.96381 59.22605 10.97296
-12.87296 60.53866 9.262072
2.980976 57.67847 10.1475
1.916804 60.55322 11.85569
-5.558866 62.11576 11.95975
-12.26837 61.92356 9.61008
15.42072 74.09533 3.005033
-14.60321 91.66982 7.26862
15.6375 91.37421 2.832862
-4.214206 106.7301 14.42741
-2.606509 107.2982 14.49609
-11.85858 71.88911 11.25037
-4.11373 51.80774 8.306247
-4.521966 53.89136 10.52238
-2.99837 53.32635 11.00441
0.9151796 51.00479 9.954874
-1.061158 50.56225 8.53575
15.5986 69.028 4.362304
14.15452 66.23574 2.438055
14.75368 74.03051 4.83119
15.32842 81.63026 5.919404
14.96328 82.31639 9.578514
15.0084 81.27165 6.32679
15.25745 76.91624 6.079995
14.32918 84.54993 8.535978
14.51457 58.63751 4.906572
14.19265 60.2028 7.022207
14.98271 59.89594 6.508207
14.72015 57.16438 4.379113
13.901 55.57843 4.978762
-14.81087 95.02393 6.496566
7.271753 50.77148 9.242384
-13.59206 73.47057 10.44087
-11.0579 74.08277 11.96983
13.89597 100.983 3.640044
14.02558 86.05807 9.331914
14.65642 87.39227 7.661547
14.96259 89.90708 6.689423
9.386029 57.5837 10.12553
8.806291 56.79552 9.634012
6.391251 57.26152 9.885659
4.756914 58.32769 11.02512
-10.75652 95.69784 10.1591
-9.450745 94.72278 10.66095
-12.53952 91.5378 9.923746
-11.80079 92.61619 10.12463
-6.718729 91.58593 12.26807
-7.958051 95.35599 10.90126
-6.373068 99.07569 11.67095
-7.431228 97.81156 11.10189
-8.100622 96.98699 11.86753
-7.628554 99.89225 12.38444
-6.302536 97.69456 11.41228
-5.86267 98.41021 11.44134
-5.82288 99.64508 12.75508
-9.91503 97.70457 10.32477
-9.437279 99.91282 11.91429
-4.297042 103.0883 12.45066
-6.677073 100.6756 12.6437
3.914197 89.113 11.50015
10.559 88.48143 11.32511
-12.12845 90.46611 10.56939
-9.768098 82.88963 12.28691
8.130533 102.2304 11.63322
6.989001 101.905 12.10965
5.373601 101.2606 12.94984
4.812253 100.2883 13.15065
8.506766 100.3609 11.05231
6.890464 99.21359 11.32607
4.998558 99.83037 12.70738
6.528351 99.32977 11.4415
2.080039 95.29517 11.97787
4.881082 95.22995 11.76032
7.616473 94.10133 11.4473
6.732766 93.85442 11.28046
-3.305403 96.67704 12.11972
4.364289 101.134 13.26687
-4.061436 98.9883 11.78061
-1.741264 99.9012 13.14146
3.195649 93.21973 11.10578
9.680707 97.95786 10.32597
5.988335 94.83457 11.83871
7.780312 91.94977 11.13332
4.856659 93.50354 11.35026
3.460888 98.15421 11.58883
0.5192859 101.028 13.73614
-0.3478734 101.669 13.37515
3.381486 90.69903 12.52527
4.573064 90.53702 12.4056
4.848082 89.18949 11.51227
3.294594 99.14657 11.87735
0.07047614 100.0161 13.28663
-0.9710265 101.5064 13.5451
-1.870159 101.069 13.52387
3.535859 92.00897 11.65258
1.630417 99.20016 12.1009
-1.090768 99.8168 12.53489
0.3065129 96.62637 11.69792
-7.694016 88.43607 11.69865
-2.88361 87.19629 11.87292
-5.905479 91.98827 11.76346
-5.629152 91.03707 12.24741
9.134699 107.3934 11.6306
-10.81743 102.4273 10.33738
-0.2459754 56.48645 10.0508
-6.920037 67.2356 12.76374
-8.101517 68.94236 12.67158
-7.706007 68.16484 12.84129
-10.57869 71.5071 11.81383
-9.671916 66.63331 11.3526
-11.58916 68.3489 10.87979
-12.67241 68.88923 10.00036
-13.30129 70.11221 10.43602
-9.00029 65.39539 11.11016
-9.505422 67.54811 11.78288
-12.59536 70.52818 10.6245
-6.734807 63.39739 11.40862
-4.234064 60.93798 11.99085
-0.8565007 61.22571 11.88063
-4.933459 63.3248 11.01121
-6.228448 64.6491 10.78448
14.56537 76.18938 7.967788
-13.25193 94.44901 8.603269
9.800398 53.18537 8.819306
14.86694 71.06223 5.712902
14.88601 68.75098 4.982957
15.58768 67.30251 5.900176
15.52804 64.0942 2.872236
14.99541 74.67347 5.48002
14.4771 82.15527 9.845304
14.10627 80.9911 9.915735
13.72864 81.35596 10.10967
13.68709 85.53088 10.02859
13.69291 81.822 10.22881
13.25297 85.17205 10.48811
13.06564 76.36521 10.14412
14.81453 84.90254 7.885591
11.47501 83.41864 11.50362
14.50666 86.60564 8.108132
10.3828 87.66513 11.55551
2.009021 88.24353 11.36242
12.73493 83.6497 10.63374
14.67499 78.82957 7.156282
14.09443 76.63805 9.034885
14.78854 77.50027 7.6896
14.03658 78.4109 8.753746
13.66373 75.91644 9.297206
14.05996 76.37954 8.987544
5.467115 73.39929 12.61443
10.69176 74.49891 11.79564
13.04018 74.85881 10.00034
13.16871 73.72553 10.00414
14.58796 78.58005 7.508837
15.144 76.7077 6.608433
15.64287 77.62099 4.496218
12.28989 75.94978 10.85719
8.710839 77.71107 12.43622
10.26532 74.79981 11.99114
8.312526 76.0341 12.43073
13.52887 67.29154 8.302469
14.84308 70.17438 8.068159
15.59234 73.4958 3.856864
14.58916 70.36189 6.074249
15.03358 70.88808 6.343737
12.32212 72.71367 11.04199
13.86578 72.86805 9.028081
4.544443 73.38693 12.73013
2.562672 76.50099 12.15345
5.824411 71.44455 12.82717
2.266247 76.27711 12.10648
2.769568 72.08552 13.31793
7.879299 73.02282 12.76711
1.908627 71.61848 13.09715
2.024991 75.07854 12.08166
3.469856 71.65211 13.11458
6.733949 72.27152 13.06657
3.814352 75.1352 12.12986
2.341293 78.61176 12.64208
1.79271 76.61492 12.15832
2.330196 81.49373 12.51049
0.4240611 76.31708 12.09907
-5.831115 76.07702 12.45624
-0.5565019 75.72286 12.0329
-1.043581 69.0797 11.90245
0.2844618 77.65206 12.39613
-3.591625 73.86948 13.11185
-1.537001 78.47486 12.83779
-5.252909 75.33343 12.22802
13.21066 58.08252 7.334793
13.24493 58.23125 8.01135
12.78212 55.33885 7.779031
13.41569 54.12222 6.112192
13.74843 56.61644 7.371011
-8.816497 69.90086 11.93873
5.65119 57.20809 9.800146
2.996916 59.31283 11.6534
2.536309 60.15543 11.86389
9.768621 64.52116 10.84217
5.673565 59.19118 11.07826
6.708424 59.05329 10.72881
9.978976 59.45755 9.608706
4.284812 62.67098 10.58868
2.870613 61.45129 11.46934
5.934246 63.54664 10.53221
3.493516 63.33423 10.67904
6.530966 91.94276 11.33139
9.627953 59.57165 9.713473
7.604115 57.09598 9.669074
10.09408 84.17599 12.62346
6.254962 86.84443 11.80058
-7.221988 79.297 13.18909
-10.56469 81.0462 11.96862
-7.153053 81.15652 12.48741
-8.40328 81.73642 12.31311
4.188843 90.35284 12.26893
-0.1503914 92.41654 11.25415
0.2151297 93.35829 11.26445
1.35502 92.46249 11.13153
1.903901 93.10037 11.16126
1.718858 95.68776 11.87862
-7.579236 85.29948 12.22156
-7.253015 88.20528 11.74102
-6.507384 92.21516 11.32601
-6.228735 90.90205 12.17056
-3.147391 89.717 11.82472
-5.680298 93.56328 10.87195
-11.24226 91.58153 11.20544
-8.99814 91.59431 11.88113
-9.579164 93.16035 10.79982
-3.243737 89.07459 11.38902
-2.936502 90.54975 12.42585
-0.1602972 90.87197 12.59915
-5.078657 93.12189 10.94769
-7.822191 93.19935 10.9658
-7.212129 89.59863 11.52144
-0.9449348 91.90305 11.63058
-2.799051 93.71897 11.05782
-5.066083 96.18349 12.26145
-2.315358 84.42741 12.86506
1.889777 90.24866 12.21529
-6.204863 95.49847 11.60439
-0.3765657 88.25511 11.42404
-4.07495 97.74509 11.77552
-2.600713 96.20647 12.1473
15.26006 61.23424 4.743719
14.2767 61.79149 6.529575
15.58552 62.29051 4.282793
13.29505 60.93899 8.24094
13.85605 60.32818 6.972127
-2.636318 62.51251 11.21357
-0.7605428 62.74781 10.88418
-4.093107 65.35894 11.91269
-5.725717 67.98672 12.93326
-5.367227 66.85752 12.80247
-0.4509279 64.38418 11.3615
0.04433374 61.66128 11.49349
-5.807422 67.4387 12.89723
14.34039 69.62376 6.699905
10.96322 64.40554 10.32804
15.20575 67.68925 6.057168
14.1404 67.02285 7.718242
0.08077747 84.53275 12.95261
12.35917 79.83347 11.2434
11.00541 78.87085 11.94091
8.7787 75.73681 12.35019
11.1938 78.01159 11.76285
8.715403 80.92765 12.9561
12.66455 74.46159 10.48579
10.83257 73.03492 11.97922
6.790267 68.59365 11.86969
2.132899 69.69887 11.84284
-6.954223 78.25571 12.45102
-7.778316 76.45581 12.61189
-10.52553 72.96016 11.7621
-9.697438 71.10967 12.11133
-6.778309 78.973 13.00588
-4.919707 69.29624 12.00162
-8.202662 74.109 13.07658
12.20292 58.47777 9.041952
12.77603 56.65545 8.151564
14.32476 65.47183 6.036269
14.03938 64.53903 6.236835
13.82793 65.33231 7.840443
11.52155 55.16794 9.060162
10.31044 64.80659 10.81665
10.69084 62.9468 10.11756
11.51626 62.64781 9.791512
11.82499 65.4717 10.11231
10.96118 61.93305 10.31593
9.935008 65.90168 10.9449
10.32213 66.852 10.98452
11.29854 59.53948 9.081794
10.6309 62.54108 10.07582
13.0112 61.44815 9.31996
7.755688 66.51032 12.00933
13.9416 71.76869 8.239858
13.41062 68.98437 9.345555
7.308403 62.76855 10.51567
13.87399 69.02985 8.093113
11.31787 66.38171 10.62476
14.95868 70.53917 6.68853
12.54466 68.31155 9.820797
11.97295 70.44471 10.61688
13.15327 71.02977 9.472945
11.58774 72.19582 11.23079
11.30824 72.50183 11.58345
4.507934 69.1347 11.73114
9.952779 67.75472 12.07739
11.76732 84.22887 11.72327
10.92209 85.25693 11.66146
-7.447241 76.41325 12.58818
-8.033221 80.48055 13.26188
-4.398099 79.45066 13.55497
2.614077 80.02789 13.5484
-1.912238 79.76944 13.74571
-5.034491 77.66267 12.42029
-7.706137 78.91575 12.75497
-3.270488 79.78628 13.68935
-4.71761 80.86161 13.12415
-5.590648 82.57499 12.39463
-5.239487 82.49005 12.36202
-6.19896 84.16265 12.93104
-3.738563 83.69563 13.10621
-2.987669 81.65763 12.18832
-1.850731 87.14996 11.75549
-2.69871 88.23849 11.49325
-1.159003 85.86658 12.24427
2.64881 86.6859 11.66608
1.982842 85.8803 12.11154
0.01316728 83.93151 13.13995
5.234972 85.20428 12.60207
1.018409 81.82681 12.34987
-0.2432657 85.3931 12.48829
-1.057393 96.09521 12.07761
13.53424 62.37075 8.402452
2.79239 65.18941 12.15637
0.4536597 64.32594 11.39907
2.001091 67.74508 12.56357
0.6956893 68.26591 12.22842
0.8904866 70.63432 12.31912
-0.8703979 65.73207 12.62971
4.902275 64.45703 11.38704
2.321243 65.57829 12.45542
4.546367 63.8346 10.83849
2.170744 66.95881 12.75951
3.561502 65.55613 12.30645
3.313441 69.10394 11.68644
4.906538 67.72305 12.52292
2.894557 70.62936 12.36746
5.897249 67.25477 12.69016
9.92344 68.35741 12.07899
6.063044 71.13309 12.57798
1.654401 70.67713 12.3517
8.128146 66.18034 11.49863
9.473449 66.89123 11.42109
10.19853 68.78349 11.57203
-0.1495043 70.16813 11.91478
1.311159 70.263 12.025
-1.593877 70.44709 11.94807
-1.142133 72.01907 13.24593
-4.447144 68.60023 12.41411
-8.591979 70.5621 12.08934
-7.923352 71.68317 12.14115
-7.674314 73.21005 13.16003
-6.476089 70.44981 11.78099
-6.224765 73.34097 13.6034
-5.355007 69.81826 11.79325
11.51966 82.1501 12.0707
-9.769367 73.2178 12.00874
8.756838 60.78714 11.27318
13.40567 60.65638 7.800391
11.95961 68.55666 11.12886
9.297793 86.17095 11.93089
11.18487 84.03913 12.04741
8.062357 86.11131 12.03248
7.24291 89.16582 11.46683
6.983038 89.85706 11.78276
-1.091329 82.16689 12.27106
-0.5727124 82.39614 12.38123
2.869063 81.01888 13.26197
3.717414 85.1125 12.72678
3.948326 77.28463 12.35078
1.231757 81.56388 12.41362
4.955302 79.39841 12.81598
-0.8207054 80.74941 13.3518
-0.1928461 80.66746 13.44474
-0.6397808 67.47389 12.7131
7.898718 70.68334 11.94332
9.191918 70.69198 11.8826
-0.01715425 71.71404 13.14369
-4.852138 74.20718 12.7293
-2.393237 70.69193 12.03288
-2.424855 72.52782 13.55872
9.600074 82.46592 12.64864
5.324966 77.3178 12.40676
5.011893 86.6904 11.70109
2.827411 86.40095 11.77355
2.648954 84.14042 13.03008
4.451772 83.19274 12.78247
5.850676 85.68161 12.18381
6.913049 84.07053 12.93297
8.875364 84.01448 12.96712
5.514598 77.74632 12.4768
8.014106 80.14395 12.64351
5.105651 82.83002 12.61592
8.262738 82.37126 12.49711
6.33752 80.67743 13.35794
4.703084 79.37601 12.82097
0.8196242 77.65402 12.39633
3.691652 77.16348 12.32667
12.39413 108.4886 1.50211
9.171171 110.7735 -2.706508
10.52023 113.6645 1.208601
10.43109 111.1408 -0.6653194
-9.458713 119.9075 -0.9748498
-3.942135 111.1691 -4.150773
8.131195 113.4461 -2.233915
10.39845 111.0104 -0.7794743
-10.45942 117.5426 3.584234
8.966251 120.6985 -1.994791
9.347005 111.574 -1.863275
11.00928 121.3029 4.585984
0.09844703 110.5395 -4.402083
10.478 118.1982 3.25469
7.522148 119.9575 -2.890463
-6.805199 112.2386 -3.353284
9.418619 117.7094 -0.07485399
-8.639788 112.0091 -2.502924
10.54556 118.7813 3.11226
10.8253 120.3092 3.798378
0.3874092 112.7214 -3.653672
10.96304 120.8707 3.68429
-5.715363 110.7053 -4.161494
-9.685044 110.7711 -2.258714
-9.897025 119.5517 0.08847525
-9.259653 113.1687 -1.401229
-8.009193 113.0907 -2.448054
-0.7395095 110.6678 -4.33439
0.1476962 110.8173 -4.275762
-11.27809 112.5497 4.301517
-3.458191 112.2912 -3.850097
-10.7317 114.3282 3.063066
10.4514 118.9059 2.328031
9.698972 120.3766 -0.7727065
-9.885756 117.4169 0.93238
9.904976 115.2138 0.6329518
9.875043 112.3153 -1.078771
2.789981 119.0691 -4.01454
-10.07306 116.3988 1.566833
-11.31425 110.4118 0.01653574
-11.76332 111.1591 3.234232
-10.42386 119.8934 1.516489
-8.688936 117.6956 -1.107588
-3.196865 119.9865 -4.005042
8.777409 112.2567 -2.228378
3.741801 120.0077 -4.249393
-2.032223 118.8892 -3.962385
-9.971284 113.6835 -0.005037917
2.87487 119.5983 -4.18757
5.950518 119.839 -3.614167
-10.32199 115.907 2.451583
-1.864437 119.7158 -4.114454
-8.193155 118.8831 -1.957989
-9.314738 120.2988 -1.2547
3.014365 110.4561 -4.420273
8.239498 117.6169 -1.563463
-10.42605 114.5586 1.659665
-10.34871 116.5102 2.866275
-7.967103 116.2504 -1.714763
-9.386035 116.1513 0.02221507
-8.052126 114.4319 -1.958561
-10.25226 112.9058 -0.07628869
-5.796637 112.5751 -3.525288
-3.737575 119.0461 -3.995961
-8.712922 118.4901 -1.326802
6.149835 112.1661 -3.541707
7.227912 113.1174 -2.851335
5.708049 112.4188 -3.604605
9.9226 115.9446 0.9519843
7.38587 116.5458 -2.231404
6.272922 117.97 -3.08914
-0.6929775 118.1178 -3.795044
4.779541 117.5255 -3.592461
-8.584908 113.9986 -1.637766
8.03573 114.0698 -2.036059
1.118888 112.2731 -3.792254
9.192039 115.3398 -0.4586772
7.042293 117.4655 -2.494354
4.677191 115.3421 -3.428933
4.558524 113.6959 -3.514671
9.771792 116.9355 0.7619388
-2.11444 117.7265 -3.938935
-3.929296 111.7962 -3.951084
2.703659 113.7047 -3.579834
-7.322901 117.5032 -2.354914
-5.121923 117.9173 -3.542576
-4.517002 117.4058 -3.615757
0.07166321 116.0451 -3.319089
-2.997295 113.9979 -3.592775
-6.614771 114.3082 -2.869009
-1.171265 112.7825 -3.695335
2.480901 112.5968 -3.727214
-1.604886 116.6853 -3.492972
0.6227829 114.0176 -3.588017
1.775187 114.7245 -3.500561
-2.481356 111.6674 -4.023739
0.8393794 110.3988 -4.46785
3.511254 115.8944 -3.570108
1.654358 112.1364 -3.853164
10.59191 114.1456 1.97459
1.010423 54.41457 -4.369253
13.13631 58.51108 -0.2746381
-15.71559 56.5577 5.924277
14.31693 64.58076 -0.06000122
13.19233 72.44924 -0.2876351
14.38249 65.26315 0.4390458
8.22648 51.71143 -2.790522
1.022968 51.1062 -2.64167
13.39681 103.0742 0.5289322
14.26378 71.95026 -0.3224236
7.603863 51.47502 -2.881404
-2.240439 48.86044 -3.082603
12.83913 106.4861 -0.1158148
15.22047 82.35606 -0.2223751
12.94654 94.00949 -2.990061
14.9463 84.00931 0.0894246
-14.58081 60.58762 4.072383
5.0069 109.791 -4.961176
11.84481 102.923 -3.490035
14.54896 87.96553 -1.066404
13.12056 102.4896 -0.2013606
12.78162 106.3827 -0.4333423
13.00847 107.4232 -0.01666333
-10.15775 50.9449 -2.549933
6.062704 109.1589 -4.832465
-15.29367 52.21111 2.478233
15.11876 80.45026 0.7116322
-7.388156 50.77346 -2.756275
-15.54093 82.94215 5.785351
-14.76774 65.11214 5.334138
13.36547 53.20017 -2.438948
14.69714 54.62482 -2.225713
-15.569 56.31345 5.289084
-16.15022 53.87903 4.263923
9.814073 92.22202 -7.952652
-14.80221 66.31703 5.818286
-14.14596 62.92617 4.622626
-15.05227 76.77011 6.892521
-15.01602 79.24702 5.708257
-15.35758 81.05959 6.571111
-14.46748 77.28188 0.4524304
-16.07042 55.30809 5.480383
12.4092 54.01167 -1.806469
-15.6014 87.9507 4.941326
-7.725001 110.1323 -3.964823
-13.92307 95.1647 -1.168065
-12.83021 89.97238 -3.906238
-13.99302 101.5133 4.603157
13.64578 56.40016 -1.775964
-14.64068 96.1244 2.703707
11.29589 57.40895 -2.493514
-13.37955 102.9606 4.139223
-13.20782 106.268 2.446826
-12.29226 106.0335 -2.098674
-14.48864 98.06948 4.528881
-15.3366 56.53771 6.451509
12.60859 108.463 -0.3317331
-8.64292 55.48907 -2.609342
-14.79771 64.42694 5.838918
-15.93033 53.82835 3.761901
-14.75753 59.70155 6.514119
-16.00073 55.81573 5.471781
-14.01497 99.95058 3.86405
-11.25384 108.4826 -1.794753
-14.0325 101.8673 2.4717
-13.00998 108.0616 1.226341
-13.08842 105.6299 4.925593
-13.40367 103.8242 2.993595
-13.07566 107.8455 3.905976
11.99449 53.62902 -1.723758
11.15561 53.76804 -1.543458
5.495211 51.76156 -3.096555
13.85776 64.05359 -1.061445
-0.4292419 49.36236 -2.943519
12.99946 82.38781 -2.93355
-15.07923 79.78835 5.949829
-15.89121 85.4519 5.025073
13.48332 97.49473 -1.712775
1.147166 108.5615 -5.221147
4.486943 109.4321 -5.373645
9.508552 109.7195 -3.489349
12.78156 102.3205 -1.590336
12.67409 104.1335 -2.085189
-9.073659 49.71424 -2.922866
-15.49803 60.57763 5.625774
-14.51848 51.59504 1.725741
-14.89591 87.50132 0.04960661
-10.53368 106.0632 -4.313622
-15.41137 84.06841 2.740948
-12.10365 109.3747 -0.01544852
11.88351 60.17757 -1.080754
11.74283 56.18371 -0.9988605
13.06439 59.76757 -1.631426
6.504015 50.7118 -2.918674
7.830959 52.98591 -3.24823
13.00306 75.37695 -1.458362
14.52829 72.05292 -0.02524262
4.511623 50.65414 -3.004077
-5.147494 48.99639 -3.04736
14.50703 77.01754 -0.3702229
14.2977 80.83341 -0.2699447
13.40298 93.97739 -2.177097
-15.35213 69.40554 3.586117
-15.44676 80.33186 4.721434
0.6245652 108.4537 -5.138787
-2.557808 108.6544 -5.58576
12.59635 97.68307 -2.670878
9.218326 109.1287 -4.04417
10.21964 108.6176 -3.797861
12.71099 107.197 -1.217756
11.89963 104.6072 -3.120547
12.45858 104.2738 -2.510741
-6.814939 50.0656 -2.824447
-8.447286 49.15918 -3.098507
-14.18838 58.68231 6.408593
-14.71974 67.38086 6.9062
-15.64434 65.85262 4.824252
-15.13034 92.9761 3.247579
-8.55094 108.8229 -4.554302
-7.499621 108.3162 -4.905153
-2.03053 109.709 -4.793242
-15.56655 88.80073 3.378222
-13.6946 100.2258 2.677253
-10.86793 107.6578 -2.988523
-12.53323 108.1066 -0.6943871
12.23117 60.71862 -0.7439247
10.81131 54.75739 -1.636299
10.42892 55.76358 -2.493734
9.341616 55.23967 -3.194433
5.799074 52.90546 -2.89178
6.380102 52.52041 -3.219598
14.34175 76.60779 -0.6934876
14.37456 66.25595 0.2835888
13.22594 66.7361 -0.4958277
13.97056 70.95392 -0.9622657
13.53006 65.21405 -0.9933791
0.1513813 49.8237 -2.837407
0.4747324 52.72874 -3.438628
-2.367436 49.96945 -2.746762
13.98154 76.24659 -0.8278613
12.3688 77.27959 -2.658223
13.36113 76.11568 -1.578844
13.7906 82.02124 -2.405187
14.27405 84.95992 -2.323935
14.4349 88.54504 -1.508879
-15.33684 73.2075 7.026365
-15.56641 76.71495 3.564824
-15.60461 84.83393 4.857936
-15.74477 87.27019 2.274002
-3.228329 109.08 -5.611688
14.20886 92.34097 -1.170192
13.13398 99.99371 -1.010816
13.49805 99.10815 -1.299748
4.057184 109.459 -5.346095
12.24825 107.304 -2.111467
-11.52189 50.84993 -1.890841
-6.001745 51.70277 -3.285139
-5.046331 50.0734 -2.767367
-14.63742 59.23697 5.08861
-15.43179 64.16082 3.740354
-14.05671 62.15772 2.856178
-15.24445 59.40017 3.112727
-14.81068 62.70899 7.250026
-15.68777 68.31841 6.251184
-14.4503 56.65658 5.131443
-14.37521 97.71878 3.519449
-15.32435 90.73815 3.148597
-5.906838 109.3146 -5.158277
-3.418363 109.3552 -5.295001
-13.31941 101.4444 0.9421306
-13.90108 98.59686 1.040502
-12.44979 103.071 -2.184479
-11.6722 105.1565 -3.217029
-12.16616 104.8198 -2.615576
-13.38569 106.8702 0.5478804
9.389564 59.06497 -2.418725
7.914068 55.27258 -2.753005
3.356446 53.29824 -2.669401
12.53416 72.89982 -2.267427
11.73821 67.36484 -1.295227
13.61778 68.87952 -1.262768
1.61992 51.04002 -2.599603
-3.409413 52.58249 -3.931988
-0.1396341 54.11168 -4.432918
-2.806773 53.71765 -4.467495
-0.6144779 53.2484 -4.037653
2.006634 54.2115 -4.076124
12.82362 75.17003 -2.045502
14.06993 82.8428 -1.722561
14.65631 84.11578 -0.2705963
15.09428 86.53625 -0.5057057
13.59622 92.95057 -2.54704
-15.27935 68.81736 5.734712
-15.03041 69.72402 6.238859
-15.16931 73.55938 7.246691
-15.04465 78.76056 3.936143
-15.69783 80.82764 2.567548
-15.10213 75.36277 6.699275
-15.76533 85.52856 3.397877
-15.47547 86.80177 2.709499
-15.64975 84.82351 1.768652
-15.0097 86.96088 0.5433959
13.294 92.6115 -2.888215
13.65768 99.36711 -0.6565937
12.40278 102.0671 -3.161026
-9.768773 51.55514 -2.546947
-8.352888 53.1197 -3.667472
-4.699765 51.07534 -2.958239
-14.21466 59.65663 3.006044
-15.07142 95.76483 3.429087
-14.94167 94.73724 1.707514
-14.16703 98.30008 2.016311
-14.79601 92.08973 -0.5151168
-13.74252 96.66695 0.7196604
-14.45547 95.72569 0.225951
-14.90472 92.52615 0.7315352
-15.874 87.80849 4.017225
-13.59339 105.947 1.770959
-13.5131 104.0001 1.761942
-13.70433 101.5693 1.607469
-13.74317 103.8384 0.8282301
-12.73359 99.19147 -2.227638
-10.34012 106.84 -4.09459
-9.604613 104.5047 -5.52872
-8.352599 106.5354 -5.571067
8.333551 57.70191 -2.395101
10.76562 58.56858 -1.99533
7.240244 53.34914 -3.259415
4.460993 54.68628 -3.204079
11.52402 70.38279 -1.936951
9.984306 67.76656 -3.377623
12.29947 73.71018 -2.165999
12.59842 77.49036 -3.205105
13.81558 78.09425 -1.192834
12.84375 79.63097 -2.309034
10.80273 76.68335 -4.125597
14.06316 83.94255 -1.594945
12.89042 83.20927 -3.158133
14.33667 88.23882 -1.586978
14.37489 91.5918 -2.584283
-15.03603 81.53416 1.784421
-15.42948 82.25925 2.817548
-14.05874 81.86665 -1.213781
-15.11423 83.43612 0.1187412
-15.30009 85.18452 0.14807
11.22569 93.69122 -6.121375
12.4664 101.1422 -2.548469
12.23472 100.9883 -3.14343
11.83217 96.04553 -4.50105
11.44467 97.43225 -5.126953
12.27857 95.42361 -4.186223
10.35371 95.76892 -7.008587
10.54403 89.24495 -7.07381
8.36541 103.1147 -6.8994
11.18061 97.45892 -5.872118
11.47291 101.6724 -4.500703
3.564821 107.7859 -6.005116
-7.623339 52.50414 -3.478591
-15.58448 60.07354 4.29612
-13.34574 99.82735 0.1947558
-13.37307 98.06186 -0.1399498
-13.35132 93.56239 -2.101825
-15.18104 90.66157 1.917693
-15.62661 89.39847 4.235456
-3.8059 106.2875 -6.870668
-3.458211 106.9536 -6.557261
-6.292752 104.9606 -7.058796
3.094516 54.1254 -3.623964
6.871011 55.09414 -2.401199
6.214802 56.36016 -3.671528
13.0153 72.52903 -0.5345156
13.23063 80.01007 -2.097887
11.03851 77.47802 -3.615912
13.48482 82.69946 -2.430555
13.5224 86.33652 -3.145163
12.52792 84.82278 -4.538128
11.65229 85.36192 -5.176684
-14.49713 80.3351 0.3351372
-15.52697 80.16292 4.127759
-15.12618 85.6054 -0.04975437
-14.62351 86.72359 -0.8363735
-1.93425 108.3919 -5.338261
-2.141624 106.5844 -6.386068
12.49376 93.44127 -4.147554
12.68975 100.9905 -1.858219
10.19357 100.8595 -6.01454
10.31509 102.6348 -5.457918
10.91996 103.6444 -4.603858
11.25173 93.79941 -6.071792
2.742213 106.1168 -6.482388
-9.62181 52.65492 -3.120229
-10.90641 52.86468 -2.701472
-12.72402 57.24805 0.2685668
-9.245775 56.16669 -2.750408
-13.86268 54.00874 2.334918
-13.90483 57.55323 5.203504
-12.75876 95.75314 -3.273612
-15.51704 87.74876 1.671015
7.783051 58.2346 -4.164959
8.836871 58.90084 -3.719823
10.61451 59.87489 -1.547928
5.49656 55.51502 -3.409585
12.25647 77.51852 -3.313189
7.634562 76.67105 -4.945914
10.78865 74.4315 -3.717642
12.08567 83.0345 -3.91519
-15.1434 79.57616 1.241702
-15.62701 76.73295 2.518276
10.44329 102.5588 -5.357871
-14.37599 57.17369 1.190482
-12.91466 94.54187 -3.201472
-15.67684 88.86686 1.448712
-14.10109 86.40754 -2.038508
-14.33868 87.64973 -2.344514
-13.85797 86.60014 -2.38178
-14.51865 85.38464 -2.062167
-12.51492 87.68748 -4.806266
-10.54647 82.48714 -4.933134
-11.56982 87.07223 -6.591697
-10.70316 84.86693 -5.701244
-13.15237 84.22817 -3.005734
12.21988 61.9556 -0.72823
7.452519 57.61745 -3.518686
10.3533 76.33512 -3.706597
6.381142 75.07089 -4.560185
11.81679 84.42149 -4.668235
9.315057 84.11432 -5.770971
9.741728 86.51033 -6.751115
-15.27183 79.68865 0.9489507
-15.36345 76.82664 1.953614
-15.32388 74.476 5.018045
8.371348 102.6875 -7.011061
7.292491 100.8477 -8.233238
7.188006 103.1244 -7.472216
9.353552 108.5442 -4.48626
11.47864 91.93098 -5.869416
-13.99493 54.95631 0.2963151
-12.9779 96.93163 -1.391235
-13.95052 91.31902 -2.652646
-13.28042 86.54571 -3.407997
8.400062 60.99193 -2.464711
13.16391 64.06943 -1.471868
13.46769 63.33201 -0.4684426
4.074924 56.10211 -4.454956
9.20466 82.33219 -5.393291
9.88347 81.93018 -5.053885
3.715138 86.41172 -8.254166
7.1479 83.77106 -6.329701
9.1241 85.60545 -6.745031
10.34182 88.01952 -7.10471
12.81057 86.96432 -3.809487
-14.67814 78.72901 1.489678
-15.13823 76.33975 2.61995
6.656704 101.0015 -8.457045
6.73309 104.524 -6.977473
4.401302 106.263 -7.197456
-11.33125 95.64603 -5.656755
-13.46 95.0695 -2.487071
-12.05379 97.13724 -3.643485
-12.49447 90.04581 -4.384022
-1.921921 56.40284 -3.845602
7.959774 81.06079 -5.426955
7.727499 87.43433 -8.292106
7.845517 85.88497 -7.448271
7.170274 87.55948 -8.525883
8.076199 86.94749 -7.895388
11.16016 89.80573 -6.40584
7.960214 89.43708 -8.940476
7.434187 90.17666 -9.332775
4.830277 84.01737 -6.55141
4.777332 93.18681 -10.10348
4.73547 87.53996 -8.899069
-15.30283 75.16089 3.560823
-13.7613 92.62846 -1.896962
-11.98059 97.84963 -3.605296
-13.44526 92.65788 -2.337583
4.390158 60.39535 -2.269912
9.969368 79.77902 -4.520787
11.72857 78.88459 -3.209155
8.639316 79.76056 -4.939954
5.486234 89.45969 -9.653397
9.035429 91.74524 -8.609872
9.147242 91.89835 -8.518543
8.552457 92.39865 -8.937938
-14.25455 79.67447 -1.031808
-11.78647 82.97095 -4.16388
-13.56287 75.67705 -0.2750892
-14.35204 76.92661 -0.2066164
-14.47586 73.21075 2.407696
9.759731 106.7183 -4.447292
-12.447 93.46216 -3.952698
8.389139 81.24127 -5.378558
7.658573 92.80558 -9.455666
-13.08315 82.16989 -2.656348
-8.445395 83.314 -5.854059
-14.46096 75.71353 1.67795
-13.78675 74.38522 0.2247737
9.704332 107.492 -4.570034
-13.61719 91.58094 -3.399878
-12.03578 92.96246 -4.805663
-14.36709 72.49365 2.184766
-13.85982 72.5405 -0.8090751
-14.11287 70.70393 1.813736
10.85803 105.3795 -3.98552
-15.33056 74.50561 3.826046
-13.34113 71.56243 0.1313486
-14.11508 71.56565 1.828333
-14.78751 69.8575 4.317687
-13.33084 49.80927 -0.5602217
-13.64401 50.2165 -0.01406391
-2.940766 51.84497 -3.36295
-11.86316 62.54241 -0.6757424
-1.466518 56.48227 -3.865747
-14.78275 67.18703 3.193825
-15.44595 64.5007 3.414438
-13.5321 63.36142 1.527317
-15.50405 64.15429 3.383373
-13.87057 93.94953 -0.7104746
-11.69039 101.4845 -3.718894
-13.22048 99.58271 -1.112778
10.59763 69.99791 -2.547771
12.55038 91.89363 -4.371275
-8.278413 57.00153 -3.033287
12.56115 73.42786 -2.433096
0.5262877 101.8935 -8.555391
-2.639106 105.4576 -6.940357
-12.44356 53.93414 -1.653329
8.557478 61.06647 -2.482099
4.189439 64.70208 -4.727531
8.637317 73.66157 -4.008306
7.983713 74.28048 -3.992113
6.850307 71.48693 -4.148388
9.692877 71.05749 -3.853295
9.945176 69.85578 -3.256941
8.409883 72.74491 -4.184122
10.80606 71.38906 -3.034444
4.473202 72.39854 -4.187626
6.534146 70.71246 -4.430981
7.468129 73.6118 -3.94322
5.524516 72.93758 -3.981598
6.870958 58.55403 -4.238546
8.354371 96.25057 -8.584935
7.835252 95.88071 -9.013687
8.482739 96.44057 -8.488282
6.975301 95.69494 -9.451845
3.58702 99.02888 -9.483865
7.478095 99.77841 -8.468909
-12.51482 57.89426 -1.070499
-13.86109 61.24327 2.009089
-13.31013 58.18953 1.156379
-13.61061 64.31731 1.600574
-14.8301 63.18478 1.886127
-12.87302 62.14516 0.4052921
-14.28523 63.98824 2.587491
-10.20873 56.42357 -2.237949
-13.63913 59.81765 1.448857
-14.22804 71.01526 2.248386
-12.86485 64.03234 0.3683554
-13.98664 65.98637 1.095773
-14.20748 67.73016 2.938616
-11.9438 63.10837 -0.6215358
-12.78651 64.42893 0.2496304
-10.86064 63.2477 -1.561698
-14.47794 69.35918 2.08916
-12.88814 63.81924 0.407686
-11.80874 64.56431 -0.9243066
-12.19253 65.77926 -1.459948
-11.9521 67.04264 -1.242206
-5.392397 74.03241 -4.114424
-10.15504 66.20021 -3.109567
-10.64937 67.04721 -2.17144
-10.06109 63.80011 -1.919052
-10.60873 60.72856 -1.534084
-9.994348 58.28642 -2.153263
-12.28051 60.45724 -0.9362153
-5.502709 54.1524 -4.487235
-10.76147 68.27386 -2.313305
-7.292491 59.53082 -3.224461
-9.747851 59.89762 -2.255717
-6.951109 61.42238 -2.669271
-11.56727 59.10563 -1.999474
-8.612144 55.56261 -2.713633
-11.71733 74.43844 -2.193104
-9.325262 65.12418 -2.651927
-8.689635 63.74216 -2.602438
-6.928115 58.60143 -2.752584
-8.06229 56.09407 -3.661599
-8.987832 69.93271 -3.241877
-9.092798 67.42715 -3.024573
-8.303823 68.46737 -3.389181
-5.387099 68.48734 -3.332241
-8.11192 62.22984 -2.618024
-6.772831 54.19156 -3.884837
-7.177174 64.92625 -3.690417
-5.25994 65.98742 -3.474562
-3.28334 56.69368 -3.191852
-5.070603 59.00494 -3.20698
-5.827465 56.08381 -3.839513
-6.856164 55.02851 -3.862558
-4.045613 58.47327 -2.467463
-4.356293 55.54605 -4.279492
-14.73019 56.35879 1.920199
12.22821 68.24174 -2.807472
11.39658 67.31364 -2.418438
12.36946 66.12583 -0.7725264
12.41719 64.98859 -0.9055402
3.222396 82.26588 -5.808845
3.699605 84.22021 -6.699393
