# .PCD v0.7 - Point Cloud Data file format
VERSION 0.7
FIELDS x y z
SIZE 4 4 4
TYPE F F F
COUNT 1 1 1
WIDTH 1660
HEIGHT 1
VIEWPOINT 0 0 0 1 0 0 0
POINTS 1660
DATA ascii
22.34361 62.29277 -5.467927
23.98558 66.26256 -0.305138
1.480157 59.56521 -14.26646
3.0757 64.75638 -12.93215
2.833123 68.3468 -12.86344
1.704651 80.80922 -13.23681
3.794539 83.71542 -12.41776
21.98821 80.92229 -1.273026
5.19241 51.36756 -12.99026
7.475493 117.7193 -4.53675
5.465626 99.88193 -11.79658
20.72063 91.90594 -2.007755
3.296942 118.7773 -6.232522
6.044013 125.2045 -7.695776
15.20871 102.3425 -4.351974
24.05372 62.7353 -4.401783
20.99571 73.03508 -0.4680361
3.527723 64.56731 -12.61659
3.430627 77.75823 -12.31521
22.12641 84.52705 -0.6532955
22.4196 82.44217 -3.101172
22.03703 80.88875 -2.310807
5.044116 48.31749 -13.86128
4.487795 104.4385 -10.65027
9.507068 108.6496 -6.923255
11.81047 116.8904 0.2842932
20.84473 90.67966 -3.568748
15.05223 109.239 1.256654
22.69794 63.99596 -4.416511
21.93581 69.37417 -4.539415
6.228577 85.10295 -12.10697
21.42443 86.35065 -4.355513
4.473461 50.19437 -13.75879
12.89906 102.3381 -7.267365
7.712066 109.2712 -7.855813
5.196153 116.3114 -5.337623
8.598789 95.89784 -12.26712
20.76189 89.46565 -2.020597
5.192875 117.6024 -5.468503
22.86154 58.40171 -5.594098
3.93836 74.85947 -12.02603
5.499317 80.93699 -11.80403
22.10563 87.79545 -1.331633
21.26094 86.32372 -4.678909
23.56315 51.98511 -5.965516
22.56483 40.8317 -7.126244
9.661009 106.9139 -7.347058
21.5951 88.54886 -1.319774
14.25204 111.3777 1.502953
6.398764 75.38695 -11.1916
21.30429 83.94093 -5.061022
21.14516 89.48373 -4.139015
23.7207 51.58444 -4.548444
23.67213 54.75866 -3.544585
11.7575 114.9806 -1.080239
17.52882 100.1429 -2.582384
6.665106 77.32854 -11.33063
9.289714 78.49832 -11.30475
7.081959 76.19878 -11.16366
11.8661 75.88176 -10.80479
15.16603 79.78923 -11.07552
21.04314 86.18685 -5.118717
12.03312 116.2078 0.6535992
16.84925 100.2056 -4.8356
6.733078 80.54487 -11.63029
8.445349 70.66695 -10.52245
4.90425 88.3256 -12.46437
20.53335 89.79302 -5.147193
7.410875 91.25034 -12.67634
8.662442 70.54582 -10.51132
1.795292 91.18088 -12.75319
3.28254 91.88978 -12.81431
19.47108 92.01334 -2.720243
8.560754 72.28889 -10.64538
6.626317 89.29769 -12.51867
7.36223 89.68724 -12.57164
20.51808 91.4389 -3.111175
11.21904 71.58188 -10.68698
7.789451 70.50156 -10.57218
8.563344 85.79765 -12.24266
18.23156 93.85938 -3.394628
7.115466 85.39739 -12.14898
7.890338 80.83109 -11.6457
18.99783 93.49498 -1.31681
19.0728 85.98376 -8.063872
12.65735 84.18374 -11.77167
12.20734 80.81127 -11.52341
18.88314 96.64562 -2.823005
17.54196 98.36221 0.5463833
17.31204 97.23272 -6.145129
10.27284 82.45842 -11.8371
12.68348 83.81544 -11.75562
18.39456 81.93166 -9.466736
17.38819 93.67724 -4.939297
16.99105 95.9137 -6.606433
10.58963 83.90049 -11.9888
17.68402 93.59705 -4.400042
17.86363 88.1251 -8.9315
16.53482 94.94117 -7.023948
14.76926 89.51595 -11.2087
10.44098 93.19333 -12.36599
12.69167 90.27049 -11.90398
12.54282 78.17379 -11.06859
17.33293 89.23339 -9.156488
10.27515 92.46811 -12.41811
14.93842 77.71259 -10.78538
16.49268 93.14456 -6.713957
19.07842 87.91654 -7.619125
12.45689 77.00102 -10.88844
14.97496 99.71064 -7.913375
15.94384 92.83401 -7.49496
14.28879 93.39962 -9.511251
15.10581 93.53627 -8.751466
15.52316 95.86977 -8.48688
14.43044 100.2393 -8.161546
14.12416 95.93286 -9.721638
12.30761 102.9309 -7.537488
14.33497 102.039 -5.765036
15.56389 100.7959 -6.145903
11.74256 99.83356 -9.898027
10.70585 101.1382 -10.25767
10.72063 102.9195 -9.267435
12.16362 106.6196 -6.490606
9.01833 93.37472 -12.54452
14.0171 103.9777 -5.515962
12.5355 97.73693 -9.832146
13.18402 104.7099 -6.290745
13.88391 106.1231 -5.299614
13.88845 108.5699 -2.556139
12.61216 120.9529 2.599085
12.89107 122.4907 0.2621
5.18843 121.1249 -6.354287
11.49479 121.2573 -1.126774
11.31262 123.1618 -2.468169
10.57569 122.1484 -3.743842
8.341838 125.7457 -7.062784
10.85789 125.4297 -4.860063
9.622977 124.2581 -5.368592
10.38135 126.406 -6.083655
5.700324 122.2957 -7.178372
10.60666 127.5196 -6.603695
8.109045 130.2804 -9.580872
7.188409 121.9453 -6.432267
12.02796 128.999 -6.087745
7.965685 127.7532 -8.334854
12.54525 126.5071 -2.662091
7.909448 121.242 -5.098683
8.149353 119.7263 -4.500184
10.07693 118.7468 -2.561123
11.33037 120.4284 -1.520902
11.79603 119.143 0.5038132
12.90205 121.5553 1.013321
12.78439 125.4476 -1.018016
4.67844 41.73441 -12.87501
3.569617 43.47292 -13.37521
19.78608 40.65944 -11.39764
5.331567 115.744 -6.58329
19.99685 74.51684 -2.388571
20.40951 75.32807 -1.549061
21.72291 80.71645 -4.821877
20.41931 72.72864 -2.14587
20.7686 71.85382 -2.67856
21.89022 79.67524 -4.168935
21.09498 78.77962 -5.253697
22.21097 71.30606 -0.9134552
18.71006 72.76101 -7.312329
20.68985 71.75266 -3.013333
19.98467 77.55647 -6.466586
21.73519 68.92832 -5.6276
19.74105 74.97003 -3.714828
18.88888 72.23372 -7.157771
20.57 69.01471 -7.589408
17.54026 67.1995 -9.719624
19.84298 78.71449 -7.883208
20.49681 85.10557 -6.274023
20.05315 85.07266 -6.959273
16.18697 81.79395 -10.8757
19.14428 84.81551 -8.22415
18.40068 67.48235 -9.341323
16.82141 67.67628 -10.0834
15.42835 69.32268 -10.5865
14.96397 65.0177 -9.869524
17.47265 65.62979 -9.398499
15.37062 72.94335 -10.88391
18.66409 72.70683 -7.503098
21.567 62.99604 -5.710184
19.95532 61.23191 -7.296992
22.01594 62.27288 -5.517416
23.04293 58.98689 -5.481785
23.61475 59.13945 -5.874519
23.72233 55.8007 -5.926359
23.77306 55.53452 -6.857905
22.6051 57.20833 -7.578552
19.25375 59.15763 -6.36886
23.41429 50.672 -6.119053
15.50151 57.22836 -7.63026
23.02509 51.3573 -7.500609
19.24479 59.42093 -6.513172
22.40199 43.24382 -8.74072
18.50251 43.38045 -11.49078
20.19544 45.68 -10.79817
22.70933 46.62969 -6.748127
21.10846 46.47312 -9.971507
22.09238 47.35218 -7.674166
3.75105 103.4271 -10.23674
4.526704 104.9075 -10.48325
3.383621 68.2638 -12.47034
6.733131 67.45571 -10.61553
8.319276 67.6427 -10.28348
3.83074 65.70201 -12.30047
15.67796 41.42049 -11.51849
3.091181 44.82844 -13.70224
6.604917 41.1941 -12.54023
22.67544 66.41618 -4.577413
1.95911 74.67658 -13.21495
12.44371 39.95154 -11.62967
7.570091 99.4307 -11.73304
7.03508 52.13784 -11.87062
8.823522 43.63721 -12.80023
10.84084 45.88213 -12.62239
11.16378 43.124 -12.12532
9.30395 46.27212 -13.08751
13.31613 42.30341 -11.41021
12.79534 44.50141 -11.74971
4.594716 53.74755 -12.94703
5.644136 56.71981 -11.90699
11.54397 110.2897 -4.638618
13.57994 114.2482 0.6765772
12.92647 113.2568 -1.892736
11.00909 114.4646 -3.918292
10.40152 110.0463 -5.474617
7.538654 109.9489 -6.793394
10.59055 110.7145 -4.902925
16.77852 85.30128 -10.20967
16.78383 81.85239 -10.56135
17.70769 85.56276 -9.499236
14.17022 87.90238 -11.26914
16.64249 87.95623 -10.06929
18.04825 81.5005 -9.819043
17.3702 78.31463 -10.56608
15.98382 75.8579 -10.80942
14.70412 75.5666 -10.72252
13.1941 70.8388 -10.73129
13.5769 73.87632 -10.77529
11.39793 72.61456 -10.74516
15.12349 69.70324 -10.64356
12.55583 68.80427 -10.5055
15.62586 67.41372 -10.26693
14.93747 64.13846 -9.656654
12.84142 67.51449 -10.36618
13.35034 63.4402 -9.71535
17.03291 65.4953 -9.569473
13.44992 67.58039 -10.38297
9.35552 64.8651 -9.971228
17.50067 61.63516 -7.965753
13.40018 62.06001 -9.278339
12.55381 63.70766 -9.84611
11.98119 62.35457 -9.618306
8.61091 62.57117 -9.773257
10.5207 59.55648 -9.036703
10.52318 60.24594 -9.208214
8.223446 98.77177 -11.69979
9.904954 98.75147 -11.02119
7.928524 103.4779 -10.61212
16.07581 39.61727 -11.89517
17.64547 41.47197 -11.74748
5.773914 114.3334 -6.047338
23.46756 69.97002 -0.5783268
18.47554 75.7802 -9.499942
16.07592 74.06505 -10.91087
19.2495 79.21919 -9.07405
15.66531 73.53988 -10.90122
18.49616 81.02854 -9.533294
17.96306 57.88033 -6.829896
18.45471 56.78503 -7.183559
16.99714 54.92894 -8.56366
15.52352 56.25645 -7.974186
14.18065 56.26114 -8.281495
16.41185 52.12174 -10.53981
19.23575 49.41413 -10.3639
16.7231 54.16379 -9.177247
17.11217 50.87876 -10.7602
16.08664 51.88066 -10.67813
20.67071 52.24151 -9.716683
19.80923 48.56178 -10.39778
11.32804 54.27327 -9.811158
13.8705 54.8686 -9.046099
14.8891 49.34521 -11.44709
14.30123 51.17778 -11.19363
21.78147 49.58052 -9.379369
11.76742 55.38734 -9.251697
12.85965 47.99506 -12.0787
15.59052 46.20626 -11.01148
8.574471 55.70198 -10.39323
18.41438 47.08266 -10.66334
6.972796 48.84119 -13.08673
8.979361 53.65314 -10.70643
8.122231 52.05728 -11.51628
9.396601 50.95376 -11.64894
6.65245 50.00143 -12.70784
8.9742 48.3843 -12.86728
5.836079 59.50578 -11.47005
11.25655 54.87609 -9.597524
15.33379 41.84277 -11.40524
6.590006 62.6025 -10.63645
4.457849 62.07713 -12.1645
5.817376 65.12417 -10.99189
4.938881 58.49515 -12.1884
9.408043 58.95415 -9.399862
14.09626 42.16608 -11.32858
8.423739 60.89404 -9.722638
6.904278 59.29672 -10.79355
3.306793 60.32098 -13.14412
5.349049 61.63733 -11.56424
4.939859 105.1742 -10.32941
4.735711 57.88482 -12.38936
13.57159 110.7788 -2.667078
10.35752 112.1939 -4.58077
9.333758 111.7614 -5.079369
8.535999 112.9139 -5.381344
4.926753 113.4745 -5.585975
8.11095 112.737 -5.596334
8.957417 115.0421 -5.072622
9.456401 113.5755 -4.208819
18.06416 86.93423 -8.979012
11.07016 116.9589 -1.370173
19.08625 72.9856 -5.949676
16.43246 57.8639 -7.234011
10.15728 51.15206 -11.44372
12.30645 112.8037 -3.254898
9.109931 116.9255 -3.531732
8.836794 114.7359 -4.474151
-13.62867 123.3073 1.764617
-0.2452206 49.51364 -14.27377
-4.930918 133.385 -11.42449
-14.15235 129.5688 2.008924
-12.86051 122.7726 1.89327
-17.86963 99.01899 0.4194521
-13.31386 125.887 0.5464745
-18.5615 101.0669 1.03487
0.5665518 110.127 -7.999201
0.9904278 110.7383 -7.715086
-13.04558 133.3296 -7.970175
-2.437567 133.5452 -11.47314
-3.334817 133.6561 -11.49346
-7.54367 132.9176 -10.90835
-22.90995 36.86979 -3.436284
-22.71029 47.45824 -3.099191
-7.387938 132.0019 -10.58751
-13.44783 123.3897 1.634433
-24.26457 82.45795 -0.8981512
-24.91162 79.15884 -3.179068
-13.4919 125.9203 1.787901
-18.61545 100.1235 1.140363
-14.32785 132.0565 -1.778395
-17.45802 93.33422 -5.314406
-11.53945 121.0106 -0.7478929
-12.37807 122.3173 -0.3604349
-9.011937 132.566 -10.27172
-22.6457 88.65731 -1.27753
-13.1722 125.5587 0.2639702
-12.91942 125.8592 -0.9759949
-19.12125 93.45579 -3.232937
-19.13817 95.53389 -0.4675402
-14.39614 132.4082 -2.032687
-17.65266 101.1051 0.1280465
-7.65223 49.17343 -13.73258
-13.80863 111.1523 0.03787339
-22.84272 39.17987 -4.069442
-11.804 115.2664 -0.843767
-11.49302 132.9543 -9.12715
-12.56117 123.4731 -0.2960392
-20.75813 94.40181 -0.5037341
-17.56708 93.79112 -4.974977
-17.48849 98.51125 -3.422585
-13.68568 127.9386 -0.6854108
-0.7357209 39.52464 -12.63973
-3.633478 46.51339 -13.4891
-24.70893 77.51323 -2.459845
-23.06545 47.75128 -4.81174
-22.64485 38.63731 -3.058287
-14.32569 134.3246 -6.820898
0.02148462 86.50605 -12.52625
-13.23523 130.2712 -4.955824
-13.26475 127.016 -0.9577502
-18.27913 91.05753 -8.945232
-14.58358 132.9535 -0.02027884
-14.14043 133.0196 -5.791607
-13.15 131.9086 -6.766682
-10.35343 130.4857 -8.561599
-2.001055 36.77114 -12.34704
-3.077084 36.91093 -12.36158
-14.54132 34.73614 -12.27848
-0.857771 56.79256 -14.65628
-12.90123 113.9511 -0.2992244
-21.95561 50.30043 -3.945477
-22.64527 41.0536 -7.361541
-23.09474 39.79634 -5.729618
0.08116243 127.7744 -9.454875
-1.109534 97.84087 -11.66788
-19.75004 92.03516 -1.315214
-12.82038 118.1408 1.279137
-12.51047 126.3982 -2.67248
-16.74692 98.72529 -6.010565
-17.94516 92.85588 -4.224629
-19.0603 92.65374 -4.783946
-17.7508 99.72799 -3.807351
-14.42948 132.6529 -3.39399
-16.40693 104.6124 0.03268335
-0.7119997 44.7256 -13.60698
-10.79576 34.49896 -12.35743
-16.6749 35.28333 -12.22681
-1.592644 66.0525 -14.35465
-23.72803 73.68844 -3.391883
-16.46138 106.4049 0.2919314
-0.23249 109.9311 -7.738075
-0.03841842 114.458 -7.023736
-22.78727 47.95268 -3.704425
-21.51722 36.78034 -10.28632
-22.66677 39.50048 -8.198718
0.01945646 124.8962 -8.373859
-3.751376 125.0284 -8.301525
0.5163475 97.27348 -10.8867
-24.67528 81.31712 -1.824888
-12.85091 118.6661 0.7253637
-12.44999 122.443 -1.204309
-17.26663 95.07652 -5.705587
-16.20096 92.60092 -7.219161
-16.77188 104.0441 0.8225517
-0.8593913 51.69384 -14.35074
-3.702073 45.24309 -13.37777
-10.12741 37.12513 -12.36373
-11.57349 37.9775 -12.3977
-21.85434 51.52377 -3.758606
-24.37419 61.01155 -2.909753
-24.18797 65.89486 -3.396678
-0.9118893 76.96048 -13.41711
-0.2770714 52.89957 -14.56895
-24.48909 75.89044 -2.939042
-23.52688 73.78021 -2.588616
-24.3021 74.09756 -4.682463
-15.98425 106.3606 -0.5414748
-14.12373 108.9319 -2.411575
-1.188265 111.6674 -7.411686
1.094898 105.5191 -9.576137
-0.2733623 116.0866 -6.276491
-21.81112 50.47586 -3.24823
-22.28804 38.05618 -9.235889
-22.48819 42.56479 -7.342862
-2.829466 127.8078 -9.342105
0.6463163 125.1233 -8.646445
-1.648827 96.16246 -11.943
-0.6884618 99.7822 -11.49795
0.3251899 89.88153 -12.06894
-21.7985 89.34562 -1.057196
-24.31393 83.43375 -1.364538
-11.57483 123.4519 -2.492053
-20.19942 92.34503 -6.001044
-21.70992 89.38277 -3.143487
-15.01017 98.50549 -7.684229
-21.38508 90.95924 -6.035747
-16.91864 100.8444 -5.147941
-12.42142 127.5906 -4.110096
-17.42692 103.189 0.1436115
-1.246046 40.84318 -12.88682
-9.086659 39.13371 -12.55127
-13.49759 36.21279 -12.28933
-23.37695 56.6368 -2.881479
-24.34942 65.96739 -4.12054
-2.470571 65.77408 -14.073
-1.387245 68.66158 -14.18376
-3.019797 53.94847 -14.10986
-4.288876 54.00009 -14.03247
-24.8205 76.76411 -4.221273
-23.28654 72.34343 -4.925407
-0.2170656 84.27549 -12.73189
-0.6685379 108.0564 -8.59583
0.5154693 112.1707 -7.003951
-0.4386052 117.1712 -7.207944
-20.74346 36.91446 -10.95708
-1.733558 128.8401 -9.508859
-1.400961 102.5635 -10.20058
-1.318941 101.2 -11.33775
-0.7027508 91.56831 -11.1044
-22.929 86.81078 -2.046344
-7.508461 118.9822 -6.203606
-10.41697 119.3632 -3.939596
-10.67147 122.375 -4.145018
-22.63072 88.66943 -3.708302
-23.10782 86.00349 -4.504757
-15.23742 93.28095 -8.332913
-14.03068 95.78091 -9.115154
-13.04796 130.3822 -5.551915
-7.717794 37.21376 -12.3885
-23.35036 53.62794 -4.959569
-24.61777 64.36162 -4.230084
-3.094695 63.05433 -14.12456
-2.049614 68.97415 -13.85868
-0.4845403 77.76641 -13.62465
-0.5460143 60.0358 -14.74242
-5.514822 52.74564 -13.94967
-24.84007 77.56574 -3.04647
-22.57914 77.83227 -6.561997
-23.22017 76.14711 -7.120058
-23.08832 76.24648 -7.179755
-1.043888 84.38863 -11.71334
-2.530998 114.5258 -6.55182
-22.63912 44.29105 -10.09574
-4.173595 129.7595 -10.16637
-3.381146 99.22987 -12.04505
-6.666343 95.08525 -13.06108
-1.84775 89.95518 -11.29778
-23.82832 83.99417 -3.808866
-22.97097 86.86295 -4.995029
-22.2263 89.05791 -5.489798
-14.29873 100.7662 -7.933755
-16.58144 104.2632 -1.411704
-24.44416 53.70292 -6.764937
-22.81648 71.0384 -4.993706
-24.70105 65.71171 -5.748639
-3.055898 71.16665 -12.94415
-0.9472488 78.63818 -13.09555
-2.517441 62.56683 -14.33353
-6.592553 56.1674 -13.74663
-23.62955 72.74878 -5.268085
-1.134482 81.2972 -12.32266
0.09518836 85.39399 -12.94489
-12.96645 111.782 -1.486865
-21.28671 41.25727 -11.12428
-3.395101 89.81445 -11.94838
-11.73135 115.7576 -0.631611
-20.49843 88.9557 -7.817615
-2.249294 48.98963 -13.86815
-5.723097 48.21651 -13.57885
-7.997239 47.77159 -13.62514
-5.978195 51.18073 -13.85633
-4.921441 41.25065 -12.87067
-24.59883 65.93711 -5.203384
-24.06013 69.59647 -8.768971
-2.565919 79.68752 -11.53701
-3.067256 83.29482 -11.07527
-3.727521 65.24149 -13.60383
-24.72228 81.1413 -2.797531
-0.3051137 84.21798 -12.61365
-7.914649 131.4707 -10.19783
-3.640405 104.4418 -9.804791
-6.074642 87.90443 -12.54813
-15.61377 102.1462 -6.349498
-4.714149 40.85177 -12.82263
-4.044281 39.41834 -12.62387
-24.67574 57.08103 -5.97014
-24.34267 72.59048 -7.602384
-4.491279 64.7115 -13.3263
-5.541606 64.20299 -12.90231
-4.959445 61.17315 -13.70315
-4.554322 79.88928 -11.00711
-22.43693 82.00071 -6.06507
-24.3882 79.83876 -4.287455
-5.572632 103.6398 -10.1546
-3.902496 40.60259 -12.80476
-7.151713 47.18467 -13.54097
-8.205774 44.28704 -13.22491
-23.27818 70.77279 -9.37452
-3.774411 69.43333 -12.84707
-7.106918 64.68767 -12.09091
-4.488005 68.95232 -12.53091
-6.092158 75.12007 -11.00291
-3.241104 74.54131 -12.15019
-5.476263 74.64964 -11.12915
-6.420024 72.46965 -11.13123
-6.144351 77.8811 -10.94896
-23.50597 83.07669 -5.132028
-3.591125 109.5538 -7.674485
-4.320774 110.0644 -7.441274
-4.126108 89.47049 -12.17315
-6.244065 39.04569 -12.56622
-22.77363 72.86362 -9.322211
-6.141769 68.02939 -11.88908
-8.047392 67.3054 -11.33262
-5.945798 82.13393 -11.28755
-6.610178 73.84779 -10.9891
-22.14418 86.00246 -6.582129
-2.606299 106.6364 -9.514752
-6.198329 88.36105 -12.66781
-8.632952 88.21416 -13.02572
-7.40123 88.85332 -12.92979
-7.055675 42.9579 -13.03839
-23.02305 71.34209 -9.480407
-5.225313 86.89778 -12.01561
-7.21451 76.24079 -10.94007
-2.529377 111.5601 -7.030085
-7.740914 43.31475 -13.08714
-7.305159 86.35971 -12.63582
-4.309091 106.9903 -8.292161
-6.28335 91.76989 -12.9348
-6.066527 91.47532 -12.90134
-9.708814 47.22596 -13.43986
-6.37883 85.11602 -12.04612
-10.02468 93.0482 -13.05759
-14.18533 95.14171 -9.114731
-14.1139 97.91618 -8.535252
-10.65521 97.82011 -11.10576
-14.58891 91.32578 -10.33612
-16.88034 91.12783 -9.868344
-10.39241 40.30374 -12.66544
-11.70882 51.62357 -12.64047
-14.03393 52.79055 -11.94279
-10.04164 53.40614 -12.80477
-9.952152 50.24693 -13.2498
-5.808922 112.9529 -6.376063
-9.642362 93.00798 -13.26576
-11.36331 93.20616 -11.43604
-13.40168 98.74672 -8.922048
-13.73964 90.10494 -12.42419
-12.7453 90.11801 -12.70659
-17.72897 89.2925 -10.16361
-10.45378 50.76942 -13.0431
-9.187067 55.0519 -12.86325
-8.755908 49.27051 -13.616
-4.263092 113.1742 -6.445989
-5.950413 110.3949 -6.702326
-10.42807 93.43185 -11.99621
-9.756731 94.85531 -12.02833
-9.751943 106.5937 -7.950377
-18.77641 88.35703 -9.422434
-10.44503 42.66488 -12.96768
-11.85482 55.33272 -12.07333
-4.682589 114.049 -5.548903
-13.44079 88.88235 -12.53362
-10.46911 55.97057 -12.31697
-21.81625 69.69325 -10.42348
-22.15807 65.92755 -10.387
-20.19999 71.09083 -11.20777
-7.410756 114.5916 -4.796871
-11.74615 102.3749 -9.58334
-14.12903 87.50014 -12.4272
-7.709686 57.43587 -13.12561
-7.911344 110.0777 -6.60457
-16.15119 87.48026 -11.52759
-8.525995 113.4972 -4.599635
-12.81131 101.2025 -9.045864
-13.69686 85.33301 -12.71407
-8.747884 111.9503 -5.738487
-8.926992 96.30895 -12.1839
-11.88736 86.99904 -12.91394
-15.02919 50.25637 -12.16437
-8.583451 113.9726 -4.387007
-9.427763 110.5379 -5.771116
-13.8909 110.177 -2.600621
-7.041597 101.3105 -11.13601
-8.21548 85.92415 -12.78105
-15.90785 54.01064 -11.3466
-6.978485 96.84178 -12.70654
-11.49858 82.93787 -12.88763
-19.12778 87.90817 -9.149675
-14.16314 50.16004 -12.37864
-11.03532 114.2471 -2.566291
-6.727577 97.16827 -12.6125
-16.46783 85.19124 -11.56522
-15.68536 83.53921 -12.27678
-21.49539 86.20849 -7.191687
-17.92926 86.06559 -10.18206
-8.944174 114.9398 -4.109572
-20.34733 82.8476 -7.914012
-18.18556 84.45166 -9.884592
-18.09211 51.39879 -11.61243
-10.8088 81.43335 -12.61425
-18.21884 81.20509 -10.08341
-11.93636 78.01789 -12.30469
-7.825992 77.1645 -11.06571
-8.610763 81.44133 -12.00632
-9.517138 104.4329 -9.833331
-5.964015 101.1483 -11.29665
-20.93839 50.3242 -11.37915
-16.65075 79.36873 -12.26832
-11.91232 76.46112 -12.02313
-11.34013 75.79829 -11.73977
-6.386736 98.44479 -12.21785
-2.491889 97.3491 -12.25301
-14.51673 77.53873 -12.59655
-12.462 80.25638 -12.72049
-13.63207 75.75175 -12.30944
-13.92593 79.17446 -12.7252
-24.29369 60.32047 -7.859595
-9.989696 72.728 -10.96752
-4.513522 96.24078 -12.66592
-4.58982 94.69196 -12.78368
-3.45908 96.66562 -12.49562
-13.59911 127.8936 -0.9342028
-16.84607 101.896 -2.94829
-16.3303 102.031 -2.297663
-23.49437 46.36042 -6.07321
-23.49004 46.13035 -6.870381
-23.23307 49.08507 -7.261982
-23.43167 50.38242 -9.539042
-20.06002 50.1986 -11.63149
-22.87398 48.40918 -5.522801
-23.32192 52.63474 -9.515656
-21.70268 49.19407 -10.98132
-22.32626 45.67944 -10.4538
-20.74302 47.12013 -11.43221
-14.33938 40.19866 -12.4383
-18.09152 48.06304 -12.0571
-12.12139 111.7611 -3.201041
-11.79791 112.9275 -3.417531
-2.117078 117.0679 -6.248761
-3.492341 115.7371 -6.673575
-1.77902 115.9929 -6.692549
-6.459574 116.0393 -5.660082
-7.14377 118.6409 -5.230517
-4.638212 118.2769 -7.031466
-5.236439 118.7688 -7.078354
-5.819125 120.1299 -5.777344
-3.636875 120.2947 -6.43716
-3.055342 121.2347 -6.794672
-8.604201 117.1278 -3.971227
-20.1671 38.94776 -11.43656
-18.13413 38.86771 -11.97477
-15.47668 38.80746 -12.27088
-14.28899 38.78815 -12.35134
-11.66125 40.74342 -12.66872
-16.97308 42.33618 -12.23083
-12.23174 42.46207 -12.81676
-3.261849 124.6636 -8.272478
-9.63241 123.4618 -4.889306
-8.82278 121.7859 -5.604082
-8.094749 119.2856 -4.431524
-5.183122 122.0926 -7.473978
-8.823438 123.9128 -5.764738
-9.593905 125.8587 -6.37707
-5.090093 124.6721 -7.974673
-9.370309 124.9221 -5.980754
-8.856174 130.1715 -9.207404
-9.577947 126.1236 -6.554582
-11.37967 128.3391 -6.398656
-6.598204 128.4579 -9.132406
-10.62139 130.2176 -8.245461
-14.89719 107.1567 -1.617457
-5.887543 129.189 -9.626432
-6.413573 130.3551 -10.10303
-24.7261 62.39023 -6.370943
-24.1609 67.91819 -5.823869
-24.48013 62.821 -3.050941
-24.21147 61.20466 -8.038178
-23.8646 62.48561 -8.676074
-23.64482 64.04345 -8.990037
-22.18596 58.72012 -9.890174
-22.33512 58.97787 -9.810421
-24.29243 56.66095 -7.909809
-19.1541 55.26838 -11.27773
-21.30875 58.83937 -10.5985
-20.9564 59.56182 -11.00626
-23.59167 62.20681 -9.017928
-8.600329 63.65178 -11.71054
-24.11651 64.84224 -8.364944
-20.44984 67.97931 -11.22589
-23.25461 64.41359 -9.439072
-6.068132 57.97828 -13.72768
-7.324564 57.08002 -13.34735
-7.482069 58.15707 -13.10462
-8.799653 63.26837 -11.70682
-10.25077 65.25801 -11.03919
-10.96465 66.39513 -10.86264
-10.83125 58.1751 -11.87876
-15.5817 56.81648 -11.07063
-15.25077 56.35792 -11.16372
-12.72967 55.1264 -11.88935
-9.994884 60.15734 -11.81132
-7.773494 58.8749 -12.84841
-19.34359 39.73704 -11.77495
-21.23766 43.72502 -11.22218
-6.404987 105.8804 -10.13205
-4.366935 107.0072 -9.039959
-7.377392 105.7718 -10.05609
-9.757555 108.1338 -7.275176
-6.142358 69.56247 -11.62797
-5.935194 70.92323 -11.48966
-9.601438 69.0431 -10.86647
-7.356772 67.91614 -11.46157
-19.73544 81.59319 -8.46552
-19.99963 80.33871 -8.395285
-20.28018 76.0961 -10.27122
-20.41064 75.59794 -10.37579
-20.3101 73.16537 -11.01084
-18.62665 76.00108 -11.61525
-11.26252 42.88929 -12.94302
-15.3443 45.47966 -12.55968
-15.10293 42.16519 -12.47627
-13.5569 44.47915 -12.7918
-13.54877 44.87555 -12.80269
-14.20876 103.734 -7.348437
-9.845441 107.3479 -7.897453
-14.83637 103.0344 -6.571531
-10.87806 106.2105 -7.19069
-11.46468 104.8113 -8.795062
-12.32854 108.0225 -5.622069
-12.2796 103.9912 -8.75278
-12.30643 105.3408 -6.785542
-11.64473 109.4374 -5.112566
-12.97625 106.0882 -5.199324
-9.198446 108.3517 -6.564837
-17.5894 54.71722 -11.16768
-18.20195 55.50122 -11.12438
-19.17976 56.12587 -11.34832
-12.42093 109.8926 -4.392989
-19.38475 53.64261 -11.34253
-11.9459 73.23107 -11.47577
-10.15326 72.31316 -10.95487
-10.65366 69.97801 -10.85897
-14.80731 73.35464 -12.18687
-16.90675 73.60002 -12.20041
-16.45713 70.63639 -12.07388
-17.91538 74.90952 -12.00295
-15.9651 70.03226 -11.96006
-14.73842 69.65411 -11.65268
-10.8207 68.7445 -10.82534
-1.662019 92.52854 -11.74233
-22.79956 53.79959 -9.984007
-3.263526 124.2831 -7.989175
-14.23155 105.7567 -3.765837
-5.755764 119.2341 -7.004416
-16.79312 42.02906 -12.24598
-20.7254 43.06937 -11.43333
-20.74987 54.79393 -11.39427
-22.69435 55.78482 -9.717959
-13.15421 63.92006 -10.82225
-16.31781 76.55965 -12.41909
-16.5558 74.86009 -12.29915
-5.586975 108.215 -7.382107
-12.66074 67.55771 -10.89803
-16.68216 67.53848 -11.77942
-18.53763 45.95341 -12.06149
-21.40402 62.84047 -10.85503
-18.30272 65.02089 -11.72177
-20.31405 63.77131 -11.38824
-16.02386 60.79591 -10.94662
-14.30225 60.21886 -10.90347
-16.53873 62.64933 -11.21376
-17.02763 62.92349 -11.37758
-13.32252 63.48995 -10.82407
-13.76782 64.49242 -10.85152
9.806774 149.923 -0.9322706
9.216921 139.8799 8.685303
10.93913 151.003 -2.677046
7.887942 145.8198 3.598015
9.321158 141.875 6.795236
10.22939 151.1946 -3.075139
9.398078 140.4826 8.054905
8.063705 144.4316 4.771992
8.868834 147.6745 1.581943
8.96207 149.0679 0.3066832
9.488579 148.6226 0.4691674
11.48576 136.1108 -10.64812
10.31671 146.1488 -11.50896
11.17131 151.7292 -5.101592
11.44061 151.2337 -7.716298
7.361674 135.2353 -11.75286
11.13577 145.8438 -11.42789
8.981824 135.9716 -11.63501
12.12264 151.7285 -5.488747
9.688549 144.6101 -12.00817
10.6422 143.2488 -11.97327
9.024566 137.6806 -12.19542
8.885187 151.423 -8.417921
11.0339 135.3104 -10.52506
11.36323 147.0684 -10.99702
12.39083 150.4482 -8.823645
10.59543 148.5513 -10.49377
-7.782132 138.4487 -12.58743
-8.227449 137.7937 -12.3993
-7.896235 142.98 -12.52284
-8.971519 150.2748 -9.640951
-8.669608 135.5619 -11.56438
-8.430314 138.5351 -12.48121
-10.64688 151.6686 -4.519657
-10.96733 151.4939 -3.984936
-9.590947 139.6763 -12.31959
-8.014449 141.9427 -12.59507
-11.10585 148.0147 -10.66298
-10.44698 151.0142 -8.401357
-9.976238 151.861 -5.114038
-10.64969 143.754 -11.92712
-8.898396 149.296 -10.41319
-11.05426 150.7874 -8.599257
-9.045113 144.0771 4.956908
-9.656838 150.5712 -1.612433
-10.90896 147.4969 1.157092
-10.51542 145.1699 3.394967
-11.51297 142.7012 5.202631
-10.26837 150.8777 -2.334848
-10.23941 141.7737 6.643978
-12.19535 141.152 6.052445
-10.93857 146.6504 1.930377
-9.611828 141.9928 6.702148
-11.45484 150.3369 -1.530623
14.14164 135.4777 8.088138
0.03413318 53.39949 14.78962
13.55869 112.1735 4.153934
-0.878496 42.84235 15.51774
13.79071 128.7515 6.185246
0.5996266 91.53091 11.05868
-0.1122038 95.30115 11.90469
-0.8869657 100.9472 12.94443
0.9077936 114.5378 12.21775
0.3340526 120.4412 12.47603
0.09645703 125.2808 12.95295
-1.139904 134.3147 12.75903
13.07828 123.4711 5.187291
14.39271 130.0673 5.059944
18.46666 38.0484 1.280715
14.34559 109.2063 5.086976
21.62728 47.31509 -1.159655
18.7916 97.93251 5.33555
21.60294 55.34077 1.826104
21.61512 81.00811 3.37809
19.67981 61.01183 5.076554
13.42986 126.2153 6.211755
12.46741 115.6696 5.080845
14.53471 131.3686 4.55456
11.98019 135.0543 11.81232
19.14491 91.50877 3.720335
14.33634 136.3954 6.232239
14.09155 110.3181 4.671701
13.32872 124.0253 4.50074
17.46149 102.9134 4.332903
14.35904 131.0453 8.46893
16.37213 105.7834 4.215864
15.51127 102.0575 6.77544
21.53469 49.57236 -0.7991735
7.732436 115.8041 10.53651
13.57639 136.3876 8.267626
14.79187 133.0933 7.682915
12.79175 120.9285 4.587414
12.58074 114.7947 5.037163
20.75779 93.85266 3.979674
18.37919 92.55688 6.595841
16.94484 100.7536 6.129134
16.05471 99.8754 9.578998
19.15758 97.68678 5.524147
15.47094 106.5765 5.451546
0.9231572 75.83215 12.57329
22.3389 42.73919 -1.830818
8.693008 136.0794 12.78724
0.2805016 102.8624 12.03552
14.89273 132.6354 5.565767
12.41618 114.7088 5.414529
12.41934 120.2958 6.269202
12.01366 104.3968 9.139388
11.32856 133.7531 12.77017
3.50363 39.1823 12.72633
-0.1729063 67.82408 13.98868
13.83141 43.14162 3.217361
21.50794 37.55713 -0.772938
10.90685 136.3665 11.7055
-0.3646138 109.073 12.31185
12.07545 119.789 6.957358
10.77731 113.8497 8.190356
12.84007 122.7093 5.812058
13.27978 132.5513 11.11448
-0.5678113 45.77157 15.35601
-0.2783486 58.26889 14.59231
19.53407 65.59401 2.83765
0.7808672 132.0856 13.26526
2.893688 138.3994 10.33364
16.9811 37.64861 2.431472
16.36671 37.31343 2.995805
20.73494 39.0042 -0.01113087
6.782429 137.4398 11.74941
-0.5523996 126.5342 12.9542
-0.07280488 112.0987 12.75525
-0.5281299 94.45572 12.78673
18.97261 91.08757 3.990494
20.12909 89.21506 6.108332
12.08719 121.3818 7.352347
13.36661 103.2657 8.425113
13.45232 130.5619 10.31269
1.626113 51.39795 13.76525
6.674927 38.04644 9.96063
22.10481 51.93798 -0.4424754
22.31824 76.55708 3.757626
-0.1351285 131.2138 13.45445
0.741285 136.2483 12.05897
-0.07019197 133.9281 13.3078
20.85678 38.72413 -0.1236039
17.73404 37.91947 1.791085
20.08532 42.04664 0.4327674
20.52298 45.92655 0.3203332
12.63721 134.3344 11.51565
-0.05083589 120.142 12.26332
-0.4039346 116.1917 12.54041
2.03584 110.5108 13.29641
0.9664872 106.2417 13.19285
20.6717 85.88776 2.39814
18.4308 92.39021 5.83881
20.55582 88.9389 5.199018
12.92434 129.9102 10.6398
2.191292 42.87548 13.74568
-0.3672127 54.63488 14.84161
3.236039 49.27269 12.33528
5.210595 39.9696 11.07857
0.4564997 57.0455 14.32469
21.91795 58.11872 0.203588
22.88926 73.67812 3.236906
23.08267 70.94263 3.277301
21.43554 72.08628 4.816684
20.80227 64.80769 1.06355
20.51844 65.72594 1.76967
0.2476685 88.74805 12.10785
0.5979967 129.2082 12.91169
1.374527 132.8134 13.62819
2.509889 133.8515 13.69604
22.66809 53.7009 -0.4933772
19.65624 40.90541 0.9348792
9.158648 134.8067 13.3887
7.556484 132.2721 13.97483
-0.5656537 117.7704 12.83316
1.576445 117.3421 12.31423
-0.7121101 100.8942 12.63375
0.7269018 104.4364 13.04584
-0.1134256 96.34029 11.7461
1.48228 98.63306 11.1934
0.9699334 91.58688 10.56947
17.11774 96.42562 7.309531
10.36971 123.1686 9.64476
2.471768 41.05517 13.60551
0.01715425 57.45726 14.59239
5.588979 41.30981 10.65315
7.158592 42.02922 9.356316
1.131193 67.94675 13.03453
21.54179 58.42194 2.174989
20.65285 61.39061 1.846596
22.03011 75.52396 6.2812
20.87293 70.34797 3.986057
22.34291 76.82961 6.280977
21.4385 66.99413 1.988641
20.23589 68.18891 3.147443
-0.2142102 80.57773 13.37958
0.2760727 83.17644 12.64731
-0.6740082 78.0182 13.73808
0.7624012 74.02525 12.92674
1.506774 80.03992 11.03709
0.4227963 71.29638 13.45177
1.87249 131.6018 13.53856
4.079756 136.3312 12.24886
17.82853 39.84772 1.261598
16.12645 39.40323 2.493424
3.421347 133.8965 13.81857
8.897192 132.7937 13.80709
2.742873 116.1768 12.06234
-0.3973877 99.08009 12.10993
-0.1628607 89.90852 12.66654
19.56961 85.26201 5.380902
11.90136 123.4363 8.030208
10.28911 104.9577 9.989315
1.086213 45.9301 14.49683
2.935919 48.12264 12.72009
2.479664 57.89031 12.45771
2.076464 53.83866 13.19123
11.05056 40.72467 6.526595
-0.4781294 62.11606 14.41417
22.61722 52.87481 -0.7175778
21.81025 79.54049 5.089929
21.00845 81.17105 5.146435
1.242895 78.58115 11.77919
2.327734 128.7627 13.25151
2.523314 130.2465 13.43779
4.65294 130.9112 13.87549
13.32094 39.10197 4.934202
20.98119 49.94148 1.631791
17.70301 42.70039 1.592271
6.494328 136.1441 12.74977
1.885829 116.6682 11.99937
-0.07218365 90.55847 12.45251
1.68989 92.2452 10.08508
19.84555 85.11308 4.64858
20.19231 86.17501 3.610218
10.29968 116.499 8.940953
3.463785 45.5707 12.34043
5.286793 42.8484 10.81403
3.332654 55.43022 11.78185
2.006572 55.09119 13.16107
1.555823 63.05886 12.9836
1.875237 66.31161 12.37323
2.640695 62.24383 11.89247
3.686839 62.53645 10.53218
1.120065 67.40276 13.08458
20.79231 56.6842 3.190259
19.68831 71.83833 5.260081
19.2239 75.55175 7.626421
20.16713 61.93418 4.777746
18.34388 60.23809 5.343078
2.019468 75.41402 10.90964
2.400733 74.13611 10.44311
4.244894 128.1649 13.24292
6.394344 133.4525 13.79355
16.74643 43.49327 1.684551
18.27966 46.5728 1.353875
15.27312 43.8535 1.951608
9.515981 133.3485 13.63457
1.469083 120.4477 12.78495
2.088393 92.39452 10.02187
18.25914 86.9649 9.050832
12.18716 125.8205 7.804628
8.276037 122.5418 11.12457
11.33712 124.2202 8.724681
2.216502 55.43518 12.92719
2.49461 65.57776 11.70592
5.009031 64.47141 8.057254
3.194548 66.62897 10.56025
21.29394 50.49419 0.478212
19.78522 73.35474 6.061158
18.36111 76.81167 8.822955
20.14683 54.93082 3.369855
2.837434 75.73795 9.348921
3.226773 77.34468 8.62393
13.39483 44.94836 2.99057
19.08711 50.34027 2.552945
3.712372 119.136 11.94602
2.876641 95.34612 10.95897
7.586467 98.26273 13.11226
1.309264 102.084 12.3803
5.051236 99.15567 13.41474
1.732373 85.81095 9.832106
19.31855 90.12604 7.419411
18.50062 85.60627 8.401686
10.99312 125.2941 8.95976
5.926201 121.1556 11.59763
9.316821 118.3903 9.796066
6.248622 115.6474 10.97057
2.737681 50.38121 12.77311
3.855274 65.07267 9.839425
19.90276 72.02451 5.231835
20.4501 61.08566 4.322857
20.43623 58.75136 4.024261
20.97414 59.11422 3.39462
12.79143 43.79176 4.061782
9.379657 53.8736 4.554102
4.118455 99.15401 13.13598
4.027407 102.2309 13.3515
5.907557 94.07076 12.41943
4.599268 89.15279 10.07876
8.845901 125.3907 10.44125
5.734478 117.7766 11.671
3.361569 66.60581 10.30818
3.81843 69.60355 8.876397
3.909038 70.85615 8.471581
19.45276 70.78896 4.933156
3.375968 127.5503 12.0854
2.412406 100.4634 12.56759
9.829774 93.58418 12.70321
18.75373 87.06836 7.800105
18.62672 89.20116 8.811066
16.70805 88.13504 11.05188
9.499987 125.2709 10.0557
3.124452 121.1908 12.09338
1.620793 122.2776 12.0874
3.854205 54.67606 11.30461
5.473574 57.3553 9.130286
3.731373 59.45827 10.91807
4.697784 69.7521 7.484081
18.67745 51.49548 3.089954
18.13219 77.42181 9.365595
6.640286 123.1049 12.05257
4.732985 100.9325 13.50085
8.362591 94.96728 12.94872
2.507907 93.45453 10.25558
17.15266 86.11555 10.95564
5.007131 125.0576 12.05942
3.307074 124.8206 12.49772
4.360602 71.32677 7.734397
3.851314 73.99312 8.176588
21.05415 46.35456 0.3690059
16.73013 75.77757 9.820319
6.875388 123.4008 11.96649
8.354941 98.71506 12.18589
9.255379 95.09686 12.89855
4.577758 86.95403 9.442187
15.51838 83.85164 10.83454
2.002759 125.8015 12.4921
4.326029 74.45625 7.625064
20.95767 47.84742 1.043692
6.961421 100.5098 11.86092
9.373491 98.10943 11.13761
13.84685 93.64861 9.767536
5.211326 103.227 11.98389
2.954737 104.0522 12.87263
6.958541 88.88462 11.44075
14.19878 82.62892 11.06993
4.118756 76.84155 7.813551
17.87648 51.68584 3.320057
18.12509 48.64678 2.063539
12.77459 94.94008 10.86615
13.70365 97.19584 8.672523
15.41636 95.89341 7.993815
2.352176 106.1157 12.33733
4.736845 104.3944 11.78944
9.568591 95.57574 12.87764
17.66072 90.62511 9.609984
5.090655 72.40748 7.097468
16.53545 56.84008 5.203547
16.55621 48.07033 2.907102
16.95782 49.17121 2.914502
14.6314 97.68268 8.38392
9.268835 99.59312 10.26008
15.36779 93.4942 8.716019
2.714272 104.5695 12.63678
9.210606 91.92275 12.50428
16.69613 81.57228 10.2368
6.202378 72.62408 6.685775
14.13801 59.06634 6.175992
17.10459 53.46854 4.202314
12.67238 54.47735 4.865839
9.594773 103.4376 12.35842
15.17741 91.97895 9.409018
2.794522 107.4986 13.09062
14.3709 92.81406 11.59739
13.24913 92.43968 12.11377
7.311204 53.40802 7.683882
6.938948 74.44984 7.367103
18.91168 96.88026 6.86031
15.9041 100.338 9.371764
6.180082 53.1497 9.114841
16.89489 97.12731 7.747666
8.576502 103.2786 12.21978
10.9941 101.9023 11.46449
12.14161 101.4382 11.13387
14.83243 102.0538 9.504182
8.293103 103.3505 12.24671
11.0247 103.0089 11.95317
10.53511 104.2703 10.24625
13.82104 108.5319 6.886941
13.90486 136.1541 7.810448
12.43037 112.3041 7.504856
11.43647 132.1735 12.79295
9.358582 129.9844 13.01808
11.21322 129.4368 11.91174
9.545459 128.6539 12.21452
11.16875 126.5485 8.936092
12.99549 127.4847 8.404093
10.87358 127.963 10.80985
1.537232 108.7614 13.45771
3.033224 110.6747 12.58997
0.2486197 105.7134 13.23263
3.961349 112.5167 12.08794
19.15678 65.90572 5.473245
19.0638 66.24672 5.170241
16.09903 61.69043 6.263003
13.17362 61.03228 6.634799
1.496933 83.79474 10.44277
1.27984 85.15495 10.62694
0.9210146 84.53672 11.43658
3.131464 87.13687 9.053762
5.257083 84.57386 9.134914
7.109281 81.55038 9.384073
6.16773 83.50422 9.363821
6.618405 80.41022 8.753687
9.208888 80.53954 10.2432
6.836925 76.65701 7.877073
8.610923 76.04756 8.760369
12.21133 78.38096 10.57042
8.30257 83.63051 10.65922
7.705999 70.88083 6.821555
8.286962 82.2274 10.27065
8.267696 68.17644 6.427038
6.453676 67.50792 6.11755
2.025705 79.77263 10.02738
4.745356 80.07191 7.864814
19.87721 85.36231 4.45731
6.326673 42.70945 9.954189
5.511039 47.2411 10.32766
4.81049 51.54844 10.62205
8.644793 41.57588 8.277106
4.751751 51.87502 10.65216
6.365609 50.96567 9.247271
8.191016 45.82579 8.259341
18.52066 68.23179 5.934168
18.79123 66.2309 6.866125
17.79056 69.85455 8.012894
13.07551 42.01334 4.424475
4.932845 62.3364 8.753819
7.856948 58.95852 5.252099
7.798523 60.29097 5.120006
7.135685 62.70139 5.587265
6.037466 63.85385 6.561096
9.041244 61.17704 5.154413
8.243352 66.55901 6.025651
6.105575 65.12037 6.333165
7.939807 66.43751 5.874705
8.277091 63.15019 5.305353
8.946648 68.77486 7.001238
8.990201 68.64601 6.996201
9.758768 70.13795 7.856688
10.90373 64.79182 7.084308
11.71709 58.9663 5.817069
12.21502 65.01115 7.47961
12.95774 59.02208 6.15544
13.101 65.30657 7.605274
9.723808 72.82849 8.538945
17.58018 63.2076 6.379746
18.34756 67.27015 7.490578
14.29799 66.55012 7.818618
9.528162 77.20094 9.519716
12.06046 75.99051 9.962335
11.89484 80.96416 11.04006
14.74759 74.5549 10.08703
15.64832 73.82412 10.02106
10.26627 80.58279 10.61799
11.18562 79.51604 10.60712
19.75354 74.2333 6.612829
12.13323 43.28116 4.979613
3.886903 93.14097 10.88253
12.09818 46.64347 3.729333
12.14873 45.41177 4.121666
11.03362 44.07439 5.908895
7.43083 46.02631 8.857731
7.118381 47.16177 9.012169
8.949478 46.74914 7.435946
7.674258 44.17884 8.819278
9.570477 50.81878 5.297856
14.46431 49.47413 3.758004
18.37853 81.4563 9.683914
20.5226 81.1608 7.32453
6.412931 92.39413 12.14574
6.310912 57.87106 7.802449
17.85788 80.94687 9.777053
16.35354 80.21647 10.30837
13.67062 56.65255 5.633871
14.11685 91.84756 11.90861
13.80492 90.85313 11.89915
16.02793 86.04221 11.09397
8.520357 104.9969 12.82321
7.276843 86.94407 11.06552
11.17918 89.77739 12.14499
10.52364 83.6281 11.31343
10.68222 88.51276 12.03303
14.10141 79.37719 10.8466
11.39504 86.77776 11.79766
11.91479 86.6873 11.7516
9.039977 85.92947 11.46336
7.770262 89.1104 11.81543
13.47766 102.5479 9.574625
10.72191 113.3286 8.623189
4.884215 108.2755 13.08205
7.546092 106.4079 12.31928
5.527729 108.9564 12.06889
6.790338 106.997 11.87443
4.719662 113.2431 11.74143
7.20387 72.89385 7.087783
6.156024 44.13192 9.996251
5.939084 66.86481 6.364003
9.150002 57.70136 4.504653
9.934697 57.31674 4.4592
7.723624 56.70326 5.896294
9.180821 54.27686 4.693179
10.59385 53.46915 3.831177
10.70317 49.83232 4.162467
8.587839 53.03058 5.887828
13.61457 71.71767 9.080448
13.77441 69.2673 8.534542
11.16581 71.71255 8.795599
11.76815 64.31717 7.22302
18.16559 73.26543 7.213232
16.42069 72.83066 9.496916
14.35276 73.58657 9.711063
7.071744 114.5579 10.66351
9.443971 113.8849 9.370649
7.704995 111.9207 10.97624
8.377707 112.6986 11.07713
8.061016 110.8943 10.58101
12.09495 107.5625 9.608539
10.95374 106.7989 9.923298
8.235779 108.9794 11.6256
8.940156 109.5358 11.28834
12.54706 48.05949 2.979562
12.7179 50.37413 3.277822
10.7158 48.52434 4.623832
18.32321 97.35372 7.382592
3.350859 109.3204 12.41473
5.321694 112.7613 11.56445
3.631383 109.8541 12.24468
12.60081 74.64716 9.717249
13.00745 110.548 7.21056
11.00164 108.9175 10.017
-23.65876 60.8663 -1.747376
-12.60819 120.4389 2.942792
-14.31963 111.1492 1.907127
-16.34661 104.9042 1.881187
-14.73009 133.2213 3.303434
-13.8756 112.007 2.781093
-13.21133 123.3463 2.372315
-22.73371 88.18304 -0.2614986
-14.3611 131.065 8.503952
-14.91072 134.5629 5.205615
-13.47581 127.6001 5.613334
-12.66824 117.4615 2.389702
-17.04326 102.1053 2.013243
-12.62022 120.1846 5.315963
-2.388096 38.43315 13.58856
-0.8953837 90.56986 13.11258
-0.9422852 87.52812 13.13981
-3.952016 49.51721 9.01702
-1.461212 52.74789 14.16167
-1.463106 58.58511 13.75864
-2.163726 133.5672 13.19189
-14.19704 130.5912 2.565431
-12.74097 121.9846 2.249935
-8.1248 139.0513 9.938333
-2.180117 101.1698 11.81202
-1.557563 123.1959 12.87477
-2.11071 122.48 12.5983
-14.62718 110.5767 1.930281
-16.49521 104.0624 2.187575
-22.37329 38.06314 -2.232847
-1.265697 130.9178 13.16269
-12.63108 135.0474 11.11567
-14.10261 129.1785 5.305056
-13.54821 126.0494 5.233432
-13.00019 123.71 5.743843
-12.59993 118.0386 4.122209
-17.00255 101.0189 4.134456
-16.66479 100.9797 5.285546
-22.65313 67.84446 -2.041994
-3.492007 38.31196 10.77758
-14.91156 95.19459 10.73548
-13.17967 135.5487 9.957448
-9.858845 133.1187 13.54676
-13.9149 128.4966 3.99862
-13.25265 124.7759 5.13458
-12.63616 120.7921 5.625884
-13.38706 125.893 5.840195
-15.89778 107.9634 2.930939
-12.92951 111.3092 6.621097
-13.44416 112.2624 5.075802
-14.95981 109.5034 4.651096
-20.66091 75.84176 4.572094
-19.83741 37.23269 0.5655768
-3.417889 40.64703 10.79389
-2.017812 40.92325 14.0986
-2.287297 103.5274 12.28272
-3.927854 119.5761 12.24711
-11.83558 135.7638 11.44649
-14.78508 133.9211 7.361316
-14.56554 133.0099 8.616046
-13.82076 130.198 9.237185
-12.54879 119.7544 5.40634
-16.72616 101.2738 6.595693
-12.31759 113.0385 6.654677
-11.96619 111.4183 8.146121
-2.818288 73.29775 9.957977
-21.73767 39.35847 -1.063749
-14.67725 38.10825 1.937002
-1.594237 41.94077 14.70932
-2.306939 41.05921 13.5435
-4.068762 137.5569 11.16889
-6.983408 136.1754 12.7861
-0.9102104 98.54205 12.99305
-1.506965 88.42033 12.10612
-2.292037 121.2615 12.96014
-2.730545 129.2912 12.81946
-10.92634 136.0023 11.99197
-9.443238 137.3734 11.4751
-19.79302 93.13443 0.06637288
-13.83103 130.025 8.982505
-12.60137 124.9282 7.05303
-18.05434 101.49 6.04427
-13.70539 109.7265 7.909574
-21.58956 55.12331 -1.505897
-1.244618 72.93577 13.24092
-21.90416 70.22447 -2.319518
-21.9777 37.97976 -1.468115
-22.23732 46.1247 -1.746577
-8.096351 39.15437 4.68696
-3.763882 39.49142 9.999804
-3.034933 44.01097 11.44797
-2.440709 133.0793 13.52266
-1.125849 98.99197 12.61358
-1.146042 94.70004 12.62552
-1.679042 105.3098 12.43457
-1.720818 108.6313 12.84333
-1.742989 121.5644 13.01075
-2.304394 130.4329 13.57951
-1.606768 115.1514 13.18356
-19.941 96.0803 2.228294
-13.99462 130.8199 9.410275
-16.3404 101.0293 5.69703
-12.63329 117.0083 5.655581
-18.16525 95.97446 3.969234
-10.88768 111.8715 10.07272
-22.46079 55.5317 -2.748682
-1.710235 56.63191 13.41691
-1.295659 69.47186 13.33641
-1.437696 82.33827 12.45399
-23.9934 77.31143 -1.087734
-20.70231 40.95942 0.3850396
-13.11169 39.38243 2.461691
-9.344131 37.67374 3.925799
-6.413368 39.11956 5.961432
-1.384695 52.5382 14.2877
-2.716418 43.88702 12.25964
-3.839514 44.52286 9.50036
-1.980122 42.10553 14.05087
-9.186961 135.2285 13.20309
-1.88219 101.003 11.89297
-1.130269 93.43361 12.67658
-1.691488 90.69429 11.77421
-2.369229 102.7418 12.08875
-2.804778 106.2059 12.53438
-22.0039 88.9856 0.3431986
-2.300201 108.3459 13.46285
-2.710158 127.1424 13.30575
-1.457231 114.5414 12.71227
-18.9368 93.9203 1.629993
-18.62828 92.84823 3.054792
-13.38982 130.5585 10.40478
-11.86504 121.6478 7.772054
-11.84647 122.2439 8.056025
-17.26106 95.66868 5.762553
-7.937344 113.1288 10.87481
-22.24513 58.39309 -0.8346634
-22.68581 60.13938 -0.6402085
-21.07166 53.06712 -0.8177856
-2.330262 55.91282 12.06083
-2.488782 61.86094 11.18439
-0.8023924 60.63657 14.52855
-1.181306 74.43952 13.29345
-0.9963371 77.92117 13.43719
-0.9954093 85.46513 13.12592
-23.61456 78.2475 -0.2238861
-23.43964 77.54338 -0.1843077
-21.76249 69.81104 -1.237114
-20.17645 38.65172 0.4894096
-21.25452 52.71097 -1.296493
-19.02288 39.51538 1.256668
-11.31587 38.2029 3.034793
-1.871804 53.48807 13.29465
-3.156527 45.75469 10.94688
-4.427555 133.4164 13.67803
-2.166298 98.19392 11.58952
-5.715244 100.4592 12.04924
-23.00359 86.75193 0.7482906
-4.103125 106.574 13.14337
-5.835321 106.714 12.52236
-1.930496 118.5148 12.17622
-4.338064 119.4311 12.0491
-3.893536 129.975 13.49416
-18.08542 94.48275 3.642998
-13.24107 128.2029 7.700065
-10.0781 114.3929 9.957987
-20.25962 59.14322 2.07406
-22.24752 67.1112 0.3454479
-1.837015 70.24728 12.10085
-2.571162 67.62576 10.48443
-1.947938 83.83988 11.345
-2.516875 84.48149 10.54167
-23.93949 78.86931 -0.5357218
-22.03474 44.9414 -1.218313
-21.08647 49.85243 0.6710951
-19.74401 48.15969 2.535073
-18.73856 46.93505 2.906539
-17.08935 47.43557 3.552003
-18.09078 39.69003 1.567374
-4.020489 42.77234 9.197249
-5.463194 132.4861 13.70423
-1.692601 89.66057 11.75029
-4.217225 108.9377 12.27359
-7.030169 118.2898 10.85507
-6.684748 122.7914 11.6998
-5.651729 124.0947 12.43937
-16.75176 96.2101 7.668544
-13.16254 129.569 9.968336
-10.74787 126.759 10.66553
-12.92319 128.267 9.285797
-5.9698 108.6719 12.40137
-10.62644 114.2467 9.213966
-22.61809 63.74989 0.7802467
-1.57758 72.33325 12.60068
-2.42579 74.839 10.56387
-2.248199 80.88654 10.81205
-3.642299 83.91148 9.794222
-20.41575 49.68942 2.133935
-20.19164 44.2632 1.420209
-2.306859 50.21395 12.55932
-4.842097 48.85924 7.657262
-3.387245 46.63776 10.32312
-5.445525 97.15611 12.01275
-20.24817 90.29076 2.27842
-5.162832 119.8203 12.57063
-8.66495 121.9421 10.76335
-10.9937 131.344 12.91626
-12.78925 126.823 9.211905
-11.00104 119.2277 8.498817
-17.50565 94.67493 7.905002
-7.946548 113.2649 11.574
-22.84868 63.55512 0.3136996
-20.43898 70.29887 5.062802
-21.74848 67.41039 2.154393
-2.747085 88.72514 10.56486
-20.73919 76.74561 5.058218
-19.55947 43.25265 1.703488
-2.162995 98.66051 11.61494
-5.75011 122.2066 11.96134
-7.116522 120.2979 11.43399
-5.313269 126.3158 11.79123
-7.503837 131.9881 13.89603
-8.554904 118.3783 10.27679
-9.07467 118.4877 10.69513
-16.58044 96.49819 8.824813
-4.00694 111.2572 13.16435
-7.904994 105.7971 10.76788
-5.631609 112.6089 11.65505
-10.28319 115.5041 9.136559
-21.04829 70.36237 1.822058
-2.748033 90.27572 10.67265
-5.191465 84.90011 9.663959
-21.3454 76.90495 3.874066
-4.021972 44.37494 9.115583
-6.925554 102.886 12.21885
-9.150177 123.3651 10.87154
-9.210339 120.5521 10.26451
-10.73818 108.5632 10.32209
-6.071839 106.659 11.81476
-8.599393 105.811 10.468
-8.463927 105.2376 12.35072
-21.40023 61.28506 1.533569
-21.66102 74.16781 0.8045675
-18.9136 54.07185 4.384408
-20.25482 57.01067 1.565644
-5.831341 104.2042 12.44722
-10.02686 127.462 11.56684
-7.694427 127.5112 12.41695
-6.655769 127.7781 12.58052
-7.46604 132.937 13.91422
-13.56865 108.6064 8.250303
-19.65177 62.52506 4.204643
-19.08537 61.40891 4.687686
-19.44978 73.53201 6.703147
-19.41156 75.60293 6.839186
-21.2418 77.10682 4.169352
-6.493214 118.3933 10.99618
-6.557679 126.5894 11.37233
-9.824693 126.7802 11.2846
-8.006029 108.0562 11.65497
-11.92181 104.2439 9.169345
-20.11345 60.88793 2.921497
-19.48969 72.20766 6.488257
-4.510038 48.97216 8.123981
-13.14772 102.5937 10.45104
-20.18607 63.12746 3.748051
-20.00661 72.20296 5.929066
-19.82381 70.68976 5.958855
-19.02695 55.3333 4.449958
-12.2339 102.6831 9.05275
-20.45522 70.82601 5.037316
-21.12729 78.20357 4.5583
-20.80353 82.01633 4.524726
-19.23557 54.04764 4.095656
-12.96984 102.8392 11.17999
-17.87897 70.53227 7.40872
-22.71183 81.57289 2.001642
-22.30737 83.13316 2.714552
