# .PCD v0.7 - Point Cloud Data file format
VERSION 0.7
FIELDS x y z
SIZE 4 4 4
TYPE F F F
COUNT 1 1 1
WIDTH 1659
HEIGHT 1
VIEWPOINT 0 0 0 1 0 0 0
POINTS 1659
DATA ascii
-11.1068 149.7022 -0.8465279
10.32431 143.1523 5.975499
11.88269 149.5172 -0.5610633
11.65507 147.7191 1.464773
9.641055 138.9027 9.797546
11.04008 145.8654 3.205574
7.89495 121.4354 11.10867
-23.07749 79.39703 0.8734916
11.7843 120.2662 8.546227
-20.45059 84.66531 1.41717
-17.33469 98.18841 3.217031
-19.21212 91.13731 -0.3298154
-18.57813 93.41865 -0.4543746
-16.30571 103.2921 -0.5183887
-19.10951 79.91284 7.365252
-13.16699 120.1205 3.151805
-19.33627 89.26814 4.057503
-0.946669 121.5009 12.0532
-2.920437 121.6172 12.02055
-8.809069 120.0693 10.79384
-13.29597 124.4085 4.311903
11.14803 123.8221 8.909427
-14.83307 109.2273 1.402714
-12.89355 118.914 5.052309
-11.9295 126.0206 7.979376
-13.00834 122.827 2.91997
-13.67054 126.8183 3.472705
-11.87597 127.0998 8.405384
-12.76577 126.3516 6.81394
-11.18852 118.5249 8.322762
-13.51719 127.7544 4.946572
-7.787882 120.3449 11.16685
-1.037222 126.4557 12.21262
12.33828 121.8073 7.061964
-3.188766 120.899 11.95376
-1.238078 126.9801 12.21458
13.6405 117.5537 3.302182
11.01136 120.3287 9.074066
8.723877 81.22605 10.25959
10.67795 119.997 9.105849
19.9181 79.70302 6.343972
13.50968 115.8708 0.901197
-13.58266 126.8175 4.321381
12.56822 114.7231 1.1831
-10.61122 119.5554 9.216871
20.55847 78.56532 2.878681
-10.80595 119.9986 8.830956
-12.55188 126.8967 7.209458
-12.7824 127.4508 7.120145
15.05168 106.9472 -1.079867
18.55886 93.14485 -1.275403
4.216655 120.481 11.813
-12.41195 117.058 3.440071
4.601615 122.0057 11.94555
4.777556 120.4048 11.71048
7.56415 127.155 11.42526
-7.125054 121.4001 11.387
1.327104 123.5834 12.15088
1.790285 120.8926 12.00582
9.426116 123.7591 10.29962
12.30658 119.7935 7.874873
11.46098 120.7474 8.986503
13.5478 117.813 4.833743
3.31265 127.5894 12.12107
-12.67098 127.5117 7.430606
13.43431 125.3413 4.210815
-8.666763 119.7078 10.94498
13.00248 122.9941 2.685321
-1.509168 120.2245 11.99004
11.86052 118.8465 7.348234
-0.1797917 120.0439 12.01343
-11.7608 118.7448 7.280138
4.773259 119.8097 11.64609
11.8195 119.5171 7.915063
9.152139 121.69 10.5335
12.78998 117.2496 4.646905
13.61272 117.1356 3.58216
-22.11634 81.7987 0.3300944
20.48762 83.91405 -0.3498523
13.03135 117.9083 3.059391
-17.29251 99.67347 0.7435041
-10.97155 117.5415 9.279405
12.63597 115.3244 1.297716
13.27581 126.8862 5.652408
-9.312654 120.5689 10.29426
-13.1507 120.3278 3.912249
-11.02047 121.1777 8.803173
-3.943353 122.5728 12.07344
-7.100109 124.9629 11.39376
-5.907156 125.4485 11.74571
2.609747 123.3311 12.15851
0.5415861 123.7726 12.1505
2.988478 125.6511 12.25221
3.74052 125.5075 12.22138
1.067091 124.4843 12.17876
-0.6508456 125.3946 12.19678
0.1128588 125.7988 12.19974
11.78339 122.3925 8.094057
-13.59022 126.5335 4.007774
-12.92922 125.3008 6.401978
-13.21329 124.3968 5.065926
-11.18426 124.1178 8.878312
-10.31713 124.3772 9.608704
-11.01445 118.4925 9.651396
-5.651836 118.9472 11.35477
-11.07301 117.3782 8.928483
11.34472 117.2806 7.620242
8.07189 118.1437 10.76785
10.31288 117.856 9.1168
10.42632 119.8128 9.254528
4.804246 119.6418 11.62401
10.07923 124.4287 9.780233
13.30278 116.37 1.034072
-22.96542 78.30888 1.544493
-20.36581 78.1037 3.708854
-7.304814 80.94109 10.25556
20.09334 87.22164 1.323428
20.70792 85.08823 -0.9671193
23.12548 79.74643 -0.5941054
-7.257205 125.2714 11.27091
-8.560179 123.6219 10.85059
-8.073349 122.7653 11.11999
-9.819118 122.4574 10.02784
-11.17934 126.7693 8.818879
-13.47497 115.5683 4.412762
-12.85173 115.6648 3.851064
-12.1477 117.3136 5.864509
-13.27153 116.176 6.449527
-12.43216 116.6521 5.953613
-12.87645 121.335 3.902701
15.48639 105.6216 -1.029636
13.12278 123.4101 3.059895
13.56209 127.4407 4.705984
13.63134 126.4414 3.268548
12.31684 124.5286 7.483646
-12.08519 122.1331 7.519113
-6.381719 122.338 11.71827
5.873224 123.0889 11.90679
2.005438 127.9801 12.20002
-3.058674 125.8385 12.24372
10.86223 122.1474 9.292496
11.35036 122.9057 8.662283
-9.623233 125.6968 9.918526
-10.53384 114.7695 8.385739
12.12361 117.1989 5.868708
-1.955604 119.9317 11.96111
11.03939 117.1857 8.038325
13.00389 113.4649 1.210256
14.24666 113.0845 2.634828
14.36477 112.5036 1.48183
-21.42173 78.48923 1.708041
-22.06916 80.03348 0.9244576
-20.39688 77.68142 3.63954
-19.86197 79.49986 5.977401
6.389793 88.32861 10.17429
19.07383 91.1955 -1.370227
20.66178 81.32946 0.9137205
22.34194 81.33835 -0.7810427
-17.8309 96.47221 1.775639
-11.01258 115.5232 7.85956
-12.75777 116.6178 7.501544
-13.13212 123.2945 4.37861
-12.13852 121.4488 7.33383
17.26172 99.40877 2.558189
12.78357 122.0459 2.405682
13.12016 123.2434 4.422022
-11.82415 122.6301 8.009311
6.252304 124.5352 11.76399
5.852469 125.2192 11.80214
-0.6322088 124.8183 12.1848
11.4328 121.6652 8.856842
10.81221 127.1683 9.70911
11.43997 124.589 8.604181
-12.56887 122.7184 6.688413
-3.310767 118.7403 11.80145
-3.640931 116.7233 11.75156
6.814436 116.0172 10.67445
8.699338 116.7907 9.864117
7.352859 123.3002 11.44835
8.756458 125.8185 10.47124
12.90884 113.2604 0.3009541
14.62426 109.0536 4.418701
-20.30592 85.74537 1.504474
-20.03691 78.63193 5.580376
-17.76554 96.32114 2.723705
-20.91205 84.62586 0.1678112
-20.14895 87.14624 0.7248853
-3.450324 81.22476 10.25804
17.26126 81.55388 8.91036
20.27878 79.52348 5.037881
21.61113 82.1381 -0.7520881
21.38309 77.40792 1.255873
21.42162 78.39843 0.7536927
20.793 79.62282 0.9858105
-16.05995 105.3694 1.133292
-11.47954 116.3722 7.416642
-13.2046 115.4635 5.949836
-13.13598 114.1195 3.448959
-13.96877 113.9495 1.197912
-13.67936 111.7674 0.8701434
-14.99077 108.716 1.089114
17.95691 95.95483 1.384252
15.54841 106.0637 -0.3943485
-11.57041 122.0533 8.265078
11.54592 124.2473 8.487925
-5.418718 116.2022 11.29511
5.901884 116.3244 11.09369
14.13922 110.3086 -0.1827512
14.86787 108.3942 -0.1569999
-20.17716 80.18068 4.682664
-19.33899 90.7205 -0.02626049
-20.11658 87.13664 1.229176
-15.44932 80.99313 9.882426
10.96227 81.62997 10.26002
7.315347 82.32166 10.26347
19.09323 91.53746 -0.473621
16.15377 80.59267 9.602335
14.93781 81.2434 9.990035
15.9767 83.18719 9.593936
16.58042 85.04745 9.210934
19.96712 86.62492 3.411043
19.66772 89.17803 -0.4105613
18.9628 92.05124 -0.4114975
20.49506 80.62384 3.232486
20.20476 80.36186 5.116702
19.27337 81.68536 6.839832
20.56854 83.30936 1.311168
20.73407 81.54939 0.1234319
-0.05114257 81.52386 10.25762
-15.31719 107.2601 0.1617953
-15.69457 106.4216 0.6940014
-17.39334 99.04267 0.5856091
-13.72127 114.3871 1.921669
-14.4157 109.938 0.3969399
16.01162 103.4549 -1.420705
17.49091 97.92493 -0.5472022
11.85708 124.622 8.125233
-2.791464 116.7494 11.86734
0.03900665 116.5776 12.00424
1.977081 117.7158 11.92831
15.11446 107.3319 -0.5178811
-20.06712 79.81057 5.206214
-19.44205 80.84138 6.606142
-20.13311 79.69872 4.916651
-17.75881 96.91177 0.7197523
-19.85769 88.39198 1.8596
-19.0067 91.94306 1.824195
-18.68857 92.88959 2.444837
-20.6632 83.7198 0.67621
-20.23945 84.43678 3.387928
-20.32204 83.64736 3.30222
-20.47358 82.83308 2.779717
-19.7785 81.53407 5.719795
-19.45453 81.49634 6.421055
-17.6913 80.45406 8.796187
-15.95647 80.51737 9.733708
-11.25155 81.45835 10.25515
-6.39639 82.23987 10.2606
9.957678 81.5228 10.26099
6.136397 81.25533 10.26058
18.17162 95.03398 0.3361887
18.30629 84.99461 7.627659
15.34907 85.34718 9.822083
19.76042 88.65772 2.350497
19.78292 87.67412 3.476025
20.55965 80.55569 2.670154
20.22953 86.1223 0.09740536
-2.205778 83.39758 10.24862
-1.382358 83.30789 10.24835
-5.448903 82.0343 10.25834
-16.49505 103.8085 2.546315
-17.01517 100.8525 0.1544633
-11.78201 114.6412 6.805451
-12.22574 112.6568 6.743307
-13.03345 113.34 4.204342
-14.00861 111.2268 1.833153
-13.09547 113.4644 3.764824
16.27079 104.3533 0.7592527
17.20399 100.0696 0.393742
16.84723 102.1987 2.027868
17.27687 98.82212 -0.8157441
17.43411 98.5211 -0.07183232
-1.411087 116.2247 11.97009
2.652046 116.6617 11.87506
-18.48364 93.80858 -0.2417948
-17.71352 97.14339 0.6451908
-17.57613 97.75265 -0.004915122
-17.8877 95.32378 3.394938
-20.0209 82.62527 4.752357
-20.6151 81.27935 2.074593
-19.18263 84.13835 6.409723
-19.19494 82.66852 6.623061
-12.1182 81.47785 10.2502
-12.72707 82.29064 10.25798
-9.744098 85.95124 10.24849
-11.21821 85.2613 10.26843
-10.64225 81.7506 10.26152
7.685509 81.93037 10.26339
2.75235 82.25774 10.25552
18.54937 93.71899 0.895439
18.33191 86.58967 7.383907
17.03751 86.26265 8.786561
20.51824 83.8515 1.496793
-4.195947 82.91357 10.25472
-16.63053 102.9259 0.837919
-16.85793 101.7114 0.3851468
-13.41222 112.4926 3.527095
-15.34064 107.9894 2.346913
16.90726 101.9017 2.016776
16.13503 105.2749 2.956917
17.11296 99.28522 -1.165191
-3.486377 115.1958 11.80383
2.710716 114.6393 11.88955
0.3656988 118.2633 12.00125
-18.08026 95.00991 2.690933
-16.40337 94.75027 7.14798
-18.05621 94.1356 4.020485
-18.46982 93.69632 2.300023
-20.11451 86.53409 2.57494
-17.18047 81.73105 8.967356
-9.464285 85.75018 10.25185
-11.68136 87.83009 10.17425
-8.689225 92.07266 9.918145
-12.39102 87.26749 10.20975
-9.943624 83.54076 10.27447
-6.618919 82.62193 10.26144
6.81888 82.87088 10.26257
6.243231 83.03087 10.25997
1.420914 84.69471 10.23793
18.79567 92.74453 -0.04423102
15.84211 84.9147 9.631668
18.63166 81.80003 7.719801
13.13544 86.60468 10.23008
15.68453 86.12238 9.643391
14.058 85.9037 10.16209
19.83765 87.17247 3.609744
-5.571585 84.29456 10.25265
-6.728677 84.23366 10.2586
-16.85701 101.9502 2.635083
-16.47011 102.2595 4.393439
-14.86124 109.0352 3.410822
-2.297269 114.4293 11.93849
2.261622 115.4527 11.9193
2.819176 115.6501 11.86252
-12.45955 90.54608 9.894363
-19.3992 85.87753 5.633074
-17.73705 82.96804 8.402522
-11.16638 88.57565 10.11655
-8.88724 83.1927 10.27032
8.408177 84.17346 10.26599
0.085341 83.99772 10.24301
17.43122 98.86156 0.9204711
18.26682 94.6316 1.677462
19.1715 81.90628 6.929882
20.10819 82.06705 4.825744
19.40762 84.15987 5.97546
14.26942 83.39311 10.16717
19.93963 84.64547 4.498137
20.25546 86.01097 1.838821
20.31381 85.41277 2.169409
-1.58962 85.6282 10.23027
-8.177979 85.84953 10.24414
-6.0634 86.41723 10.22407
-8.983235 87.59766 10.1857
-3.051617 87.02465 10.21574
-16.28119 103.5787 4.308456
-15.8289 104.759 5.012794
-15.81704 106.065 3.853041
-15.47849 106.937 4.168678
-13.94087 109.392 5.862679
-16.86822 99.64568 4.181355
-12.84303 113.0073 5.251957
-13.20941 110.3788 6.516819
-1.471047 115.4872 11.97582
-8.028079 114.6235 10.00161
-19.74515 88.82384 2.159214
-18.81665 84.48722 6.977889
-13.52919 85.60053 10.24151
6.879338 85.17915 10.24659
17.08356 100.5388 2.760442
17.69251 96.83163 2.445422
18.81936 92.05865 3.153414
19.23807 86.55761 5.777282
12.79653 84.10655 10.28119
14.85249 88.15125 9.796776
-3.305086 85.01189 10.23863
-5.16648 87.84504 10.19265
-15.49455 103.8902 6.091968
-14.10275 110.6318 3.993168
1.193632 111.7873 12.07171
1.242999 114.0979 12.00646
-11.47784 112.5735 7.743093
3.562147 116.3407 11.7678
6.626482 114.4404 10.75663
8.765022 116.1124 9.712809
-17.22482 95.68992 5.299011
-13.01577 88.94686 10.06691
0.607177 83.91556 10.24362
16.22981 104.4086 3.779415
16.55423 102.1655 4.172266
19.74824 88.33548 2.929603
-2.405229 87.00697 10.21717
-4.665796 88.474 10.18431
0.7957639 112.8981 12.04769
-11.07135 111.4373 8.488724
5.152706 113.5596 11.45689
2.586885 112.894 11.95231
10.28982 115.616 8.619537
-14.47081 87.0592 10.0156
-14.82749 85.47596 10.00348
-13.14953 87.85226 10.16394
16.62738 102.5202 3.61709
16.46361 101.2205 4.819203
16.69317 98.44469 5.111774
18.51299 93.74022 1.820636
18.83672 87.59397 6.30867
19.49738 89.08089 3.506299
19.46432 89.7112 2.903475
-1.586737 113.1257 12.01411
5.051367 114.4919 11.46866
-13.11544 90.49479 9.858286
-17.22055 82.61744 8.857097
-15.54856 88.18987 9.51242
-15.4562 83.94102 9.833744
4.71547 86.48021 10.22084
2.103693 84.93572 10.23645
3.89006 86.08448 10.22641
2.294175 87.828 10.21295
2.199095 88.75243 10.21202
-0.8376096 86.45834 10.2231
-3.463221 87.13164 10.21333
-1.001534 87.58173 10.21615
15.95892 100.6765 5.938959
18.71369 88.17336 6.343815
-5.546052 110.5912 11.56845
-2.931207 110.9264 12.04677
-0.8397809 110.52 12.13944
4.289027 111.0847 11.87884
6.517525 111.0183 11.06722
4.068265 109.9558 12.05812
-18.12225 92.79457 5.062912
-17.16341 84.95421 8.777091
-16.86743 85.59256 8.967384
-18.42916 87.25989 7.098513
-0.612294 88.12917 10.21621
13.44568 101.1469 8.303645
15.65403 98.872 6.746472
17.26732 98.01175 3.615558
19.12269 88.57677 5.24193
18.92719 86.97464 6.31987
2.881123 110.4999 12.08678
7.254535 113.7754 10.42154
-15.7561 93.92426 8.10575
-17.53878 92.72741 6.354335
0.9087709 89.13985 10.22146
16.57126 97.00449 5.975353
1.147224 109.1044 12.22587
0.7366543 109.5082 12.19793
11.93376 110.619 8.055163
-16.07669 90.78108 8.735003
-17.22257 91.10281 7.551907
-17.07377 87.40464 8.61793
0.7797221 106.8998 12.3053
3.57284 108.4975 12.2552
8.355125 112.906 9.870512
-14.74827 88.972 9.734797
-14.89656 91.35705 9.298692
-0.2815859 107.1652 12.30291
3.577221 106.5637 12.25488
-0.333799 105.6173 12.27208
4.740236 107.3864 12.03713
5.810661 107.6522 11.66104
2.527435 105.7368 12.28571
3.829415 106.3044 12.19372
-16.3559 92.08137 8.142685
-2.324296 102.2846 11.69105
-2.299485 107.3383 12.33025
4.044754 104.6977 11.91265
4.126679 105.8243 12.07373
3.96107 96.06201 10.43716
7.485287 103.8668 10.64379
3.502536 101.7339 11.34302
4.619756 99.42105 10.65681
3.360732 100.7639 11.12317
3.558074 103.3498 11.74519
2.230621 100.3545 11.18859
3.12215 94.98692 10.424
3.671457 98.08688 10.65267
4.815066 95.94502 10.33147
-1.771004 100.654 11.30076
-4.729545 125.6505 12.04436
-3.99842 127.3028 12.15091
-5.634729 117.7616 11.23609
-5.634225 115.2565 11.21747
-8.228724 117.5307 10.1862
-6.998194 117.6518 10.71479
-7.684446 115.1255 10.19547
-9.823475 116.0214 9.037603
-9.632587 112.715 9.204551
-7.897871 112.38 10.15009
11.77993 116.3048 7.779405
9.216677 115.7463 9.410416
13.27477 114.7074 5.724553
12.55888 115.2165 7.507633
9.93797 117.2474 10.03647
10.80924 117.3151 9.219148
13.69944 113.8236 5.106572
11.60076 114.4873 7.385206
11.23878 113.6522 7.746327
11.79794 111.9544 7.614748
10.61697 112.4104 8.57766
10.8323 113.9164 8.14841
10.03278 112.5486 8.956429
8.85636 111.958 9.724877
7.062506 109.6428 11.01841
10.40192 109.4224 9.549091
9.592042 109.0985 9.998829
6.319493 110.3691 11.24954
15.66458 107.004 2.616666
11.90173 108.7511 8.779205
13.23087 107.8029 7.853379
11.42321 107.9738 9.289305
13.68604 107.7961 7.323173
13.5457 108.8583 6.947112
13.18168 111.0449 6.116744
11.36093 107.3265 9.403703
14.26162 109.7652 4.700102
14.64176 109.4044 3.78135
13.2695 106.8944 8.136945
12.94497 113.8532 5.966426
15.54865 107.1869 3.327792
15.44754 107.3726 3.596758
15.32675 107.4979 3.955768
13.89581 112.0147 3.056048
14.01486 112.5141 3.196602
16.11625 104.9902 3.653924
15.77367 103.8519 5.592263
15.84615 105.331 -0.06406996
16.20133 105.0652 1.801303
13.91052 110.6725 4.655711
13.28498 106.5782 8.196574
14.90109 107.0499 5.690366
15.33175 105.1339 5.943894
15.60507 103.6105 5.967117
14.92725 103.9242 6.925452
13.75436 101.2906 8.10978
14.3262 104.6994 7.525211
12.90745 104.0636 8.700883
-2.565322 123.6641 12.18439
11.34508 83.03576 10.27762
9.970356 83.36033 10.2751
20.55421 81.79636 2.466848
-2.843216 114.7451 11.88232
-5.028466 114.4474 11.46569
-5.692058 114.3442 11.2253
-2.171579 111.6393 12.04417
-6.815068 114.2086 10.65914
-8.164583 112.6983 9.987487
-6.396719 111.3316 11.08406
-5.76032 111.341 11.39494
-4.809864 110.657 11.81403
-9.496379 108.6024 10.14005
-8.886162 109.4309 10.27617
-9.378984 110.2047 9.858747
-12.04335 107.7294 8.937175
-11.65832 107.0967 9.257315
-10.23408 107.2457 9.92987
-12.62383 107.1466 8.623598
-12.05088 111.0335 7.737224
-10.43365 106.1516 9.799461
-18.4537 92.14828 4.618831
-16.7229 95.67521 6.302053
-16.45813 97.02162 6.172101
-17.00862 100.6364 3.178363
-16.33464 98.65379 5.793535
-16.24478 102.1787 5.079615
-14.88931 102.0729 7.13094
-15.46493 105.6507 5.426298
-19.40746 87.7263 4.877847
-6.66923 89.1516 10.13456
-8.592811 88.91804 10.11276
-6.23537 90.83907 10.0966
9.435911 84.3725 10.27008
11.08013 84.02605 10.27952
12.44579 86.22565 10.25124
12.43375 86.3321 10.24822
15.28374 88.68669 9.578777
7.216363 86.33843 10.22666
-2.26218 88.75821 10.2077
-4.538 90.22429 10.16814
-1.721759 89.70099 10.2196
-3.181287 92.06487 10.24325
-2.125183 95.578 10.52083
-4.63314 98.61433 10.52547
-1.114408 94.22626 10.44266
-4.857045 94.40417 10.22717
-0.9741727 91.39926 10.27162
3.330159 96.16461 10.50783
-0.3383534 93.84709 10.42579
2.12566 98.98602 10.94502
-2.488157 98.44167 10.81476
1.897995 93.69349 10.38913
4.072528 91.49464 10.20652
5.607877 96.10208 10.24098
5.32381 93.37281 10.18256
6.034852 94.95169 10.14886
17.96696 94.52352 3.970876
4.019313 84.24802 10.24569
18.20085 93.70326 3.951921
17.2224 94.43064 6.044059
16.26753 95.78708 6.936904
17.65463 93.45682 5.726887
15.86108 95.39986 7.538106
-18.81363 89.25529 5.671822
-18.93011 89.58686 5.182485
-18.79993 91.26829 4.235041
-14.92573 95.31888 8.341603
-13.36969 93.43729 9.386197
-12.91015 91.75928 9.707165
-12.46384 93.02617 9.563479
-9.694143 97.56762 9.433838
-12.43474 94.10863 9.41264
-12.09198 99.6689 8.913224
-11.90727 98.00818 9.019257
-11.42215 98.90486 9.081299
-10.28228 96.23952 9.436212
-12.18189 101.4261 8.887178
-8.607553 97.12272 9.66232
-9.66204 104.004 9.921714
-7.751535 95.03017 9.892918
-9.242723 101.2149 9.708701
-6.344207 97.87488 10.13522
-9.531796 99.2923 9.479674
-7.023394 96.59477 9.976687
-9.952189 105.0573 9.899502
-6.786157 94.73501 10.01853
-5.484652 98.65533 10.36394
-6.177475 99.98644 10.34659
-5.58486 100.2332 10.52722
-8.7853 103.316 10.14245
-6.007346 95.42152 10.12436
-6.913683 103.197 10.7202
-5.386512 101.6003 10.84046
-2.823564 101.291 11.33693
-8.947229 102.7069 10.00474
-13.54806 101.5918 8.239117
-6.266007 97.49944 10.13336
-2.480465 95.83318 10.52223
-5.455937 97.79257 10.30132
-7.763841 107.8661 10.91452
-7.907882 106.5087 10.81584
-7.138826 106.5768 11.11342
-6.394397 109.0234 11.38789
-5.545603 103.4549 11.20222
-5.683703 108.6406 11.69345
-4.537881 107.3337 12.1046
-5.79636 108.2213 11.66874
-3.378078 104.958 12.09029
-0.05190915 104.8425 12.2198
-3.675535 98.34369 10.65196
-2.551812 101.0808 11.32192
-3.757477 98.03572 10.60428
-2.241894 107.8447 12.31433
-1.385618 99.2134 11.03028
-0.003331368 99.68598 11.1583
1.769995 102.2935 11.7469
-1.405344 103.5515 12.03665
1.477804 102.8465 11.90023
-1.407552 100.338 11.24985
-10.36692 91.33377 9.87633
-7.776308 91.28864 10.00957
-9.614173 89.02198 10.09295
-12.1532 90.83569 9.866627
-7.075223 90.51537 10.0731
-7.734897 91.5965 9.998837
-6.303994 93.85519 10.07779
-6.813644 94.16595 10.02159
-6.007509 94.48184 10.11259
-8.952822 92.18952 9.893588
-8.91578 93.38888 9.829235
-14.33637 90.06947 9.713042
6.706637 105.7424 11.18552
9.081344 106.911 10.37681
-0.7909182 104.0755 12.14007
5.578661 104.2311 11.3461
7.844083 105.81 10.76818
12.30889 102.5118 8.896211
11.47713 100.8282 9.098689
14.03155 99.27432 8.109976
11.57707 103.3905 9.230726
14.16598 98.48793 8.138037
15.09375 97.8418 7.606208
12.1433 96.92431 9.081809
11.09699 97.11412 9.239934
15.75252 88.89911 9.312796
17.11688 94.33055 6.288552
7.947734 99.16747 9.891455
6.581798 98.09872 10.1502
5.367462 99.97881 10.5769
5.667009 98.78645 10.38585
7.082846 101.1664 10.31877
8.852366 100.0002 9.723494
10.63816 99.69717 9.266345
9.517601 98.814 9.499723
10.74748 100.21 9.261897
9.95136 97.9683 9.403123
9.605524 98.62144 9.475094
7.415353 98.0133 9.966876
11.90507 102.9299 9.088543
10.47113 105.6699 9.747
8.37813 96.24009 9.796121
9.084655 93.83884 9.808686
8.905969 104.6109 10.24938
9.758687 100.5132 9.530671
13.56136 94.03062 9.229618
11.99549 93.29562 9.564728
9.393918 105.3903 10.13955
6.151563 103.5175 11.01804
7.766403 92.2805 9.997735
7.05908 91.92218 10.05346
9.72687 91.08939 9.941619
11.06126 92.46386 9.736843
6.975321 102.3608 10.54963
5.757373 94.27032 10.16258
8.016058 90.9444 10.03149
7.48561 86.48022 10.22336
6.172573 87.96613 10.18546
4.364713 91.46602 10.1933
8.456097 88.92921 10.12197
10.2579 89.59955 10.04043
7.847163 89.33899 10.11412
5.384748 90.93105 10.14816
4.507813 89.44128 10.18121
2.306558 91.97994 10.27773
4.592184 90.63223 10.17691
7.975341 90.65475 10.04644
4.121115 89.43642 10.18904
-0.3266297 93.0552 10.36695
0.8662521 91.46809 10.27977
13.05674 116.5943 3.256416
13.45363 114.2041 3.928512
12.66818 114.7662 2.295712
12.67963 107.3576 8.550362
-17.53998 96.1952 3.991671
11.66112 86.63998 10.23495
0.07665689 97.65785 10.83022
0.05537773 96.43423 10.67878
-2.496299 96.91495 10.62902
18.86547 90.33022 4.850981
18.70197 91.54207 4.342872
17.69442 88.92427 7.690738
17.22526 92.59413 6.935253
17.2773 88.47536 8.239048
15.90952 90.58358 8.90054
15.18666 90.73378 9.270055
16.91431 92.66151 7.334496
17.70391 92.79447 6.034185
17.63472 92.54987 6.305049
16.42703 93.53716 7.574206
13.1074 93.69276 9.39407
12.17943 89.83126 9.973839
13.1078 92.35486 9.608886
12.8476 90.6752 9.857689
-10.60183 105.223 9.671454
-13.12479 105.6704 8.478989
-13.95294 105.1999 7.835529
-13.65208 104.9779 8.149146
-11.88061 104.8616 9.158129
-14.61702 104.2754 7.210681
-12.86954 103.6586 8.712447
-13.69897 106.3574 7.857461
-15.22736 101.733 6.776285
-14.95435 100.0819 7.272801
-12.93355 100.1522 8.597664
7.910073 95.69389 9.893951
-16.56676 99.53606 5.015655
-15.42291 99.73627 6.836311
-16.08325 100.4335 5.772131
-13.16306 98.74831 8.604816
-15.70702 99.05805 6.649267
14.69405 90.99297 9.444339
5.942582 116.5704 -6.638297
23.94779 77.98902 -0.4343697
13.13416 107.7304 -4.084352
21.16327 70.11581 -3.069006
4.924003 125.7442 -8.197207
20.66974 86.05291 -1.520049
20.24913 87.12147 -1.341301
4.807985 104.0227 -9.821123
16.63841 98.881 -3.114626
12.02651 55.05575 -11.55403
14.49512 55.76995 -10.84922
17.89232 79.09826 -6.106748
23.24898 73.82311 -1.815622
8.541699 105.2319 -8.565184
-16.02808 56.65849 -9.785054
-5.674518 106.4116 -8.367271
4.725592 102.6229 -10.55191
6.198939 99.94952 -11.78968
14.71047 107.0285 -1.881639
-4.683288 105.5037 -8.969205
13.1625 124.9046 1.067069
5.972205 111.7431 -6.873216
12.2094 128.069 -4.989363
-6.151833 99.89467 -11.71036
13.73661 127.04 2.190085
13.32568 125.9919 0.4642507
11.55957 127.406 -5.472988
7.180499 120.0788 -6.363186
7.124313 120.595 -6.372873
5.426577 105.3828 -9.037969
6.508689 114.5479 -6.646334
11.49796 128.3562 -6.290238
12.41387 121.6431 1.176619
-2.982053 101.6673 -10.81532
8.030123 127.3349 -8.078537
-13.482 126.8644 0.1926385
2.343819 51.3889 -12.58331
-8.44843 50.31815 -11.90153
-12.46587 53.71917 -11.22351
-4.547113 101.3289 -11.13379
-6.768222 101.4765 -11.04304
6.537348 109.0497 -7.004531
-4.816309 103.0528 -10.34155
-7.496914 101.4803 -10.8926
-18.41127 63.00486 -6.105765
3.211736 101.8698 -10.75357
-23.68617 73.3792 -0.2647732
2.269293 103.7944 -9.886263
-23.2255 73.64751 -0.6117294
11.79716 127.8678 -5.508284
-16.32875 102.954 -0.7980875
-8.955207 61.41026 -12.15921
13.38508 127.3184 -0.7692681
1.643213 98.8745 -11.25273
6.385169 124.4485 -7.253095
5.012085 123.7569 -7.391584
-7.156562 119.6745 -6.133863
-8.925451 119.9017 -5.492222
-0.1618682 126.0521 -8.541493
-6.220144 101.5648 -11.06591
12.73728 124.7818 -0.4991101
5.405999 102.9754 -10.4046
-7.370315 113.5476 -6.264792
6.20593 98.67065 -12.43442
4.353612 123.8836 -7.585802
-6.214478 100.3164 -11.55919
4.156551 108.3954 -7.514241
-9.739183 127.1788 -7.083973
-4.387704 100.3873 -11.48569
14.64928 107.7047 -1.520691
7.494953 124.5634 -6.863212
12.94596 125.5738 -0.6132808
-1.576385 118.8218 -6.823462
2.099708 125.2387 -8.242726
5.434263 125.8688 -8.139249
2.185452 126.1014 -8.560977
5.946479 119.4974 -6.496679
-14.6385 66.9838 -10.42556
-19.20234 69.1233 -4.472351
-6.269918 125.1197 -7.584134
-7.889418 126.0527 -7.448768
-11.79985 126.7176 -4.521115
-13.93621 111.5895 -1.017143
9.213974 125.9303 -6.668715
10.33559 127.8211 -7.012434
13.27127 127.5762 -1.525275
-3.819536 98.64791 -11.94782
-5.832006 109.4335 -7.225357
-1.921908 106.2206 -8.599197
-4.849108 105.2127 -9.145103
5.504702 110.8079 -7.053256
3.707107 108.7471 -7.408331
3.732211 110.2682 -7.130437
2.139782 110.614 -7.073231
1.152516 108.6673 -7.413153
0.3179767 110.5613 -7.062187
22.05551 82.03304 -0.9254523
24.62867 76.50684 -0.4206439
23.6893 73.90561 -1.542915
6.678298 98.8742 -12.09061
7.250799 56.9004 -12.42228
14.01561 109.9428 -1.215582
7.673659 111.2145 -5.719751
-6.062969 117.4218 -6.35535
2.136804 126.2251 -8.606464
6.77142 119.7979 -6.456173
-7.726013 100.3805 -11.27349
-18.50732 61.89337 -6.125564
-21.99325 75.27352 -1.498734
-12.65153 119.2745 1.52502
-2.095117 126.0613 -8.540011
-4.168862 126.3993 -8.576743
-10.79356 127.2077 -6.233206
-12.57527 128.1633 -4.340742
-13.36358 125.2075 1.948717
-13.66972 127.0475 1.20843
7.725294 119.6824 -6.199844
12.59362 124.7718 -0.9183762
2.610976 103.2304 -10.16109
-2.596632 107.1445 -8.098791
-3.248003 102.2123 -10.63877
-4.259353 104.4071 -9.596088
4.289914 113.7536 -6.834585
-3.90379 109.3034 -7.273869
18.54899 90.62334 -3.641261
19.89133 66.25353 -4.023859
21.79442 72.72294 -2.663223
23.86106 75.38982 -1.415138
7.879354 103.4459 -9.818658
18.28698 93.31973 -2.439316
-1.872153 52.16162 -12.62873
6.216673 106.9312 -8.008438
14.78667 104.3899 -3.584155
13.18951 110.776 -2.152111
13.12643 115.1714 0.07716329
7.021159 109.7947 -6.550215
6.692976 116.7825 -6.538915
-5.303968 115.8475 -6.533415
-0.05314943 125.6063 -8.377924
4.281865 122.9726 -7.252314
6.213594 118.8893 -6.510062
5.513072 121.4096 -6.569253
-18.42282 93.71922 -1.106645
-8.6336 103.9906 -9.251587
-15.44622 104.6763 -1.941503
-8.165163 108.2286 -6.890882
-6.942258 108.2712 -7.247713
-18.28123 61.66372 -6.615391
-18.13751 83.45827 -5.734316
-23.6555 76.37895 -0.2644089
-12.64677 116.4393 1.070641
-12.74574 120.8746 2.095308
-7.779352 119.5127 -6.023853
-8.448892 117.4979 -5.781198
-7.503043 122.9542 -6.15859
-5.244039 119.7418 -6.313437
-6.03676 124.6432 -7.453662
-4.35536 125.4081 -8.167365
-9.086269 124.8342 -6.114894
-12.04074 127.4102 -4.728498
-12.63007 123.01 0.840729
-13.67237 106.8898 -3.852446
-14.0002 112.0722 -0.902725
-13.75356 107.3857 -3.435197
-13.33124 127.6499 -1.333637
-12.96004 125.8213 -0.8127017
-12.58308 125.6919 -1.814943
11.58673 120.5348 -0.4269857
8.092367 120.5923 -6.068588
12.02588 126.7032 -4.076609
12.10068 124.9589 -2.326334
11.16173 126.8297 -5.537681
4.158634 99.10123 -11.87483
-4.447302 109.6296 -7.217942
-4.451415 106.7859 -8.215594
-1.654419 101.815 -10.68579
0.4299279 111.6519 -6.95804
0.04583771 104.8053 -9.344145
1.5277 105.3058 -9.07227
3.202522 104.4396 -9.557777
0.4114226 107.9082 -7.725929
-0.8862413 110.9235 -7.024925
21.41516 84.2374 -1.843131
22.28509 81.88504 -1.642367
22.83972 79.49143 -1.724391
22.15095 80.04315 -2.300395
22.33674 73.73694 -2.346896
19.61896 89.1606 -1.333002
6.322035 100.6388 -11.46115
16.12707 100.2788 -3.404287
13.88352 58.57433 -11.09603
0.01269217 49.78823 -12.53484
-6.496901 53.66105 -12.3472
6.937411 106.569 -8.10137
14.7101 106.0515 -2.591615
14.62796 104.0493 -4.085395
14.16724 104.3523 -4.6248
13.0828 107.7819 -4.115039
13.73142 110.7682 -1.467251
6.283789 108.5658 -7.263139
11.96723 118.5067 0.8076264
7.743262 114.1649 -5.156201
5.115983 116.9297 -6.635808
-5.57048 115.4338 -6.572309
2.662453 122.8549 -7.372743
1.263816 123.0411 -7.481872
3.035891 120.8817 -6.892579
5.796147 118.7095 -6.530774
-17.86398 95.03929 -2.26501
-16.2142 100.3993 -3.131006
-15.38359 105.646 -1.309196
-15.76474 102.6065 -2.76905
-16.79392 100.3184 -1.522671
-9.463467 103.6437 -9.086597
-6.293891 107.4634 -7.769457
-17.99472 64.78294 -6.662995
-21.90536 82.78008 -0.7779653
-24.14394 76.02232 0.1748507
-22.51222 71.70678 -1.105468
-21.82559 82.8489 0.03811416
-21.45182 69.84314 -1.963787
-11.9418 117.8416 0.04576372
-10.10437 119.7091 -4.008009
-12.795 117.9181 0.9570829
-9.52938 120.2664 -5.033938
-9.56932 121.5597 -5.079661
-7.19736 115.4503 -6.421157
-7.090302 113.8566 -6.545119
-5.649678 120.2518 -6.25665
-8.670169 123.6085 -5.881248
-10.92685 125.3228 -4.710952
-10.6482 124.9272 -4.771026
-12.1434 125.7784 -2.955938
-9.98014 123.3096 -4.909932
-12.51096 122.1403 1.158836
-6.767688 110.9222 -6.607738
-13.86454 112.358 -0.938589
-12.16379 112.583 -2.128153
-13.55888 126.806 0.7879568
10.45089 123.9319 -4.415077
8.464396 121.0849 -5.871742
9.779829 123.0453 -4.969031
1.518053 100.7089 -10.93441
-5.008203 111.7451 -6.973113
0.7966795 102.3683 -10.49089
0.09310792 100.6388 -10.88051
-3.660662 101.1836 -11.07302
1.558143 113.6226 -6.829476
-0.2743675 113.3075 -6.843192
0.1197548 104.0432 -9.749825
3.289012 105.288 -9.084695
21.39087 83.07435 -2.496423
19.6874 86.36467 -3.535192
21.82337 83.20307 -1.594571
20.04365 71.6508 -3.918286
20.03989 67.12695 -3.928869
22.10502 75.51163 -2.496022
20.67642 76.54519 -3.314667
19.90652 74.94567 -3.949333
18.36036 92.77664 -2.713445
17.98645 94.43406 -2.475052
7.09558 101.7794 -10.85174
15.96706 99.47864 -4.279123
17.33534 97.2969 -2.143424
11.75659 52.95682 -11.54656
9.375724 52.23057 -11.95478
0.857339 49.19378 -12.49606
-8.35322 50.71318 -11.93676
-15.3959 58.29827 -10.16846
11.50086 103.1049 -8.084634
13.74067 109.2765 -2.294269
12.11765 110.519 -3.681285
7.497847 108.7956 -6.811058
12.35349 115.2652 -1.017853
11.49967 116.7902 -0.6217237
6.936005 110.571 -6.287265
7.211936 112.3934 -5.619074
4.137459 115.6978 -6.706361
2.88512 115.9869 -6.717132
1.385083 117.2178 -6.771163
-5.664433 115.1449 -6.601742
-0.9655797 124.2868 -7.894547
-0.7082012 123.7488 -7.707203
-1.357265 121.6236 -7.145448
3.373451 121.1537 -6.87805
-19.18605 91.02116 -0.8687829
-18.70153 92.48637 -1.538784
-17.24432 98.73933 -1.061522
-11.2429 98.01606 -10.46875
-6.914137 102.7116 -10.43064
-15.54272 101.8525 -3.741938
-9.56287 104.4068 -8.619086
-9.37639 106.6539 -7.393153
-17.66248 61.6172 -7.714953
-21.50134 84.03675 -0.3402522
-19.57493 89.52533 -0.565317
-23.779 75.40201 -0.2022477
-22.5036 78.70518 -1.08142
-20.81074 72.32415 -2.51231
-22.37828 74.29108 -1.223725
-21.339 75.9707 -1.958421
-21.55353 74.16756 -1.833423
-17.12613 77.31695 -7.236693
-20.45587 70.20667 -2.958455
-12.91653 113.3848 -0.1129061
-12.56254 116.5645 0.07821234
-9.402723 117.4564 -3.846267
-9.810266 118.7117 -4.066168
-6.944923 111.0104 -6.448735
-5.315483 121.1241 -6.411306
-12.28397 124.8202 -1.784558
-12.50218 123.2766 0.1840968
-11.64103 121.6693 -1.025685
-12.14999 122.4954 -0.1926762
-10.62156 122.4069 -3.858843
-11.19285 123.1181 -3.012243
-10.20426 121.8821 -4.393038
-12.08752 118.4175 0.4825165
-13.09141 109.7255 -3.091384
11.25846 121.7324 -1.881306
7.626048 120.2781 -6.252014
8.21301 119.4646 -5.957168
1.075914 99.46439 -11.05107
-1.50143 101.4442 -10.79007
-3.668103 97.9128 -12.11771
1.778849 113.9413 -6.813289
-1.757101 109.8235 -7.16322
19.3832 88.12301 -3.362848
19.23511 89.68301 -2.38252
20.65116 85.02149 -2.852774
19.27951 72.74874 -4.619729
18.09882 66.77638 -6.047977
17.598 93.97477 -4.079463
17.11578 94.28996 -4.999726
14.23476 103.6283 -4.954032
12.20022 54.70314 -11.50402
9.857371 51.40107 -11.83911
5.949026 48.95936 -12.21611
1.878022 48.3025 -12.41627
-1.418927 49.4782 -12.49673
-4.271721 48.66144 -12.29683
-9.245552 53.12457 -11.8879
-12.09822 53.01339 -11.29113
7.732186 105.6613 -8.536006
10.00674 104.9707 -8.070292
9.292222 102.2905 -9.870296
10.46426 104.9346 -7.830269
9.720225 106.1268 -7.551564
9.777866 106.9289 -7.069379
11.96704 104.4216 -7.025151
13.98245 103.2707 -5.512946
12.82648 102.9209 -7.011709
12.43523 111.419 -2.681074
10.3505 111.2505 -5.103286
11.51289 112.7272 -3.793239
7.541818 112.7628 -5.263803
0.8295434 114.1182 -6.806268
2.120733 116.2615 -6.739435
-5.423645 124.2966 -7.493574
-17.93114 94.31573 -2.809148
-18.38277 91.91027 -3.324612
-17.15306 96.79834 -3.217652
-16.62833 97.67403 -3.989968
-15.6723 98.3402 -5.537174
-16.12624 97.22819 -5.326237
-8.739539 106.2257 -7.868399
-10.86843 107.9967 -5.935079
-17.18123 59.11182 -8.672245
-16.80074 57.88667 -9.1481
-19.59635 66.63372 -3.965897
-19.91603 84.68159 -2.810215
-20.34673 87.23667 -0.5127832
-19.16142 88.09264 -3.283163
-20.91961 82.82435 -2.016949
-20.9555 78.48402 -2.191575
-9.785904 117.4204 -2.99751
-10.47591 117.2856 -2.170413
-8.60727 115.6758 -4.773406
-9.709883 118.1185 -3.459571
-10.258 119.4778 -3.305941
-10.94678 114.9014 -2.54832
11.72756 120.9197 -0.2712753
9.643319 121.9627 -4.898037
0.2842081 99.82762 -10.95184
2.168065 112.2154 -6.925537
18.68592 90.04247 -3.590936
20.53249 80.96217 -3.307167
18.46739 71.85217 -5.535456
19.24351 70.25062 -4.70005
21.50433 77.18156 -2.832515
19.8381 76.12662 -3.938143
15.43644 102.1695 -3.767595
12.26931 54.36502 -11.47752
13.86176 57.12508 -11.09404
12.25232 58.04237 -11.56625
9.376616 54.30821 -12.03315
7.438392 50.15143 -12.12627
7.521792 52.83224 -12.24152
5.539627 50.063 -12.32
1.177816 49.50069 -12.5107
3.058905 48.46323 -12.38467
-0.558205 48.46629 -12.44719
-6.97291 50.85832 -12.14635
-4.314826 49.81787 -12.36893
18.06099 63.4955 -6.307545
-7.929224 50.46418 -11.98822
-12.2153 54.73913 -11.31466
-15.16397 55.46623 -10.33604
11.67174 103.4239 -7.799388
13.29991 102.7999 -6.577847
10.9025 101.7374 -9.213317
8.453894 112.6772 -4.886342
10.97314 113.5272 -3.00761
-3.430819 115.1816 -6.665399
2.459641 120.9832 -6.969961
-1.875278 120.5576 -6.944781
-2.013286 121.0216 -6.995203
1.273965 118.4322 -6.823153
-18.0764 93.25166 -3.257079
-17.63425 94.2944 -3.772576
-15.77244 93.45058 -7.505168
-8.488378 102.0601 -10.32943
-10.40635 103.6791 -8.556412
-17.30906 62.22271 -8.143657
-18.60321 64.26743 -5.57545
-17.74152 64.73944 -7.126579
-15.47357 63.30418 -9.986283
-14.74776 59.02291 -10.51467
-14.73527 57.7842 -10.53407
-19.52072 67.42106 -4.061841
-20.29239 87.03988 -1.394499
-20.68173 80.99071 -2.369887
-20.34885 72.71774 -2.981899
-21.51286 77.58655 -1.792295
-9.249534 114.5659 -3.873679
-11.82922 114.4971 -1.510362
-8.978722 113.3477 -4.419282
-8.295442 113.2843 -4.80334
-9.462829 112.2301 -4.710259
-12.14446 111.6307 -2.894192
-11.20818 119.3009 -0.8847923
-10.45494 109.713 -5.357469
-10.65407 110.5185 -4.858366
-12.38695 112.6348 -1.739408
10.30675 120.1079 -3.099038
10.32841 122.154 -3.965324
-1.929551 111.892 -6.937042
18.52125 87.05988 -4.859254
18.40543 66.64366 -5.640414
18.56965 65.47146 -5.459877
17.74545 69.12032 -6.48211
18.52783 78.45653 -5.364881
14.88703 58.23601 -10.66352
14.81386 60.23834 -10.67091
7.702139 51.2854 -12.15053
3.376207 50.85775 -12.51307
15.79727 59.34931 -10.04075
1.782239 49.77842 -12.51396
-9.641865 55.43203 -11.88687
-4.901438 50.35334 -12.3509
17.29856 64.71038 -7.50583
14.28822 67.829 -10.787
17.25287 64.90498 -7.562504
16.25389 64.75097 -9.169967
-11.99913 55.2168 -11.37598
-8.87862 53.74681 -11.97575
-7.905052 54.23751 -12.16031
10.92664 105.628 -7.16283
13.02913 102.5793 -6.970185
15.13074 102.4606 -4.1825
14.46719 101.1922 -5.934334
11.68297 100.615 -9.137593
11.96823 99.18222 -9.501636
10.64432 98.76831 -10.59322
10.85847 100.2736 -9.888947
9.561462 110.5219 -5.67121
-2.833029 114.4815 -6.734206
-3.538908 114.964 -6.676329
-2.016101 115.5917 -6.719306
-4.557783 123.0761 -7.230501
-4.607647 122.3356 -6.931966
-17.51853 94.41642 -3.989847
-18.55779 90.27721 -3.775605
-18.2407 90.22546 -4.490222
-17.23808 89.63314 -6.305339
-11.11478 93.77491 -11.49971
-15.96803 96.46245 -6.029785
-14.52146 95.71246 -8.317012
-10.93428 99.5903 -10.11495
-12.05917 104.1164 -7.120822
-12.08081 107.0142 -5.535028
-13.09175 106.9971 -4.537654
-12.48718 108.1508 -4.566301
-18.0254 65.64787 -6.50945
-16.18777 64.63648 -9.318563
-17.43529 62.73381 -7.894748
-17.29257 63.04145 -8.060059
-17.06993 63.98124 -8.277681
-14.88202 63.22168 -10.36572
-14.42349 61.92612 -10.63302
-15.46084 60.62921 -10.07716
-15.09578 64.61443 -10.19957
-14.45689 64.36357 -10.56067
-12.81519 60.97395 -11.21964
-10.91317 62.59753 -11.72002
-13.09803 56.86657 -11.1162
-11.26061 56.72018 -11.5764
-12.79233 58.4082 -11.21093
-11.13115 58.21165 -11.6282
-20.38133 70.67622 -3.024431
-19.05788 68.64925 -4.675045
-18.17259 67.48775 -6.101479
-18.77564 69.29919 -5.071504
-17.75875 70.62449 -6.624362
-20.41826 81.06971 -2.608265
10.68325 120.1582 -2.007967
10.38362 119.4438 -2.315845
-1.262782 100.3776 -10.96
19.08342 66.24686 -4.839658
18.29785 70.77556 -5.747278
14.58219 97.82523 -7.409592
15.02721 98.84044 -6.307163
13.61464 96.18336 -9.112732
8.133938 53.93702 -12.20518
-1.284571 50.02532 -12.53303
-3.622134 51.80906 -12.52993
1.439672 54.72246 -12.729
-7.184539 53.27971 -12.23398
-3.42669 53.44987 -12.61872
-6.775588 55.23948 -12.37558
16.20434 60.81332 -9.591094
11.53167 105.909 -6.56948
14.74984 98.53805 -6.858808
10.89013 114.2863 -2.672646
8.741623 116.7737 -4.430126
-3.282593 121.7063 -6.982779
-16.39588 87.93004 -7.490777
-15.92017 99.32426 -4.464223
-11.19806 99.38895 -10.00368
-12.29661 101.1932 -8.356688
-12.2653 109.6513 -4.112747
-16.67127 61.3341 -9.035938
-9.518906 62.05833 -12.04623
-8.224531 61.38683 -12.3164
-10.28727 63.22013 -11.88035
-10.57806 58.30297 -11.75174
-13.08319 59.00918 -11.13107
-12.45784 61.31382 -11.32214
-19.76179 70.70845 -3.740313
-18.8238 70.96824 -4.988983
-20.28797 78.25573 -2.842935
-19.67498 82.02584 -3.484725
10.7879 117.3195 -1.73484
18.07469 90.61705 -4.689744
18.43111 78.1994 -5.4844
16.57364 81.12048 -7.560187
18.97756 78.28127 -4.794261
17.17331 79.00656 -6.921512
18.32389 79.16696 -5.608253
18.31136 80.13914 -5.617595
11.73156 98.18121 -10.05552
16.52979 98.31812 -3.773729
9.378884 54.32782 -12.03344
9.725598 57.34465 -12.05185
-3.026526 52.03472 -12.57423
16.84133 62.63395 -8.618979
12.15603 109.8679 -4.02164
12.5896 109.7397 -3.636145
8.973207 108.3421 -6.581917
10.40342 109.9464 -5.305498
15.56343 99.68714 -4.952806
15.42109 97.66476 -6.306981
8.884279 117.3753 -4.627623
9.525747 115.6559 -3.416333
-15.50987 92.94976 -7.966225
-15.31415 94.40647 -7.791699
-15.35154 92.64186 -8.222825
-16.56142 91.87914 -6.869161
-13.20533 106.5957 -4.615966
-13.94933 105.5869 -4.190926
-14.16117 105.1041 -4.17287
-11.87703 109.816 -4.378483
-16.67387 68.39001 -8.429901
-13.39462 66.10964 -10.99195
-9.4768 58.55518 -11.99213
-10.36778 60.23428 -11.8248
-8.970382 60.45972 -12.13834
-20.01757 81.43737 -2.998434
-19.07777 85.15392 -4.249451
-18.34923 87.66483 -4.99961
-19.32825 84.093 -3.945211
-19.35835 81.19632 -4.098862
17.39987 91.99271 -5.498615
17.69737 92.34663 -4.777961
16.06578 66.01137 -9.30081
17.16923 63.50274 -7.904302
8.288388 109.2336 -6.406762
14.32489 93.62055 -9.103058
-12.17067 96.08659 -10.38762
-14.21325 105.3343 -3.939823
-11.26783 111.1598 -4.076443
-11.68557 63.6738 -11.53118
-6.897801 58.57123 -12.47813
-20.58786 74.31664 -2.667694
-20.23991 73.60428 -3.07484
-17.70321 69.9007 -6.75561
-17.14647 69.19573 -7.705527
-18.82223 88.51332 -3.888607
15.795 80.08261 -8.689695
13.95918 96.28838 -8.724822
17.14785 94.81935 -4.631883
15.23398 94.52056 -7.857061
16.49217 92.86949 -6.689832
11.76869 93.24509 -11.16721
13.91506 93.36266 -9.544399
-14.68799 92.70998 -8.911734
-6.713238 60.324 -12.56029
-18.42461 74.89085 -5.547422
17.27757 89.55641 -6.262731
15.65975 70.40626 -9.477017
15.41918 93.44447 -7.94728
-6.828358 59.63219 -12.52212
-17.99434 74.7479 -6.149329
15.08563 79.88985 -9.549974
17.73333 80.02737 -6.262305
13.84234 84.32159 -10.34247
13.8363 69.7584 -10.95128
16.52697 91.49387 -6.995192
12.02973 96.74961 -10.30345
-4.822317 57.73059 -12.69561
-7.080433 56.98661 -12.39656
8.223865 70.86442 -12.51776
18.96128 81.86333 -4.740383
17.78391 81.62998 -6.169783
18.41154 82.96755 -5.420548
17.19882 81.83901 -6.789144
16.59352 82.47591 -7.459886
12.85513 94.34789 -10.26755
-15.88308 77.27844 -8.875542
15.77517 78.21233 -8.823536
18.28534 86.28094 -5.317531
16.37556 82.52912 -7.746935
17.72305 72.88264 -6.448051
16.4523 70.48907 -8.38562
14.78646 70.04773 -10.37035
15.20703 91.29404 -8.578245
-15.71467 73.6059 -9.288742
13.74405 78.78722 -10.71433
18.37928 86.70603 -5.132509
17.14338 73.32683 -7.205127
17.71002 73.78031 -6.452239
16.71198 70.50752 -7.981186
16.91176 69.08916 -7.764121
14.24908 70.19894 -10.71974
13.69587 70.23173 -11.00412
12.83058 69.38121 -11.37212
12.40014 68.09523 -11.51734
13.68558 66.41469 -11.10808
15.51581 73.07262 -9.469183
-17.22032 78.09892 -7.060316
-17.40683 74.4018 -6.990373
-16.37923 71.05566 -8.659667
-15.90966 68.9593 -9.349828
-15.99199 71.4781 -9.109796
-15.23299 72.07423 -9.816708
18.26534 74.66055 -5.768032
17.34502 70.1105 -7.019148
15.07621 67.68518 -10.23718
11.09549 70.82914 -11.84317
16.1444 72.12827 -8.710227
-16.99042 78.91681 -7.326056
-17.11078 74.45047 -7.417932
-14.78971 68.60962 -10.27722
-15.40463 74.29338 -9.565063
11.53539 74.81039 -11.68462
-18.59838 79.8979 -5.254496
-18.15823 76.9554 -5.87333
-18.92468 80.99688 -4.798457
-18.60827 80.76955 -5.239532
-14.15904 70.8402 -10.55136
15.31689 65.19248 -10.17341
10.01838 66.35548 -12.09246
-17.44645 79.63822 -6.685304
-18.79554 83.95563 -4.852366
-15.55849 78.96292 -9.143659
15.6282 74.10909 -9.265658
14.61069 65.15675 -10.66868
12.70023 65.46028 -11.46159
-17.42372 84.40498 -6.495779
-18.97478 83.16715 -4.65309
-16.94252 86.82061 -6.914288
-14.807 76.81549 -9.917829
-13.47018 72.31397 -10.8381
-14.12679 67.91227 -10.63896
11.00004 66.79618 -11.87578
9.3863 65.10345 -12.21588
-18.18526 85.23619 -5.561261
-17.14311 85.34882 -6.766083
-16.99528 82.98357 -7.078256
-15.68238 81.06255 -8.868168
-12.42297 78.45137 -11.16284
-14.10848 73.39563 -10.49928
-12.70922 71.51055 -11.15846
-7.526107 76.66897 -12.69014
-12.64658 72.83764 -11.1633
-15.7495 75.84648 -9.113886
-11.8513 69.06533 -11.4748
13.07443 63.23552 -11.36893
-15.33412 83.71256 -9.025653
-15.95296 84.20035 -8.300451
-12.73049 85.98275 -10.78945
-14.82783 78.02696 -9.85021
-13.95308 75.77216 -10.51512
-13.28423 75.06237 -10.85486
-11.43476 66.57312 -11.6016
15.73367 65.84668 -9.695086
14.69065 62.66342 -10.67476
10.9298 64.31178 -11.89136
13.09171 64.52193 -11.35272
-15.02441 82.82336 -9.381499
-16.53315 86.7317 -7.409371
-5.185417 68.72546 -12.87726
14.06218 61.12722 -11.01442
-14.12113 79.1217 -10.284
13.92792 62.8578 -11.05281
13.54804 60.7252 -11.21452
12.46193 58.97657 -11.52663
11.92489 61.71085 -11.6782
-14.57152 92.61082 -9.046618
-16.62204 87.01643 -7.282464
-9.52824 69.11257 -12.13373
-15.79538 87.92186 -8.186781
-12.42127 79.37377 -11.14471
10.60246 96.24172 -11.36905
-1.008559 110.3156 -7.089978
-1.509436 106.8506 -8.276239
-0.9569568 107.0652 -8.170166
-1.328494 99.24241 -11.12238
-15.1707 102.2893 -4.195588
-15.43193 101.724 -4.045869
-15.19865 100.7025 -5.032995
-12.78409 102.7886 -7.126104
-13.32562 103.8501 -5.99368
-3.670821 118.5608 -6.568265
-11.04914 122.5811 -3.105064
11.827 121.9834 -0.6299244
13.11473 105.3598 -5.398057
-1.773753 117.7474 -6.7546
-1.693156 116.7406 -6.738064
-0.08134579 118.1705 -6.836181
-1.220915 115.326 -6.754206
-9.835438 99.6647 -10.73209
-13.76884 97.96076 -8.299009
-11.02808 97.55156 -10.74683
-12.58848 98.22913 -9.340592
-12.6854 100.5534 -8.295374
-9.566233 97.53696 -11.539
-12.42496 96.82385 -9.957415
-12.5425 96.47998 -9.973905
-9.917809 91.3462 -12.02552
-13.2021 95.49504 -9.700502
-12.63274 95.89481 -10.07775
-11.5698 95.44312 -10.97202
-7.397452 97.56324 -12.28235
-7.93798 95.91633 -12.42658
-6.033729 98.00633 -12.28666
-9.315162 95.67883 -12.05394
-9.42555 93.37423 -12.24432
-8.562734 84.5332 -12.46031
-9.273995 94.93365 -12.18857
-11.75496 93.25478 -11.17517
-5.639765 96.26898 -12.64784
-8.401543 93.25296 -12.53355
-6.492256 95.46816 -12.74918
-4.667398 95.76826 -12.68305
-3.573714 92.69442 -12.64009
10.05423 118.5666 -2.633646
-2.243131 98.37695 -11.60234
-0.6164382 98.58947 -11.06345
-0.5894724 98.12756 -11.12602
-0.4426839 96.43184 -11.40919
-1.712481 99.003 -11.22626
5.655662 53.0604 -12.45997
7.057446 55.46069 -12.4017
5.821196 56.34332 -12.57359
5.256741 53.36502 -12.5094
4.177339 57.05061 -12.72129
3.435082 55.50259 -12.70891
2.890999 54.0552 -12.67795
1.680705 54.43114 -12.71915
-0.5253589 53.14326 -12.68776
2.783594 56.48916 -12.75498
0.9978858 51.03801 -12.59791
3.917273 57.09071 -12.73627
9.359048 58.04928 -12.12687
2.04986 56.53022 -12.76518
3.510027 59.4808 -12.80228
6.601608 60.5325 -12.61372
9.251502 60.12719 -12.17968
4.033392 60.81829 -12.81223
4.753075 58.87847 -12.74214
6.034249 60.12646 -12.66998
3.104959 60.65336 -12.82549
-8.079603 53.48189 -12.10232
-2.322587 114.6746 -6.740144
-13.26932 100.1191 -7.914208
-19.73166 76.89212 -3.597932
17.69494 88.82288 -5.779718
-3.797051 53.6696 -12.60617
-3.513368 55.44274 -12.69744
0.1786538 52.93131 -12.68288
-2.045496 54.82403 -12.72389
-6.274568 60.30685 -12.62419
1.656926 60.71286 -12.80804
-10.15891 67.96369 -11.95587
-4.806967 60.45095 -12.77802
-4.786027 60.8662 -12.78815
-6.062829 63.62499 -12.73213
-6.698899 64.51319 -12.66512
-8.149508 64.2809 -12.39674
-8.327682 65.62921 -12.38327
-7.661479 65.41799 -12.51922
0.4137182 57.40588 -12.77963
-4.97706 62.96518 -12.82088
-2.492739 62.72006 -12.83511
-5.27969 61.95029 -12.77723
-1.16073 60.85817 -12.80659
-3.432724 61.55275 -12.83608
-3.57556 57.33315 -12.75512
-2.515213 64.63511 -12.84025
0.3142447 60.03616 -12.79533
-6.177771 64.91462 -12.74414
-3.914612 63.88451 -12.85806
-3.080113 59.5044 -12.80839
-2.855903 56.04817 -12.74341
-1.443619 57.22639 -12.77917
-2.006416 65.96351 -12.81963
-0.3636374 59.36874 -12.7942
1.104645 57.21969 -12.77797
-7.915657 69.03537 -12.52802
-7.974834 71.64275 -12.55186
-10.91861 72.81882 -11.75386
-10.42977 72.04779 -11.90049
-7.92803 71.16943 -12.55556
-7.958242 72.51077 -12.56447
-6.185226 72.80169 -12.85367
-8.315953 72.5411 -12.48325
-5.079332 69.6598 -12.89147
-8.498287 76.93481 -12.46856
-6.276363 76.29398 -12.86267
-4.283097 73.71942 -12.87941
-3.503727 67.05968 -12.87388
-8.395057 68.65954 -12.41205
-6.426393 67.0752 -12.75516
-9.504161 67.82973 -12.12847
-10.16356 76.55743 -11.99063
-10.47809 76.11557 -11.89074
-10.40682 77.39486 -11.91304
-4.798905 71.99025 -12.89545
-5.2235 71.40086 -12.89692
-5.177983 73.54296 -12.90337
-11.81886 75.64231 -11.43432
-11.1534 74.29323 -11.67201
-7.037205 77.5308 -12.77977
-4.499639 70.5075 -12.89585
-3.121116 67.86154 -12.86049
-4.181499 71.1883 -12.88682
-13.1877 78.90301 -10.80626
-12.2448 80.74561 -11.18971
-8.787738 82.2615 -12.40907
-8.551289 80.889 -12.46822
-5.297618 80.98533 -12.86193
-5.211044 77.00954 -12.88458
-2.527098 71.25838 -12.80893
-11.17834 80.70725 -11.61895
-10.02498 81.60268 -12.03154
-7.089053 82.16846 -12.7592
-5.112913 79.72721 -12.86712
