# .PCD v0.7 - Point Cloud Data file format
VERSION 0.7
FIELDS x y z
SIZE 4 4 4
TYPE F F F
COUNT 1 1 1
WIDTH 1660
HEIGHT 1
VIEWPOINT 0 0 0 1 0 0 0
POINTS 1660
DATA ascii
-21.51174 29.84538 12.24573
-19.51304 31.3388 13.16959
-23.13705 59.92513 5.769198
-24.58286 27.91048 10.49023
-26.08613 48.54734 3.579787
-20.46152 68.12877 7.452088
-25.94118 27.4204 9.360049
-26.92317 44.16799 3.167008
-19.94601 51.33407 10.1262
-19.93658 63.57533 8.492754
-24.65272 29.35184 10.173
-23.60845 44.15679 8.355476
-20.49703 73.52254 6.347429
-25.8087 28.9152 9.227168
-23.06259 48.00336 8.18256
-17.77248 66.68082 9.435205
-23.19415 43.65791 8.84222
-22.56975 27.73821 11.89084
-20.75262 39.5269 11.36443
-23.21534 32.1257 10.81125
-25.11737 42.52056 6.928234
-23.15613 42.27175 9.131153
-19.88791 33.72764 12.65733
-23.16461 45.15318 8.60792
-19.26725 34.65844 12.87048
-22.51885 41.61198 9.812599
-22.44881 45.69497 9.143344
-17.93578 35.52451 13.41818
-22.49797 46.62843 8.935249
-19.5417 47.60693 10.92726
-17.35109 45.5747 12.40924
-21.06978 37.68856 11.43598
-23.79888 41.30807 8.695479
-18.77563 33.38274 13.27196
-19.49555 43.35182 11.58662
-17.66705 44.35464 12.43471
-24.51108 37.69447 8.723111
-22.07305 39.07156 10.54749
-18.23558 37.20907 13.08039
-16.05395 36.13475 14.04064
-16.02937 30.97957 14.55441
-19.90725 39.18581 11.92972
-18.33918 41.79356 12.42636
-18.70716 38.87814 12.63161
-5.312443 23.52768 12.44734
10.7331 107.2739 9.668679
11.61246 112.5989 7.969973
8.427906 112.2255 10.46029
21.98173 19.58221 13.55733
20.2305 22.28346 14.22847
23.06932 22.99662 11.91112
21.02957 22.8827 13.73846
17.8644 22.41745 14.72723
24.14359 24.12225 9.941621
20.85868 24.80735 13.60026
21.35214 26.32588 13.05941
23.29331 29.47828 10.09244
21.11112 26.13339 13.25596
18.99771 27.6506 14.07422
13.96688 25.13127 13.94839
-15.21076 99.87098 7.046719
-17.52401 92.44436 6.47052
-15.85158 95.38131 7.537395
-18.99542 91.49371 2.860456
-28.3161 32.4669 4.090093
-29.34172 28.79703 2.592872
-16.12761 104.8215 3.726393
-11.68822 111.1565 8.032203
27.41592 38.34507 0.1913838
27.07117 38.71401 0.8226271
26.74045 34.51766 2.368979
25.41137 44.41705 2.755872
26.52066 33.94049 2.890504
27.02833 31.84716 2.394071
25.30316 39.16774 4.072446
25.29074 41.6183 3.579007
24.76499 42.40347 4.401249
24.43632 43.62826 4.761177
24.35233 38.52752 6.054094
20.18166 27.14935 13.65972
20.33926 27.85504 13.48249
22.79826 35.42039 9.600784
-10.15673 23.04088 15.08406
-13.12503 24.43249 15.4846
-29.28904 26.93254 3.803333
-28.55249 27.69956 5.477361
-28.31782 30.8282 4.734308
-27.66946 30.6196 6.239018
-26.42275 32.29518 7.686691
-20.83704 78.368 3.823256
-20.65521 79.36916 3.764664
23.07625 63.14322 3.353621
22.66537 66.80894 3.17457
21.53968 59.08014 7.090261
23.42402 60.01966 3.386826
21.4797 57.41865 7.467581
23.56156 54.92371 4.195806
22.13659 67.27207 4.255085
22.93619 51.90554 5.973136
18.55158 57.35445 10.32421
16.27578 57.63464 11.45357
15.96011 69.21992 10.09622
23.44793 56.71973 4.06771
24.87343 54.35004 1.644449
24.71706 52.38293 2.422214
24.56404 46.39674 3.913013
23.11095 49.12534 6.158333
0.3023891 25.62974 10.54168
-19.17659 83.0164 6.435774
-19.92404 84.31557 4.532042
-17.98932 84.90751 7.965031
-17.99084 89.29375 7.107387
-18.56171 83.11682 7.369316
-17.85091 90.46792 6.88319
-18.51829 90.12388 5.84336
24.94236 23.95323 8.341727
23.61418 22.13328 11.31766
24.71884 25.17892 8.46662
23.25038 25.27844 11.18764
24.90325 24.96615 8.137117
26.33375 24.39223 5.300362
24.49869 34.9908 6.544461
23.61254 35.57976 8.133512
22.59522 31.78356 10.68666
24.38974 30.50902 7.768211
23.15338 31.69448 9.814861
27.03082 24.13159 4.079529
24.10754 31.57028 8.092899
-27.86914 32.27806 5.284144
-27.91674 35.45949 3.875248
-28.1375 35.21854 3.389356
-27.02296 36.5095 5.542601
-25.44604 34.78627 8.336834
-25.43024 36.50749 7.962519
-26.65413 36.2289 6.29434
4.83041 108.57 11.98565
9.884652 105.2446 9.951848
8.570725 109.0215 10.38327
11.18199 105.0731 9.444189
13.94208 103.4374 7.92444
15.74536 101.7266 6.077737
18.49967 70.78518 8.615075
19.23899 73.45817 7.694106
18.38963 67.02908 9.132878
17.99463 74.8348 8.643683
13.44811 72.50102 10.21507
13.06631 73.68874 9.982401
16.65499 73.70969 9.436706
12.61346 72.65983 10.26041
17.30026 70.89722 9.344831
12.04016 74.96767 9.922606
15.5594 74.9921 9.457488
14.82204 76.62798 9.724956
7.664108 29.54149 11.80555
5.324543 30.36642 11.35872
8.21544 31.69453 11.87267
6.565681 27.28697 11.60296
-11.7218 107.5884 9.112706
-9.198703 34.7121 13.7572
-21.06705 56.14846 8.595327
-18.46214 48.97464 11.3648
-19.40691 53.16299 10.18899
-19.16946 56.71972 9.846921
-21.86106 68.91309 5.35468
-20.95236 70.89686 6.278888
-16.21952 69.88467 9.557471
-14.7245 68.06259 10.3508
-19.56181 73.69033 7.524064
-20.07353 72.1123 7.219883
-16.59867 72.52138 9.154914
-17.91812 75.53619 8.549167
-17.51308 36.38863 13.48135
-17.97768 36.95707 13.22916
-16.07336 40.0771 13.60272
-14.95733 41.29123 13.73098
-11.34682 32.89407 14.52455
-11.33111 32.47519 14.55443
-12.87764 35.5148 14.48786
-12.77016 32.09496 14.74554
-7.505946 28.35898 13.46824
-13.51204 38.3162 14.23381
-9.374454 28.05194 14.36221
-8.083389 27.43012 13.8407
-9.876769 31.52065 14.26696
-4.176372 26.29439 11.67809
-5.423478 26.78761 12.35007
-8.582781 27.25818 14.09697
-14.34163 41.72841 13.81914
-16.93974 43.45857 12.87335
-13.66904 45.64808 13.48936
-14.54478 41.55643 13.79304
2.35 114.7935 12.81902
8.807235 114.8869 10.63136
-0.6782014 108.5158 12.27531
4.055979 106.9789 12.15497
7.292807 107.982 11.09883
12.76144 23.91937 13.57704
11.85451 24.07212 13.22824
-15.14733 94.76699 8.295803
-11.33047 92.2855 9.601683
-10.19545 97.8857 9.226922
-8.680087 96.70433 9.651997
-13.66324 91.56385 9.638849
-12.68615 91.77202 9.697211
-11.96348 90.61297 10.10007
-16.53083 91.95918 7.999902
-10.71951 92.98164 9.456634
-14.80371 104.0951 7.019543
-10.15182 101.1527 9.404932
-11.94835 104.5722 9.119027
-10.22111 108.1546 9.858997
-7.956177 106.2981 10.74907
-14.16433 109.6915 5.009612
-11.04083 109.9609 9.013871
26.29559 35.31247 3.027005
17.8985 27.60441 14.29923
23.80787 40.36222 6.670063
22.52151 41.84246 8.664232
23.15095 45.82967 6.731188
-28.19953 29.70796 5.502763
22.70118 64.97559 3.674215
20.84787 63.93679 7.180467
24.72094 51.72711 2.548149
22.70039 49.52332 6.821436
20.7714 56.73351 8.508039
18.60427 48.54271 11.68527
22.23425 51.52222 7.277744
23.71755 47.42479 5.330481
-2.234684 28.28901 10.77649
-1.186503 27.17768 10.60593
-2.358888 30.94298 10.73059
0.8762024 29.63072 10.5391
-0.2410666 27.9704 10.52331
-7.515533 30.20955 13.32336
-4.136108 33.52275 11.25749
-3.660537 29.73059 11.23376
-13.60431 102.2808 8.184184
-6.729724 109.1242 11.20952
23.53786 30.49886 9.412631
19.43951 83.15369 5.957911
18.70626 87.58507 6.480911
12.59321 102.5468 8.767488
10.91559 103.6769 9.41326
17.68697 86.091 8.168254
12.12844 79.75729 10.10454
10.82407 28.40882 12.66425
14.37996 26.01633 14.03067
17.92894 28.94842 14.15356
17.10658 28.60257 14.27849
17.02716 29.7676 14.17181
15.62817 32.24189 13.94569
17.31596 36.95212 13.54127
14.47456 32.71671 13.70661
15.6692 33.59049 13.8732
19.67733 31.97563 13.32742
-18.94998 59.89803 9.572081
-17.94101 52.13256 11.18535
-17.70977 50.25833 11.58989
-15.44478 66.17262 10.35773
-13.28845 66.70415 10.87815
-11.59498 39.42854 14.0432
-8.69814 26.20521 14.2252
-13.11691 42.10114 13.8855
-10.91169 43.38349 13.60955
-16.25817 49.27528 12.3813
-1.892399 111.4636 11.90102
-1.06934 110.6044 12.00748
4.040262 107.6466 12.19134
2.691005 97.81075 10.16307
7.437919 106.7658 10.90001
12.44008 22.08686 13.51837
-13.38054 99.99044 8.356484
-12.99443 99.24771 8.619985
-9.967128 93.93381 9.287908
-14.09066 89.55137 9.822915
-13.74357 87.57622 10.08637
-4.396845 89.2094 10.15468
-10.17593 100.8009 9.393875
23.64557 39.10787 7.276198
22.82458 39.34398 8.704025
18.90269 59.96003 9.732645
18.27282 63.30354 9.696707
17.25495 65.65911 9.956948
16.23646 62.66321 10.7624
16.36525 63.78288 10.58257
11.60324 70.02394 10.83065
14.55196 66.7772 10.7947
12.46221 68.90382 10.89865
3.522221 29.91698 10.96865
2.758718 31.87371 10.82871
1.084686 33.33354 10.54299
4.420605 33.21239 11.16051
8.110261 33.49046 11.81367
-5.429182 36.3219 11.73588
-6.934894 39.69516 12.35237
-6.653848 45.69645 12.02081
-4.4489 37.78187 11.21832
-4.50908 30.04027 11.63508
14.88381 99.99344 7.367612
15.78054 97.4602 6.950641
16.87629 98.43085 4.608222
11.96327 78.69071 10.06286
20.1945 33.92684 12.77688
17.97934 35.42236 13.55782
20.88797 37.88129 11.57989
-15.24362 52.52136 12.3167
-16.41478 57.65787 11.15207
-18.33605 58.69126 10.08944
-19.07977 61.0407 9.37254
-14.65902 56.66111 11.94427
-18.07217 62.20649 9.822516
-13.51743 59.30305 11.89063
-15.16408 62.53809 10.99947
-12.0958 65.10673 11.33774
-13.24822 62.91734 11.45288
-15.30364 74.83234 9.49453
-8.795516 42.4209 13.07203
-5.869288 40.10096 11.79088
-6.072434 34.44265 12.18126
-13.37859 51.03854 12.95094
-12.67186 52.29698 12.9004
-11.29191 48.24738 13.27976
-8.620672 47.49492 12.76424
-8.494896 49.94577 12.58285
0.1142094 108.331 12.29303
-4.35688 112.2285 11.72064
-8.819536 93.06784 9.269554
-3.391252 96.81025 9.96858
21.3163 42.5265 10.26618
12.4984 62.59436 11.63146
12.69414 63.09063 11.58275
8.383968 62.71641 11.19287
6.673793 63.09096 10.84183
13.27337 64.31067 11.38484
10.58513 68.73878 11.05328
7.341607 68.81632 10.83249
11.53334 65.25179 11.41202
10.50779 57.94684 11.73903
11.56913 58.68066 11.87815
8.891932 59.05022 11.36968
7.463516 58.24301 11.08306
17.95477 52.18248 11.48421
7.522895 37.32343 11.60555
-2.692183 36.96242 10.63448
0.451625 34.55161 10.4744
10.738 102.2085 9.412935
13.94226 100.0121 8.04791
11.61706 95.87939 9.238077
10.89663 100.6535 9.21033
5.381229 95.80495 9.46478
6.978708 95.27357 9.164209
3.996166 95.3062 9.362374
9.990265 76.63329 10.11536
-12.14914 51.41659 13.01953
-11.66847 57.2041 12.44212
-10.31818 53.65406 12.73043
-18.05733 57.61897 10.37403
-13.91893 67.67729 10.5929
-4.797152 40.44988 11.27
-5.829263 47.27853 11.64469
-7.06039 45.37043 12.21011
-5.79194 43.0368 11.6745
-6.438529 45.19719 11.93083
-5.161294 110.0354 11.76064
-1.793888 96.02769 9.823977
22.16497 43.68789 8.859363
19.30962 38.55943 12.67956
20.09677 37.80795 12.2961
19.34681 43.17592 11.99986
17.87465 42.78844 12.78797
20.8152 50.54891 9.451035
18.81838 40.59238 12.65246
20.2724 47.8338 10.50148
18.0062 36.69402 13.43198
20.22663 45.48095 10.96181
17.32398 41.77986 13.08333
18.42236 47.26884 11.95819
13.92263 38.1076 13.29076
14.24743 41.27504 13.16894
16.42967 40.03384 13.36802
13.42826 57.35277 12.05841
16.44839 53.76758 11.93229
13.39932 54.65046 12.26516
12.50706 55.1709 12.17564
10.23097 48.52054 11.91203
12.21645 42.54617 12.58733
12.24811 47.85952 12.43239
14.88191 44.70837 13.04471
13.8221 46.23775 12.82375
16.45619 49.21196 12.4645
10.14796 43.21159 11.99281
17.48091 49.46846 12.10028
14.60276 49.32293 12.6964
8.566601 48.00495 11.55097
18.24638 49.15709 11.7802
18.86398 54.39733 10.58813
18.25876 52.97948 11.20339
10.62675 44.88047 12.06668
14.58602 39.5586 13.33701
19.04755 51.43665 10.94314
9.170038 52.03254 11.59692
9.346404 54.1354 11.60135
10.75251 47.49288 12.05635
9.500204 55.04621 11.61628
8.585547 42.98586 11.66423
9.079507 41.38872 11.79951
6.517956 43.32185 11.32577
11.46839 69.57024 10.9018
10.0242 66.31826 11.26995
8.864955 67.75488 11.0706
6.625422 62.42751 10.84187
6.171878 61.89408 10.76016
4.687231 40.63165 11.11311
5.857254 36.50877 11.3608
8.86748 41.05919 11.7649
7.800247 36.84516 11.67306
9.900073 34.3182 12.19617
11.3437 37.39172 12.5212
12.23418 35.34793 12.87841
13.09595 36.12354 13.14196
9.427907 33.68277 12.08726
1.79057 36.31966 10.65843
-0.6450253 38.1194 10.41651
5.429358 95.02399 9.177649
6.477086 97.84708 9.598909
0.8630147 98.19088 10.52741
2.659109 99.42056 10.73218
2.349312 96.02785 9.706929
-0.7896482 97.20362 10.19071
-1.693305 99.65279 10.9544
-5.445858 100.3273 10.49018
-4.987707 99.536 10.31571
-3.721932 98.14788 10.07231
-8.971382 100.3285 9.793961
-5.873279 99.36723 10.0664
-3.027302 101.8645 11.45559
-8.490557 100.8552 9.848923
-5.080363 103.5502 11.361
1.438071 103.2255 11.9613
-1.171823 103.3586 12.0034
-4.477578 103.8765 11.6085
-0.7666039 107.2499 12.32479
6.943093 104.7591 10.96103
-4.768765 103.876 11.52155
-7.648851 102.4434 10.2837
10.97634 75.93964 10.069
-9.182616 54.82756 12.47318
-6.909902 52.77617 11.94411
-5.40969 48.98806 11.42768
-11.95567 67.11246 11.0527
-12.06923 59.55043 12.11696
-12.59067 56.68719 12.40964
-7.143336 58.00335 11.82933
-10.54927 65.70223 11.43584
-6.31859 65.08696 11.35746
-8.727173 63.38397 11.77626
-13.25491 68.46033 10.57182
-9.806478 70.80453 10.65535
-9.961285 67.77448 11.17937
-8.016492 66.96537 11.36078
-4.385336 62.8289 10.95473
-12.6648 71.88791 9.822786
-4.999003 65.85925 11.0484
-14.06614 72.25713 9.503571
5.011824 71.36966 10.44167
-8.832588 73.10242 10.36063
-5.012 75.10242 10.27708
-9.785626 75.68536 10.06319
1.840601 41.7644 10.58803
-5.545859 107.0591 11.73524
4.406924 90.12501 10.33935
-1.784475 95.75151 9.721325
16.01046 38.24847 13.54044
19.91239 48.6579 10.69053
8.761801 72.21977 10.6493
6.369726 66.16058 10.72867
2.339561 40.32596 10.71296
6.354233 102.7686 10.74853
-11.72181 105.0002 9.21291
0.5514379 102.887 11.91815
-5.479699 104.3884 11.39912
-11.57628 60.43576 12.06248
-6.198878 78.50912 10.13084
-14.72778 73.61717 9.504028
-2.774709 42.33138 10.58437
-0.5019112 46.78524 10.28652
-2.184104 51.05339 10.39261
-4.866679 51.95781 11.17967
-3.322808 50.3024 10.66223
8.801179 80.36246 10.14458
-5.217779 92.27964 9.336266
4.396702 94.61358 9.070316
0.1767245 91.44007 10.13752
5.131046 93.07935 9.111663
-0.9913313 91.76167 9.868285
3.945477 77.76337 10.15241
1.406681 40.84907 10.54596
2.033586 38.66108 10.68143
5.322547 102.3018 10.99837
7.406198 101.616 10.27237
-8.706344 103.8865 10.37695
-7.375393 61.53693 11.72749
-6.210975 74.20813 10.39257
-9.839098 77.54136 10.07969
-15.41632 76.13391 9.486093
-15.84396 85.75491 9.549201
-18.94209 82.77489 6.865954
-17.11456 81.85099 8.84109
-17.16603 77.71451 8.698663
-15.85889 80.71507 9.585952
-17.99437 78.33676 8.106514
4.504865 52.2929 10.7118
6.007971 50.16252 11.02169
7.666682 46.55363 11.42593
6.187756 45.0054 11.22161
5.548505 48.24487 11.01828
6.251485 52.42815 11.00104
4.271781 41.92346 11.00595
3.171504 43.38228 10.76873
0.437196 45.38983 10.35057
-5.340964 91.65377 9.830293
-7.201837 91.16346 10.09816
-5.662097 89.50996 10.36651
-3.70092 89.01243 10.0749
-3.704008 86.64007 10.19838
5.039411 84.69293 10.44868
-15.02939 86.81317 9.838442
-10.71347 85.73569 10.33122
2.845332 88.37898 9.836422
5.204243 86.89323 10.22616
2.70881 85.93003 10.43661
-3.377103 90.2653 10.49908
-0.2975446 89.24508 10.08938
4.782522 88.55058 9.842445
5.805504 86.29833 10.36444
-1.431743 89.62361 10.37287
10.07249 91.61208 10.17221
8.856955 79.36169 10.12401
7.711029 80.66596 10.14562
4.818106 84.86537 10.45077
2.690467 86.83279 10.17972
2.733483 83.81594 10.39965
5.274978 86.22195 10.37631
7.418948 82.97406 10.24277
8.523004 81.0494 10.15607
6.441115 75.79927 10.22739
4.82702 73.11688 10.35972
6.051865 70.66953 10.59538
4.751139 69.2155 10.43328
3.24718 72.79477 10.26658
2.24004 69.73532 10.17288
4.186715 64.48618 10.38351
0.7137537 66.55343 10.11916
1.907783 64.71273 10.14772
-0.7728109 60.94308 10.18391
-0.7953732 65.02349 10.18968
-2.941809 65.85413 10.55968
-4.049835 62.80733 10.86446
-3.218448 75.43974 10.23378
-7.472267 73.50891 10.46477
-3.245541 71.81248 10.53006
-2.082314 68.43137 10.40009
-2.752419 74.5149 10.29673
-5.466148 76.43871 10.17113
2.245541 68.77579 10.16052
-1.156095 71.93562 10.27698
-0.0657852 67.95551 10.14833
-1.088182 75.60844 10.21765
1.214642 79.89027 10.12928
4.237742 74.44673 10.27848
1.578309 72.31343 10.19146
2.063519 72.44916 10.21154
5.066952 78.82304 10.13567
-14.01382 79.58465 10.03992
4.104016 51.15327 10.68676
1.475255 55.27464 10.22524
3.521116 51.26774 10.59426
0.7454089 51.66201 10.22678
2.542361 58.0932 10.27921
2.721329 54.88957 10.3602
-15.32838 85.36383 9.82772
-9.457632 83.88274 10.29851
-5.263708 85.40198 10.46174
-5.930693 82.25056 10.18738
-5.929029 80.29228 10.13321
-0.8351694 82.80703 10.26225
9.719791 96.38347 9.30471
5.309715 92.12995 9.622309
8.130636 92.58128 9.356018
7.668132 86.23174 10.35843
13.59062 89.20229 9.924922
9.960929 92.41974 9.537792
14.76504 96.31049 8.20038
13.37432 94.71217 9.114351
17.15866 94.66953 6.015236
14.9907 95.77843 8.187905
15.59895 89.6303 9.250758
18.04132 92.31992 5.374064
15.54777 91.52496 8.848672
17.71496 90.73552 6.955375
15.55416 87.81826 9.533624
13.86361 85.00311 10.19185
15.31263 89.73668 9.381443
14.2059 85.06492 10.13161
19.3074 84.13823 6.136446
16.6349 85.04845 9.13656
18.40004 78.14541 7.862161
14.82334 83.44233 10.03909
17.66966 79.68405 8.356983
-7.487952 59.61602 11.84805
-2.044508 58.55393 10.35991
-4.790409 61.46255 11.08235
-8.195172 58.71166 12.0482
-6.865106 57.43711 11.76676
-5.723063 60.87625 11.35434
1.654796 59.71425 10.17818
-2.19658 53.2176 10.39392
-5.275007 56.7873 11.28482
-4.350916 57.26276 10.97031
-1.172298 60.43382 10.22988
1.074569 59.18257 10.15054
-5.321354 67.64272 11.06594
-0.04672664 72.33553 10.20859
-15.58769 79.10277 9.602511
-13.9142 78.84793 9.989492
-12.542 78.94685 10.05907
-14.9745 85.66936 9.92953
-13.27479 85.81744 10.22913
-10.6744 83.66171 10.26477
-8.469122 79.65508 10.12763
-6.719295 83.85006 10.35874
-4.477738 85.12199 10.48855
-3.571857 80.09399 10.12825
-1.387639 80.08967 10.12815
0.270328 76.58842 10.18405
1.102062 78.49352 10.1423
1.673506 79.83457 10.13021
7.852556 85.55813 10.38515
9.85081 84.37212 10.32121
17.73219 88.87217 7.60346
15.11262 83.03193 9.939152
1.271286 76.48114 10.18588
5.36165 78.01021 10.14299
26.13341 36.2929 3.117859
-7.347817 38.92925 12.60872
-9.903349 38.94099 13.68522
6.238023 55.19864 10.93363
31.34008 20.86296 -5.05055
2.904348 23.22998 -13.46291
2.101313 20.39836 -13.3525
-29.66282 31.60851 -3.663377
28.64537 20.3552 -13.97322
5.691961 21.49481 -14.5363
4.336663 19.0841 -14.05039
7.916069 100.9984 -10.96544
6.346066 24.27269 -14.79782
15.73922 103.3321 -2.197809
25.06174 59.04697 -1.419424
6.292274 117.6831 -5.465651
13.19611 86.04025 -9.322952
20.09773 83.90083 -1.991495
19.54725 88.18536 -1.968047
30.8987 21.20218 -8.789852
-12.54674 115.4803 1.328235
7.472475 114.8917 -5.109126
-14.24953 110.444 0.8607213
30.30529 19.48952 -11.43331
-2.375492 20.3882 -13.14304
-7.706279 20.08352 -14.73325
13.37762 24.02341 -18.00536
-27.44074 19.35071 -13.98812
-24.33826 63.13456 -1.443054
-30.10099 28.91801 -3.094072
3.534291 20.36938 -13.72975
-30.73219 23.84386 -2.748589
13.41433 112.1514 0.4549303
-28.65256 38.06921 -3.045427
-3.223757 115.585 -5.858873
-14.60486 109.6276 1.022433
-17.28269 96.6978 -2.848424
-15.82051 104.5046 -0.9735922
-8.852541 115.6082 -3.852455
-10.9656 116.6583 -1.871122
-16.70259 99.85847 -2.113797
12.75734 116.9066 1.029402
-20.99004 63.19236 -6.991928
-4.478506 116.4489 -6.480878
12.92442 116.5026 1.504984
-18.57382 93.23875 -0.7425435
-9.589044 116.6465 -3.922222
31.2237 21.78882 -6.022836
29.59693 30.08685 -2.585075
9.869488 109.9369 -5.519713
11.26448 116.684 -2.10901
-27.05638 21.44461 -13.7162
-29.837 21.4301 -9.704717
-30.56987 23.81844 -5.734046
-14.80079 106.1752 -2.248791
25.42333 56.86049 -2.329107
-23.83711 64.0085 -2.580754
20.27258 21.01527 -19.19924
16.48116 22.73151 -18.88585
0.463146 19.86918 -13.096
6.894108 23.53511 -15.07517
-16.89662 101.2861 0.1113472
18.14305 94.32882 -1.656465
3.526656 116.6836 -6.805108
30.58982 25.86805 -5.482318
30.4655 20.97517 -10.24611
28.59072 20.79203 -13.87683
28.03767 21.30335 -14.43921
14.72692 107.8567 -1.139217
12.13765 115.4812 -0.01449198
-28.87885 36.16645 -3.739561
-30.33889 27.16803 -3.214036
-30.62119 24.87414 -3.818194
-15.52589 104.2861 -1.998245
25.4753 56.67334 -1.491274
21.49298 77.36201 -1.401891
-24.85828 52.99413 -5.024913
-19.66125 86.58666 -2.444581
7.130679 19.19589 -15.24877
19.27224 22.29912 -19.11521
-5.876655 20.91592 -13.95356
-7.016629 24.0015 -14.237
0.9303305 22.92399 -13.07804
-16.35507 103.6849 0.3111849
19.40008 90.09148 -0.8174169
10.83463 113.9385 -3.646201
30.43371 25.6379 -3.438641
27.74943 41.95057 -2.012891
29.37753 31.73796 -2.644671
24.85011 19.76946 -17.92429
23.16796 20.41541 -18.60275
15.68195 105.9966 0.1270472
-20.57277 19.27474 -17.00133
-10.69378 19.87437 -16.36649
-25.48652 19.98435 -15.30564
-30.02308 29.39752 -3.568215
-15.17235 107.8667 0.4436572
-12.56779 113.888 -0.5108877
24.84251 56.84499 -4.493989
21.12863 73.83684 -4.095165
-23.44703 63.34908 -3.618703
-22.82622 67.81466 -3.025388
-20.23173 82.91096 -1.836944
-9.896302 18.61265 -16.05241
9.59322 19.56133 -16.48775
-6.431238 26.34772 -13.95143
-17.88371 95.55368 -1.374107
-16.4999 102.92 0.09374592
17.52483 97.51383 -0.7318549
19.09081 90.66657 -1.840868
20.28627 84.52923 -0.9010855
10.30004 115.1047 -2.910803
29.50778 21.05362 -12.29024
29.70551 24.7733 -10.05754
27.57552 43.6334 -2.291263
27.52398 44.36054 -3.971072
27.21245 22.38763 -15.0852
22.5242 22.10101 -18.51797
14.2792 109.0013 -1.277604
-15.0742 18.84398 -18.39037
-29.36045 34.41489 -2.11234
-30.28494 21.87736 -8.260604
-30.34335 27.03648 -3.725631
-14.01786 110.2171 -0.6678854
-14.73971 108.9857 0.2381864
-13.0751 115.0788 0.4427832
25.05863 59.02561 -2.022535
24.722 60.87922 -0.8909597
21.87885 75.51512 -1.615921
-24.93734 59.16418 -2.073121
-24.12644 62.85709 -2.36237
-27.33364 46.16946 -1.997291
-22.79493 68.95227 -2.634304
-21.35464 77.27644 -1.994138
-19.5681 87.52142 -2.312984
-11.14364 20.65762 -16.52672
8.304265 23.08815 -15.78471
14.39334 21.00914 -18.50772
-8.896951 23.66303 -15.02186
-1.486442 22.8651 -13.01831
0.08848026 24.38018 -12.96859
-1.877941 21.35117 -13.07847
-17.8001 94.2963 -3.216731
-17.14714 96.37086 -3.543773
-16.99526 98.10789 -2.597581
-17.13644 99.20271 -1.065621
-15.54023 101.1644 -4.094554
15.22888 103.6227 -3.203988
16.49986 99.69296 -2.819334
17.52551 96.80511 -1.640859
8.854974 115.1752 -3.932684
29.81667 30.22872 -4.015576
30.00202 25.80738 -8.739619
26.71432 47.8603 -4.734118
28.86339 36.64463 -4.360143
24.88037 22.0037 -17.33448
25.90908 24.26332 -15.84793
20.31223 22.11806 -19.03912
11.55174 113.4888 -2.895707
-28.2536 39.60273 -3.496068
-27.76217 43.46211 -2.403626
-30.54311 22.07892 -7.249232
-29.43606 28.54597 -6.66395
-30.4835 24.53844 -5.650483
-15.07875 107.0405 -0.8510029
24.78389 58.58978 -3.681705
25.67996 53.88815 -3.995627
23.21871 65.09251 -4.008649
21.9219 73.50349 -2.79773
-23.2868 63.6155 -3.806417
-22.43775 64.32335 -4.848041
-22.31024 73.8802 -1.215963
-20.90941 76.23193 -3.494051
-19.99423 75.49062 -5.070598
-20.26441 77.59783 -4.172643
-19.31241 86.37938 -3.461251
16.63144 22.25979 -18.95688
-11.34071 22.49525 -16.40696
13.75851 23.34027 -18.17425
-9.559769 23.71687 -15.33222
-7.014982 26.30973 -14.14455
-1.859913 27.46886 -12.97023
12.74194 103.2256 -6.929307
17.33724 97.92615 -1.368813
18.78427 92.2647 -1.342241
30.02459 29.46909 -5.339263
27.79947 26.29931 -12.79719
26.8008 48.4692 -3.801244
27.64668 43.77155 -3.909895
28.91983 23.43089 -12.23672
-14.8386 22.55419 -17.96105
-29.38799 31.39311 -5.157091
-26.98363 22.7138 -13.38014
-29.78449 23.75108 -8.559096
-8.940068 114.658 -4.465032
23.87468 62.31821 -3.959897
22.31181 71.48836 -2.794627
-23.66354 57.53715 -5.265698
-22.54513 56.25718 -7.133425
-22.72263 58.92138 -6.087824
-23.19655 62.54619 -4.326583
-21.08789 65.9603 -6.12417
-26.76019 46.70981 -3.790839
-24.77831 50.20325 -6.082928
-21.27853 69.59708 -4.860291
-21.1941 73.12077 -3.982657
-20.40477 79.7396 -3.080253
-19.19592 80.36171 -5.076891
-19.52973 83.60651 -3.587639
17.12029 25.10684 -18.75878
15.10378 101.2467 -4.877914
16.73019 97.98563 -3.448646
28.89363 25.29085 -11.4162
28.82384 26.33284 -11.06071
25.75649 51.45452 -5.183561
26.00812 51.52166 -4.506124
22.17896 68.94795 -4.305022
22.0407 71.72144 -3.307668
-25.41528 55.79212 -2.555979
-24.22306 54.49844 -5.488777
-25.8212 48.04454 -5.179771
-23.99664 45.997 -8.514581
-23.60242 46.43808 -8.879015
-24.4945 51.53578 -6.061773
-20.46293 68.25461 -6.236546
-20.13765 67.30308 -6.887665
-18.83988 86.08061 -4.482649
15.18699 24.6305 -18.49625
-6.186048 27.96436 -13.83295
14.67881 105.6192 -2.920949
27.64275 28.15485 -12.26348
-27.1567 35.13686 -7.603191
22.88996 67.27779 -3.73071
20.21948 75.6492 -4.763072
-24.88217 54.96833 -4.241511
-26.19977 43.85378 -6.138245
-20.8234 72.1001 -4.780956
-16.05201 69.75066 -10.23286
-18.11936 68.12392 -8.835769
-18.6384 74.37414 -6.875871
-18.195 74.22652 -7.367354
-17.63658 70.40956 -8.7764
17.03701 23.78671 -18.87551
-7.667485 29.57222 -14.28607
11.98123 107.4673 -5.319407
26.34886 27.22235 -14.36186
27.21349 43.1018 -6.121723
-29.46982 27.01802 -7.431887
21.52339 70.88169 -4.617466
19.25723 74.51524 -6.348952
20.70621 71.91422 -5.392756
-26.69556 41.65826 -6.11845
19.34829 25.62397 -18.69073
20.5848 26.67567 -18.26971
13.94026 105.4729 -4.222721
26.67221 42.87718 -7.369201
22.88943 65.48771 -4.420977
21.88371 69.50753 -4.570978
-23.57313 57.44907 -5.432139
-28.44253 37.88889 -4.021126
25.06026 25.2038 -16.31823
22.19349 29.065 -17.21497
13.66274 102.3234 -6.37293
-27.30018 28.24313 -10.81682
20.8872 79.81091 -1.536725
-21.9585 54.70075 -8.305093
17.13591 27.45568 -18.51279
24.74161 26.50916 -16.16452
24.91042 27.15034 -15.84799
-26.67287 29.02018 -11.35887
-26.31506 41.32277 -6.851231
-25.90584 38.71511 -8.338825
12.44372 26.64704 -17.53812
11.57826 104.2294 -7.439919
-28.16881 24.95881 -11.00319
18.57395 32.74704 -17.71208
-28.73719 24.91017 -10.09493
-28.9479 23.40999 -10.45315
15.92621 31.19772 -18.07946
16.17745 28.46653 -18.34413
-25.11629 41.53939 -8.542501
19.34885 29.54564 -18.08252
20.8224 31.27916 -17.36095
-24.78343 35.19643 -11.2435
-22.38327 39.18525 -12.87252
-25.20504 37.80954 -9.629923
-27.48812 31.05647 -9.156113
-28.00106 31.80539 -7.918936
-25.68625 32.78008 -11.01101
13.55291 32.72905 -17.5725
-23.47324 42.08907 -10.56452
-23.94937 35.24916 -12.41526
-22.06258 37.71713 -13.63826
-22.95852 40.24262 -11.85154
-28.12439 30.73092 -8.263655
22.5205 29.77429 -16.87214
22.72181 31.79852 -16.22685
24.00717 31.47192 -15.28765
-22.06778 45.23748 -11.21096
24.43821 30.16087 -15.31172
22.41585 33.03833 -16.10111
27.24007 37.62561 -8.7656
21.90489 32.7895 -16.4908
6.648477 25.11719 -14.9316
1.971134 24.58543 -13.18646
8.876325 110.2488 -5.767833
8.224632 111.3932 -5.504675
9.745391 110.7887 -5.181147
13.4472 110.5046 -1.708835
8.075911 111.4885 -5.509196
11.29274 108.9577 -5.154173
11.04081 106.6874 -6.487249
12.31706 104.8421 -6.444427
13.99599 107.8868 -2.726449
7.868135 105.0098 -8.877285
11.67964 106.1005 -6.334105
5.758434 107.5746 -7.560023
7.506203 107.6169 -7.27818
3.864303 113.4468 -5.747621
1.548976 104.0897 -9.761083
1.072876 113.4962 -6.0409
0.840327 110.8567 -6.416681
1.791065 108.3353 -7.431274
-23.39468 24.67739 -15.60915
-9.478462 114.6013 -4.445185
-13.17508 115.0344 0.7544637
19.51459 85.88105 -3.151268
29.47888 32.369 -5.71511
-10.68466 112.5685 -3.715384
-12.12313 114.8353 -1.976083
-9.655993 111.6638 -4.843533
7.913835 24.54166 -15.56857
-18.39577 92.04366 -3.134189
-15.79836 99.66766 -4.467597
-13.12452 94.76579 -9.929811
-18.80536 23.56411 -17.62554
-17.39468 22.45498 -18.04026
-13.54299 108.2208 -3.240063
-17.05215 90.61048 -6.375856
-17.12835 86.48959 -6.647945
-16.84941 89.1328 -6.83451
-17.34486 91.56815 -5.686033
-14.64961 91.215 -9.090058
-15.77886 92.02117 -7.810082
-12.7829 85.26806 -9.275443
-14.27598 93.82133 -9.079929
-15.5834 88.18475 -8.144882
-13.80025 86.64594 -9.183972
-11.47542 83.77217 -9.704477
-10.83924 90.22427 -11.44715
-11.10763 87.43176 -10.65605
-8.320762 90.86948 -12.2758
-12.45891 90.82368 -10.73799
-7.926587 87.88799 -11.45012
-10.99772 92.22199 -11.5728
-6.30187 78.13322 -12.39382
-14.97023 95.02847 -7.974937
-9.760472 96.54001 -11.68808
-7.270875 90.10352 -12.26229
-11.8703 97.54517 -10.141
-13.05311 97.14747 -9.28758
-14.98818 98.56802 -6.479101
-13.59143 101.9082 -6.655798
16.69479 99.70741 -2.241226
14.79396 102.5626 -4.671452
17.16488 96.09702 -3.696883
16.054 96.52226 -5.808304
15.62415 97.37422 -6.107406
15.68161 95.99758 -6.660127
-25.68645 21.32604 -14.88532
22.84586 56.28004 -7.782787
25.75182 50.67645 -5.597992
27.97186 36.52294 -7.84445
27.2893 35.5189 -9.636474
28.84879 35.37397 -6.014884
-30.57709 22.562 -6.713902
23.39736 58.12965 -6.415091
24.83572 54.13338 -5.789235
24.52471 52.99414 -6.736548
22.41073 53.69711 -9.179697
10.13293 21.89508 -16.71921
10.77853 24.27027 -16.96375
-7.401533 27.34179 -14.2506
-9.167024 28.3313 -14.94483
-12.25668 28.15867 -16.53071
-9.392411 26.33831 -15.12351
-10.62597 32.36892 -15.56618
-12.25828 32.4551 -16.30845
-12.8973 34.2597 -16.44428
-14.4201 30.63908 -17.1021
-14.32154 28.07411 -17.32181
-15.9245 25.41365 -17.8406
-12.11728 24.64905 -16.55979
-20.99174 23.51783 -16.89739
-18.03778 29.40668 -17.21934
-16.87435 32.8195 -16.99992
18.23326 73.36278 -7.740461
20.03568 69.28864 -6.810129
17.48954 71.96974 -8.75182
14.95099 75.14824 -10.02305
15.14763 73.10155 -10.39233
18.68466 66.79449 -9.022602
19.95857 66.75436 -7.700582
19.67852 83.46122 -3.27372
18.22118 81.07114 -6.045031
18.64687 80.13697 -5.778379
18.31936 85.33557 -5.342853
16.97504 86.65005 -6.784507
15.00171 83.46167 -8.09672
15.4304 83.99656 -7.875885
17.18562 76.04787 -8.130932
16.35022 90.61759 -7.328621
16.61283 78.40335 -8.071684
14.44176 80.87686 -8.847013
14.81837 84.24893 -8.230518
17.07496 89.98204 -6.440944
15.27092 78.71031 -8.946839
12.86091 81.51225 -9.680684
13.97968 84.83163 -8.701504
13.90271 89.24542 -9.626976
13.15257 88.76511 -10.05135
11.55927 84.0326 -9.80523
11.58152 81.50285 -10.40538
11.54572 80.10225 -10.71708
7.092586 85.53172 -11.16223
14.30271 78.1477 -9.697581
15.49518 88.09081 -8.195827
-22.16755 50.97755 -9.222815
-20.2795 44.9592 -13.17863
-21.99396 46.65602 -10.81257
-19.92973 46.79264 -12.98886
14.6546 27.16522 -18.19559
-29.16012 33.03993 -4.763762
25.69421 40.73895 -9.899824
26.35266 40.3092 -9.054933
26.6086 37.54193 -9.865116
25.43344 37.95837 -11.41761
22.66058 41.14579 -13.50898
-25.74775 22.41866 -14.57386
16.48587 33.03225 -17.8824
28.57322 31.87123 -8.888834
27.28631 34.17769 -10.25813
28.475 27.78408 -11.0491
27.81601 29.26645 -11.51883
3.495035 29.80257 -13.45099
3.550542 113.7598 -5.972094
0.5253305 105.1896 -9.150252
-3.348696 106.9354 -8.171062
-2.133 104.7473 -9.39438
-3.376785 104.9644 -9.271413
2.482625 112.5411 -5.9328
0.916903 111.3073 -6.484693
-0.07766011 110.2478 -6.765373
-1.816107 108.8347 -7.188341
-7.427718 113.8686 -5.773061
-5.612998 115.1293 -5.288704
-4.231974 115.387 -5.636791
-7.357372 113.5505 -5.729878
-10.12937 112.3744 -4.236286
-12.78747 107.606 -4.518794
-14.04643 104.6555 -4.579189
0.4209592 29.57389 -12.87533
-0.1329951 27.86893 -12.87334
1.713811 29.97313 -12.99509
1.372003 32.95758 -12.88281
1.501893 30.96698 -12.93731
0.2312888 33.55823 -12.75753
-3.427961 34.22586 -13.02735
-3.279456 32.30088 -13.04545
-2.053711 38.84533 -12.71995
0.344875 25.70427 -12.93786
-13.00819 86.25652 -9.47802
-13.61879 84.03742 -8.736102
-15.61459 83.6684 -7.746069
-7.096799 84.71804 -11.09471
-6.676271 84.4241 -11.22322
-7.410055 82.85458 -11.34305
-3.124017 83.26051 -11.78522
-5.745409 89.78024 -12.22748
-1.82218 85.19933 -11.65113
-1.317131 86.96195 -11.66596
-8.679462 82.20724 -11.1158
-10.82333 84.04472 -9.933903
-5.470662 75.93932 -12.64442
1.055417 80.78695 -11.7432
-9.812137 80.89969 -11.00951
-10.9347 97.40324 -10.83364
-10.33851 99.79841 -10.38991
-11.75977 105.9682 -6.326982
13.23582 101.6045 -7.212588
12.88689 98.93535 -8.765881
2.974312 103.1706 -10.26134
4.452347 104.5608 -9.508311
12.0017 99.22281 -9.446947
7.345234 103.0239 -10.1607
4.530434 105.1127 -9.189541
4.737665 100.3072 -11.55805
9.880186 101.7806 -9.79084
2.703975 103.8434 -9.898781
5.072553 102.0775 -10.83722
3.186023 100.1607 -11.58182
12.52426 97.35582 -9.669018
-20.16 62.86811 -8.003274
25.54951 48.77208 -6.813081
24.79898 43.54143 -10.00954
22.6527 45.87949 -11.79124
24.10991 48.36055 -9.000287
21.69932 44.57924 -13.29233
21.55871 50.44215 -11.35547
22.67206 42.71596 -12.92907
22.85071 44.15773 -12.2064
-17.60204 68.77608 -9.174396
-9.876508 24.79542 -15.4177
-10.64405 24.66712 -15.81112
-18.43379 27.48619 -17.34486
18.43567 65.72218 -9.587313
4.604414 64.2121 -12.94703
11.01144 69.19989 -13.39492
16.21793 70.74921 -10.19421
12.79167 74.03481 -11.55141
13.03918 72.94012 -11.70504
-1.064507 67.26147 -12.01361
10.22528 69.53534 -13.52781
14.15768 77.04285 -10.05604
14.06972 65.36929 -13.01384
12.66704 67.26761 -13.23288
12.76698 65.30874 -13.63554
9.076628 70.68909 -13.508
9.097211 69.54556 -13.66025
16.40712 65.91316 -11.33569
19.05884 62.31242 -10.00431
9.105321 69.74514 -13.62861
7.489813 67.04036 -13.81606
7.731311 70.65026 -13.52479
8.603957 63.88839 -14.22276
4.890744 68.94424 -12.96335
5.962704 70.1511 -13.25896
2.699031 71.13496 -12.19215
5.023497 72.95844 -12.8892
7.921542 75.50708 -12.87568
6.364143 73.76534 -13.09345
6.129252 64.69731 -13.52364
4.639806 75.59505 -12.67499
12.69306 76.08081 -11.08
3.407906 64.16463 -12.51365
2.43443 68.63832 -12.14639
1.920823 72.31667 -11.98297
10.50737 76.01616 -12.07817
8.749491 77.80595 -12.25338
1.569325 66.60789 -12.01825
-0.7265123 75.74098 -11.79358
0.251344 77.90836 -11.71943
1.459157 75.62148 -11.84756
0.9895084 77.39975 -11.74264
11.1808 78.01802 -11.33081
-1.945266 69.65324 -12.13497
-0.5506823 70.35779 -11.89756
-0.297674 82.92605 -11.70329
7.588146 79.98547 -12.06352
9.804956 81.04536 -11.19743
8.933618 62.33017 -14.39935
8.059924 80.06172 -11.93959
7.240438 82.12833 -11.69948
8.392004 84.1131 -11.01418
2.774821 83.74324 -11.78203
1.25509 62.23145 -12.08445
1.77248 59.39675 -12.19625
18.04157 91.10122 -4.556202
16.98415 91.6287 -6.270904
15.76156 94.61604 -7.110236
15.04642 91.81638 -8.660414
11.70189 95.33253 -10.88849
14.25407 94.60545 -8.919537
5.852076 95.84143 -12.68353
8.91854 98.40977 -11.52574
12.30757 91.94337 -10.85796
11.48581 93.27434 -11.29921
-0.1239667 88.25273 -11.86809
-0.9634515 92.09261 -12.66042
-0.3719874 89.30007 -12.09493
13.52242 91.4187 -10.01982
9.985727 94.65977 -11.90749
6.042989 95.10898 -12.76
2.874865 93.7777 -12.78417
4.283243 97.31223 -12.40651
7.961428 91.99732 -12.51329
6.601101 98.23457 -12.13686
5.908748 87.98312 -11.64704
5.658637 92.3457 -12.74985
4.497209 90.1099 -12.29473
2.82987 94.27264 -12.77844
2.108191 93.74817 -12.77116
11.51566 80.94052 -10.55622
9.548441 26.44574 -16.31275
12.80665 28.87012 -17.57483
23.85358 34.0268 -14.63164
22.0648 36.48616 -15.39379
21.409 33.99253 -16.49822
-20.36748 26.52362 -16.80095
-21.61299 29.09724 -15.84985
-21.48977 26.92052 -16.25302
-22.62117 23.31583 -16.23336
8.307852 52.09398 -14.80472
-21.40058 37.0568 -14.37551
1.130485 102.1375 -10.75091
-2.884178 102.5434 -10.57028
-3.27993 100.3395 -11.50384
-9.432638 107.9897 -6.600347
-7.286108 102.9297 -10.2125
-6.837448 99.79273 -11.64982
-3.381994 94.01693 -12.77872
-4.589643 99.61784 -11.76006
-8.528986 94.13335 -12.45432
-8.987441 100.1263 -10.90117
-8.968697 101.0751 -10.55301
-9.510375 94.68487 -12.11289
-5.573937 108.5618 -7.04063
-5.165568 111.4459 -6.265056
-6.260659 111.9666 -5.969506
-7.044566 109.659 -6.361931
-6.62421 108.0417 -7.171212
-6.406384 107.6015 -7.448795
-10.37617 104.1018 -8.330304
-10.52846 102.8154 -8.882559
-8.182309 102.7984 -10.03905
-9.589522 111.8898 -4.774393
-12.66264 102.3184 -7.453454
-11.15696 111.2129 -4.093063
4.212475 27.30728 -13.78097
3.224858 31.57138 -13.28778
3.848325 30.78798 -13.53744
-13.50886 79.66139 -9.504244
0.03312598 92.55864 -12.71808
3.806796 94.98734 -12.75452
-2.168442 92.19055 -12.68975
-2.483908 96.11452 -12.60473
-6.798977 95.95428 -12.57797
-2.488598 97.58816 -12.31219
-3.915649 89.92943 -12.2533
-0.7477202 88.02879 -11.83014
2.85035 99.98759 -11.63459
4.002388 98.87723 -12.00241
1.172277 96.91514 -12.443
-9.700122 80.37331 -11.15668
-7.976433 76.27328 -12.45206
-11.52624 105.3591 -6.849496
-20.78587 55.26297 -9.487084
-21.28801 60.61313 -7.340962
-19.80328 63.98699 -8.122351
25.11955 47.25556 -8.067221
26.34246 44.93464 -7.104114
22.40753 51.85564 -9.841157
23.3008 56.75008 -7.056344
21.46438 53.33806 -10.42051
21.7359 55.63846 -9.290016
20.96781 58.10623 -9.335538
17.42325 56.88025 -13.13825
21.0519 50.08593 -12.03312
-16.58789 73.82975 -8.89538
-16.7123 74.43465 -8.655393
-14.27183 74.64702 -10.25872
18.14421 68.01572 -9.192924
1.089835 65.9217 -11.96338
-7.909566 73.54871 -12.86516
-0.5169345 75.07984 -11.79045
-2.66113 72.37274 -12.25478
-1.714459 72.36239 -12.02874
-2.089643 75.2114 -12.06668
-2.770871 69.26846 -12.33872
2.136005 82.76575 -11.83224
0.9606842 86.94821 -11.6992
4.462944 85.48544 -11.53624
-1.293861 85.90991 -11.6395
1.195818 82.39532 -11.75289
9.053113 62.79956 -14.38541
17.50715 94.17799 -4.118661
10.8246 29.06872 -16.78826
23.66041 38.17418 -13.49086
-21.87488 30.45654 -15.45657
-24.94361 29.78745 -13.19597
-23.52918 30.92499 -14.19506
-25.36488 29.34696 -12.89502
15.92622 41.71846 -16.83128
-22.55764 34.89393 -14.00205
-20.74526 31.9694 -15.834
-17.47772 35.53685 -16.58256
-16.72264 33.8946 -16.92708
-17.86528 37.11414 -16.27833
-17.61695 33.47286 -16.82636
-21.80038 35.09301 -14.52657
6.664461 27.12724 -14.90051
10.06221 33.27489 -16.29903
7.497282 31.32779 -15.16255
-9.529502 101.7963 -9.963913
-9.627184 109.152 -5.962065
4.992951 33.53611 -13.88287
-4.306629 37.08925 -13.13698
-4.304458 38.98288 -13.10408
-7.504023 97.00987 -12.27273
-10.8189 80.27758 -10.7557
-11.15489 79.05132 -10.8475
-9.353973 75.063 -12.33637
-14.28104 76.31137 -9.879392
-11.15659 76.49416 -11.38
-7.335002 72.37803 -13.05632
-10.79865 71.72733 -12.53472
-13.86628 70.24415 -11.49242
-4.981267 70.12927 -12.9375
-8.67747 71.24295 -13.11119
-6.423933 72.7873 -12.98555
-6.812877 72.18809 -13.06126
-5.159284 74.88552 -12.71861
-6.474223 65.70261 -13.45657
-4.616773 67.29221 -12.91549
-4.829094 74.05501 -12.72681
-4.796916 66.5779 -12.98358
-7.084311 62.13046 -13.74328
-2.600098 64.84626 -12.37082
-13.3562 65.92336 -12.73407
-1.075909 66.02898 -12.04869
0.3566488 64.90151 -11.95704
-13.15581 65.47355 -12.926
-11.02526 66.94015 -13.34686
-11.04354 65.62595 -13.57201
21.21589 41.94447 -14.54974
19.51471 49.5373 -13.6718
20.0542 48.90764 -13.41934
19.35828 43.97017 -15.26283
17.38815 49.60787 -15.01076
15.69524 48.861 -15.75215
21.95007 62.32331 -6.834326
19.82321 62.76264 -9.067225
19.99452 59.98727 -9.771599
19 56.37583 -11.96406
19.42842 58.69245 -10.76849
17.60133 60.09126 -12.02724
16.84604 59.13939 -12.92188
16.69759 63.26848 -11.84303
17.11778 63.32288 -11.47931
17.69007 56.04864 -13.18885
-17.5168 63.96571 -10.42189
2.729294 83.22662 -11.84348
12.20074 62.93602 -14.25336
12.92964 61.36636 -14.33276
16.07973 59.15333 -13.44691
14.25367 57.63496 -14.60372
16.64053 54.67583 -14.21268
2.782797 63.18333 -12.3345
1.76676 58.35402 -12.23522
-3.250865 60.25886 -12.61795
-20.46422 49.65108 -11.57403
-19.10907 54.65108 -11.46327
-19.60549 55.75478 -10.63264
-22.01651 51.31639 -9.297329
22.47002 34.98947 -15.53606
-21.12694 46.16 -11.98653
-20.98514 38.31501 -14.3645
-21.06788 40.84737 -13.61333
-21.84881 41.47863 -12.6907
11.16355 32.40477 -16.77744
4.282372 35.30441 -13.5347
1.185321 35.12571 -12.79386
-0.2121521 38.49582 -12.6528
-10.20312 78.34883 -11.37445
-14.86954 80.46072 -8.363398
-15.43417 78.8948 -8.452509
-17.94707 81.88112 -6.1351
-17.35256 77.17978 -7.543943
-16.87067 79.08163 -7.432515
-16.4258 78.44897 -7.928565
-1.329176 60.8825 -12.18137
-0.4103748 61.17904 -12.10501
-4.091087 53.09694 -12.91676
-3.855072 57.70153 -12.81312
-2.988538 54.78061 -12.61221
-15.79799 64.68793 -11.61031
-16.06282 62.55308 -11.91957
-8.593662 62.99284 -13.98464
-15.34454 63.38477 -12.21578
-16.40894 59.53111 -12.44278
-15.35894 61.12524 -12.75473
-18.00982 63.30046 -10.13161
-18.53657 58.95737 -10.81718
-15.17337 59.33389 -13.26856
-18.2131 60.72593 -10.62014
18.99683 44.19631 -15.40535
18.46014 45.60265 -15.37117
20.83275 60.58784 -8.680851
15.94984 47.11164 -15.98605
17.98372 43.96338 -15.91404
16.22021 43.65001 -16.48476
17.4807 42.65223 -16.3535
19.10167 39.76597 -16.31402
21.26883 37.07631 -15.77176
15.17488 38.68619 -17.24327
16.81086 35.86652 -17.53286
15.85089 37.33366 -17.38334
7.07145 58.88934 -14.0746
6.24042 56.11176 -13.77935
6.352506 54.75914 -13.86695
6.93835 52.52161 -14.19566
10.30643 58.91792 -14.87966
9.767165 54.67112 -15.13389
9.064104 55.58894 -14.88179
6.808001 50.83614 -14.17018
4.172817 56.84526 -12.9043
-1.311278 58.96397 -12.22153
-20.73402 47.57892 -11.9426
-19.90796 46.37232 -13.11578
-18.80329 49.06514 -13.32276
-19.40449 44.65713 -13.98062
-18.09384 44.93056 -14.78187
-18.66583 53.48546 -12.19932
-17.33704 48.29574 -14.49077
20.17801 33.88092 -17.07789
-17.03746 41.93442 -15.79679
-18.44307 41.81625 -15.21318
-12.38109 40.73557 -15.9324
-19.8314 43.11814 -14.05049
-2.098703 37.02886 -12.76591
-13.90084 76.69504 -10.00832
-0.9630962 54.83717 -12.27073
-0.6669239 54.24285 -12.26864
-0.1022795 50.51083 -12.32993
-1.88087 52.02597 -12.4449
-2.384417 51.76322 -12.54628
-4.388958 50.48113 -13.01783
-3.939242 48.16108 -12.90469
-3.974119 48.97872 -12.90885
-0.3914132 43.0667 -12.53083
-6.205431 47.32118 -13.60051
-5.912519 53.81527 -13.48841
-7.015545 53.45017 -13.88159
-7.407321 55.82733 -14.01019
-8.057807 56.31734 -14.20408
-5.455777 52.2981 -13.3399
-7.113532 59.63547 -13.83809
-11.67085 49.567 -15.32319
-14.85407 50.86684 -14.99131
-13.2478 54.01053 -14.84348
-10.30022 48.61605 -15.0637
-9.124887 46.97667 -14.71349
-13.53393 48.59811 -15.49445
-14.40266 46.1293 -15.71907
-13.46379 49.74369 -15.38483
-15.25201 51.64321 -14.75753
-16.31025 52.47606 -14.16207
-16.61792 58.60287 -12.51604
-13.07082 58.02402 -14.33055
-13.0246 56.31949 -14.58408
-10.32222 54.38088 -14.80968
-15.64024 57.25724 -13.45891
-10.60948 57.52528 -14.60183
-19.48443 57.52873 -10.24835
14.82736 50.55778 -15.68532
14.28088 54.11818 -15.22997
15.53806 51.77174 -15.27788
12.86196 55.5641 -15.25803
11.73143 47.34475 -16.08761
20.95937 37.16811 -15.94737
12.60829 39.01203 -16.89428
9.932854 37.01906 -16.08435
13.66786 36.89094 -17.26608
10.35374 39.02646 -16.18894
11.24266 34.41137 -16.73303
17.25166 34.86398 -17.61452
-4.792986 62.71623 -13.05814
3.844476 52.59365 -12.89259
1.771947 51.69829 -12.41518
-1.189895 44.17724 -12.52783
-1.874438 42.72053 -12.63084
0.6776996 43.84072 -12.54043
3.231681 43.26101 -12.96622
2.278004 42.76563 -12.75776
1.511346 41.17075 -12.68406
1.846466 38.82681 -12.79177
5.235538 39.76431 -13.7939
6.679243 43.86749 -14.32838
4.646601 39.03724 -13.5637
-5.523563 40.43989 -13.39465
-2.554236 38.73563 -12.78686
-7.282583 44.85611 -13.98227
-7.094777 41.74869 -13.88822
-6.833369 43.70315 -13.80837
-7.559785 44.85143 -14.08748
5.099301 45.02194 -13.5725
-7.585868 40.84699 -14.06197
8.726662 38.228 -15.50787
5.828125 46.93663 -13.84173
7.977534 44.95629 -14.92747
10.06906 45.58203 -15.77764
11.08088 47.3584 -15.96305
11.89484 41.33374 -16.55368
8.74217 41.75939 -15.39996
7.848101 49.21717 -14.70671
11.40817 51.30192 -15.72155
11.23128 38.7817 -16.51276
2.515841 50.78027 -12.57942
2.367927 45.99963 -12.68489
5.301866 46.1469 -13.62869
2.726333 47.63381 -12.71494
-1.102663 50.43089 -12.38563
1.939827 49.96193 -12.48753
-10.57366 61.3107 -14.20278
-14.69715 43.06932 -16.06721
-12.40359 42.26319 -15.87222
-12.68799 43.46317 -15.88485
-11.7383 44.30213 -15.61365
15.37034 55.54301 -14.61419
9.878357 35.65617 -16.12448
11.93516 46.78033 -16.16173
11.91867 40.18513 -16.63922
2.570373 54.26262 -12.48567
-11.8797 40.14131 -15.80207
-11.28069 37.38253 -15.69955
-11.05021 34.31379 -15.72556
-10.65009 37.88443 -15.41274
-10.02504 37.6919 -15.14345
-12.6087 33.38099 -16.39697
12.08108 53.28096 -15.57707
8.413516 37.12848 -15.40156
-10.65099 32.91186 -15.56326
-9.587808 33.70731 -15.03093
-8.365811 35.15606 -14.44666
-11.25478 35.40701 -15.77708
-12.56508 117.6228 2.521653
-12.36492 119.7239 2.334997
-2.037422 122.3237 -7.140936
-11.47292 126.8334 -5.400368
-12.0629 117.8465 -0.2836898
-13.66862 127.6093 4.05277
-14.1861 130.3477 1.368442
-13.72824 128.3341 -0.4565468
-12.36617 121.0072 1.552387
-12.89051 121.9902 3.492393
-13.14207 126.0861 -0.3290399
-4.192229 122.9258 -7.221582
-1.385536 122.2707 -7.122359
-11.2762 126.3269 -5.066609
-13.97962 129.0015 1.894047
-12.97841 124.1518 1.212132
-13.34141 125.9696 0.6401999
-2.170262 116.3379 -5.981588
-2.987825 121.7374 -6.919157
-4.600859 123.1765 -7.238271
-11.1868 117.5084 -0.991464
-8.626166 118.528 -3.872494
-12.88036 123.4501 1.587288
-1.834278 118.4305 -6.055708
-2.58293 117.0818 -5.810184
-8.050954 117.1704 -4.463822
-12.5555 124.2578 -0.4783786
-9.707325 122.3945 -4.112042
-6.829003 116.6155 -4.786711
-10.16364 120.6908 -2.85716
-10.1071 122.8807 -3.989844
-9.040875 122.9577 -5.054543
-9.44404 120.0006 -3.444835
-8.364247 121.5205 -4.87839
-8.091218 121.4108 -5.021359
-5.342826 120.1007 -5.921801
-6.351108 118.6381 -5.154401
10.73421 118.1583 -2.062083
12.66136 122.3902 1.628403
13.69959 127.2326 1.516833
13.5521 126.8071 0.8567358
-0.1284765 117.6549 -5.804091
11.10019 118.2709 -1.036924
9.816895 116.8329 -3.100874
13.37735 127.1984 -0.5141449
1.816087 124.3186 -7.867304
12.65771 125.7629 -1.624321
-0.3985701 119.1145 -6.232434
4.36716 124.542 -7.811245
9.941588 117.7766 -3.089883
14.03273 129.5315 0.8307735
1.578777 117.1139 -6.340013
-0.385592 124.3793 -7.900494
5.090487 122.8569 -6.965208
8.55934 117.6597 -4.200264
12.2466 127.8358 -4.668479
10.34626 121.8365 -3.094925
10.24281 123.2529 -4.018742
0.4379527 116.918 -6.481661
4.819588 121.2662 -6.47781
11.62688 125.5634 -3.70976
10.51827 123.7172 -3.998882
6.955039 117.4159 -5.112315
2.992672 122.8793 -7.303087
11.51425 126.5067 -4.739516
9.089112 118.5814 -3.520812
11.0961 119.6471 -1.118947
10.93012 120.4232 -1.640702
4.329584 118.9441 -5.942973
6.805404 122.5983 -6.24497
8.797856 116.6233 -3.919167
6.631817 118.184 -4.96399
9.038716 123.9519 -5.592158
7.918972 125.148 -6.926475
-11.27832 143.6472 4.675308
-11.74697 149.2806 -9.798691
-8.289145 129.7677 -9.23719
-11.01818 141.8182 6.480171
-10.94535 143.342 -11.861
-8.890909 132.2722 -10.16741
11.33312 148.7811 -0.2164591
9.815298 140.225 -12.25758
11.01023 150.4281 -8.903241
11.14072 151.5362 -4.370424
10.83517 145.4285 -11.56423
-12.31596 117.2203 4.809384
-12.81088 121.2048 4.057281
-11.09191 116.3148 7.734274
8.263127 115.9043 9.923892
13.29238 135.4225 9.837728
-14.51336 131.0846 6.261342
-6.545908 115.5986 10.7703
