# .PCD v0.7 - Point Cloud Data file format
VERSION 0.7
FIELDS x y z
SIZE 4 4 4
TYPE F F F
COUNT 1 1 1
WIDTH 1663
HEIGHT 1
VIEWPOINT 0 0 0 1 0 0 0
POINTS 1663
DATA ascii
-15.21601 83.23072 6.190333
-15.44458 85.76044 4.125165
-14.99214 79.14846 7.107073
-15.57459 73.15971 5.081889
-15.53722 69.65839 2.741643
-15.67335 62.84798 4.456796
-15.6953 60.78992 4.397099
15.56817 85.98139 3.092309
-11.49826 110.4891 6.454391
-12.91649 106.5917 3.070621
5.734694 16.45719 13.97738
16.8671 30.5764 3.755966
15.26558 31.84813 6.057068
15.80974 13.70241 5.677935
14.66428 14.93741 8.305133
17.05559 16.8392 3.893723
12.44158 107.7829 5.443173
14.46292 93.26007 0.5613314
10.64423 113.5239 6.834413
11.73569 109.6313 6.380805
12.63442 106.172 5.637098
-15.45622 34.36734 7.042609
-15.68057 36.53659 5.524925
-15.75101 36.45821 3.195507
-6.905565 15.6764 15.24395
-11.3354 14.73879 14.22351
-13.82296 14.7977 11.14341
-15.60892 54.35925 2.825963
16.38532 61.4991 3.520941
17.02878 60.3758 2.72358
-15.4684 83.49377 4.481318
-15.61605 68.50566 4.88928
-15.63748 59.49257 5.475101
-15.65838 63.43326 4.978159
-10.77106 113.4344 6.10983
-9.240228 114.5272 8.995162
-8.295489 112.3042 10.24006
-10.0816 111.9361 8.434472
5.244826 14.49715 12.90799
15.76689 30.16286 5.091783
16.43255 14.68108 4.678149
16.11063 18.0723 4.960282
14.70181 95.19143 5.480926
12.07801 91.29256 10.15346
15.30782 91.268 4.019327
-4.910295 110.1048 12.34808
-2.777827 110.8074 12.86486
10.41015 110.3473 8.679943
9.336289 106.0912 10.65186
-15.16635 31.96432 8.100094
-3.63606 16.85454 12.64628
-5.143818 19.07283 14.37724
-8.685594 16.93357 15.27157
-11.98425 17.82339 13.51603
16.02661 56.74044 4.237222
-15.56257 71.34206 5.358017
-15.07686 71.81667 7.357084
-15.65254 56.63409 5.353338
-10.6112 109.9045 8.656739
-11.16528 109.345 7.980827
5.473024 14.45364 13.51434
17.26602 20.73345 3.574134
16.95429 22.19257 3.838156
15.6333 12.80406 6.057896
15.24912 91.83473 3.593382
-15.3084 31.08833 7.604131
-15.6307 31.81519 5.965614
-15.11556 35.63387 8.236695
-2.487561 15.52506 10.16164
-2.822855 18.34868 10.91913
16.30821 62.50665 3.619821
16.32153 64.13806 3.530398
-15.41264 83.01176 5.059278
-15.40087 79.22459 5.586859
-15.39425 89.29287 4.904788
-15.62196 68.29742 4.736315
-12.40336 107.8598 5.57124
5.830128 16.41911 14.11592
13.31193 90.13335 9.336104
-15.33828 29.97353 7.494417
-15.6111 40.35088 6.321126
-14.99161 83.85627 6.939703
-15.41593 88.86066 4.285951
-15.64633 60.34737 5.421483
-12.11948 105.9323 7.283754
-15.25917 31.93112 7.775135
-1.085881 19.39093 8.592731
1.09609 15.84496 7.578795
-0.4060095 22.25337 8.301446
-12.17639 107.4615 6.695879
-11.22724 107.3544 8.559244
15.17832 85.81899 6.332202
-15.68679 40.7163 5.536269
-15.24155 29.48327 7.872215
-15.51861 28.00714 6.642671
-15.68822 25.46721 5.302313
14.9842 88.87757 6.743836
11.60709 88.4211 10.85908
13.84502 87.03267 9.090704
15.43648 81.05233 4.993187
-14.15631 26.32634 10.47317
-15.40379 24.05978 7.1632
15.50083 83.74373 4.442696
-15.09446 22.53265 8.323865
-15.03907 22.39404 8.511127
-13.52592 32.89341 11.42578
-11.92762 29.20785 13.22464
13.86672 84.13292 9.252737
15.10804 83.05922 6.389521
-13.91833 27.06711 10.8912
-13.02203 21.43144 12.26563
-13.76799 20.90765 11.21544
-15.14388 22.59607 8.148741
11.86987 85.92088 11.03761
15.26997 78.97176 5.768646
9.772923 91.40414 11.11374
9.15575 89.74509 11.49007
14.63585 90.65718 7.388522
11.09288 89.79877 10.8985
7.135433 85.66482 12.1843
8.619094 87.43864 11.86521
10.17059 89.39335 11.30785
6.432339 123.9482 12.51831
8.3242 120.7092 10.51872
2.521207 123.0918 13.45292
-8.438356 120.3556 10.27552
10.44844 16.09131 15.75824
11.48482 17.39106 15.18007
12.7679 14.47021 14.00314
9.718083 19.33188 15.78608
0.2404994 121.7575 13.37013
-15.29739 19.69885 7.506346
-15.46493 14.63101 6.384761
-14.78985 14.97554 9.072359
-15.27963 18.3794 7.528387
-13.05675 16.12542 12.33526
-14.74024 19.58454 9.30584
-14.34933 14.43228 10.1597
1.097677 113.3229 12.9536
0.3818731 109.7414 13.08882
17.76104 47.12252 2.618148
17.23888 49.25476 2.999624
15.7444 77.56962 3.917253
-14.43087 96.53551 4.209313
-13.11655 100.006 6.751015
-11.90475 101.4536 8.334895
-4.095398 108.3082 12.82968
-12.55901 98.97559 8.145068
-13.45212 97.47141 7.379023
-9.512575 100.8713 10.51449
14.52414 15.45599 8.767448
16.85499 51.01267 3.308466
15.80144 80.0499 3.4119
15.52794 76.93404 4.786677
14.645 77.85054 7.900112
-12.76064 94.78709 9.044914
-14.49063 93.37334 6.997495
-13.95307 95.80857 7.128436
-9.998483 94.03344 10.68591
-11.59689 96.01565 9.688325
-6.424616 92.00121 11.78576
-12.04418 91.68891 10.12271
-12.13436 97.69534 8.933454
-11.25452 91.56744 10.54917
-14.59966 85.3382 8.020429
-13.08861 87.20046 10.03533
-11.95972 89.27351 10.55157
-13.62301 84.05886 9.569785
-11.65474 85.65753 11.21448
-8.858317 91.46712 11.35476
-10.09914 90.28378 11.22379
15.84652 24.76139 5.103807
-14.38219 55.01315 9.498562
-15.70749 46.01721 5.271153
-15.11185 45.84707 8.162099
-15.61202 47.76634 2.532658
16.10877 54.99366 4.161508
-15.47598 76.52893 2.411844
-15.54405 76.0627 5.053462
-15.51919 78.24331 4.834143
-15.38884 63.43116 6.72643
17.16243 33.59158 3.425603
16.79512 34.9697 3.72985
15.21944 33.21133 6.162079
15.97807 35.77832 4.668958
15.04447 37.26957 6.640312
15.93839 43.80199 4.647709
15.83234 39.94997 4.823425
15.36584 32.65604 5.823442
14.50873 31.61399 8.587926
14.44996 34.59239 8.780618
15.07517 29.19773 6.616936
10.83027 113.8394 5.414724
11.63454 111.1701 1.828244
-15.63428 51.68329 2.946825
4.167835 20.41177 10.0927
14.80759 94.74786 4.530961
-3.917169 109.2648 12.80475
-3.846368 23.10094 12.91791
-3.151185 21.37763 11.6374
-4.230493 19.88327 13.5112
-9.783934 20.26498 14.88957
-8.729778 20.17868 15.11152
-9.679481 22.9702 14.82811
-6.468883 21.71475 14.90067
-12.33012 26.4994 12.97125
-3.756067 21.00255 12.83959
-5.236814 21.62059 14.39412
-6.203588 21.18568 14.83432
-11.81617 26.16587 13.42253
-13.35582 26.58964 11.78204
-10.04614 28.27248 14.45911
-9.772428 28.70682 14.54434
-13.40052 37.05591 11.50587
-10.08415 30.31192 14.36738
-13.7868 28.6315 11.11842
-9.973821 23.48735 14.69735
-5.399079 24.10684 14.41274
-4.725308 24.46737 13.86737
-10.17076 26.37323 14.47632
-6.086577 25.59704 14.65801
-10.71179 30.49789 14.0244
-13.23187 38.81358 11.65524
-14.04243 36.61761 10.57866
-13.58561 35.28998 11.28653
-14.43902 47.24732 9.62565
-12.03851 33.72918 13.00876
-14.36231 50.77493 9.664748
-11.47062 39.46684 13.2633
15.25738 61.82436 5.863804
15.36823 64.77292 5.515331
-15.67612 60.30295 4.87948
-15.56185 60.86171 5.971887
-15.18174 59.15092 7.67732
-15.10013 57.94665 7.952867
-15.30357 56.24731 7.359996
-15.62088 55.25825 5.774393
-15.7187 53.08793 4.738403
14.48386 89.30708 7.926842
11.31051 92.61166 10.3449
14.36073 92.85656 7.409663
13.61363 91.27156 8.821599
-15.23048 44.54422 7.795493
-1.490693 20.64923 9.003991
-2.702761 22.40295 10.73331
0.7362084 17.68991 7.759494
2.237133 17.16275 7.941908
2.555891 23.11313 8.466302
-0.0001023903 24.86459 8.345318
1.488553 25.21324 8.18405
3.675575 21.97588 9.445963
4.594049 16.82521 10.85346
4.990928 23.51317 12.08233
4.371423 15.32456 10.30721
-6.477491 40.78026 14.30676
7.327961 18.32856 15.43923
-2.737023 22.60328 10.81005
5.66397 18.26823 13.6768
4.295011 19.66801 10.35064
4.265531 17.34996 10.21267
4.260895 18.74877 10.2641
3.619645 20.03293 9.244136
15.39392 83.01407 5.136166
15.23235 82.44389 5.908513
15.26263 84.29722 5.829748
12.83561 20.08615 13.61047
12.93312 22.97882 13.29327
-1.221074 123.849 13.53672
-13.88654 18.80462 11.03353
9.651019 107.2145 10.24463
5.111713 111.9782 12.10733
10.43178 108.8591 9.30641
7.96167 106.7337 11.34473
7.899882 110.2375 10.83558
9.764934 105.138 10.40175
12.40538 102.1622 7.509921
12.85594 102.0141 6.33105
6.675374 108.9639 11.6999
8.939448 108.453 10.58849
7.140739 112.6852 11.08039
12.44801 101.6516 7.515378
13.58786 100.2271 4.059507
13.21287 100.9651 5.689563
-1.880232 108.6932 13.1192
13.25606 103.1521 2.917235
2.985855 107.565 13.05001
0.7662071 106.755 13.24517
10.87575 102.4795 9.525772
-6.453889 104.9227 12.01558
5.928754 104.6649 12.17867
3.868902 104.5603 12.78304
6.520163 103.9609 11.92628
8.790384 105.7355 10.99616
8.40072 104.6145 11.19722
8.899676 102.6883 10.94512
8.944388 98.45268 10.79235
7.237659 98.24258 11.4118
12.1138 96.86234 9.18261
12.50143 101.3823 7.491004
8.923227 97.33706 10.8335
11.74135 97.81338 9.254517
10.19756 95.81522 10.4035
11.77145 95.24957 9.673417
12.4234 95.77608 9.150311
8.26862 96.59158 11.10931
7.802993 95.28867 11.31874
5.940556 94.68211 11.76455
7.561398 93.38017 11.48892
7.60179 93.52204 11.47362
5.941386 91.57778 11.85643
7.093575 90.09175 11.80763
16.34219 47.7462 4.015773
15.25874 47.76597 5.884465
14.28166 44.28568 9.436647
14.65856 47.38994 7.860652
14.25448 45.93518 9.541702
14.70958 41.38042 7.711646
14.96352 40.59092 6.778161
14.99432 42.29297 6.686126
14.56495 38.95425 8.28385
16.52295 73.80286 2.243837
13.93751 14.70387 11.02247
15.28674 70.11693 5.728303
15.8691 74.49477 3.775575
15.2676 72.52872 5.804047
15.661 72.36581 4.520747
1.317905 97.49654 12.34997
-7.552246 97.82726 11.28798
-10.14758 101.2958 10.13396
-8.302011 94.57693 11.19723
-6.798519 97.31255 11.51745
-6.905898 93.08347 11.65069
-0.5285128 93.88902 12.19161
-3.513662 93.95438 12.08844
-8.166987 106.0194 11.27537
-4.848975 105.12 12.55872
-8.493673 92.52142 11.32774
-8.441776 95.11047 11.11672
-7.027174 102.4971 11.66387
-8.524673 90.72962 11.512
-11.32564 105.2864 8.85474
-11.56147 83.95486 11.43688
-15.63986 52.30677 5.630007
-15.60587 50.90489 5.987258
-13.94741 52.70957 10.24377
-13.47636 52.8959 10.86131
-15.15756 48.86947 8.020635
-12.18876 52.32066 12.24875
-13.75479 49.65354 10.62036
-14.79661 52.66209 8.846215
16.27455 54.73656 3.89917
15.50835 53.55227 5.299072
14.62197 38.12689 8.074721
13.10862 32.83169 12.58203
14.7984 31.37099 7.476585
14.20642 30.59301 9.876669
14.92168 28.22194 7.10496
15.10462 31.82257 6.477424
13.54879 28.38389 11.85901
14.68252 27.49212 7.978288
14.64514 25.64357 8.146218
14.71615 22.66078 7.912911
13.74132 26.74321 11.47914
-15.7066 53.45622 3.814626
-9.021245 109.4162 10.26179
14.57184 18.24646 8.457163
14.12405 19.83206 10.26155
14.36586 17.35586 9.31324
13.52167 21.31836 12.14615
13.19102 18.857 12.98565
14.19858 21.29708 9.967031
13.95179 20.75068 10.90418
12.88288 16.14347 13.7338
13.1869 14.81372 13.21519
12.37139 21.39831 14.16253
13.77459 25.33358 11.40745
15.06057 19.01204 6.943607
-6.489614 27.99662 14.74743
-3.409145 29.08198 12.13428
-4.151916 28.69721 13.19242
-2.365359 27.99564 10.31116
-4.987508 31.355 13.86401
-2.325971 31.64897 10.43114
-3.111827 29.59636 11.63983
-7.945384 32.09017 14.7676
-0.3995013 29.25584 8.72638
-2.959779 32.45552 11.43146
3.891763 26.48228 9.887145
-0.5691214 31.25652 8.905914
2.525161 28.66241 8.752938
3.442322 26.0336 9.348404
-11.15751 32.65966 13.67414
-14.60504 39.68048 9.46883
-15.56597 42.94942 6.459479
-14.85243 43.87819 8.871634
-12.90268 40.69077 11.96916
-14.31319 44.6594 9.908789
-12.27378 44.16104 12.47761
-13.23773 46.88662 11.3864
-5.984448 45.87512 14.03825
-8.875424 40.83986 14.33776
-9.926125 38.13992 14.11697
16.66059 66.97916 2.804812
-14.45598 59.27464 9.281938
-13.32356 60.60415 10.82915
-14.60809 64.28352 8.823771
-15.07999 70.98479 7.397467
-6.90586 61.25651 13.61866
-15.25943 69.56535 6.960292
-14.5355 67.96952 8.780917
-13.88467 63.87669 10.03079
-8.971006 59.59109 13.55318
-12.41739 82.00242 10.98984
6.160817 27.79535 14.06583
14.70004 79.70485 7.680752
2.509137 82.7334 11.64108
-13.21862 17.32366 12.09233
-1.988295 104.9906 13.15814
0.4006638 108.2483 13.16896
-1.801313 107.4979 13.25116
4.820941 102.4447 12.27219
1.921737 101.3809 12.65008
4.052951 93.54706 12.00872
14.41477 47.44779 8.879668
14.40005 46.85189 8.949172
-11.25983 102.2627 9.146224
15.99707 68.42184 3.915867
15.48004 69.40459 5.077823
14.86314 69.48933 7.284513
14.31865 70.4755 8.948523
14.22836 69.41271 9.138313
14.79068 67.06328 7.525246
11.62392 70.1895 12.32872
13.89006 72.24159 9.714433
14.54668 66.17097 8.334499
13.12195 74.18121 10.76657
-7.779437 106.27 11.44245
-4.565604 106.8603 12.69701
-5.73096 105.8199 12.2988
-5.957252 101.2863 11.87808
-3.303019 91.34629 12.0882
-9.296758 87.61677 11.74996
-4.551644 92.04684 12.01779
-7.478211 89.84968 11.78659
-8.612655 88.55988 11.74141
-7.47848 80.42324 12.57314
-12.1595 83.05935 11.10089
-11.98744 83.7141 11.17198
-12.48926 84.39336 10.79607
-14.29229 79.98039 8.740037
-12.1404 78.3504 11.3312
-12.55384 78.48768 10.98451
-14.69353 74.03809 8.160413
-9.145391 78.85538 12.52271
-12.66784 86.04228 10.518
-15.56527 48.47416 6.37015
-14.34662 48.02461 9.752646
15.75604 51.62852 4.855572
15.12537 48.66909 6.215128
14.70805 51.2082 7.672188
14.39742 51.0976 8.913094
14.18872 49.48685 9.65335
-2.456532 37.17163 10.81849
13.5889 43.21641 11.31082
11.95223 42.78567 13.54248
16.13069 28.22505 4.628048
15.04682 24.56077 6.771101
-8.058239 106.6226 11.29354
-3.259387 33.3565 11.91926
-7.444784 37.65712 14.59699
-7.419144 33.35329 14.71201
3.494541 28.95583 9.495872
5.269623 29.94891 12.62488
5.098505 27.31763 12.32334
4.833677 26.38412 11.72656
5.109026 25.49203 12.32984
-12.52668 32.81441 12.60591
-10.59616 34.40428 13.93025
-12.12466 40.7093 12.74
-12.20602 46.46321 12.43583
-10.13094 47.33197 13.69192
-10.99185 46.86813 13.29853
-8.642457 42.46342 14.30363
-4.067879 51.73605 12.71115
-9.244617 47.2164 13.97542
-14.3159 75.24145 8.921677
5.694186 23.90335 13.5656
5.089569 21.76395 12.33844
5.603058 19.45562 13.5768
5.979373 20.41647 14.16256
8.04178 19.12371 15.69576
7.978503 25.58052 15.36872
7.991943 20.43761 15.61619
5.985878 27.69522 13.81273
6.594615 30.25439 14.33346
8.447705 25.28031 15.56771
13.59658 35.68918 11.53806
9.722071 25.38401 15.54249
15.20622 80.26778 6.023809
14.29423 77.62025 8.771146
13.77544 77.35789 9.691568
12.57854 75.07043 11.26189
13.21451 71.70128 10.78015
11.92723 73.61422 11.89562
11.2185 69.50282 12.61498
10.96332 64.1349 13.05485
12.97405 67.61531 11.33382
6.502472 78.96829 12.59955
5.748137 100.2657 11.89317
1.723416 98.43539 12.39572
-1.95704 104.4378 13.09902
2.392544 100.8123 12.53571
-0.3590223 95.47344 12.26749
-0.05886533 101.1813 12.70234
-4.944865 101.0319 12.11999
3.017638 94.44725 12.10159
1.827273 93.07121 12.11152
-4.591423 96.88306 11.997
0.7650322 101.8786 12.77777
-0.9835525 91.75713 12.11138
-2.687217 98.0795 12.30263
-0.5857224 90.66699 12.06471
1.502298 90.32519 12.00679
3.782516 93.83775 12.03649
-0.5337642 87.1078 11.90999
0.3956941 89.4504 11.98381
2.312199 92.14918 12.06426
-1.715116 88.03175 12.01505
-5.039049 109.0397 12.41484
-14.73762 72.80984 8.154579
-13.4512 74.38191 10.23119
-11.97401 76.25311 11.52481
-9.301452 79.68238 12.44647
-11.71828 80.83936 11.47372
-9.747529 79.19255 12.38593
2.297215 84.43146 11.73835
-9.601386 80.68012 12.3353
-12.21581 73.29269 11.48172
-13.41101 72.06969 10.399
-12.14292 72.17913 11.57173
-7.86496 73.05375 13.02446
-14.53361 69.49371 8.735766
-10.6695 68.60102 12.55061
-12.31894 65.20884 11.6845
-12.21139 68.06606 11.63913
-14.36134 46.1961 9.782927
7.565735 35.12367 14.83013
10.19467 44.76207 14.52101
11.6796 29.21008 14.36552
-6.581572 38.62661 14.40389
-7.915395 38.91978 14.52393
-3.059335 37.02272 11.63898
-6.075615 38.37937 14.23622
-8.063748 35.14685 14.6321
-6.218295 34.40826 14.46133
-4.886265 39.63033 13.59779
-4.897741 38.12827 13.66947
-3.545476 41.0654 12.29711
-0.5110025 32.97102 8.938746
-4.953974 34.39337 13.7777
-0.6734154 34.02406 9.065684
-0.489475 37.99314 9.155052
-0.4798265 36.05508 9.049315
-3.547198 48.32302 12.25412
1.544459 37.71083 8.93696
-2.725328 41.08842 11.22394
1.605026 35.37701 8.777015
1.22357 37.98006 8.897382
1.546569 33.97128 8.724548
1.232549 32.81332 8.587857
3.102394 34.64167 9.516315
2.182487 30.66526 8.686333
-8.70889 30.73414 14.73433
-8.179839 46.05804 14.23576
-8.238468 51.30175 14.03601
-5.7095 42.58114 14.01774
-7.380323 49.06914 14.12458
-5.428236 50.53216 13.61405
-4.264935 41.22621 13.0047
-6.678584 42.27979 14.28927
-10.1647 50.90794 13.53026
-12.99094 47.86928 11.63054
-11.39374 51.18855 12.87309
-9.525174 53.961 13.63911
-6.352906 55.96103 13.75068
-9.851005 55.05511 13.47256
-9.860213 59.71159 13.26957
-11.24514 57.97623 12.70492
-14.2463 55.63036 9.694727
-8.940626 60.19698 13.5325
-13.23784 56.46638 11.06915
-6.952942 54.07149 13.88908
-12.06197 61.2328 12.04275
11.08112 28.38897 14.92102
7.861745 33.59348 15.01022
13.85906 32.23133 10.96733
8.508385 32.57241 15.32097
14.22071 33.23444 9.711577
7.281677 35.44872 14.67548
13.89755 34.27525 10.81381
14.06336 36.06876 10.23075
13.12501 39.07816 12.28872
12.57472 39.14382 13.01178
11.92403 38.5206 13.71588
4.559207 33.60705 11.24741
4.496395 38.5439 11.18145
9.961438 35.62057 15.00481
12.55741 33.70045 13.33465
10.85754 32.29769 14.80684
5.997025 35.69707 13.5402
12.0323 35.71588 13.7924
10.68668 39.81928 14.53295
5.562214 35.7687 13.00408
8.309384 37.60411 15.00995
7.179957 39.4594 14.44801
13.20318 80.72382 10.30565
10.29875 80.02761 12.2653
10.62411 82.74457 11.94295
12.42251 80.26052 11.10812
10.97075 80.96729 11.91277
9.642227 81.92587 12.28782
9.216838 81.35902 12.4135
14.14269 66.69982 9.413951
9.009465 85.39684 12.08855
-1.192355 98.72285 12.44819
3.457572 90.99618 12.00913
2.924958 89.32288 11.97619
4.379447 85.30067 12.00384
2.814602 84.41373 11.78827
3.621139 85.93128 11.93408
-0.4990265 86.86682 11.89444
-1.409338 83.99676 11.85326
1.651661 83.33398 11.60372
-2.887131 87.00087 12.07841
-1.286852 86.8239 11.94701
-4.793285 86.05765 12.19142
-8.859479 82.67284 12.37173
-8.649778 81.44647 12.44714
-6.080967 85.5342 12.22346
-4.541111 79.47609 12.44546
-8.015858 77.36424 12.74633
-3.24939 78.76299 12.17447
-6.524145 77.23843 12.79174
-8.105135 74.55385 12.90792
-2.898322 78.26319 12.05504
-1.070707 77.72063 11.43169
-1.170444 78.49385 11.49178
-7.004848 76.92654 12.81581
0.7455803 80.64337 11.3983
-4.999282 75.27262 12.70854
1.85443 81.17671 11.42304
-0.3884564 79.37109 11.41484
2.696656 79.32607 11.4747
2.868447 77.53404 11.42961
-2.859708 96.8492 12.21963
10.26404 46.40455 14.41427
0.08359825 44.07225 9.280106
-5.727963 59.17595 13.46664
-5.266359 45.91993 13.61176
-7.92236 57.29855 13.80932
-5.898831 53.28991 13.73623
-10.29749 61.62965 13.0108
5.090638 45.3823 12.23902
13.72523 63.12646 10.41298
12.11477 67.06644 12.16145
7.465448 82.21396 12.48733
-3.444968 78.14653 12.23635
-5.296456 74.6954 12.79291
-3.556685 74.57463 12.28095
-5.521015 73.56921 12.88081
4.946096 80.78683 12.14263
6.017024 75.68974 12.61905
4.394001 74.37704 11.92861
6.398621 76.26816 12.70977
4.633628 72.59879 12.05233
5.025067 73.27836 12.24355
-0.388242 75.7029 11.15141
-2.129181 73.09267 11.62141
0.08352164 72.31491 10.8285
0.5217012 71.43847 10.72164
11.51382 47.41947 13.71661
1.385395 39.38712 8.964451
1.075621 42.92234 9.143694
0.7678238 40.90214 8.986132
11.79434 48.02394 13.42874
-0.6028951 41.43901 9.419152
-0.6332288 47.2076 9.703228
2.901709 44.97372 9.884897
-0.556172 46.00345 9.620897
-1.083661 45.57489 9.836377
-2.222594 45.16426 10.77959
-3.549633 41.3746 12.29632
-2.402825 47.03764 11.02076
-3.314876 48.4831 12.02195
-3.921427 48.44898 12.61944
-3.389496 51.85795 12.138
-4.016848 46.73663 12.68728
-1.288325 49.57058 10.18214
0.02908775 51.39536 9.685115
-4.280371 50.96744 12.87661
-7.441061 59.01308 13.72765
-6.066363 56.93686 13.62773
-2.076453 56.53497 11.04359
-2.604538 56.3265 11.44439
-4.266963 58.69321 12.78154
-3.436055 64.66584 12.21509
-1.367874 59.53544 10.72291
-2.155378 59.92011 11.21542
3.54759 35.04812 9.900597
5.686328 38.88423 13.10703
4.431171 38.1589 11.05894
13.20212 61.01566 11.32039
14.50939 61.17304 8.421068
13.51573 61.68942 10.87778
14.48738 61.90813 8.489203
10.22227 64.63214 13.39019
12.59666 60.33122 12.07351
11.79006 59.17776 12.84447
-11.15247 66.95746 12.37337
-6.777637 71.34919 13.14317
-11.53876 68.2447 12.10958
-3.527343 70.31815 12.29609
-11.74402 66.39199 12.04984
-6.899267 69.33402 13.25508
-5.744781 68.22316 13.15688
-5.344016 65.05831 13.13941
-1.530028 65.90172 11.04912
-4.69977 71.63907 12.73978
-10.73458 65.2026 12.63573
-8.654003 62.93715 13.40822
-5.128353 68.72215 12.96545
-6.78812 67.23533 13.37282
-6.114636 65.33395 13.36328
-3.211748 64.87132 12.07184
-3.817817 65.5455 12.43596
-3.498178 67.83791 12.27383
10.00977 62.49394 13.60284
4.594705 70.01161 12.01645
-2.15103 64.41209 11.36419
0.1020587 58.41027 10.01682
2.077528 60.85183 10.23738
-0.6603709 54.33046 10.1039
-2.199151 55.76187 11.09249
-0.9523659 60.98397 10.5333
0.3990522 53.6163 9.665686
4.117213 40.87466 10.78711
4.707187 42.31377 11.64523
4.378708 45.89989 11.27409
-4.681334 47.98302 13.19857
1.848186 53.27099 9.84568
3.142394 53.57804 10.42796
3.03453 56.16549 10.48975
7.760817 50.20605 14.22672
13.11528 52.36403 11.736
9.706028 48.67084 14.40772
11.49567 50.97079 13.51696
13.09084 53.95929 11.74813
9.627567 51.77628 14.27635
10.73657 59.38993 13.48497
13.31269 57.01904 11.3258
11.21037 56.41621 13.41645
14.59428 55.9408 8.121037
15.69239 55.0012 4.878368
8.627312 55.79766 14.13676
6.548223 55.35843 13.49405
9.620133 58.56836 13.86284
7.722819 58.09918 13.86222
14.71719 59.19677 7.733708
6.340945 56.82431 13.32099
5.43848 46.83892 12.68819
5.6699 52.02871 12.90212
2.559475 48.42202 9.855947
3.595898 50.29818 10.62455
7.891585 59.4179 13.83914
4.868532 59.70247 12.1083
4.630827 55.86377 11.81128
4.23663 57.41566 11.48197
0.4504885 64.42549 10.33976
0.2982029 70.43104 10.67962
1.708308 66.45562 10.4799
2.875135 69.90646 11.0264
2.643646 67.11725 10.77717
1.228056 62.95795 10.27938
2.120683 60.36477 10.22154
1.763251 62.51884 10.30541
8.623166 66.92583 13.50957
9.513116 69.30622 13.27645
5.676587 69.39716 12.61484
7.841059 66.79651 13.45909
6.338535 61.49911 13.20049
5.255776 72.25346 12.35991
7.634091 73.64145 13.07724
5.740138 69.93935 12.63314
5.731647 66.83033 12.71296
9.417541 64.35266 13.62722
5.656018 67.53272 12.63857
8.38184 60.45766 13.86995
2.942098 57.51728 10.46954
13.82153 56.57083 10.43621
13.83468 58.19518 10.34763
9.039231 50.31465 14.33671
14.0218 57.55178 9.921732
3.656956 49.21974 10.642
5.618526 49.58464 12.85915
5.664169 47.50454 12.92381
5.433582 44.00709 12.70772
6.893627 47.08849 14.00029
7.014361 45.98933 14.11612
5.581538 46.34727 12.85513
3.292324 63.91194 10.95163
8.164781 59.14024 13.91904
8.976736 60.18108 13.88049
6.181807 62.43674 13.09668
6.654769 63.4836 13.2725
4.470392 65.0097 11.8727
5.857889 59.04742 12.9772
4.209463 62.71024 11.61553
12.26706 24.54847 14.08784
1.283396 111.9296 12.9631
11.207 25.11685 14.99747
9.696594 24.92454 15.55135
11.31849 42.39134 14.02494
6.144011 43.60641 13.50471
8.354873 42.40113 14.75735
6.99066 43.91003 14.21404
7.978825 45.12188 14.55212
10.99386 43.64924 14.2022
8.621165 41.68734 14.83333
8.05579 75.93839 12.93412
8.512663 75.64505 12.95005
8.922924 74.43007 13.00296
3.65296 63.39791 11.18912
19.13938 13.0789 0.3727459
18.60536 15.03878 0.05142689
19.77903 20.505 0.6166868
-7.561215 121.6659 -3.984854
-7.331739 106.9225 -5.497889
17.8306 39.0952 0.3008389
10.38726 118.9916 1.849276
16.26808 54.71408 -0.2000344
-8.744793 119.7919 -3.106955
17.16892 13.11272 -1.163195
12.18692 12.05039 -9.618855
3.827087 10.71882 -11.00701
7.236915 13.01542 -11.99829
13.16881 97.4181 -1.062091
-13.30391 99.10315 0.1222424
1.084209 103.4638 -7.802361
10.54514 96.03098 -6.694369
-11.65854 97.05236 -4.530391
-5.385063 98.66154 -9.390563
5.977457 102.9271 -7.881587
5.514033 103.5697 -7.690892
6.687923 105.0706 -6.632741
-6.932042 99.14588 -8.86619
10.60088 97.89968 -6.198337
-6.768499 100.3514 -8.572163
-4.466168 87.21318 -10.04439
10.82285 121.714 0.884177
2.710124 100.331 -9.028217
-6.913695 102.579 -7.789322
6.241171 100.5953 -8.70173
4.225153 111.5309 -5.41302
5.413665 98.84844 -9.407558
4.283377 103.0242 -8.089216
7.873146 123.4911 -4.477237
5.122067 115.8859 -4.954827
-2.311505 99.80692 -9.134445
5.473854 101.2971 -8.684954
-4.908334 121.7783 -4.615557
14.53047 10.1616 -4.994504
-4.00011 121.3595 -4.653638
4.208108 120.5976 -4.567383
5.671701 119.0388 -4.644148
8.391306 96.90843 -8.62724
4.341481 109.0819 -5.713676
-16.72828 78.3053 0.8810676
6.910194 98.14566 -9.086766
-17.63337 26.75095 2.310925
-17.49366 27.20017 1.870557
17.88143 24.07143 -0.2480686
16.75403 11.47329 -1.661079
-15.91784 54.50858 -0.9140854
-15.91179 58.11822 -0.7479454
-15.70223 29.48653 -3.200964
-16.89548 42.09013 0.5265945
-4.441867 108.6418 -5.649546
18.30367 41.04523 0.665902
8.64141 93.78142 -8.822136
4.474147 97.29418 -9.738794
0.4635148 102.976 -8.033225
8.798797 101.6368 -7.000706
-5.076035 101.6683 -8.613074
-3.102051 99.93584 -9.182884
-6.632556 117.9771 -4.307809
-5.811041 111.7828 -5.074831
-11.72888 110.158 0.8355209
-11.69182 109.9534 0.4626432
-13.10476 101.6261 0.07525615
-7.050422 100.0163 -8.54882
-8.789769 99.89811 -7.606967
-7.112306 95.56197 -9.556718
-3.385742 101.6801 -8.585058
3.839834 104.9834 -7.059363
3.468795 104.0225 -7.550462
5.133654 96.17718 -9.930749
8.683006 110.4592 -3.2512
9.426373 114.8908 -0.4238481
9.839727 118.316 0.202599
9.013225 124.4976 -4.357838
-1.35432 105.466 -6.822097
-5.195143 117.2322 -4.486416
6.431443 121.7431 -4.502147
-16.9433 17.74619 -0.09770454
-17.64663 9.660601 2.072793
-1.772978 121.2208 -4.715641
-9.490477 116.5705 -0.3209364
-11.03244 122.3856 1.219056
-7.13666 113.0331 -4.433563
12.12802 100.6824 -2.881253
-14.10344 93.19102 -0.5134523
13.9388 93.22182 -0.93485
-9.009153 106.7572 -4.865077
-8.546547 103.8335 -6.455309
-9.981312 104.5241 -5.103117
-12.56006 100.305 -1.850332
-13.00124 102.2802 -0.249079
2.037493 98.31895 -9.332486
-9.341793 98.10947 -7.624548
1.849846 102.1673 -8.390905
-2.203035 98.53553 -9.34414
18.16653 15.81132 -0.2200236
18.01613 11.76733 -0.4265212
18.11787 37.84057 0.4520667
-2.345184 11.14891 -10.07701
9.398219 69.22375 -9.239793
7.655355 107.6066 -5.115719
12.58932 106.2488 -0.3562156
11.22228 106.0219 -3.264626
8.512387 117.3564 -3.235562
10.41327 113.0414 -0.1380906
10.90091 121.5292 1.437938
7.700269 116.9324 -4.303574
0.7179211 109.5142 -5.639744
-0.03889459 108.6102 -5.788732
-5.475659 109.7234 -5.390357
3.877363 122.0638 -4.837392
-9.424654 11.52907 -10.18401
-7.811535 12.01151 -10.57555
-16.98977 10.11885 -0.1501684
-5.060633 121.2084 -4.454926
-10.86887 119.7671 3.738834
-8.962412 118.6441 -2.672508
-12.56614 106.0774 -0.7102377
-6.832258 107.4389 -5.460711
-14.1716 92.65303 -0.6431897
-13.6137 97.61999 0.4171605
-12.85405 99.03299 -1.18336
14.21594 92.32089 -0.6412113
12.81023 87.64207 -4.113827
-9.555773 101.5131 -6.496606
-12.80902 102.8036 -0.9946001
0.9178906 99.35969 -9.076939
-9.931713 94.71954 -7.64955
-1.364146 97.9669 -9.268593
19.24434 14.52349 0.4368085
16.09168 12.59697 -2.392128
14.67893 10.97554 -4.662879
17.98308 29.44903 0.04288502
12.17289 16.06466 -9.360481
-16.72565 43.57046 0.1706666
-17.0919 28.78679 0.6121902
-13.23905 62.30013 -4.726676
6.820052 110.1563 -4.768997
11.82987 109.3822 0.3605105
10.68382 115.9598 1.827477
10.28368 115.0033 0.9308819
10.33296 123.2591 -1.992973
10.7318 120.6709 1.694927
8.897005 120.2666 -3.310278
-5.422924 113.6074 -4.881699
-4.973211 108.6284 -5.619224
-3.788796 116.562 -4.625467
4.897215 118.1232 -4.707073
-4.429392 11.55978 -10.47169
-14.52771 12.58244 -5.650602
-17.89987 20.5778 3.128537
-17.87289 24.00627 3.063845
-16.52375 15.55239 -1.428128
-7.274162 120.057 -4.045104
-11.9106 109.708 0.9807966
-7.366628 109.9864 -4.32935
13.005 100.8375 -0.5921803
-15.10063 86.66503 -0.4404694
-12.23755 97.66482 -3.144072
-13.41266 98.29242 0.1321189
13.74961 94.02522 -1.009423
13.41281 89.71951 -3.108474
13.98455 83.09051 -2.444941
-11.27797 101.0303 -4.562496
-11.98015 107.7097 -0.9948395
-9.433461 92.89463 -8.279846
18.78481 21.06706 0.2254829
17.70568 15.031 -0.6443484
19.22893 17.69856 0.402767
14.54675 16.95573 -4.963417
15.68268 54.21525 -1.032363
17.16958 28.32951 -0.8049031
6.983992 10.71887 -12.02995
8.708793 12.84929 -11.9641
-17.02704 47.28516 1.010555
-16.89468 53.12053 0.8880066
13.52798 57.43715 -4.647357
-15.49222 64.49055 -1.144939
15.46578 69.39847 -0.3872236
9.73256 106.0558 -4.663094
11.54272 102.071 -3.938775
8.420268 115.7519 -3.014832
8.810952 115.9615 -2.053989
8.398819 117.9503 -3.516269
9.466843 118.7152 -1.543004
8.909123 120.4351 -3.331244
2.446418 107.8172 -5.983641
5.80233 116.8423 -4.863475
-2.857381 113.1124 -5.049079
-2.391337 116.2461 -4.726854
3.773092 116.8713 -4.807309
-0.1727418 118.1413 -4.66832
-9.762607 12.45017 -10.05283
-17.78699 29.09224 2.806215
-15.61934 12.00021 -3.705827
-17.57376 17.63046 1.995295
-17.33047 11.71508 1.023516
-0.06294072 119.1494 -4.630944
-9.855965 117.447 0.6060068
-9.503758 115.7579 -0.07908437
-6.492765 112.3688 -4.788262
-8.694084 117.4408 -2.891425
-10.28816 111.2046 -1.595664
-9.518051 109.5988 -3.143489
-13.13703 95.45827 -1.759563
-14.55988 85.01571 -1.413656
-15.39274 87.00343 -0.06966281
-10.41019 99.73167 -5.967916
-11.95448 94.29854 -4.657023
-16.20681 79.35971 0.2776693
14.26773 91.31409 -1.004754
-9.950704 102.5281 -5.783137
-9.95646 108.2336 -3.470886
-1.014958 97.10706 -9.180218
18.78785 18.46799 0.1740672
17.94242 24.95345 -0.1797425
14.54689 15.70224 -4.956955
15.16281 13.73479 -3.802658
17.07845 35.27343 -0.5945883
18.34843 42.42257 0.7141953
16.98608 29.98752 -0.9489565
11.70799 11.35984 -10.26375
4.363199 11.40062 -11.2157
-17.21416 45.92143 1.423517
-16.93621 55.02221 1.028216
-17.04323 39.64848 0.7988162
-17.50447 29.81763 1.911997
17.2303 50.78234 0.5070852
-16.77803 65.1717 0.9209307
15.22641 72.45593 -0.6033931
16.20732 64.49373 0.437269
8.500985 103.2893 -6.691652
8.56389 118.6416 -3.450928
-0.4233118 109.6061 -5.602818
0.4755316 113.2769 -5.128491
1.836776 111.3681 -5.394347
-3.842288 116.14 -4.665822
3.151957 117.6257 -4.726111
-1.526507 122.1596 -4.892176
-6.062376 11.67678 -10.62518
-1.79115 12.3876 -9.987571
-17.36796 23.86899 1.434712
-12.57211 12.58054 -8.022586
-16.09495 12.32592 -2.604769
-9.869769 119.1883 -0.5610754
-8.731364 113.9406 -2.051306
-7.804131 113.7611 -3.763085
-14.54097 88.71793 -1.119662
-14.29609 77.39013 -2.274869
-16.47628 73.34281 0.5446283
14.05204 86.37386 -2.229231
13.83828 85.33179 -2.624182
10.50436 93.09677 -7.138907
14.08737 83.35735 -2.260136
-6.338208 94.4713 -9.842247
-1.843971 95.86845 -9.553316
-5.566754 93.88523 -10.04175
16.24824 25.70519 -2.02334
14.3185 12.34536 -5.393961
16.21163 35.22478 -1.741793
17.02361 39.78319 -0.3433743
17.50876 45.89019 0.3948659
17.79774 42.52905 0.4075908
17.07165 27.33114 -0.9388437
1.491201 12.88791 -10.1681
-15.97348 49.46588 -1.108368
-16.43235 49.49471 -0.1989929
-13.24293 51.41549 -5.407079
-15.17018 49.1915 -2.594502
-17.09486 43.61845 1.081495
-16.48871 42.33622 -0.4657874
-16.40912 44.23531 -0.5443144
-17.61599 38.17573 2.352116
-17.18081 61.03146 1.571798
16.41744 59.45716 0.2757172
15.80617 63.43494 -0.2646642
16.62922 53.21594 0.1113202
-16.99233 63.53064 1.262315
15.18491 76.47283 -0.3434018
14.68874 73.84921 -1.550506
10.46506 108.9289 -2.56371
11.17355 106.7767 -3.008854
0.1524937 111.9192 -5.287638
1.310525 114.3394 -5.026663
-10.03708 13.14472 -9.922036
-17.33738 31.97542 1.39782
-16.56674 25.90571 -1.056372
-16.72949 14.4586 -0.8609208
-9.079696 117.26 -2.192533
-14.54741 87.51702 -1.207799
-13.158 86.19968 -3.588248
-14.13398 82.05918 -2.248071
-13.63052 82.39584 -3.016389
-15.04804 77.60238 -1.207299
-13.75196 75.30943 -3.204553
-16.29611 72.25094 0.2839037
-6.473616 92.51037 -9.824316
-8.418717 92.76775 -9.007336
17.16417 23.77591 -0.8912899
17.42977 33.25041 -0.3057125
16.31504 30.2458 -1.892687
16.07682 45.53599 -1.083137
16.69595 41.2571 -0.6085442
-14.7981 56.7946 -2.680914
-14.70247 52.06821 -3.16536
-16.75803 49.89515 0.4970935
-15.8304 46.21063 -1.618181
-17.29069 55.89047 1.73969
-17.40225 54.5983 1.952328
15.75189 51.76799 -1.073375
15.95629 66.53175 0.2055705
15.37908 52.54718 -1.601449
-15.63693 68.12273 -0.7691891
15.01972 80.07116 -0.449648
10.15209 110.9203 -1.670074
0.1841678 114.862 -4.943902
-10.87561 12.51763 -9.47188
-4.923293 13.13626 -10.5373
-16.88948 29.03791 0.004619256
-9.286153 119.468 -2.375413
-13.6562 79.96665 -3.099224
-12.818 77.69016 -4.499074
-12.0434 76.75202 -5.667628
-5.220198 95.00747 -10.0245
-7.927976 91.10281 -9.293202
-4.399353 89.75089 -10.0481
-13.55118 91.9194 -2.431716
-1.130324 91.65999 -9.538759
-1.369069 90.67931 -9.62799
13.85522 14.38777 -6.342214
14.75306 36.53457 -4.514352
16.14013 49.10781 -0.7003788
-14.59533 46.86256 -3.753953
-17.00471 38.35735 0.6462599
-16.25471 35.66497 -1.489363
-15.36922 62.87548 -1.412025
15.0004 57.04353 -1.943607
15.82257 61.83064 -0.356223
14.48851 55.04763 -3.010015
-14.17188 64.17646 -3.204185
-14.95832 62.5128 -2.077631
-13.23303 58.13844 -5.005064
-14.5998 65.30884 -2.476936
-3.276328 11.97823 -10.25883
-17.12232 31.21803 0.7261183
-11.21269 93.74696 -6.105015
13.9314 32.01904 -5.924946
15.34337 41.40364 -2.654379
-14.38683 46.10727 -4.156664
-16.55115 34.00618 -0.8443661
14.95298 65.09878 -1.568469
14.59054 54.63664 -2.847012
-6.927017 13.98484 -10.57954
-17.1067 27.63047 0.6523878
16.33345 29.47085 -1.85983
16.02725 32.26145 -2.325581
15.75577 39.59965 -2.049942
-14.52689 45.71814 -3.980417
15.4252 65.8224 -0.715807
13.98988 56.55537 -3.844279
-15.05742 67.28689 -1.675648
-14.38569 71.56178 -2.45747
-8.651085 14.77537 -10.36453
-12.02384 92.72732 -4.844316
-13.17368 93.08228 -2.727703
-11.82894 91.69881 -5.333363
14.28096 36.02358 -5.234201
15.07037 39.53824 -3.514011
15.20689 38.67312 -3.391006
15.35612 44.3928 -2.27837
-16.04751 36.19706 -1.962719
-15.9531 39.96806 -1.865223
15.14509 61.35637 -1.472897
13.27804 55.30719 -5.282464
-13.16028 60.88084 -4.931274
-13.27231 62.54783 -4.664608
-11.54443 61.94954 -6.945984
-3.314715 15.49463 -10.26987
-12.27546 90.74323 -4.715427
14.95877 37.85289 -3.99313
-15.13316 35.45837 -4.058779
-15.11996 26.55915 -4.302506
10.96424 51.91558 -8.802053
-12.13128 58.97469 -6.407161
-13.55454 55.62874 -4.683452
-15.76438 58.24508 -0.9941154
-1.196303 14.31868 -9.94056
-12.01043 87.78429 -5.249994
14.62663 37.99301 -4.505497
15.03374 29.50894 -4.253317
-15.53512 33.9617 -3.458098
12.77819 62.98761 -5.608962
12.78814 60.71148 -5.737181
14.47554 64.53172 -2.449691
13.46529 62.8222 -4.389601
-14.05384 55.74817 -3.93936
-12.78602 73.61457 -4.762666
-1.759001 13.35745 -9.991355
14.1679 34.88684 -5.467391
10.12044 33.69026 -10.37034
14.28636 37.59509 -5.095823
-11.89244 56.1714 -6.830959
-13.95437 56.02305 -4.070457
-12.43175 66.08691 -5.653796
-15.56513 59.35782 -1.275833
-13.16474 68.68219 -4.47311
-0.3412149 14.63953 -9.910677
11.91189 60.34002 -7.12045
6.192416 71.20801 -10.23679
-15.72076 56.63266 -1.147695
-11.23903 67.56712 -7.080527
-8.118067 86.59272 -9.189054
-10.96759 82.60701 -6.825739
12.36645 61.05576 -6.387698
9.604424 61.4247 -9.486243
-11.50555 64.59737 -6.898174
-14.57884 54.75496 -3.170244
-9.577445 70.79571 -8.529588
13.28932 33.69613 -6.762735
-8.667356 90.88049 -8.84747
3.316878 97.52738 -9.679661
6.087912 95.67289 -9.922813
6.783095 95.58283 -9.566185
9.393064 92.06902 -8.321486
4.269202 96.81949 -9.819306
9.893172 97.61959 -7.167596
8.118063 100.4734 -7.924651
11.418 97.16638 -4.985667
-10.29738 122.1701 -1.20473
12.63038 95.5954 -2.957209
11.72423 97.71761 -4.245864
-16.83377 20.54406 -0.3770479
-16.91077 19.59192 -0.1617325
-16.80663 17.12126 -0.5471597
-15.89785 17.03339 -2.9733
-15.50326 18.65672 -3.785163
-14.86147 14.78295 -5.048898
-16.63962 22.41083 -0.932261
-15.99743 20.66286 -2.659611
-16.27497 25.59198 -1.879601
-15.8755 24.98512 -2.839907
-11.09899 18.69795 -8.978659
-7.971674 107.3755 -5.059026
-10.06325 107.1723 -3.932244
-11.70531 107.5378 -1.681269
16.38937 17.26101 -1.973917
6.997467 112.4345 -4.608905
-0.6198235 120.7685 -4.694479
-9.26596 111.1145 -2.536888
13.01091 94.24939 -2.63267
12.0076 94.77117 -4.441083
12.22121 91.01207 -4.785923
9.465525 92.61854 -8.239901
9.877231 89.54655 -7.939661
9.381498 87.11033 -8.429434
9.948708 90.23573 -7.865761
-0.08020349 82.0042 -9.757134
10.71542 86.06787 -7.201381
12.6479 93.90225 -3.45041
6.406285 90.62863 -9.836678
12.03853 87.54827 -5.28309
0.3051826 90.08326 -9.490457
-2.408639 87.10944 -9.887636
1.028133 87.11497 -9.687518
1.501763 88.21909 -9.715192
2.639779 87.92466 -9.909444
-2.868786 82.29316 -9.962337
2.484078 82.78759 -9.95595
2.789486 85.34945 -9.96161
4.809028 86.75927 -10.09007
0.831543 83.56594 -9.754736
-3.693064 82.71358 -10.03137
6.029245 87.43953 -9.985378
4.148927 89.42384 -10.08229
-2.88667 81.90056 -9.966263
-4.383747 83.33012 -10.05783
3.881302 91.25956 -10.06448
4.602445 13.21702 -11.28995
2.853266 15.76218 -10.54702
3.226732 18.66627 -10.6548
5.806135 15.73004 -11.63195
14.11763 73.18655 -2.639833
9.997069 100.6922 -6.196076
9.603815 98.06535 -7.415628
9.353003 106.8217 -4.636234
8.359012 106.8837 -5.134607
11.66154 85.2772 -5.963977
10.30315 83.64398 -7.746625
8.602063 83.57678 -9.122586
15.72221 23.47508 -2.882226
15.82701 22.39714 -2.709054
11.9507 29.03212 -8.884262
14.66967 26.55303 -4.812405
11.73524 82.39873 -6.034245
13.86777 76.20697 -2.950756
-8.856454 13.46159 -10.32787
-13.13503 81.96069 -3.807309
-12.86406 83.29774 -4.16459
-12.00072 79.50541 -5.604126
13.55462 49.18354 -5.267381
14.18709 49.60221 -4.034405
-11.78683 13.59242 -8.713096
-11.36805 82.32476 -6.343832
-12.10048 78.92784 -5.486676
-12.23733 78.52453 -5.314277
-10.2628 77.4546 -7.764837
-13.27431 72.93144 -4.06759
-12.14113 74.36883 -5.63643
-9.205654 77.60236 -8.64527
-13.52484 75.26422 -3.552565
-11.39727 75.51005 -6.571236
-10.90445 73.2081 -7.235942
-9.457072 73.84954 -8.539806
-8.327961 72.56001 -9.240856
-13.52766 72.0653 -3.729179
13.32733 15.92352 -7.382733
-16.48869 40.75122 -0.557018
-13.27151 43.08575 -5.887285
-12.52961 42.93348 -6.746119
-14.39148 37.39332 -4.935639
-13.65892 38.51831 -5.700991
-11.2341 40.70224 -8.064882
-11.19623 38.90441 -8.141556
-14.0726 42.16881 -4.924547
-10.83262 42.23805 -8.337394
-13.56283 45.90485 -5.339931
-10.38121 41.35924 -8.695681
-8.896808 44.02956 -9.565481
-14.7504 34.21421 -4.690001
-8.182886 42.8105 -9.881557
-12.34449 45.68474 -6.813119
-12.2989 46.52827 -6.826108
-10.11375 43.20633 -8.852365
-12.37946 36.41835 -7.151264
-9.379555 40.98552 -9.393057
-10.11098 36.04962 -9.031876
-7.26845 36.32305 -10.23172
-8.951826 45.53465 -9.49949
17.39519 32.10722 -0.3867984
14.73569 69.69236 -1.695328
14.44461 67.992 -2.316971
-7.72304 16.28062 -10.48318
-9.144061 17.91134 -10.09313
-10.13824 15.12983 -9.788256
-11.40145 14.34785 -8.983075
-16.03691 38.43038 -1.808708
-14.11724 35.35165 -5.365151
-14.86372 31.01798 -4.632692
-12.69247 32.73593 -6.99165
-12.16975 33.05328 -7.486648
7.108406 51.39408 -10.73149
13.55378 60.00203 -4.412746
-6.206552 48.80474 -10.2313
-11.24468 53.2347 -7.613682
-11.02687 46.9387 -8.031589
-10.24718 46.5336 -8.657838
-12.27326 50.28432 -6.672339
-11.56384 47.43888 -7.547108
-9.347398 46.43666 -9.24975
-14.41873 48.05667 -3.932822
-9.365814 89.15945 -8.324398
-8.768063 87.659 -8.763476
13.61405 63.84808 -4.053181
13.97384 64.25862 -3.375826
12.7685 66.99114 -5.346826
12.44473 68.65606 -5.783273
3.043382 75.23551 -10.13183
-14.13558 51.78891 -4.079981
11.1133 53.89243 -8.554138
-3.629783 44.92158 -10.25271
9.743951 53.70415 -9.733961
2.023353 94.17771 -9.672625
11.18878 99.88535 -4.796965
-14.54057 20.93789 -5.360495
-13.49664 15.56322 -6.90693
-15.86636 30.02257 -2.802256
-14.18918 28.10595 -5.57849
-15.34963 28.77702 -3.891443
-12.94764 30.73158 -6.822554
-11.56955 31.85628 -8.082416
-11.34166 30.47449 -8.33206
-12.53433 26.62507 -7.429355
-12.05573 27.72873 -7.820495
-9.891533 29.59872 -9.360364
-9.467344 25.93393 -9.71699
-10.2516 25.20998 -9.294691
15.71185 15.44238 -2.872693
9.686151 14.77147 -11.58187
8.676466 90.49245 -8.858727
9.818722 85.85701 -8.11666
6.895082 90.57508 -9.713413
4.395444 92.28572 -10.10764
5.52081 85.1838 -10.07094
-8.751786 82.92712 -8.848393
-6.75797 86.01959 -9.748628
-8.409435 84.57532 -9.036677
-5.670712 80.12624 -9.978005
-4.395654 86.47588 -10.02312
-5.778441 80.97184 -9.962688
-3.762608 78.80787 -10.05097
-7.007883 78.56695 -9.721094
8.611262 17.83547 -11.79748
12.86964 79.15524 -4.467835
9.698152 81.28996 -8.439945
7.371415 84.3408 -9.690609
8.288346 86.32562 -9.195743
5.783041 86.17413 -10.04322
3.855663 88.17297 -10.08217
4.93692 74.67947 -10.27606
10.57219 78.49069 -7.713005
2.676094 79.74132 -10.02556
2.203896 81.43262 -9.945465
5.238655 78.8451 -10.18722
6.526773 78.86869 -10.0654
10.27083 78.50571 -8.038481
6.373286 77.91068 -10.0966
1.468763 76.66994 -9.933356
4.034657 76.69055 -10.19685
7.319705 75.91892 -9.901856
7.7363 76.70228 -9.770619
12.7264 15.97867 -8.503809
12.70144 77.91927 -4.80203
12.41271 79.59731 -5.168268
12.5575 82.43562 -4.779851
12.74549 81.01736 -4.566329
-12.69221 13.35949 -7.848549
-13.40447 20.39276 -6.810359
13.87893 16.84124 -6.279932
16.43543 22.02954 -1.807773
16.02545 21.80691 -2.390081
15.26134 21.79066 -3.671988
-8.787684 45.04319 -9.584305
-4.282966 40.9335 -10.32677
-5.546514 38.56942 -10.38153
11.66255 48.77806 -8.18473
11.90932 56.88185 -7.346502
13.00408 53.42379 -5.907525
11.40063 51.54761 -8.349582
12.05181 50.88271 -7.562382
13.86009 49.52726 -4.665785
14.47423 47.04375 -3.729691
11.90951 48.97744 -7.861514
13.17121 50.92171 -5.800151
11.44281 45.05243 -8.650096
9.592597 46.95175 -10.12291
12.03493 45.4642 -7.887177
14.05363 39.48525 -5.266785
12.581 41.67656 -7.346593
13.03394 43.8312 -6.537801
-9.798464 51.90002 -8.843663
-7.064858 89.82675 -9.631986
11.25289 68.52129 -7.519492
11.04929 70.32818 -7.662084
11.37499 67.2744 -7.432671
10.79431 67.31603 -8.131807
11.84478 74.31726 -6.328797
12.15904 73.06412 -5.934249
12.56012 72.20622 -5.362348
10.50839 74.13153 -8.033133
9.058885 73.8432 -9.263622
9.020885 73.08088 -9.3401
7.748129 73.3957 -9.871325
2.724356 52.57821 -10.31792
5.194758 56.44734 -10.6249
7.667758 59.23031 -10.34394
5.593835 59.75368 -10.5685
8.234478 60.40168 -10.13992
10.10532 51.58773 -9.586631
5.064131 52.48278 -10.68744
-14.31323 21.74277 -5.644715
-12.61373 23.26195 -7.494611
-12.30709 25.44269 -7.6954
-10.34998 21.87401 -9.380012
-13.21591 16.8059 -7.176941
-13.17542 18.34903 -7.145275
-14.74363 16.62502 -5.173873
-15.27822 16.19719 -4.27738
-8.082296 33.59932 -10.05672
-7.727118 29.15575 -10.24595
-8.911905 24.52549 -9.986992
11.31176 14.84107 -10.46921
8.885222 14.01479 -11.86153
12.35789 20.2756 -8.850019
-8.643267 79.67485 -8.974239
-8.632193 74.76009 -9.055119
-6.589312 77.51119 -9.841774
-7.821166 77.00539 -9.436221
9.150777 23.46202 -11.36183
7.385107 19.85462 -11.855
2.45493 18.5707 -10.39975
5.599781 21.76241 -11.43004
6.2504 23.32139 -11.55802
7.519351 23.54238 -11.72005
5.315784 23.56014 -11.31769
9.455378 23.01445 -11.24783
5.89721 26.54125 -11.3852
6.764462 27.15185 -11.51949
11.64051 25.03826 -9.470124
12.33266 31.89425 -8.240651
5.444705 27.43786 -11.27386
4.65493 25.25939 -11.07913
13.05401 29.15276 -7.358811
-1.276249 26.38735 -10.00227
11.15321 30.94317 -9.648019
14.49008 24.92878 -5.101204
12.74339 24.16829 -8.086537
8.647716 32.31 -11.19573
4.186679 27.45927 -10.89415
12.86091 24.88882 -7.866032
9.27767 31.47774 -10.96961
13.24387 21.63465 -7.377164
11.59366 24.49454 -9.556085
9.435101 23.92891 -11.25321
9.916743 25.33929 -10.94666
8.443617 35.95261 -11.05607
10.86355 29.33857 -10.00643
12.7304 21.14819 -8.238648
12.65618 18.52164 -8.477991
11.04988 18.80443 -10.45468
8.769979 33.23206 -11.10626
5.749105 32.46918 -11.21866
6.608558 33.64238 -11.3309
10.30065 43.27074 -9.820964
10.07252 32.75178 -10.45334
0.4296103 79.92247 -9.807939
1.429553 81.45275 -9.856812
-1.662136 82.03699 -9.828444
-2.423666 77.81421 -9.950959
-5.184984 74.9597 -10.07345
-4.242417 74.9854 -10.09231
-0.4847722 77.53011 -9.829004
-4.893827 72.27809 -10.09281
-5.171977 73.12556 -10.09266
-6.726692 73.76668 -9.868564
1.103784 66.76157 -10.01127
-6.728267 70.02197 -9.909783
13.06764 16.82281 -7.867313
13.37258 19.2663 -7.217451
-6.139399 46.00248 -10.26039
-6.245214 40.61683 -10.31751
-6.948898 43.28637 -10.18648
-8.611024 36.56091 -9.822831
10.3645 50.81366 -9.43294
10.16213 49.37932 -9.678401
9.842948 48.52233 -9.908824
11.22707 46.03426 -8.852943
7.814129 47.79565 -10.76387
11.55523 44.39213 -8.563939
12.71819 38.41215 -7.338776
12.05449 37.50391 -8.267153
-11.87622 53.50896 -6.970156
-10.75438 52.82655 -8.070634
-10.83232 55.09295 -7.926365
9.740798 66.66544 -9.146543
8.995568 62.1766 -9.797737
9.040353 71.39562 -9.401833
6.820346 72.35902 -10.12722
5.396885 72.64252 -10.29195
-10.5031 25.97126 -9.127706
-11.80116 22.9894 -8.241713
-10.3837 23.2607 -9.28697
-10.47822 24.10227 -9.209495
5.009013 17.92546 -11.31666
1.38523 17.47975 -10.11891
-1.661888 17.1265 -9.999551
-4.474439 24.54791 -10.42817
-7.402156 19.36337 -10.51414
4.033987 22.08297 -10.9179
-4.895933 21.58297 -10.49362
0.4274669 18.83478 -9.973926
-6.587595 22.65704 -10.55865
2.555228 21.7172 -10.41813
-9.971379 23.29035 -9.554524
-7.9658 19.49225 -10.41968
-9.011832 23.50598 -9.989963
-9.188852 25.49591 -9.837038
-6.418134 21.82063 -10.55995
-6.2558 24.25086 -10.54245
-3.043482 25.54995 -10.22136
-6.285463 25.40436 -10.52314
3.762361 25.81643 -10.77788
14.1602 19.96009 -5.704132
13.39597 21.0291 -7.122069
10.18477 37.87381 -10.16324
10.70002 37.67105 -9.764566
1.322508 74.19868 -9.953961
-0.8273379 73.28545 -9.888678
-1.380455 70.75774 -9.931476
-8.648834 67.03471 -9.163737
-10.30088 70.15551 -7.91898
-5.664814 48.64642 -10.2759
-4.752807 50.20527 -10.2893
-5.879524 49.3917 -10.24867
-5.71249 36.65386 -10.41459
4.831382 51.42878 -10.67123
9.185675 43.54918 -10.48913
6.104738 47.19035 -10.874
10.72303 40.85009 -9.575253
-9.087251 56.21811 -9.195505
10.63414 63.55549 -8.561931
1.559527 64.51811 -10.06495
8.032568 67.15809 -9.994022
5.437041 67.50904 -10.39507
1.152367 26.606 -10.09544
-1.447095 23.91249 -10.01634
1.55492 25.18537 -10.15134
-4.682755 28.09423 -10.43732
-4.190112 26.2374 -10.38731
0.6570002 22.59932 -10.00367
-1.833976 67.99027 -9.990367
-1.796922 69.48633 -9.973114
-0.2317922 67.08215 -9.933165
5.358922 67.04606 -10.40785
-1.078373 66.21549 -9.945538
-4.533858 68.86369 -10.12585
-4.837128 67.20875 -10.1322
-3.751111 67.14173 -10.1282
-8.794015 67.70647 -9.060875
-10.7759 65.26096 -7.659777
-4.878489 43.79905 -10.33945
-3.783841 47.34479 -10.26751
-0.3264476 43.55656 -10.00215
-1.747032 45.37212 -10.06383
-0.320032 41.28184 -10.02054
0.741839 46.65606 -10.04735
-0.6158765 47.81107 -9.999569
4.367835 46.76591 -10.6884
