# .PCD v0.7 - Point Cloud Data file format
VERSION 0.7
FIELDS x y z
SIZE 4 4 4
TYPE F F F
COUNT 1 1 1
WIDTH 1664
HEIGHT 1
VIEWPOINT 0 0 0 1 0 0 0
POINTS 1664
DATA ascii
-15.64565 12.60917 -13.06429
-16.07346 22.27607 -12.71898
-18.80047 24.83628 -12.46805
-18.25672 29.88302 -12.38883
-15.23851 16.1997 -12.64242
-12.70921 11.79773 -9.679028
-16.89669 30.96565 -12.39595
17.29048 55.20337 -9.80029
10.76962 127.0755 -6.106143
18.67172 21.16975 -12.49214
19.36719 47.30318 -10.65755
17.39465 49.28382 -10.66375
14.74386 54.06731 -9.058931
13.63848 47.04161 -9.634299
16.90561 56.56962 -9.507126
15.34277 44.66971 -11.00595
15.24396 41.9558 -11.41131
18.34191 41.53214 -11.50292
11.95552 46.83673 -9.139054
11.79946 43.31529 -9.461164
11.20353 37.6204 -9.568704
17.42707 59.44588 -9.211427
16.6321 62.10865 -8.617306
17.63206 57.81765 -9.474628
12.69629 62.27316 -9.389915
12.37982 59.56699 -9.494873
-22.28945 30.94139 -9.920206
-20.034 34.42593 -11.47488
-13.84909 4.912579 -12.55317
-9.933257 98.05216 -11.20345
-10.75037 102.8021 -8.768594
-5.794502 96.71011 -12.54228
-11.86309 93.17207 -11.11471
-10.58394 95.16824 -11.5566
-8.0671 97.22306 -12.11092
-7.351025 98.2724 -12.01276
-14.9868 95.74767 -7.72032
-12.68319 94.82858 -10.28267
-9.650151 94.00282 -12.11039
-7.822759 90.77787 -12.66883
-11.54231 90.76159 -11.35226
-8.948265 90.37637 -12.25003
-6.819105 93.69043 -12.75309
-6.424121 111.973 -6.598281
-6.616514 111.2658 -7.019082
-3.37513 111.3808 -6.213223
-7.967933 116.0673 -4.259106
-2.246253 110.339 -8.022691
-3.469882 108.2775 -7.432703
13.91835 10.30811 -11.25079
-19.44568 77.09804 -7.354775
-10.42815 9.303234 -8.757521
-9.52423 14.37825 -9.821866
-12.56039 14.69303 -9.670547
9.748367 117.7935 -2.893836
-0.6189796 6.51984 -12.92306
-3.08951 6.846677 -13.05993
-5.994956 5.78122 -13.64036
-5.940046 8.422138 -13.53198
-5.090901 13.14485 -13.12554
0.610878 10.11167 -12.81693
3.001638 9.434051 -12.92809
4.199393 11.42533 -12.94891
-11.62246 13.78934 -16.16717
-10.97751 9.987339 -15.87338
-13.11635 12.65785 -16.59781
-11.34462 14.92537 -16.04183
-14.27427 12.91932 -12.70925
-14.69009 9.993423 -16.26155
11.2933 98.3896 -10.28986
18.04202 34.30887 -12.22338
20.6398 37.70123 -10.93812
15.26624 104.9784 -2.108828
6.616512 104.6439 -9.349585
14.83589 25.65514 -11.84502
12.52776 60.46638 -10.24736
9.061902 64.87094 -12.25308
14.70648 64.39917 -12.10488
11.83553 68.03082 -13.29901
11.93895 66.72289 -13.44548
-20.14744 50.97527 -9.942325
10.96832 69.77885 -12.76117
14.39324 90.96578 -9.645541
13.01831 93.22857 -10.42126
-16.01592 62.5237 -8.604861
13.88899 38.61694 -11.37097
9.43819 14.45157 -11.61859
15.44595 79.55056 -7.765624
15.6774 77.70072 -7.738305
11.97567 30.61982 -10.06708
10.09348 30.238 -9.466976
11.40956 31.22196 -11.92533
11.20567 18.64879 -15.59566
13.00438 14.99338 -12.17073
2.747434 126.7758 -8.779536
7.882675 122.1203 -5.457137
11.3053 122.6053 -2.056413
11.08519 122.9686 -2.649133
11.47606 123.7448 -2.450963
2.062038 123.8773 -7.706828
1.680653 124.6243 -7.972785
-6.383517 119.2731 -5.281657
-2.53228 121.6922 -6.932475
-11.17932 124.2922 -3.484569
-4.04238 119.8717 -6.233449
-4.767347 120.4162 -6.187843
-7.372527 118.757 -5.900143
-18.93041 16.35472 -13.0706
-13.86984 28.14869 -11.13318
-13.62811 23.62303 -10.94475
-13.15048 26.05493 -10.55808
-13.35304 22.48607 -10.67479
-17.94545 33.61325 -12.19977
19.05742 53.38808 -10.07311
19.6542 46.0273 -10.67768
13.00147 49.55954 -8.978549
15.48494 58.73586 -8.690973
-13.57893 8.054715 -12.54695
-5.534518 104.0198 -9.817121
-5.371472 94.75741 -12.79567
-10.60248 86.95229 -11.58761
-10.33841 85.35234 -11.63533
-14.27019 88.64879 -9.634232
-6.937224 115.9621 -4.73533
-4.599792 113.488 -5.622341
-4.218063 105.4426 -8.986701
-5.871164 100.8306 -11.36233
-5.258438 100.7084 -11.40762
-17.30506 65.95354 -8.65155
-16.6019 68.75343 -8.27714
-16.45417 76.71194 -7.707969
-16.15584 71.82157 -8.035495
-14.28773 78.90419 -8.817809
-13.86092 73.46989 -9.271237
-14.12735 69.53963 -8.571205
-9.441269 7.665883 -11.98391
1.295932 8.645939 -12.87163
-6.2539 10.39249 -13.55152
-2.775473 12.11153 -12.84949
-6.858025 15.04198 -13.52448
6.059456 13.97166 -13.11979
-0.6334099 14.646 -12.69492
0.2243359 16.63426 -12.65497
5.450302 12.7838 -13.06133
-15.92377 8.593884 -14.62414
-14.88606 7.681786 -12.84954
-14.63932 11.31002 -12.79476
-12.58381 13.08561 -12.55059
10.62977 103.0718 -8.714992
16.03319 29.77734 -12.29891
-20.97165 53.88544 -9.227763
14.85109 73.36828 -8.271228
-15.86845 80.37135 -7.685183
-14.597 78.409 -8.508174
12.57839 31.6081 -10.5005
10.22631 35.89279 -11.2584
12.39365 43.1386 -9.593761
12.67678 46.82943 -9.250477
8.001573 37.7435 -13.01569
13.67424 44.36409 -11.56621
14.83633 35.57025 -11.87898
10.19014 32.54362 -11.4045
14.15229 35.60729 -11.59764
12.71686 37.09386 -10.59389
-3.061966 117.8666 -6.801997
0.850726 117.4521 -6.525868
-1.785576 112.8098 -5.861865
-0.3128199 119.6271 -6.886097
2.605286 119.498 -6.528077
6.437981 119.9032 -5.492549
5.026099 118.9829 -5.743004
-0.995609 114.113 -5.727588
-2.497026 116.2286 -5.769991
-8.611425 117.9979 -4.512295
-10.17297 17.64862 -9.268773
-11.06365 16.84316 -9.061545
-13.65919 16.07402 -12.59566
-11.56398 16.04516 -12.54912
-10.46064 16.97224 -12.26932
12.9284 50.64338 -8.874818
-3.90858 95.89777 -12.66987
-11.87354 78.23109 -12.72873
-14.4835 82.49722 -9.098232
-13.42974 83.15849 -11.72495
-14.19303 84.4844 -9.961834
-6.478158 88.58755 -12.90857
-13.97878 79.69967 -10.22905
-11.90561 82.62692 -12.33165
-12.77138 83.0673 -12.18503
-13.77115 72.4683 -12.11367
-10.49799 83.68173 -11.75973
-8.281792 84.16449 -12.06243
-13.57225 67.84515 -10.82223
-13.34011 67.71521 -9.548073
-10.32466 10.55847 -12.30927
11.30289 94.26113 -11.32739
12.21887 92.64977 -10.95809
10.81666 96.49505 -11.1622
-2.241348 17.62758 -12.64035
-9.348566 15.97702 -14.75138
-5.250711 17.0152 -12.97886
3.77525 31.55156 -12.5959
5.76474 14.55696 -13.01356
9.006087 16.03757 -14.16965
3.765281 16.89888 -12.67123
-11.67713 11.50649 -12.5314
-14.95277 16.69115 -13.19932
7.60885 105.034 -8.938122
7.406874 98.42686 -11.96377
8.534391 93.11317 -12.50391
1.292526 97.65054 -12.3352
5.309093 100.0093 -11.65747
14.70875 36.41481 -11.84304
17.79458 30.13772 -12.44673
13.26072 73.05752 -13.20216
14.56457 75.37636 -11.90653
10.05859 72.05817 -12.21085
10.66114 73.21728 -12.35568
9.830176 68.42463 -12.32474
3.870213 78.11651 -13.02812
13.08624 82.91956 -12.27616
11.42079 64.30547 -13.37857
-20.64733 47.67641 -9.963652
-16.57369 50.4975 -10.44615
-17.85418 48.95881 -10.74347
-15.40109 53.71461 -9.398325
-14.60324 55.84331 -8.777391
14.22358 76.80116 -8.949131
14.4826 10.86459 -12.63992
16.52498 11.71757 -14.61353
12.38648 16.58289 -16.35564
10.24824 13.55291 -15.1437
13.24737 23.76862 -16.2128
14.37265 23.31878 -16.22144
13.42755 25.01235 -16.20605
14.1163 26.14365 -16.15381
12.40275 19.95146 -16.23368
12.62833 25.94629 -16.00424
10.55335 25.46586 -14.80839
10.75002 19.73762 -15.21137
4.632044 18.08849 -12.68813
8.809107 17.68064 -13.96664
9.584173 16.32252 -14.54863
9.265041 17.27967 -14.2717
8.646593 14.96042 -14.01066
2.095962 116.7723 -6.279942
-0.05148212 113.1783 -5.822345
5.228947 118.7888 -5.680665
8.328038 115.0523 -4.238403
-10.19976 22.2815 -9.556683
-13.05461 18.12872 -12.5605
-10.49783 18.09716 -12.30956
11.66018 48.17148 -9.357224
11.52793 52.33964 -9.857413
11.6908 53.79774 -9.927115
11.88587 52.83713 -10.62344
-5.611935 85.75819 -12.9678
-1.938032 100.8099 -11.38353
1.936173 104.001 -9.81733
-1.196957 99.53491 -11.82786
9.136222 106.6693 -7.416735
1.700307 100.2846 -11.57335
-2.748057 106.426 -8.456778
7.759705 101.224 -10.90664
5.587542 109.4999 -7.073965
1.928328 100.9635 -11.32473
-1.049608 107.0746 -8.14426
-0.771616 97.81573 -12.30714
-0.9730561 110.8037 -7.834297
4.082102 107.6553 -7.70185
1.221854 111.7671 -6.021222
0.9985073 109.0469 -7.767903
4.832767 110.7175 -7.149797
3.719794 110.7574 -6.384271
-13.50701 74.96307 -12.28647
-4.128408 74.10499 -12.86028
-11.18368 76.20734 -12.68341
-11.66189 84.57492 -12.04053
-9.124221 11.186 -10.08044
7.601323 94.01419 -12.66356
-3.072592 18.49895 -12.63834
14.47709 75.1834 -11.46134
14.36524 77.63708 -8.851806
9.623677 77.78264 -11.87861
6.822947 72.00544 -12.2968
6.487149 75.85083 -12.51353
5.757242 67.42841 -12.4571
0.8364732 74.64824 -12.9209
7.987268 67.1611 -12.08078
7.961833 75.74982 -12.12056
5.389527 77.57978 -12.84413
2.055206 72.55634 -12.95739
2.141826 75.41299 -12.95414
11.34998 77.96791 -12.35186
-3.264024 75.02018 -12.94449
-3.611172 73.73782 -12.89091
-6.391131 69.78741 -12.03538
0.04144529 76.86618 -12.89665
-2.162328 69.25659 -12.90319
-2.667327 71.6049 -12.91616
-5.620164 69.17548 -12.21295
9.981426 64.94725 -12.62401
-11.5899 43.93216 -11.95014
-14.82338 47.92274 -10.09625
-18.4031 45.76355 -11.02663
-18.15952 43.61126 -11.315
-13.46445 45.62214 -9.743729
-17.50109 38.74952 -11.93702
-14.03507 41.75622 -10.96169
-14.35301 35.82113 -11.71376
-11.87785 43.2129 -9.869164
-19.06136 36.66226 -11.77064
-12.57488 48.73162 -11.89326
-11.36623 43.42486 -11.81114
-12.56768 44.35313 -12.15938
-11.91937 52.44328 -10.783
-14.35121 58.76861 -8.503452
-13.82084 53.97166 -12.29634
-14.22776 51.39728 -12.93851
-14.14518 47.39275 -12.95705
-12.09656 53.28982 -10.18952
-14.10323 47.14943 -13.49462
-13.04735 57.3441 -8.95432
-13.99308 55.84851 -12.43863
-12.6954 57.2876 -11.09778
-15.58641 62.16803 -8.540279
-12.91166 60.35836 -9.399982
16.43081 13.12918 -15.26178
13.70451 17.15844 -16.64581
12.27257 12.47043 -16.51195
14.20626 47.85682 -11.78911
14.6942 48.46148 -12.23195
16.05548 16.59688 -13.61715
15.47139 25.35991 -15.25037
15.62038 27.29498 -14.46796
13.75404 29.35076 -15.99646
14.61597 29.47747 -15.78505
13.68036 29.96208 -15.97637
12.86201 31.37055 -15.78567
8.295001 32.24073 -13.21691
8.364532 31.2564 -13.27111
8.195488 34.17067 -13.13713
8.527373 35.74162 -13.26575
9.544835 37.93935 -13.74006
9.946111 39.00924 -13.95238
4.070683 33.54551 -12.59851
13.56452 38.35069 -15.40804
2.799037 34.66753 -12.71098
0.6446847 19.20974 -12.6356
7.172807 18.0764 -13.12902
9.206472 23.52073 -13.93686
-13.22368 20.32034 -12.57788
-14.8925 23.3277 -13.38062
12.80991 57.04649 -10.87447
4.965457 100.1502 -11.61355
11.07281 108.6637 -5.453165
9.273085 112.2244 -4.713174
8.263817 110.2397 -6.041285
4.925448 98.43318 -12.15546
-1.621277 94.0658 -12.80259
-3.671602 92.80158 -12.81917
8.233397 95.70442 -12.36679
6.136086 93.6218 -12.83115
5.649129 88.94494 -13.03676
-0.3683861 93.80482 -12.80559
-1.554903 91.63587 -12.80593
-3.330094 91.72701 -12.81325
-3.903205 89.24355 -12.86901
4.221497 93.37595 -12.81883
-3.497953 91.49299 -12.81474
-4.877704 85.04511 -13.02016
5.640688 115.9565 -5.16859
7.760818 113.5274 -4.810905
-10.10078 76.37998 -12.07712
-11.50972 77.75267 -12.66789
-7.996929 72.01176 -11.74697
-11.04496 77.84984 -12.43675
-13.49903 66.84881 -13.28244
-12.77357 64.53403 -13.82181
-10.38466 66.04536 -13.084
-11.2656 63.90322 -13.74191
-13.98217 61.64704 -12.52888
-10.21135 61.53307 -13.28808
-8.520342 64.14536 -12.10338
9.028907 91.22677 -12.33496
14.2382 81.39164 -11.58147
8.484049 88.40969 -12.40436
9.719931 81.61517 -11.75929
12.36146 56.34853 -14.19485
8.253839 61.37052 -12.20007
14.68396 55.84874 -13.35887
10.1601 55.28111 -13.3734
9.156159 57.62539 -12.69528
7.612187 55.50987 -12.30554
6.942312 51.28902 -12.38896
5.193891 49.0119 -12.44956
11.57787 52.14333 -14.33897
7.552618 64.59741 -12.09676
-14.33349 39.4401 -11.48989
-14.35344 44.0087 -13.75909
-13.98533 57.73576 -13.28659
15.49602 32.23236 -13.77934
7.559738 27.22296 -12.96886
5.558218 31.1834 -12.54572
11.85559 36.42854 -15.19242
14.80049 35.91555 -15.13095
3.561393 30.48315 -12.598
1.529964 29.74649 -12.71102
-0.7222179 20.82637 -12.61135
-11.6642 18.03568 -16.15222
-14.86929 20.57553 -15.28312
-7.937605 22.37726 -13.67136
-13.42734 19.06178 -16.35708
-11.93594 18.3955 -16.22225
-6.797364 20.07698 -13.25904
-7.958953 20.97773 -13.74244
12.75072 53.50241 -11.19014
5.999785 86.73212 -13.0648
10.353 88.80917 -11.63536
12.04396 88.00931 -11.62925
13.71721 86.0133 -11.54566
-0.0884559 85.69776 -12.79702
-6.319002 76.81213 -12.38652
-3.892193 81.22691 -13.00144
-4.593497 83.77666 -13.00641
-6.901853 64.54166 -11.76933
-4.633034 65.7976 -12.39094
-0.07936518 64.47314 -12.96135
4.5399 49.86238 -12.52196
5.020226 67.73056 -12.62682
4.637265 66.99187 -12.67906
-6.151815 59.72038 -11.85376
3.669363 67.95721 -12.86606
-1.242729 63.51543 -12.91097
-9.126652 58.61012 -12.70333
-13.21242 59.84133 -13.96529
3.731756 64.77098 -12.80531
3.445231 62.22772 -12.80575
4.57796 65.99069 -12.66568
9.698147 62.73713 -12.63944
4.61623 54.5024 -12.51725
11.54326 77.1143 -12.50906
13.55264 76.97005 -12.88044
9.569601 82.6769 -11.73418
1.598276 69.67555 -12.95143
11.91178 61.23515 -13.79635
14.85429 51.42129 -13.37794
11.19723 48.74573 -14.31141
-10.80522 40.27781 -11.92443
-14.09401 37.55685 -14.83474
-14.24914 40.82587 -14.09235
-13.26818 39.45603 -12.45687
-12.98404 38.75731 -12.4373
-12.81981 36.4853 -12.53392
-13.39513 51.2615 -14.47549
-11.98849 53.54078 -14.65781
-13.83438 61.98557 -13.19393
15.25263 31.61637 -12.79562
12.02361 32.02932 -11.88762
14.63995 37.51917 -12.27244
9.933719 36.88533 -10.8129
14.49593 38.22585 -12.17919
15.27039 36.4119 -13.42455
-0.245579 31.839 -12.74432
-1.183843 22.13019 -12.58793
0.9198864 25.43984 -12.65452
-0.4021536 28.95412 -12.66574
5.198208 25.59158 -12.56188
-13.72211 23.65637 -16.07674
-8.705132 22.86401 -14.10713
-9.26755 24.50192 -14.45967
6.272289 85.13264 -12.99126
-3.726496 83.75319 -12.99565
11.95167 90.95194 -11.16802
8.524502 87.23885 -12.29962
7.126744 84.86535 -12.74097
-0.9769399 76.02551 -12.92716
-12.1195 59.71363 -14.23172
-6.919066 57.048 -11.93695
1.916669 58.99337 -12.93874
0.3262343 61.33404 -12.97614
-2.769552 54.8298 -12.61775
1.40298 57.13307 -12.9793
-0.5948729 55.9353 -12.95711
-7.776397 54.694 -12.1993
6.859463 60.18039 -12.20275
8.889975 58.06851 -12.54922
6.803142 58.88595 -12.23026
14.50793 85.03992 -10.19845
11.25434 47.33813 -14.36807
-12.71665 36.44284 -10.65752
-14.44434 30.61052 -11.56825
-14.96626 34.03671 -11.8896
-11.98236 44.66123 -15.23748
-14.16998 39.38964 -14.5051
-12.71913 38.74651 -15.53292
-11.85261 40.7916 -15.39578
-14.45817 34.52855 -13.51972
-11.45807 44.7946 -15.03562
-11.52264 45.64312 -15.02619
-9.993306 37.69805 -14.47627
-9.62097 46.24377 -13.74596
-0.2732588 37.08149 -12.87715
-7.521188 40.85359 -12.77712
-5.841492 37.83105 -12.40858
2.627563 39.70641 -12.78289
-1.158927 34.84317 -12.71851
-13.69029 37.41242 -12.68962
-14.21882 33.37428 -12.97999
-13.82603 25.64014 -12.77793
-4.820203 52.31799 -12.12332
14.91252 45.65258 -13.94855
13.47235 44.27731 -14.99305
8.423007 39.29964 -13.13705
9.264433 46.74895 -13.31599
9.01548 38.37426 -13.435
0.4769006 40.70852 -13.0081
9.353917 40.08186 -13.56621
5.204644 42.36074 -12.53813
6.901618 43.35866 -12.57151
6.762598 44.38829 -12.54396
5.187546 45.30561 -12.49467
3.331418 44.25631 -12.69705
2.242221 47.0669 -12.89187
2.216961 45.18076 -12.87921
0.7205215 47.08714 -13.03396
2.980362 48.1601 -12.76778
1.0401 51.28399 -13.03212
10.10392 26.90462 -11.50547
13.8967 28.70208 -11.992
15.36305 28.5811 -12.75584
15.63315 29.68745 -14.10769
15.13923 39.02694 -14.24859
15.04746 42.48672 -13.94279
13.84585 39.8435 -11.75309
3.007545 23.37179 -12.56049
4.314149 22.95937 -12.55862
-1.932626 25.04679 -12.53197
-4.990062 26.31159 -12.54946
-6.463007 25.51515 -12.91381
-5.663183 32.32259 -12.51724
-5.484571 31.17084 -12.50398
-8.635706 36.1848 -13.56248
-2.003315 34.08472 -12.57649
-5.178795 31.65416 -12.45601
-8.743549 34.83628 -13.68645
-5.704268 36.00553 -12.42491
3.317841 82.36411 -12.9859
-0.2865592 83.78968 -12.80423
2.894847 81.94473 -12.95738
4.769411 81.88053 -13.05649
5.386172 84.61494 -13.09783
-1.33772 78.85767 -12.90667
-0.8915718 52.94988 -12.9363
-7.85322 51.74401 -12.41785
2.574167 54.32331 -12.861
14.86465 47.41557 -13.96965
-10.60201 31.11317 -12.16624
-9.059113 28.83453 -14.1567
-12.30329 49.50234 -14.91236
-7.759488 51.25585 -12.3997
-8.466047 48.78892 -12.8641
-6.809909 37.0089 -12.62196
-10.27944 25.1729 -12.15419
-10.79173 27.6818 -12.4242
-13.9412 26.97443 -15.79886
14.46381 42.5276 -14.83103
12.87717 41.61435 -15.19536
5.750018 49.41312 -12.40811
-4.783874 40.64266 -12.2917
-3.52186 44.51333 -12.38077
-5.302783 44.674 -12.18145
-4.539277 48.58686 -12.18016
14.42 44.9491 -12.00397
-10.32508 33.94675 -14.90919
-11.97736 33.39576 -15.77568
-13.69134 34.87577 -15.48595
2.024464 53.76469 -12.93831
3.464505 53.79475 -12.71013
-8.590699 27.93774 -13.85567
-11.28267 25.9129 -15.7672
-12.80047 26.67999 -16.15572
-14.64626 27.47453 -13.39872
-14.19747 32.51317 -15.21106
-10.57003 24.99804 -9.605405
-10.4147 28.34014 -12.21554
-10.01063 31.05092 -11.29986
-14.37835 29.5842 -13.33103
-10.03766 27.73651 -9.885156
-14.31571 25.18155 -13.06278
9.541387 42.43328 -13.61311
-1.076138 46.93288 -12.93166
-14.69054 30.03194 -14.61824
-13.47791 27.69012 -12.71058
5.520341 7.771427 -13.34717
18.85285 73.88457 -7.566675
9.675862 141.9693 6.875869
8.239993 147.3937 2.366842
8.590666 142.4587 6.944732
3.315702 156.0594 -7.889664
-9.065581 149.6628 -0.3054588
1.037033 154.8962 -8.879565
-8.74826 147.25 2.176703
4.716107 154.9998 -7.288183
-4.371423 155.2181 -7.52606
-8.61839 149.0708 0.508296
9.48157 144.2533 4.706939
-5.287899 154.8825 -6.627746
-12.34571 118.3342 3.065231
-12.77402 120.0399 5.450978
-9.784954 131.6353 13.41968
-14.65526 132.5472 3.564455
-14.15188 136.0024 7.362933
-14.36738 134.5847 8.343978
-11.60033 121.6329 8.109039
6.353199 122.833 11.73741
-12.16278 118.8711 6.275434
2.050574 125.8558 12.30039
0.3496074 126.0606 12.40941
-13.95331 134.6433 9.211693
9.30869 136.6902 12.16119
-7.340261 127.0927 11.7389
7.059589 123.4628 11.52291
13.35498 132.6774 10.93621
-6.643518 128.1056 12.42326
11.60464 133.3524 12.58534
10.53801 122.7083 9.411095
-14.22104 130.207 3.119789
3.20077 128.6014 12.76009
-14.76228 132.0365 6.867971
-10.95922 127.9709 10.6415
-13.80875 129.9999 8.760866
9.704265 134.8683 13.19443
-11.62811 137.6407 9.615551
-12.38681 120.3318 6.546869
-5.685049 127.8037 12.46866
5.747733 125.7564 11.71308
-14.25461 130.2818 5.069499
-11.87697 134.4635 12.05794
-12.30755 129.1836 10.70791
-6.468009 128.9438 12.85829
-9.863161 125.9841 9.958162
-8.253832 134.7316 13.48765
-10.09652 135.2555 12.80462
-9.438687 133.6508 13.54675
-8.452908 132.8671 13.83316
-13.41049 120.429 2.646611
-12.34509 123.2481 7.215929
-11.82441 124.1563 8.097506
12.44061 125.1893 7.294486
2.092087 127.5508 12.53994
13.07971 132.9702 11.31081
13.09676 130.1443 10.50631
-13.14911 128.0677 7.153229
9.512887 127.359 10.7739
12.4052 126.9693 7.685555
11.317 125.9958 8.7016
6.032986 131.2802 13.62331
5.008315 132.0361 13.6716
-14.00546 131.2998 9.614463
-7.570831 134.5108 13.5589
-3.305592 129.7514 13.19414
-13.38878 125.0576 3.229965
13.28109 128.7404 8.066227
14.43816 130.9647 7.323829
10.34267 122.6532 9.595349
-0.7078561 131.433 13.46241
12.91449 125.4228 6.333213
8.035891 133.7877 13.74265
-0.3148643 132.0134 13.51853
-7.743737 125.1457 11.07098
12.3846 121.1345 6.520028
10.49784 124.0758 9.445
-7.394336 119.8922 12.25454
20.53584 79.81741 -4.813243
0.8816161 77.69049 9.99064
-23.65836 26.68508 -7.693679
21.43828 19.55075 -11.06858
-26.93998 6.140409 3.759001
-24.16576 7.688355 -7.366057
-30.682 5.98992 7.152447
-19.33904 3.369845 7.813983
-28.42801 14.58525 4.216689
-23.42373 40.90025 -5.231292
-22.02188 62.15354 -5.3851
-8.255297 6.509597 11.42422
-20.14501 77.16802 -4.761367
-12.86618 115.6643 4.548222
-13.84193 111.4013 0.6541532
-18.42361 91.80751 -4.530013
-16.95485 99.88087 -1.196404
14.90341 109.0482 2.745612
5.201082 0.7230038 11.52143
6.921396 4.730781 11.53125
-13.1706 115.351 4.21862
-15.7314 106.5626 1.695908
24.54902 4.180834 13.36452
-11.23885 117.5635 9.035176
20.94516 11.99069 -11.55951
-6.783656 121.2809 11.81431
-17.42049 98.119 -0.620379
19.37965 89.11204 3.911388
13.23956 114.2359 3.118405
-10.58977 116.6029 11.04239
-23.64358 6.92646 -8.263478
13.14944 114.3209 8.832891
-4.780509 28.90595 9.313884
22.89939 55.30872 -6.417292
18.81809 90.01031 -4.149193
21.0303 78.76031 -5.371061
19.92425 85.11904 -4.2814
1.098088 122.4613 12.35019
3.226896 11.11237 11.63735
23.09527 12.8163 -9.553595
-7.872487 119.4951 11.40949
-10.92457 118.7778 8.708599
15.71901 105.7209 -0.01563416
-15.95998 104.743 -0.1954737
13.8685 111.377 0.9775286
-24.94921 6.799195 -2.474326
-21.09199 43.3894 -0.4439063
-29.76021 5.444479 9.969636
-3.831981 2.061827 11.49754
-19.6634 75.93031 -4.234975
-8.736046 121.7572 10.68331
-1.895576 125.3292 12.38434
15.48147 5.556471 6.450976
24.11827 6.273693 -7.994257
24.83674 6.763168 -6.613268
11.24735 115.8848 10.93259
-10.94318 118.8379 10.73077
18.68273 91.94069 -2.234794
-16.19884 104.1559 0.1586954
-23.95746 15.43702 -7.618468
-24.21785 8.485007 -2.85168
-23.54919 40.10387 -5.411047
-23.66653 26.65713 -6.704869
-22.64447 4.921571 8.904291
-21.15149 71.85873 -1.058609
21.99152 61.89162 -5.531429
20.03835 75.68179 -2.394004
-1.686589 122.9738 12.27902
-0.283775 120.2714 12.56487
22.72774 44.84742 -8.953792
14.42205 3.457578 6.88801
21.6938 24.27094 -10.7809
25.46717 5.805507 -2.451852
-10.91778 119.0977 10.67689
-16.51509 101.2941 -1.582411
10.94088 118.9206 10.0656
17.00311 98.28187 -2.42736
16.66102 101.3531 -0.9887583
-23.7191 16.16856 -8.631454
-24.09707 8.545296 -5.658587
-23.1436 45.6704 -5.243966
-23.66386 26.05267 -7.660495
-29.7872 6.740406 6.064508
-21.39505 5.174971 8.693343
-21.46978 61.0858 -4.902064
-10.04482 2.324567 12.27342
21.64105 66.32845 -5.398711
-20.29992 82.22247 -4.913859
20.58031 81.27291 -5.008834
7.347065 120.9845 11.27168
7.950685 117.5992 12.72973
3.524549 121.2192 11.93234
21.77868 28.64196 -10.56137
23.33014 43.52753 -8.283522
12.31496 3.741563 8.656353
26.52988 5.307086 0.8383897
21.63578 5.586802 11.26202
22.19961 19.86804 -10.39051
24.45991 15.11532 -5.77718
22.61923 8.714412 -10.04351
24.22069 11.03833 -7.992413
18.20685 93.89291 -2.008685
17.76206 96.63885 -0.269316
16.54218 103.5416 1.790082
-15.98629 105.6543 1.320018
14.02731 111.6477 3.335096
-23.30471 49.75971 -6.512857
-22.56835 45.98426 -4.608871
-23.6712 30.63307 -6.827986
-23.25927 20.47775 -5.789171
-22.17176 33.52867 -1.683403
-29.45011 7.531398 5.765928
-28.90714 5.718238 10.21722
-18.98919 4.410978 6.958218
-18.67712 3.515152 13.83991
-21.21687 69.54501 -5.121016
-5.357753 1.540086 11.6575
23.00498 46.97246 -6.042212
21.84213 67.75622 -5.64535
-20.29168 80.01305 -4.848377
5.785182 121.7178 11.69647
-2.955715 119.13 13.45668
22.57803 36.28889 -9.222113
23.21703 39.11049 -5.243623
23.02772 40.14048 -8.773508
10.68918 2.46663 9.865275
23.02495 4.631141 12.71445
27.36382 4.811064 12.17916
24.26346 7.46705 -7.867153
19.36607 88.67106 -2.346515
17.81466 96.04967 -0.9578581
17.43483 98.0641 2.751292
-15.03411 107.6979 -0.2828175
-17.23503 99.41108 -0.1427637
-24.70349 8.666351 -0.5554492
-22.96436 44.31712 -4.880254
-22.83297 42.90273 -4.533134
-23.22285 25.14285 -4.558383
-21.36374 5.46524 8.453392
-17.37716 5.265821 8.19364
-18.04341 5.423982 14.10421
-20.53018 57.29877 -3.560112
-22.09163 64.30347 -5.529864
-10.5264 1.780185 12.44757
-5.702537 1.129347 11.74647
22.59496 53.95918 -5.924078
22.14951 51.50853 -5.09895
20.4712 63.65268 -3.788221
20.61705 67.77675 -4.441436
-19.72154 77.07784 -3.649101
-7.565365 117.9847 11.94378
-4.676045 119.6198 13.30797
23.70492 32.17192 -7.59202
22.46458 40.42285 -3.41481
-1.376322 1.003806 11.61894
13.58915 2.318249 7.482935
19.87389 5.865539 8.220718
26.29151 7.882895 5.99156
27.29697 8.777536 11.29371
27.07765 7.695286 11.90729
23.60761 22.26491 -8.725414
25.16079 6.197381 -2.849289
19.79171 87.71748 -1.192722
17.22452 98.75806 3.352306
-16.22659 104.7104 1.368889
-24.12808 9.386297 -1.976055
-30.22907 10.1077 6.979512
-17.49572 5.38541 9.042727
-20.57388 64.53992 -4.345653
-19.76409 69.44476 -3.267215
-17.25224 6.62675 14.08132
23.34389 46.03078 -7.92356
20.45574 62.5443 -3.623382
-19.71894 72.41251 -3.514883
-0.2509269 119.9158 13.61429
-0.07943865 120.8929 12.0856
22.72972 41.45927 -4.680152
23.39623 44.43256 -7.733472
1.122563 3.775046 11.7116
18.3959 5.035604 6.749506
14.08466 7.555882 7.320348
25.16495 7.171445 0.05892826
24.49828 8.442968 -4.62396
24.32442 9.08518 -1.227018
20.16727 79.11835 -2.121836
-21.20205 53.89476 -3.894107
-19.80956 8.117632 6.249616
-20.00911 64.83649 -3.732273
-19.75746 67.50662 -2.994298
-1.277946 2.458682 11.51875
20.94913 59.61683 -4.269607
20.30984 83.97739 -1.046704
-9.017583 111.4803 9.734087
-4.329912 116.5795 12.84476
1.63289 117.6195 14.11676
17.65706 6.037587 6.487388
12.44618 5.981311 8.695093
25.39589 10.21626 4.455547
23.68371 13.29736 11.86462
24.65089 10.11119 -6.567499
24.28559 14.66609 2.700822
23.98449 12.15621 0.9022036
-18.22588 93.15882 -2.727375
-18.78683 92.32825 2.737973
17.03976 100.9561 1.947314
-21.31745 41.93865 -1.075701
-19.83497 64.12428 -3.003663
23.0652 46.29583 -6.105572
20.83768 57.27812 -3.677996
22.44642 69.79036 1.508958
-1.924569 112.5101 12.35887
-5.598536 115.2983 12.44893
22.03524 43.203 -3.606632
21.71613 40.59375 -1.544085
5.975872 2.542728 11.54002
13.15375 8.28702 8.188372
24.58974 9.413005 12.67625
24.55242 13.32131 -6.814313
24.55501 13.28457 -6.898786
-21.30841 43.76808 0.2339586
-22.28183 9.800361 6.613958
20.83958 57.55416 -3.722143
20.77831 76.87615 -0.379802
-4.765537 113.9824 11.54882
23.59035 40.71808 -7.231017
22.28285 39.13503 -2.312472
20.88834 8.385176 9.401351
24.27849 13.15948 -5.019794
-21.29231 43.61791 -1.808442
-17.90129 12.96817 7.243117
-18.52843 9.163263 10.34782
20.50513 76.09055 -0.8351684
-9.546776 112.5481 9.244122
23.91654 32.22504 -5.810148
4.805423 7.075591 11.95141
24.42491 9.314614 12.65847
23.6381 24.5117 -4.487949
-19.77209 82.73791 -3.210336
-16.38227 104.0072 2.961568
-21.40216 10.34795 6.279151
20.65448 67.29195 -0.6124411
-7.76053 114.6769 10.73102
21.16001 44.23577 -0.9551066
23.81871 32.26128 -5.338338
3.014783 4.441579 11.88344
23.97496 23.44451 -5.206081
-21.43203 38.93919 -0.5903151
-23.60858 37.86422 1.405033
21.45368 79.47399 2.280463
24.3741 45.86674 2.780861
23.93994 32.44692 -6.336161
4.042943 11.47313 11.81098
24.08844 10.33883 12.38136
23.9132 19.48238 -4.888592
24.08168 18.18118 -5.1221
-21.19276 82.60752 -0.1986896
-14.76019 11.17002 13.26313
21.04887 49.09246 -2.616634
3.959389 8.298219 11.91982
-12.24547 12.25999 12.0992
23.92499 11.95731 12.14057
27.69983 9.898594 9.486436
21.14444 12.93437 9.323171
23.82619 29.05421 -7.740558
23.53277 26.30731 -4.377089
-18.54544 7.786125 13.64191
20.79139 50.6997 -1.90918
2.636175 13.23812 11.30207
-17.73412 10.39983 13.86493
7.955301 10.43325 11.6643
9.92624 4.713696 10.4372
-14.65024 11.34253 13.21076
-12.87256 10.6435 12.44992
21.83323 76.01903 1.182407
-15.13014 6.82494 13.58658
12.65699 8.597145 8.67773
-13.69527 112.6413 4.457041
-14.17395 110.5329 3.798059
-13.8994 111.1955 4.560463
-12.40272 113.6881 7.987685
-14.47109 108.4688 5.389195
-12.31013 116.0093 6.941613
12.92124 115.501 6.416899
11.63432 116.2963 10.51976
10.83322 114.1987 9.757998
14.61385 109.35 3.895432
16.1209 104.417 3.933919
-25.5144 8.254897 1.853883
-22.06014 48.29581 -4.34184
-20.507 55.78219 -3.268419
-20.4493 52.12104 -1.607959
-23.05527 21.49233 -4.704994
-24.43776 9.877741 -0.2138595
-23.27997 17.72751 -4.935095
-25.19946 14.40359 2.336908
-22.82287 19.28135 -3.687908
-23.307 14.24901 -3.967338
-23.07065 16.12449 -0.6603076
-23.39785 17.57359 0.7239851
-20.33456 56.36186 -1.204393
-25.09961 47.00787 1.254518
-23.77887 54.82669 0.5209101
-24.92697 56.4385 1.482217
-21.3714 59.09223 -0.3811352
-25.18737 52.72599 1.48282
-25.471 53.8099 2.231544
-24.95333 52.16535 4.212922
-24.32792 51.95053 0.8414705
-25.668 50.46254 1.980999
-25.05741 47.70962 5.000337
-23.74793 48.03686 0.8724183
-24.35998 41.85049 1.259627
20.27706 72.2869 -4.135501
20.49542 73.28381 -0.8599378
20.36194 68.24497 -1.113539
8.270716 118.2359 12.37154
5.709693 115.5421 12.23039
9.951494 111.8996 9.161575
8.647308 113.8962 10.64329
18.2372 94.7748 1.608769
19.23565 91.02921 1.830796
-7.99706 5.76331 11.46257
-10.54464 6.410169 11.96105
-13.43513 7.740768 12.83974
15.30603 104.1203 6.289286
-22.27746 61.55733 -0.2437196
0.8246124 116.1386 12.91269
1.794509 7.09193 11.5752
2.403002 8.210785 11.6291
-2.463375 6.737536 10.98587
-1.94396 11.93457 10.46877
20.00441 82.95191 -2.479455
-20.26764 61.61887 -3.704311
-20.80878 66.07267 -0.9409548
-22.70903 68.22524 -0.2763002
-22.97946 67.79288 -0.1315831
-23.22961 71.91066 1.247448
-21.9023 72.93211 2.835678
-21.76224 70.52808 3.206711
-19.84563 73.87309 -2.608344
-20.34867 75.58366 -1.699855
-22.33991 77.00086 0.6923524
-22.02547 78.65001 1.186378
-21.89643 76.1384 2.366688
-20.84047 83.48002 -0.7959768
-4.366661 4.129219 11.26933
-4.904213 5.507142 11.14097
18.07182 10.06926 6.567112
23.59955 12.73242 -2.394622
23.63447 15.92764 -3.864135
24.10618 12.84004 1.780774
-17.77652 96.70936 2.510473
-17.15686 97.99325 4.274996
21.46471 56.48162 -4.626387
20.175 86.52962 0.3913899
20.86523 82.31504 0.5176081
-17.74052 10.39605 7.467944
-18.75242 92.90396 1.587317
-17.09101 96.26286 5.460248
-18.13548 93.84566 4.14759
-16.15311 94.70356 7.447103
21.9936 36.30978 -1.350128
-21.78205 37.54044 0.7427177
-18.6067 12.97953 10.21825
-18.4351 13.04227 6.587122
-18.01911 17.07114 9.029482
-17.89001 18.03446 8.509295
-23.65703 38.40686 -5.608947
25.64993 18.48785 4.439248
23.70886 15.54506 1.605348
24.55681 17.27798 3.212712
23.70151 27.52847 -4.729456
22.6716 24.4966 1.05126
21.37644 77.33372 3.942296
16.46198 11.64165 6.344407
-10.27598 112.706 9.028116
-11.71244 111.1282 8.146513
-12.2622 109.292 8.254957
-4.860664 108.4371 11.95002
-6.393992 106.1488 11.30851
-9.314135 109.7513 9.938122
-10.03196 102.2479 9.553881
-7.770676 105.828 10.75201
-11.50194 108.5808 9.081575
-10.8274 101.6366 9.285896
-5.397115 103.4752 11.21701
-8.712077 104.0385 10.17172
-14.02281 105.9507 7.587932
-7.751019 105.4472 10.71568
-16.06657 98.41219 6.37409
-15.6043 101.4456 6.315434
-14.76257 99.09106 7.580818
-23.98692 13.7837 -6.943511
14.68333 107.2728 5.927362
13.66358 110.3569 5.693322
-24.13444 9.13707 7.547292
-28.38959 10.09686 9.677222
-23.13123 35.18329 -3.648607
-22.2377 32.75832 -1.829574
-22.03543 32.70873 -1.490303
-22.87215 23.44989 -3.800246
-22.67173 32.06974 1.140966
-23.22153 30.30523 -4.103559
-22.20569 24.6686 -0.2253023
-23.48718 28.41161 1.544326
-24.58308 35.13265 1.638011
-23.66694 24.64171 1.492705
-24.37666 28.35448 1.824918
-26.75373 26.5402 2.713609
-26.24063 15.05521 2.9064
-25.32934 19.49932 2.326253
-22.93894 18.477 -0.04584148
-24.69822 59.87695 1.676286
-24.35934 61.75274 2.656986
-19.7495 69.40611 5.041574
-24.24961 64.21333 1.980718
-21.65669 62.00437 3.90121
-22.68126 64.51186 -0.2865671
-22.58918 59.12837 4.039667
-24.47157 54.99164 4.024963
-21.94226 60.20036 3.952013
-20.6639 48.73215 -1.680824
-24.67261 34.32545 1.677326
-24.81875 38.33416 1.505602
7.652439 113.6214 10.70959
6.360037 112.504 11.32892
7.202763 111.641 11.28828
2.086992 108.6117 12.24055
5.032473 114.196 11.61766
4.902691 109.9305 11.86406
10.74736 108.9861 9.439364
8.363489 110.7996 10.23048
-2.674512 110.8571 11.97222
1.276566 107.5132 12.31569
12.72904 109.3252 7.724466
14.70065 107.497 5.705116
15.12614 104.0784 6.597913
14.58432 104.5264 7.193655
16.87466 96.88544 5.538798
15.28713 96.67818 7.719476
15.28812 98.70624 7.19715
15.92476 98.58501 6.456836
15.81498 101.6886 5.950602
-10.13656 8.21443 11.68574
-10.50392 9.1397 11.71251
1.614678 7.6312 11.49992
-1.9943 10.59427 10.60417
-5.10977 10.95256 10.56625
-7.237471 11.72675 10.7218
-5.719944 9.574434 10.74959
-4.244682 15.17257 10.12616
-2.861794 15.56527 10.0865
-7.87911 11.02594 10.90314
-0.6386024 15.02682 10.31147
-4.309546 18.67837 9.855579
-4.037773 17.49475 9.933866
1.82875 18.48022 10.56786
1.591918 22.18844 10.1827
4.574991 21.69324 11.2524
5.990407 19.83274 11.83716
5.204421 16.1545 11.84226
5.578547 10.31378 11.98622
6.976842 18.59687 12.0484
9.121825 13.90147 11.49959
10.37176 17.75771 11.15674
14.6127 22.32061 7.637181
-19.99121 70.84767 4.68823
-20.18824 86.80688 0.999301
-20.2192 86.41998 -0.5785695
-19.45107 88.06783 4.45341
-18.95942 89.0677 5.326598
-19.66058 83.44566 5.425721
-16.64167 90.4138 8.33888
-20.29316 86.19434 1.537827
-20.8077 82.21805 2.365595
-18.99576 81.7578 7.089794
-19.32383 76.4159 6.522242
-18.74801 78.93246 8.073593
20.59132 61.13356 -3.712195
18.76431 11.74204 6.859676
23.066 16.76017 -0.8004539
23.09888 16.89443 -0.2981633
22.5204 22.13781 -0.7697392
20.74344 55.151 -0.653311
20.64032 56.94189 -0.7943478
24.00134 52.47195 2.411583
21.06925 59.84644 -0.04209438
21.76588 51.99336 0.8546126
20.88605 58.38624 -0.2959646
24.68747 44.01429 3.154157
21.34832 54.64254 -4.292017
19.69851 87.48788 3.896128
18.88287 88.4518 5.844977
19.77402 84.73347 4.86874
18.58661 82.15077 7.372105
19.27032 85.42675 5.967416
19.64487 82.61751 5.551262
20.77715 81.56124 3.470228
4.331387 83.45854 10.03649
17.57813 88.05963 7.938808
-17.87932 9.533524 7.093541
22.03424 35.07196 1.242107
24.50599 37.92628 3.122682
23.61226 42.77512 2.315888
22.91255 24.05805 -2.980688
26.79721 14.60451 6.19941
27.25776 14.66966 7.35131
26.80034 16.66022 6.21453
25.48339 17.4532 4.278578
26.28971 24.56736 5.617809
27.09163 16.79785 8.675544
27.12624 17.4071 7.52743
24.52167 23.80424 3.231193
24.68963 25.23219 3.404363
26.79124 21.39898 6.828918
24.36644 18.69446 11.20859
22.84514 15.05662 11.25096
24.84399 22.08773 10.55658
17.79954 12.69386 6.549592
22.97659 20.59893 10.725
20.77065 18.61452 8.393957
21.75945 33.7941 -0.8421132
22.07929 28.90364 0.2062588
22.1818 26.412 -0.7058731
24.01766 28.32481 2.846413
24.24152 30.25353 3.026835
23.74326 31.5599 2.655612
26.4 27.43096 7.268849
-2.190371 109.1495 12.21269
1.90635 102.2319 11.70183
-13.53947 93.22583 9.369672
-12.60049 96.43781 9.043679
-14.94304 101.7665 7.086349
-29.96106 8.906945 8.942493
-23.02621 21.88155 0.9215664
-24.167 12.07624 0.5856957
-26.24886 9.328108 3.230203
-29.31081 12.62508 5.447393
-29.5539 13.84166 6.210064
-27.25801 14.92449 8.991213
-27.52776 13.94858 9.150641
-27.71409 11.6446 9.430733
-27.71304 17.06061 8.687934
-28.29884 19.42628 7.916469
-26.85878 19.15117 2.952799
-26.8573 20.99056 2.87241
-27.62866 32.69644 4.324213
-26.70383 33.10064 2.536498
-27.44627 32.68961 3.698689
-27.49215 23.61183 3.229346
-22.56236 55.08973 4.418746
-21.90559 53.00492 4.494665
-19.94604 57.84059 4.796681
1.527159 114.9412 11.86779
13.36662 107.2519 7.874736
11.43974 103.5395 9.267011
12.99163 103.5069 8.617895
14.2989 101.5598 7.700438
11.41317 101.5556 9.129191
6.728619 104.1161 10.89132
10.27374 106.1398 9.832417
8.181485 104.5556 10.43813
7.187135 105.6566 10.94383
15.57102 92.94351 8.512333
13.4933 90.85534 9.764482
14.10209 89.85152 9.78234
11.44497 94.02213 9.430313
-1.578175 87.73853 9.864111
13.81463 89.00553 9.952008
11.61814 96.18379 9.212261
6.151365 87.56071 9.951471
-4.337914 21.13382 9.689625
-3.971116 19.65965 9.780335
-7.999813 18.92803 10.24774
-4.26602 24.69037 9.485059
-6.580303 19.82508 9.927583
-12.67699 21.23031 11.83738
-11.63937 21.11038 11.3448
-14.50761 20.36806 12.82189
-11.37053 18.32245 11.38108
-14.19842 11.79668 12.98962
-12.53973 12.82251 12.19291
-18.47297 16.74983 9.892847
-19.16199 14.82459 11.8501
-17.20697 18.32333 13.48889
-18.79051 20.5996 12.15166
-16.54238 18.82018 13.45531
-19.55981 71.36934 5.471974
-18.41369 87.87827 6.919394
-20.15267 75.89381 4.362207
-19.04952 77.83059 7.391899
-20.46157 72.59541 4.065678
-19.20037 68.10287 7.144895
23.81573 62.24331 3.762792
23.78976 58.06648 2.387481
19.90815 82.46744 4.95045
18.00952 91.30763 6.221156
-24.6654 15.15867 7.820313
-26.63502 16.8482 8.728333
-22.38051 15.42805 6.305479
-20.64787 16.34166 5.839944
-20.92109 17.67894 5.774899
-17.89932 15.04133 7.516732
24.69548 35.65978 3.314242
26.85391 16.16895 9.897295
26.15414 15.66844 11.04853
25.45887 15.02161 11.58369
22.31336 24.61094 -1.043427
25.49248 25.87336 4.221426
22.11643 28.73504 9.28959
25.25206 33.90677 3.9878
25.54325 34.91512 4.451777
10.84468 15.69324 10.71236
13.28244 16.75809 8.598495
11.37303 17.285 10.45051
19.19707 19.87711 6.956792
14.94139 16.23405 7.105161
15.69015 14.6445 6.64244
17.97589 14.11116 6.554813
20.98291 23.63351 8.457437
22.32997 22.69234 10.02236
23.14212 20.05376 10.83822
23.15942 21.4267 10.70237
24.35054 21.03329 10.84666
-0.1444282 107.5635 12.32668
-4.000439 105.0186 11.96015
0.9970778 104.2149 12.13136
6.12959 105.1814 11.27241
-0.677518 101.5872 11.59412
-2.038248 100.995 11.33475
1.896218 100.029 11.0389
-26.60154 10.23907 3.384286
-26.12228 18.56511 2.677457
-25.59043 22.74673 2.320238
-27.53325 30.34079 3.526209
-28.3192 23.29385 4.210741
-23.86089 51.94849 4.727166
-18.90648 51.71068 8.026772
-18.83471 50.38578 7.293976
-18.92961 51.52258 8.341914
11.49309 95.65658 9.269815
3.88647 103.7538 11.72584
9.06382 92.97105 9.527924
3.961505 93.52688 10.10148
6.361873 93.39188 9.835611
3.338433 89.73678 9.738446
-2.810496 23.41465 9.569895
-1.697633 21.92505 9.700309
-1.747593 22.75183 9.651851
-17.60279 19.30255 13.39359
-18.91017 14.82079 10.55734
-18.84202 14.63073 12.84828
-17.66084 23.76196 13.09216
-18.30375 30.10032 6.976927
-15.19853 26.18839 12.83602
-14.61282 94.31864 8.769965
-17.55979 90.52038 7.283113
-13.88384 91.27254 9.614273
-10.85385 92.29297 9.576189
-19.41698 68.59299 5.75427
-19.13555 67.38307 8.011376
-19.16001 69.95776 7.439218
-19.0996 64.85237 8.13153
-19.2744 63.9559 6.329084
-18.58417 74.41273 8.81998
-18.23724 69.8903 9.549518
-16.73846 67.58734 10.56007
-16.10419 70.54782 10.34543
-19.9185 63.8594 4.790417
-19.35536 75.14282 6.343583
-17.21067 84.94457 8.798003
-17.42807 87.23914 8.287037
-17.22516 79.9276 9.396805
-16.48717 77.24313 9.89251
-14.24197 80.9269 10.07749
-14.62122 73.19994 9.928251
23.88542 46.41052 2.383971
23.49855 63.99829 2.92314
24.33822 55.16816 5.046432
19.2117 77.88747 6.243805
-26.84878 25.9675 7.526589
-25.70317 24.15261 7.841935
-25.26187 27.43037 7.480432
-21.32578 22.0567 5.629821
-19.73164 23.0731 5.741432
-25.01791 21.12668 7.816191
-24.85812 29.74861 7.165059
-26.85698 39.05131 3.458346
-26.88107 30.27988 6.79033
-27.0902 36.98475 3.630738
-18.41879 24.17565 9.231799
-21.98451 22.42479 5.837289
-22.96327 23.13599 6.251209
-23.2557 24.71074 6.406965
-24.61483 26.6734 7.325192
25.35364 42.50188 4.797721
26.87973 21.55462 7.315979
23.465 26.22237 10.08145
26.25461 26.23572 8.39106
25.5643 29.62445 8.602539
20.01128 26.41032 7.161593
21.83097 25.48525 9.350731
22.53817 29.11904 9.443069
20.86231 30.61777 7.662373
25.58825 32.8474 7.740858
23.916 32.4758 9.197772
23.52119 39.11939 8.267836
20.405 39.29948 6.627728
25.65044 38.64956 5.597678
19.46036 39.42342 6.167673
21.51582 39.8634 7.456913
17.27721 34.17443 6.363257
19.15522 14.98699 7.005127
25.39462 32.07647 4.15362
12.37779 11.30418 9.126489
17.71141 30.24205 6.185482
-24.53068 20.47023 1.915709
-26.16974 46.75103 3.284228
-24.3314 48.15696 5.111341
-18.72372 44.62928 8.164052
-20.58066 45.61507 4.742774
-24.5421 44.64936 5.518225
-18.81964 48.12507 6.75649
-18.60761 43.70068 7.588441
-18.59301 41.88556 8.003794
-18.8198 45.11599 10.4783
2.002175 97.39527 10.35308
0.8192227 94.20371 10.03678
-7.684844 23.97734 9.793851
-11.23155 24.8226 10.92672
-3.363895 19.5121 9.780805
-18.16975 24.10595 8.577263
-6.049967 27.09122 9.428391
-3.293726 25.37181 9.467176
-4.396447 27.59077 9.363748
-0.4994142 24.87871 9.666556
-0.8319256 31.96029 9.428238
-18.83693 63.2697 9.123234
-13.62635 88.36371 10.0511
-13.58734 89.14706 9.959266
-12.74424 86.72308 10.17767
-10.57333 90.27278 9.778312
-12.61038 79.47228 10.23296
-5.266324 84.18395 9.923814
-13.26209 78.21938 10.00742
-13.94941 73.03203 9.804609
-17.02896 65.5293 10.62606
-11.22286 65.69505 9.36442
-14.0208 68.47899 9.936688
-13.27069 66.36624 9.699289
-13.86985 65.41476 9.978253
21.47513 62.65825 0.2840961
22.08248 65.0125 0.8326789
23.19782 64.55522 4.615474
23.37314 61.00535 5.122736
25.03079 47.332 4.602265
24.85273 48.71414 3.865585
25.08096 45.71146 5.682991
23.98594 47.03753 6.941981
24.84476 46.86255 6.017753
24.41991 41.42915 7.52774
25.54325 39.73328 5.749918
19.57491 79.11164 5.708434
-24.40124 30.2113 6.897844
-26.73001 36.32647 2.590293
-18.23091 26.7848 7.005883
-21.78788 31.44273 5.376285
-18.85981 29.96024 10.20573
-18.77646 32.59633 9.681496
-18.24296 31.5718 7.651281
26.57871 23.15791 8.484739
23.22423 29.6209 9.644007
17.6535 39.22218 6.352347
25.10235 40.80393 3.72194
-24.54491 42.81031 1.247996
-25.55682 37.72266 1.773124
-26.74139 40.34474 4.393337
-26.04153 40.83732 5.495318
-18.49912 40.00837 7.493581
-22.60435 42.45593 5.303114
-20.23222 45.66427 4.880622
-18.43037 38.5439 7.277066
-18.70881 41.1948 6.504312
-24.93254 38.2337 6.243436
-23.25221 36.27544 5.914
-18.77443 34.1089 9.538212
-26.39988 34.90128 6.224225
-26.60775 34.00151 6.28083
-23.53215 33.56389 6.218273
-10.98395 62.65063 9.242677
-17.37254 45.35417 11.84715
-15.18119 37.61944 12.19961
-14.70877 41.93325 11.77061
-12.11707 38.37711 10.54147
-15.42465 44.48041 11.85467
-12.23421 41.03064 10.44491
-18.70522 44.00221 8.247706
0.1190458 98.19311 10.62551
0.9046266 95.65091 10.35198
-3.065384 94.91884 9.623472
-8.518655 84.67123 9.918163
-4.593287 89.39812 9.768931
-5.130395 90.14795 9.729295
-0.6813581 84.03733 9.955695
-2.663626 83.63906 9.938714
2.622948 90.12736 9.696944
3.680665 88.89468 9.821229
8.264441 89.47605 9.837498
1.08668 84.21515 9.977086
-15.29226 24.45799 12.97513
-12.46513 26.40334 11.45459
0.916907 28.88874 9.674297
0.005057585 29.48334 9.559217
1.533515 26.4293 9.892821
2.125788 25.87173 10.06371
-11.73269 94.0503 9.42135
-2.992472 97.30024 10.14794
-11.7773 101.4175 9.015409
-10.96102 99.87995 9.165352
-19.12663 61.738 7.248948
-18.96025 60.13384 9.133941
-19.00969 55.56014 6.738344
-18.58502 58.80927 9.960382
-10.65144 86.40189 10.02946
-6.911247 86.43297 9.91247
-7.513683 83.75616 9.899772
-9.120421 84.94344 9.933437
-8.167612 78.19392 9.736217
-4.780542 88.10603 9.836631
-10.98521 73.49751 10.11684
-11.42918 76.3032 10.24507
-0.9237539 79.51395 9.954919
-8.105883 73.28618 9.867347
-9.53014 69.80401 10.07584
-7.967662 69.18314 9.988138
19.85466 61.14553 5.858805
22.36703 58.24053 5.988978
19.46566 55.79039 6.043906
23.32249 51.23142 6.624555
13.86223 56.4602 10.73698
19.69717 52.50418 6.075067
19.91572 55.1992 6.01669
18.47832 49.63185 6.375614
15.87225 55.22612 9.439552
16.54024 53.76635 8.210386
14.89048 52.16325 10.16874
15.38465 57.19831 9.979072
22.93916 66.55401 4.37936
22.72029 67.7452 1.694398
22.27647 50.88259 6.812699
23.78258 48.87422 6.800362
20.95259 44.14232 6.616578
17.32845 78.60786 8.84712
-22.0956 32.16293 5.456572
16.13439 22.97645 6.615242
13.75308 20.03841 8.345878
12.41266 23.30208 10.04687
9.510825 22.06227 11.68661
14.27408 21.29898 7.902446
20.68102 32.79166 7.299731
17.75598 48.17757 6.679682
17.23006 33.19839 6.390128
-2.095853 98.62158 10.58717
-16.28592 34.16967 12.66191
1.709553 86.32672 9.949424
-0.5865548 79.95708 9.959849
-4.776072 72.45192 9.643924
-7.284681 77.665 9.690902
-1.845896 76.41316 9.935386
9.69611 59.08728 10.19603
-5.412146 80.56805 9.892853
-14.0647 28.01057 12.20735
-8.021752 30.86354 9.48082
-8.1315 33.78267 9.365753
-6.933395 36.06109 9.153545
-8.083547 37.762 9.217371
-0.3096696 36.65445 9.377833
0.3415923 35.13348 9.436693
-5.450662 38.60405 9.128402
-1.98849 41.99017 9.326197
2.28307 32.98801 9.721265
-8.698572 38.68447 9.260456
-10.18243 38.77179 9.630547
-12.08656 37.23243 10.59998
-11.54355 32.67676 10.60322
-5.932835 41.88864 9.102546
-15.20008 30.96756 12.57074
-1.322094 41.4921 9.329373
-17.49842 32.12466 12.67339
-14.29236 31.65337 12.13546
-5.023979 43.78971 9.200162
4.276028 39.55153 9.751965
-3.548828 44.88004 9.336819
-4.529338 45.7544 9.300422
2.540007 30.40333 9.896696
-16.08664 62.31849 10.90445
-12.53579 62.03951 9.537433
-19.01126 56.16427 8.594248
-17.92192 50.75627 11.13902
-18.54695 52.94191 10.36153
-17.36517 53.57773 11.31855
-19.04396 57.06459 7.571297
-3.187341 65.81743 9.629797
4.926044 68.07226 9.656388
-5.268903 69.97736 9.601605
-4.676404 72.00961 9.643909
24.00343 53.99537 5.786795
18.10317 50.1536 6.569094
21.19056 64.59399 5.474958
22.38396 73.78305 2.283934
20.35717 75.55208 4.950938
21.23349 70.55688 4.878205
17.61373 80.07916 8.546255
15.90775 84.22237 9.599943
13.69553 81.38047 10.23804
14.35537 85.64597 10.08854
11.57803 83.23174 10.09482
13.91817 86.88107 10.11671
11.52188 83.89904 10.11884
5.27947 84.81754 10.0329
-18.39746 31.07993 6.862848
-18.56277 31.49306 6.530157
-21.05202 36.72854 5.023961
13.40166 25.53313 9.214336
8.642124 22.37507 11.92766
19.31455 29.96436 6.523929
16.61997 27.92883 6.485862
14.20052 31.33953 8.893024
-4.523115 96.98524 9.777836
-6.269403 96.90184 9.6415
-6.243578 94.98117 9.756797
-3.88014 92.00456 9.724314
-3.846681 100.3782 10.80857
1.976739 77.78444 10.02466
8.013097 85.32125 10.07276
0.4839221 75.20651 9.974413
-16.63791 30.46164 12.9512
-12.27011 32.35865 11.00524
-11.8919 41.38726 10.24676
-12.3466 39.74593 10.58895
-11.18378 43.37063 9.768855
-7.268114 46.12185 9.042886
-4.254273 48.04494 9.394264
-2.563567 48.26913 9.438177
1.237777 46.44 9.270176
-5.03007 52.04417 9.509286
-12.23627 51.91067 9.797059
-1.583966 47.641 9.40047
-9.307518 47.16226 9.077392
3.509868 24.42051 10.62302
6.868075 29.08705 11.50532
-11.30662 63.88048 9.286398
-9.938437 61.28431 9.325923
-8.66837 62.60535 9.709064
-14.30586 54.8375 10.81424
-11.99476 52.66393 9.646577
-10.51631 53.35907 9.136437
-13.02839 51.06007 10.30242
-14.89999 60.18761 10.73873
-13.48235 55.12937 10.34295
-8.928141 55.75717 9.1693
-14.29364 50.19326 11.0628
-8.873747 59.32787 9.401031
-4.265332 57.56022 9.635149
-4.142405 66.26047 9.606349
19.23052 59.98545 6.083109
12.7374 58.54118 10.96136
16.49057 61.87273 9.125796
16.18961 62.13921 9.512034
16.42123 50.76559 8.12009
14.41849 50.61369 10.39116
13.25758 35.94222 10.3856
19.00112 44.30988 6.155236
15.04728 41.48018 9.027081
14.96651 40.43973 9.035958
14.7299 38.92331 9.134562
13.58515 46.89167 10.73702
12.71669 47.37533 11.1525
15.71517 47.23714 8.766121
10.56986 47.35788 11.36979
14.2121 59.28889 10.58867
11.15234 56.34361 10.92346
15.6211 83.2434 9.777134
16.99787 27.71127 6.399752
-4.643332 93.47675 9.688549
9.044745 81.69768 10.06042
11.61753 81.21603 9.941063
10.11257 85.99641 10.11062
1.859216 79.62795 10.01285
1.217427 76.99792 9.999625
