# .PCD v0.7 - Point Cloud Data file format
VERSION 0.7
FIELDS x y z
SIZE 4 4 4
TYPE F F F
COUNT 1 1 1
WIDTH 1665
HEIGHT 1
VIEWPOINT 0 0 0 1 0 0 0
POINTS 1665
DATA ascii
10.31405 115.8224 5.700944
8.997767 115.7732 8.413648
8.533117 114.6348 9.23277
9.478759 117.0454 8.020884
6.464089 120.985 11.97665
10.12735 116.2866 6.37962
-10.25185 117.3047 5.940357
-10.25367 115.9929 5.866033
-9.67321 118.8613 8.104142
-9.158936 117.4087 8.445495
-9.912161 116.6752 7.037318
-9.050563 115.8466 8.532845
-1.94442 116.8119 12.85148
5.999564 112.6732 11.33511
6.105297 116.2498 11.13671
-2.348468 120.5051 13.13513
-0.2394536 119.2461 13.12534
-6.093405 116.7647 11.19864
-6.311376 116.1054 10.9865
8.451627 115.6053 9.174544
10.1301 119.0877 7.088477
9.540366 119.5236 8.539083
9.353269 119.0209 8.699089
9.135604 120.298 9.387367
8.734124 119.9566 9.782066
7.279384 119.4935 11.04939
7.304936 118.8164 10.83901
2.520946 120.1178 13.04034
3.192797 119.6277 12.86593
7.331982 118.7064 10.77993
4.967898 118.1073 11.97889
-10.09138 116.4005 6.522896
-8.049137 117.6089 9.877844
-5.632621 118.9671 11.85252
-7.321589 119.6796 11.08634
-10.17743 120.4943 7.577983
0.9345925 117.2903 12.905
-1.773296 117.5808 12.91784
6.349074 119.499 11.66656
-8.361429 117.5265 9.590105
-8.195217 119.9351 10.38366
-7.844884 120.4088 10.81514
-2.163501 115.3996 12.72496
6.128322 120.2559 11.98243
3.764529 119.7256 12.71947
6.648018 116.9809 10.86636
5.230503 118.5394 11.94117
-9.005994 119.7554 9.405746
7.078104 118.4426 10.90623
-10.45627 112.6994 7.186141
10.50507 111.3022 7.973625
-8.323997 111.6019 10.10489
8.351371 116.7354 9.335618
7.605073 116.9708 10.13729
6.008044 116.9135 11.26558
5.69181 116.6468 11.42516
3.662573 115.7826 12.33461
1.185366 115.149 12.82273
7.191202 116.0127 10.34853
4.602993 115.1553 11.93986
8.135449 116.4104 9.498796
5.035756 114.7378 11.68857
10.28931 113.4161 7.170734
9.960401 114.1129 7.441454
6.670231 114.7006 10.68776
3.960531 115.411 12.25406
3.283432 112.4082 12.56119
3.968825 114.6362 12.19111
-7.562886 117.3189 10.19768
-6.9552 117.1041 10.6702
-8.959288 118.7793 9.026062
-6.762742 115.9242 10.66821
-7.225638 115.3662 10.27452
-5.536451 113.9467 11.45461
-3.990207 112.8893 12.33541
-4.613905 114.6245 11.86198
-3.845342 116.1486 12.30085
-2.601851 115.0923 12.65911
-3.398601 115.1187 12.42814
-2.510579 114.8635 12.68016
-0.875563 115.0068 12.8261
0.5362256 114.1079 12.81279
2.732493 116.1232 12.61907
0.05782074 114.9524 12.82417
4.393242 114.7219 12.03039
-1.283817 114.3346 12.80454
-1.66231 113.0278 12.77067
0.129838 112.1968 12.86961
1.355697 110.2705 13.02331
-2.04358 110.4997 12.95235
-3.952502 111.9962 12.38043
-4.988224 113.174 11.81389
-3.590719 110.3582 12.73505
9.655083 116.6329 7.621345
9.687198 117.9734 7.781523
2.620456 114.074 12.61791
1.961004 112.9868 12.76482
5.414942 111.1038 11.93007
1.007434 112.388 12.85343
2.007314 110.8973 12.9288
5.948796 112.3606 11.42776
-6.486325 117.8305 11.13029
-15.15462 82.70128 5.592284
-15.24268 85.70581 5.69066
-9.894843 109.6411 10.1353
-12.756 109.0122 6.913407
-13.41405 106.9718 5.394453
-14.4475 94.35155 6.612336
-15.27204 91.25209 5.24103
-12.17391 109.8519 6.097393
-13.82336 98.88754 5.752145
0.8892884 81.76202 12.34669
-11.16215 84.54046 11.58755
-13.28829 82.22349 9.97703
-14.64523 82.26555 7.688603
-15.28447 90.7979 5.178923
-12.96113 83.83523 10.39512
-11.69823 83.52 11.34923
-14.62658 84.58764 7.84963
-13.20968 101.4749 7.160495
15.15797 87.58138 0.8354394
15.31864 85.03029 4.88412
15.26225 86.40232 1.796769
-11.00699 109.769 8.498252
-11.2859 109.4965 8.456408
13.08975 103.2485 4.531908
-14.88715 94.29981 4.802686
-1.681516 108.3337 13.99224
-3.916212 109.8005 13.08342
15.3639 89.33611 5.081191
12.74628 107.2178 6.515387
-15.12714 84.49381 6.170895
-8.096348 110.2027 11.27459
-14.91636 90.99634 6.560699
-10.7137 109.5627 9.70357
-6.226287 109.7246 12.34546
1.588051 83.81585 12.26619
13.25276 97.57588 -0.3005955
-13.29589 88.09165 9.611012
15.16025 82.7975 5.378927
-4.370699 104.235 14.27951
-12.99594 102.8493 6.055415
8.582211 82.89482 12.21846
3.619187 83.23811 12.27626
14.92286 85.08536 0.4538658
11.87774 82.89854 11.24166
6.337648 83.14467 12.23502
13.30151 108.7514 2.292629
15.17081 84.10607 1.766785
15.03625 84.98003 0.9786652
15.05936 87.45136 0.4711743
15.01272 89.14079 0.2946682
-14.91706 86.69096 7.014938
14.06923 94.37653 0.1719916
14.21714 92.04849 -0.8357751
-12.99087 84.47711 10.30966
10.15235 109.6806 9.983535
-13.89231 86.77232 9.04804
11.66768 110.8826 5.110151
-5.140487 109.9477 12.373
11.75536 101.7301 8.642785
4.753755 110.2639 12.54691
-13.46056 82.70678 9.797892
11.88547 109.3493 8.281497
-15.27498 86.46194 5.959192
13.27271 103.1799 2.027559
-11.02701 88.87123 11.07256
-15.3435 89.28773 5.076706
13.40391 108.3546 1.494261
12.65854 110.0836 2.239232
11.83745 111.1062 2.287842
12.13949 110.4109 2.021894
13.26578 107.2156 2.963271
12.64585 109.1395 1.511103
-13.62192 85.07769 9.515375
-11.92701 84.29732 11.15658
-14.21146 82.75879 8.692279
-10.61905 84.59267 11.87163
-5.142687 89.73035 11.36912
-1.980047 84.35484 12.2392
-3.694367 109.7783 13.27977
-7.389233 108.207 12.25513
-2.286423 107.5139 14.29101
-12.52807 107.7415 7.51599
-10.7334 109.702 9.258573
-9.02152 110.2859 9.985513
-12.12065 110.5449 6.590557
-12.85058 108.4289 6.818407
-12.0089 108.6843 8.600853
14.20632 85.67047 8.650609
12.88968 90.1564 9.722008
15.08389 90.18185 1.225548
15.0144 92.19342 2.149645
14.90814 83.84534 7.027082
15.23558 85.546 1.781858
15.40908 86.80431 3.693425
15.29345 83.27797 4.506933
12.92576 109.1158 5.999281
7.778619 110.5854 10.90633
13.22942 107.6874 3.015709
12.98982 109.2504 1.853587
11.70406 111.0369 5.01569
13.15485 109.0937 2.992156
12.351 109.4501 7.257744
13.43466 103.64 2.354065
-14.59514 94.56459 6.08781
-15.31268 90.39905 4.897072
-15.13567 88.5486 6.318731
-14.9706 93.57954 5.140127
-14.5443 82.79217 8.014944
-14.94798 85.08234 6.963109
-12.12745 83.64143 11.06949
-7.782897 82.20101 12.31761
-5.916132 82.24223 12.35109
-3.769053 82.03344 12.35289
-3.619622 84.76676 12.20374
5.001642 109.5648 13.15772
-0.2452744 108.2424 13.11904
4.386334 107.6473 13.96427
-7.993011 108.0019 11.99593
-2.802205 107.6 14.17894
-12.70922 104.0308 6.57388
-13.49363 101.0481 5.828794
-13.96165 98.41621 5.133476
-11.17867 107.9468 10.08634
-10.73362 109.3297 9.9645
-12.96523 106.8963 6.405979
13.51327 82.23948 9.721962
14.73485 85.70178 7.569186
4.35882 84.23531 12.23395
14.20828 94.60202 0.7748456
15.35144 84.38158 3.973806
15.3769 86.11176 3.696036
15.31949 86.24467 5.510409
15.02805 90.65878 1.234832
15.23077 86.40971 1.462552
13.25701 102.0059 1.314036
13.47106 100.8332 2.987337
11.94312 110.3983 6.49019
11.47452 110.9967 5.840252
6.634918 109.6168 11.57914
9.583951 108.1849 11.06964
13.75061 105.1502 1.017135
-14.85683 94.258 5.137779
-14.70877 88.5266 7.429901
-14.19604 92.02862 7.962698
-14.78008 93.95083 5.884798
-15.04985 92.76663 5.512019
-15.16508 88.14676 6.25428
-15.07449 87.68937 6.512279
-14.93002 84.40639 6.990491
-10.98186 85.39495 11.55929
-4.782241 82.28329 12.36183
-4.747886 83.59016 12.32169
1.668965 81.97401 12.33861
3.361362 81.74872 12.34523
3.658218 110.1435 12.74039
2.754103 109.2811 13.8721
4.699045 109.7705 12.96751
5.718295 109.623 12.03421
-2.439993 109.5301 13.16276
1.904583 109.8873 13.15551
-6.770764 109.755 11.62132
-7.392833 108.7412 11.92379
-4.483345 110.2707 12.4616
-4.069136 109.2212 13.24324
-12.86196 106.7436 6.618118
-13.04395 102.5594 7.209347
-13.63907 100.7577 6.28532
-11.93335 109.2378 8.00595
-11.49703 102.1386 9.435241
-8.773586 109.017 11.33319
-10.37905 108.2174 10.75916
-8.126174 107.919 12.00816
-9.498643 107.7453 11.71292
13.31951 83.51143 9.968148
14.75494 82.4813 7.300424
9.286854 83.69868 12.19571
14.62099 91.79717 0.1443375
14.58613 92.72877 0.6661062
13.2327 98.33043 -0.06178372
15.33171 87.77071 2.335688
15.37951 85.26539 3.839043
15.30124 88.70051 1.966873
15.19275 88.23966 1.230617
15.22364 90.96376 2.517127
13.80566 104.6179 2.348013
13.42673 103.8783 2.768996
13.28288 102.1567 1.653524
13.76334 105.7923 3.020419
13.19213 108.0707 5.214347
13.17086 103.3647 3.623595
13.00381 103.9389 4.721371
13.18912 102.435 0.702944
13.54334 97.24969 0.5069358
12.01355 108.8178 8.1868
12.00672 109.9193 7.689905
12.34325 108.9037 7.530567
11.64913 110.5697 7.773673
12.68973 109.6208 5.130739
9.971852 110.1969 9.486409
13.31357 108.6155 2.969701
13.53053 106.8301 2.009992
-13.85796 97.45344 6.422217
-14.44279 95.61697 5.901808
-14.20298 97.60999 4.349647
-14.148 85.49974 8.790618
-14.56782 89.50565 7.625887
-10.13546 83.69913 12.06156
-10.58668 85.96687 11.70407
-6.679721 83.25972 12.40372
-6.680895 86.04259 12.05278
-13.5309 85.42381 9.605288
-9.306812 86.25781 11.90257
-1.964578 82.49929 12.34869
-0.2875593 83.93275 12.27227
1.265373 82.36655 12.33045
2.009431 83.48908 12.27949
4.671802 83.1217 12.27206
6.745017 84.52644 12.22497
3.786077 109.6081 12.85443
8.649478 108.4955 11.68456
-3.36844 109.6866 13.37684
-4.317089 105.9313 14.37176
-0.5191725 107.4432 13.42978
0.9534131 108.2487 13.27215
-9.558355 106.4798 11.88544
-6.885955 107.6944 13.04335
-6.368766 107.6395 13.21273
-12.45925 104.0088 8.191768
-12.82028 103.245 7.227997
-13.23846 101.9951 6.540594
-13.5122 96.17491 7.955173
-12.26992 104.6096 8.476852
-11.54708 105.5883 9.893675
-10.90154 106.632 10.66618
-11.52204 105.8281 9.917586
13.59919 84.2789 9.582435
14.77237 82.8708 7.357513
14.61572 84.81837 7.918186
10.64849 82.80723 11.90115
11.14841 82.79128 11.70362
9.515065 84.1713 12.12722
14.40723 93.86102 1.035439
14.96735 93.69784 4.14954
14.28193 93.95087 0.5949231
14.38785 95.68745 2.254805
14.14626 96.67073 2.27769
14.82227 90.69193 0.2057112
15.30827 88.01987 5.564705
13.73474 106.1142 3.882112
12.88933 103.1771 5.87361
12.94911 105.4938 5.331417
12.64244 106.7616 6.588401
13.31335 102.2992 2.790869
13.39615 101.6287 3.337759
13.55063 100.4388 3.346175
13.28308 101.3017 5.638816
13.81756 104.2267 1.006719
-14.18899 97.26927 5.303884
-14.77372 85.27155 7.463617
-13.54253 85.82887 9.559587
-13.46413 88.55768 9.348066
-4.783736 84.09626 12.27464
-12.27634 85.65883 10.79766
-10.69928 90.8927 10.88654
-2.273753 83.42357 12.32178
2.620057 84.40132 12.22881
0.9855808 84.38335 12.23957
7.546853 82.15266 12.3292
6.423797 83.35314 12.23029
4.181932 83.91512 12.24725
5.598478 107.6683 13.73254
-2.928932 108.8476 13.53545
-0.8444648 106.3679 14.26761
-3.749296 107.9014 14.11595
1.667997 108.2666 13.86026
2.51481 108.1623 14.11004
-9.462463 104.5194 11.85472
-7.076694 105.8658 13.42803
-4.700121 106.949 13.71575
-13.42823 101.4505 6.613523
-13.21989 99.09418 7.069692
-12.07492 105.6173 8.411638
-11.04864 105.305 10.56633
-10.52824 105.355 11.09613
14.92241 85.74031 7.020339
14.71408 86.46762 7.566028
12.08242 85.81346 10.85046
11.68148 83.91566 11.33496
8.132811 84.34907 12.23598
6.555319 86.83324 11.95151
15.00322 93.55818 5.126336
13.62913 96.82685 0.5119323
15.43071 88.43836 3.013765
15.43014 87.90308 3.406309
15.12776 92.2062 2.778068
15.39131 89.77803 4.242102
15.22112 92.07504 4.719933
15.13825 92.54139 3.490249
13.09839 108.6086 5.513277
12.86496 107.9593 6.501355
13.16829 101.9132 7.196268
13.46926 99.6276 1.518411
11.1377 108.9036 9.415708
13.80758 104.7511 2.475903
-7.139382 83.62193 12.37899
-4.946067 86.00781 12.06059
-2.158614 87.88908 11.78479
-4.38356 87.52095 11.84032
-6.694497 85.37766 12.13521
-13.23934 89.91128 9.424802
-0.5438663 82.96229 12.32467
-0.9572875 87.16261 11.90322
-1.192291 84.89569 12.1879
-3.96741 84.76572 12.20425
-2.232597 83.64836 12.30362
2.389906 87.015 11.93199
3.564004 84.86301 12.20105
5.90423 86.94689 11.93703
2.213436 108.5387 13.99479
-1.742866 106.9471 14.39174
-3.452311 105.1286 14.46125
-4.202425 107.7085 13.8799
-4.983271 108.3029 13.07829
-3.878252 105.5144 14.42083
-2.070741 99.23379 13.1248
-7.227291 105.112 13.38727
-5.586812 104.1653 14.0148
-6.248221 104.4597 13.79235
-8.463053 105.0494 12.6935
-8.665669 104.4596 12.47366
-9.886355 104.4437 11.49052
-1.73337 106.546 14.48569
-0.01406138 105.7596 13.75922
-9.744577 106.0178 11.77238
-6.752722 107.4595 13.16567
-5.144188 107.8906 13.20138
12.54734 86.89196 10.45042
14.13005 96.06306 1.645562
15.25373 90.03306 2.159321
12.41504 107.909 7.30479
12.4011 104.8093 7.062832
13.12065 102.148 6.051843
8.819889 109.4675 11.40824
7.904629 108.9992 11.76137
9.557383 108.7444 11.06998
-4.464786 86.66762 11.96654
-11.24615 87.90724 11.12592
-12.19733 88.40105 10.51815
-12.49869 90.28607 10.0247
-1.389352 86.13184 12.04852
2.035538 86.13829 12.05293
-0.4134986 85.78596 12.09262
-3.5795 86.17055 12.04194
-3.394835 86.16866 12.04205
-2.461796 87.00356 11.92654
4.525798 85.95905 12.08487
3.006806 94.37981 11.15791
5.525794 87.1362 11.90821
-0.7629944 100.5527 13.89218
-0.450052 103.9533 14.42299
2.618082 95.89017 11.32582
-1.235344 102.609 14.44022
15.09265 86.35297 6.46067
14.78664 87.09861 7.365136
15.08431 91.95175 5.557342
15.02578 92.58989 5.709129
14.06561 87.74741 8.725272
13.38711 85.47639 9.758995
11.58704 103.8311 9.558478
12.71531 103.5188 7.174259
7.008766 108.8874 11.57077
7.924689 107.9575 11.99471
9.236453 106.8195 11.53895
6.982501 106.9016 12.94097
-6.047586 86.9356 11.92473
-12.20251 87.20773 10.65896
-9.75684 88.32126 11.53544
-2.704031 87.35907 11.87117
-7.248838 86.55146 11.98503
2.694291 85.02765 12.1884
-3.708372 102.818 14.16134
-3.565039 104.3658 14.40647
15.40411 88.62495 4.008586
15.30731 89.83371 5.527785
15.36275 90.01522 4.684667
14.93189 89.09512 6.825423
10.28074 107.3324 10.65962
11.13013 105.4812 10.13262
12.13242 105.9078 8.063438
11.18342 103.3126 9.826335
10.38505 103.1378 10.46657
6.220424 108.286 12.38068
6.256361 107.4001 13.24924
6.845421 106.7329 13.19445
7.037695 106.7185 13.06399
4.577819 108.5877 13.58515
9.067814 108.1028 11.51165
8.952757 105.1251 12.11656
10.72842 103.9606 10.38317
9.853739 106.4292 11.0361
-12.20724 89.05731 10.41412
-8.85266 87.20043 11.82768
-9.571069 89.4623 11.36362
-2.369302 91.7868 11.01092
-5.481212 87.25349 11.87572
-4.966464 87.6528 11.816
-6.747324 90.55289 11.24089
6.122021 88.35447 11.66648
3.668817 86.58708 11.99448
11.3032 105.2824 9.959555
10.30056 104.9533 10.79042
8.976328 103.6891 11.91993
9.781979 101.8046 10.56145
9.88735 102.7366 10.76261
8.081984 107.3103 12.17009
7.11964 102.3261 13.11738
-7.92149 89.39982 11.47815
-10.52165 89.49261 11.11984
-7.99506 88.10313 11.72871
-5.993173 89.52676 11.45078
8.501265 102.7537 12.01477
13.7254 100.2883 5.8664
7.192256 105.0797 13.38197
8.157117 103.6899 12.59591
-2.649699 88.68296 11.62239
-0.8228669 88.59478 11.63556
-1.396294 90.37116 11.09614
-0.1524531 89.85245 11.23431
-4.979717 90.50272 11.1741
10.06274 102.8097 10.63428
-2.132582 89.56677 11.36639
-3.421402 91.3778 11.01581
-4.943269 91.60303 11.02334
-10.2296 94.19223 10.50367
-10.04877 91.46637 11.00502
-7.305704 90.87139 11.18889
7.746483 100.762 12.70825
12.50753 98.8118 8.34137
13.03875 102.1728 7.524103
-0.6960096 89.54565 11.35228
-0.5583145 91.2183 11.01296
1.705208 88.2053 11.72352
0.0476025 92.59165 11.11322
8.74859 95.37952 10.70604
2.65301 90.181 11.1844
-4.111889 95.0033 11.11111
-13.88592 94.87944 7.639638
-7.30165 90.09037 11.35509
-6.010184 90.60215 11.18902
11.86824 102.7129 9.011934
12.19108 102.3815 8.591869
3.221671 91.557 10.99798
3.723667 89.92671 11.28468
1.916708 92.45147 11.01152
8.130835 95.43742 10.79391
4.857398 89.91253 11.30997
3.092319 96.09977 11.28152
4.456086 90.49758 11.17801
4.820367 91.96297 11.00422
-2.074208 97.65047 11.72236
-10.01951 91.46093 11.00896
8.794083 101.2856 11.60386
0.5771151 93.55472 11.22548
-2.754744 92.51564 11.04349
-4.025984 93.18856 11.07258
-11.17831 91.74686 10.53678
-9.543678 92.70181 10.86725
-6.122364 93.70716 10.99033
-7.154356 91.7226 11.03969
-9.206787 93.48185 10.81056
-2.987135 101.3082 13.91898
9.332081 101.2949 11.05312
-0.3458658 93.30424 11.20965
-0.2743366 94.40478 11.33886
-1.635982 94.56804 11.3002
-3.617256 90.99861 11.0253
-11.36277 93.15729 10.2278
-12.35141 93.25404 9.627219
-10.23975 91.44908 10.93612
-11.62214 89.96609 10.59118
-13.46114 90.24656 9.122983
-11.00322 90.37607 10.8349
-12.57027 90.63201 9.898924
-4.536217 93.71331 11.06135
-4.610004 94.01994 11.05891
-4.591319 94.74904 11.06806
-7.605971 93.54992 10.94081
-3.731185 95.97411 11.20107
-6.979941 96.06142 10.90144
-7.727751 96.94588 10.84579
-11.16692 94.32825 10.14344
-11.20341 95.24583 9.993068
-11.80917 94.27814 9.827046
-10.0669 94.71235 10.48964
-12.90861 94.3943 8.954917
-13.75747 93.94728 8.039155
-14.63623 91.87695 7.092492
-8.885476 96.46975 10.61255
-10.29743 96.98484 10.2066
-1.371892 97.35108 11.75348
-4.55755 102.4949 13.98317
-6.183122 95.18729 10.95078
-7.969044 94.82334 10.8193
-5.025145 97.62399 11.401
-9.045657 101.5057 11.41425
-10.66994 98.49778 10.82516
-10.14406 102.9607 10.87558
-11.35807 103.6904 10.08136
-9.290977 101.3391 11.17096
-11.82953 97.33974 9.689551
-12.08021 96.82644 9.530459
-14.19506 94.14387 7.371597
-12.43284 97.46986 9.220001
-10.89744 97.59279 10.11172
-12.83477 97.04587 8.716318
-10.82292 98.44438 10.74219
-10.20913 97.44746 10.31025
-9.076139 100.5914 11.54492
-8.952713 98.04501 10.92787
-9.546756 99.46436 11.5453
-11.43835 102.3841 9.569487
-13.42134 96.97997 7.867499
-9.426418 96.16225 10.50742
-8.974292 99.87338 11.89298
-11.1222 98.69519 10.36357
-13.44322 99.4255 6.545588
-11.52112 99.94586 9.063278
-12.89158 100.6488 7.531807
-10.21934 100.8797 10.32755
-12.62841 102.8125 8.331431
-14.84219 90.92509 6.773785
13.5091 100.6063 3.153114
13.62084 99.8306 2.812161
14.28462 97.23739 4.807448
14.01551 97.66984 2.734952
0.6332002 105.9796 13.57585
1.919881 107.2878 14.05668
12.1328 87.85413 10.62646
13.49563 100.7564 3.939084
-0.3004713 88.76309 11.58782
14.51947 88.90388 7.892482
13.44536 88.70673 9.351324
13.13405 89.44212 9.609416
14.08692 91.74134 8.018315
14.84106 89.87633 6.978882
14.20541 92.66166 7.802269
11.86422 89.81541 10.48175
13.73526 90.7746 8.726143
12.04295 92.8363 9.772754
12.3024 91.16135 9.948595
13.68007 88.90488 9.059523
9.863029 94.76647 10.51031
12.87581 92.86817 9.18113
9.664371 90.91007 11.11269
9.138103 88.58272 11.56099
14.30892 93.4761 7.374544
15.14905 92.60913 4.724953
14.34178 92.75105 7.585302
14.96877 93.81171 4.854021
15.00853 91.32638 6.243988
12.35379 89.13101 10.28828
10.36518 89.77552 11.1342
12.20731 87.19338 10.64566
13.54088 99.64785 6.008935
12.97075 93.67284 8.920637
14.66535 90.71651 7.272316
6.741768 87.42166 11.85795
6.894472 86.40349 12.01116
10.48044 87.81635 11.45062
9.617254 85.99776 11.89196
9.663272 89.80577 11.27036
7.034966 87.72827 11.80002
9.364351 89.7632 11.33357
13.60496 95.10535 7.944107
13.49987 96.40526 7.805186
14.48342 96.16048 4.186741
9.288923 96.21307 10.48393
13.35036 94.67274 8.419575
8.929768 88.98321 11.50915
4.469339 92.14605 10.98012
5.648538 92.1245 11.00894
4.810815 89.16159 11.49153
5.624866 89.70499 11.37592
12.0453 95.3033 9.48926
11.75929 92.6565 10.04561
9.504371 90.45911 11.19003
6.950489 88.71765 11.59443
12.39646 94.5065 9.406483
11.14611 94.91987 10.05707
11.57468 95.19686 9.823962
10.96218 96.42181 9.903331
11.53953 98.78092 9.934938
12.4038 97.17513 9.357821
6.901722 99.2942 12.51918
8.977729 97.99351 11.04059
9.940891 97.36971 10.28392
8.240626 97.37798 10.76761
8.023748 96.77888 10.79451
6.318729 97.39526 11.20338
8.048442 98.97968 12.03019
7.87704 98.64452 11.80365
6.433343 99.75655 12.84435
6.621786 92.48248 11.00269
7.308821 95.01785 10.84487
5.183791 94.68353 10.99451
7.310199 98.93794 12.1344
7.789254 94.71788 10.81635
6.684309 97.63205 11.27554
9.083895 93.85517 10.74316
7.800267 94.13495 10.8191
9.944473 93.9511 10.5688
7.689516 93.02516 10.93467
5.596569 98.86599 12.3649
7.541965 93.91012 10.84721
12.15432 99.85825 8.332987
13.58865 99.07181 5.904974
14.15485 97.77235 4.945565
13.19337 99.22253 6.903221
12.91657 98.70393 7.736936
11.68221 97.35094 9.731242
10.38303 98.18357 10.61123
13.89468 98.96072 4.991315
9.857635 101.0631 10.6152
13.53366 98.27812 6.719506
10.48178 100.5819 9.963452
10.05269 99.57944 11.27849
14.44702 96.0753 5.471884
14.53699 96.00968 4.624621
10.21775 101.0843 10.20485
8.991867 99.41618 11.88283
8.700252 102.4889 11.7638
8.351527 102.2433 11.97017
13.99593 96.63062 1.658959
14.25268 97.02571 5.363986
14.7116 94.94951 3.411501
5.617513 100.7365 13.37237
7.993441 101.8139 12.29694
14.48951 95.99 3.567327
2.235985 100.491 13.81843
2.745395 101.816 14.17468
5.204304 103.0898 13.90768
4.708242 103.7293 14.09023
5.330466 102.8085 13.84951
4.908399 100.9796 13.57467
4.474772 103.2151 14.10389
3.92236 103.3529 14.19814
-6.9705 93.85805 10.94404
-2.717231 95.12414 11.25179
-2.652554 95.46477 11.28806
-2.239498 96.03925 11.40933
-2.443185 102.3819 14.25884
-1.795355 101.4224 14.11224
-5.120557 102.8097 13.96037
-2.263634 99.67035 13.34636
-4.004287 101.6487 13.88312
-5.977309 103.6934 13.81213
-6.540088 102.0526 13.37301
-9.726132 103.3579 11.34393
-11.39698 104.6643 10.14023
-10.90208 102.9003 10.20876
-11.42695 101.162 9.09326
13.46804 86.51104 9.604512
14.71241 95.03539 4.613559
7.603693 89.54115 11.43604
8.289034 91.42522 11.15681
6.908532 91.99604 11.0644
0.4906135 95.6178 11.48963
0.4197025 97.2595 11.7486
3.572222 95.34713 11.12868
2.132135 95.70074 11.37166
4.511264 97.81702 11.57804
1.845671 94.72711 11.28712
2.160416 97.22171 11.58761
4.56065 96.30557 11.12004
2.487583 99.32748 13.14754
3.92231 100.6596 13.65394
3.483673 98.84119 12.61963
4.440665 99.31647 12.88978
4.399211 99.5556 13.0494
2.070095 101.7956 14.25284
2.009161 100.4343 13.81528
1.290823 100.8361 14.01701
2.729988 100.7232 13.8554
0.9459053 100.0221 13.70684
2.04177 99.09265 12.98532
1.45005 98.9787 12.91565
0.8979174 100.5108 13.93686
0.1348183 101.9741 14.39936
-0.5235111 98.34917 12.27453
-1.494707 101.7501 14.24877
-2.67538 100.3381 13.62781
-2.325498 98.14492 12.08277
0.3044495 101.0042 14.13747
12.08072 101.2167 8.205033
12.36618 101.3566 7.897784
4.217066 105.3895 14.21536
3.93115 106.7353 14.21318
1.972058 103.4449 13.93343
0.4514982 103.4807 14.02035
1.263596 102.2814 14.18706
-0.1174848 104.6674 14.02623
2.615732 102.385 14.24138
-6.268928 100.7403 13.21053
-7.198269 98.73002 11.97992
-5.066012 99.45795 12.90854
-4.693281 98.56031 12.27639
-4.881379 98.05402 11.79263
-2.950329 97.31025 11.5863
-1.829519 98.13164 12.09209
-2.406938 98.82647 12.74111
-8.067165 100.9879 12.42828
-5.609542 100.1729 13.16196
-5.400845 102.5821 13.84672
-7.62233 104.4136 13.12654
-7.428562 102.6426 12.96625
-11.42089 101.7556 9.343168
-10.82803 101.9548 9.9034
-0.5562711 97.97929 11.91555
-0.7812291 98.82432 12.78217
-8.310393 101.8025 12.11685
4.44708 87.83257 11.78184
1.476522 87.8202 11.80137
2.805132 87.68647 11.82575
2.809378 86.29395 12.03216
4.680639 88.74097 11.5872
6.9087 85.22641 12.18018
11.35648 111.5235 1.447488
8.357296 111.5884 -2.880134
10.00486 113.5187 -0.0003840417
9.310907 111.4867 -2.190434
-3.339613 113.9101 -3.295443
2.974921 111.5057 -4.037388
3.912967 111.2459 -4.11638
-5.632704 119.5114 -3.753654
9.656494 118.8725 -0.06783426
-2.442567 110.8077 -4.290876
9.027855 113.8992 -1.162606
-8.464684 113.1185 -2.136626
10.76516 113.6745 1.977078
-10.41078 117.6044 3.286297
9.551467 113.9894 -0.5296918
10.70946 112.9878 1.175267
9.349644 112.3893 -1.59572
-6.365837 113.7179 -3.052342
10.90197 120.6377 4.491663
-0.6203933 111.2564 -4.112186
-10.62223 114.3057 2.456994
10.20168 117.6138 2.002462
-0.2039944 112.3167 -3.855129
6.252609 120.0544 -3.626022
5.184435 118.9142 -3.661699
3.373956 117.8957 -3.720527
-10.0231 111.6612 -1.331628
10.28942 120.519 0.3255562
-8.542076 112.4332 -2.342607
-8.237327 111.3107 -3.084611
10.55984 118.8288 3.55777
10.59591 119.7621 2.325087
10.65002 119.6692 3.071071
8.413157 119.7566 -2.032618
-11.24175 112.159 5.52475
10.80639 120.2854 3.44584
-10.86968 112.8118 1.441161
-5.90877 111.4496 -3.705389
-8.587065 111.4417 -2.769956
-8.571439 120.0978 -2.006684
-10.78988 121.0535 1.927058
-9.191263 112.4087 -1.823132
-1.901512 120.2476 -3.980056
0.8128538 119.5604 -4.052037
-7.883357 113.6329 -2.317084
-10.885 113.4157 2.385218
-0.5154687 110.6056 -4.355217
-10.42946 120.2031 1.203474
0.09141922 111.7395 -3.993495
-10.77343 114.1814 4.214802
-4.756341 111.3315 -4.019754
-9.098042 114.4686 -0.8746337
-10.99221 113.0847 2.298403
-10.58467 114.709 2.982481
10.27924 116.1985 2.274292
7.606118 118.4967 -2.284583
9.668633 119.9778 -0.5032172
-10.23956 118.6564 1.549264
-7.124655 119.8353 -3.059259
7.098365 117.4223 -2.458533
10.97712 112.0864 1.109295
9.67087 112.5704 -1.209734
5.106902 110.9004 -4.143198
0.34605 118.1467 -3.691886
1.3666 117.0001 -4.046807
-8.885585 115.5224 -0.7991497
-11.53652 111.6964 2.901298
-10.92578 112.0001 0.6325519
-11.21229 112.8747 3.962495
-10.11335 114.139 0.6048893
-10.41273 119.3812 1.922393
-10.25037 120.5936 0.2900937
-8.666931 117.2322 -1.013341
-5.254638 120.135 -3.565367
-2.706929 119.873 -3.93943
-10.04969 119.7795 0.2610373
8.641571 112.7229 -2.077937
5.663223 115.4453 -3.10793
1.880257 118.7776 -3.927419
-3.055631 119.1358 -3.983611
-9.353311 114.2985 -0.5814752
9.842397 118.6192 0.4403333
3.117709 118.9628 -3.970302
4.364582 119.2984 -4.008037
6.066466 119.7449 -3.570164
5.429144 118.6193 -3.570094
-10.28295 116.2381 2.532303
-7.022118 119.4009 -2.927733
-1.123852 119.1919 -4.008745
-3.909755 117.5569 -3.74147
-9.782953 119.1855 0.1641934
-10.42717 120.0544 1.488955
-10.00116 119.9007 0.06025521
7.058787 110.9513 -3.742091
3.926049 113.1456 -3.666774
9.303513 117.0032 -0.05361417
0.1682943 117.7951 -3.564068
9.621626 117.8235 0.3319694
-8.964241 117.7189 -0.501552
-9.907188 116.9995 1.106172
-8.487234 117.2561 -1.22059
0.4315244 117.8733 -3.895271
-10.33915 113.8094 0.9195701
-9.337842 115.2861 -0.2493568
-8.338037 115.0847 -1.479052
-9.630139 113.0334 -0.9629043
-9.094701 112.9268 -1.583889
-6.532712 112.5593 -3.32732
-0.03440689 118.39 -3.784329
-3.820865 118.234 -3.806118
-5.570961 118.0995 -3.451749
-8.050337 116.9841 -1.626338
6.918242 112.903 -3.065111
6.964024 112.1393 -3.330811
7.803984 112.1651 -2.915236
7.042365 113.7365 -2.782355
6.773129 111.5631 -3.60287
10.52472 115.3146 3.160499
9.584114 116.1355 0.33462
9.913302 116.1206 0.9799857
2.229072 118.2114 -3.737168
4.26369 117.0418 -3.561013
3.692165 117.0839 -3.65522
2.904373 117.2323 -3.95223
-1.221321 114.0167 -3.264459
1.446355 117.7952 -3.887792
4.707721 117.928 -3.736489
3.52886 117.5478 -3.727971
-8.450728 114.7532 -1.433419
-2.164358 113.0947 -3.636424
3.810357 112.085 -3.894261
5.175354 111.8789 -3.818536
3.000861 113.0963 -3.704956
7.283114 114.7064 -2.313413
8.272591 115.4217 -1.489354
8.35948 114.8359 -1.574394
8.626334 116.5435 -0.9677929
6.569336 114.1569 -2.923918
6.912503 116.2941 -2.544816
3.631396 116.2119 -3.570893
5.06359 116.4981 -3.406121
-3.486562 116.7586 -3.597787
-1.158129 117.2353 -4.109207
-4.954776 113.094 -3.561738
-4.770668 112.6581 -3.657119
-5.3021 111.7487 -3.766166
2.615429 113.6331 -3.501754
-1.45169 114.2591 -3.367547
-5.166861 117.6213 -3.446993
-2.867276 117.7981 -3.762586
-2.820629 113.3882 -3.535479
-2.78511 116.9963 -3.662011
-1.745943 117.1683 -3.99496
-4.796321 116.5103 -3.485349
-4.377189 115.5038 -3.469658
-3.190444 116.3127 -3.608521
-1.911957 117.1826 -3.559256
-3.259475 116.7545 -3.581407
3.747344 115.098 -3.499933
0.0204613 116.9704 -3.279963
2.054441 113.0165 -3.705719
-1.709045 114.7845 -3.556006
-2.113554 115.531 -3.614176
2.658887 114.4257 -3.530661
2.5653 114.244 -3.519547
-0.5779926 114.7116 -3.51936
1.920524 110.7174 -4.316097
-2.388485 112.3176 -3.847835
-1.384099 112.5797 -3.784242
0.2514091 110.7243 -4.30561
-6.345109 116.1805 -2.841841
3.688578 115.323 -3.51657
-0.7976419 115.4611 -3.640968
0.2040403 112.3786 -3.852776
-1.073904 111.8025 -3.979879
9.714628 115.0196 0.2588956
14.5901 83.81598 -0.316464
14.77598 86.37804 -0.3039218
-0.9510834 108.4616 -5.213684
6.221402 83.47674 -6.881542
14.57616 88.98293 -0.8710889
9.201358 108.6433 -4.347986
12.2978 109.0714 1.181375
12.84951 107.1729 -0.5872488
1.62792 85.46925 -7.8118
12.77939 85.62863 -3.658879
11.35505 84.27582 -4.74162
12.37114 83.92575 -3.845172
11.15934 85.44341 -5.36917
14.01386 85.81022 -2.079027
7.472579 85.61576 -7.351175
14.69312 84.31654 -0.1595633
13.90386 87.32615 -2.34706
3.052027 82.97978 -6.985423
3.848302 87.23225 -8.734403
12.73676 101.7663 -2.360076
-13.14086 87.75013 -3.389435
12.65343 107.2567 -0.6975824
-15.4151 88.88889 3.676122
11.48494 110.2201 -1.50923
11.89734 109.5089 -0.7717119
-12.66122 98.85137 -1.694023
13.19182 95.28069 -1.605503
11.65773 110.5788 0.6566967
-12.58785 109.7206 4.656819
-12.65734 109.3579 4.576239
12.18532 88.58192 -4.803074
6.578651 110.4214 -4.185923
3.960835 109.3994 -5.478442
14.53872 85.1908 -0.7825127
7.399296 110.446 -4.166504
-12.81792 107.3636 3.429827
-9.063941 83.31676 -5.811101
14.17288 89.81287 -1.717328
-11.24454 82.92101 -4.537344
-13.04898 107.3112 4.161882
-10.22512 82.55852 -5.133234
-12.16769 110.3007 1.854025
-15.23929 83.64968 2.509658
-12.85503 108.2842 2.544398
-14.42952 82.63494 -0.4226792
-15.23707 82.34144 4.633649
-15.37313 85.18218 3.513506
-10.21695 107.2039 -4.23364
-13.82484 94.44974 -0.4263374
-14.94891 93.67835 3.438898
-14.70391 93.94236 2.167598
-14.97206 83.85167 0.7879525
-14.04776 98.32622 3.79299
-15.30523 83.39021 3.327276
11.48092 83.52012 -4.482158
12.57395 87.12192 -4.129622
-9.572718 107.5711 -5.010465
-4.049638 109.9436 -4.899454
-12.66913 108.6832 -0.1837555
7.165118 108.1094 -6.052629
-12.38512 110.1631 3.654146
9.757382 110.8044 -2.150202
-14.98298 93.62354 4.155387
-13.37162 105.359 5.081192
13.27841 106.7949 0.03923558
-9.301467 88.28744 -7.834486
-12.646 108.3598 4.771389
-12.31337 110.0241 4.830468
-11.73762 110.7163 5.302642
13.26839 96.09387 -0.9801452
-13.4502 101.1602 3.451271
13.98275 86.78917 -2.203182
12.95567 83.28639 -3.03898
3.410432 84.62776 -7.408486
-1.310707 83.53194 -7.135499
-2.410334 109.2769 -5.138005
4.820302 110.0936 -5.186324
7.368093 109.1253 -5.609691
13.3612 102.9295 -0.485542
9.221272 102.7612 -6.776534
11.25209 109.4931 -2.148928
11.57724 110.5429 -0.6375188
11.78968 109.884 0.8798707
11.98022 108.8321 -1.015649
13.11702 105.4177 -0.6221318
-9.043001 86.38669 -7.072753
-14.78587 90.85088 0.3443057
-14.37568 96.18009 2.907183
-14.437 84.89769 -0.9220161
-15.38809 88.7522 4.60858
-12.02171 109.7801 0.5846043
-13.50097 100.8251 4.23525
-13.02325 107.7119 5.261706
-13.37061 104.7938 4.735827
-12.28099 110.295 2.920797
-12.64478 108.128 5.240118
-12.90719 108.2112 1.568885
12.91099 95.5751 -2.159784
14.39096 90.33409 -1.01794
13.98871 89.16428 -2.231421
13.52416 93.71141 -1.596271
13.04192 84.20499 -3.10926
14.10607 85.38628 -1.86282
10.79704 83.67813 -5.030038
6.272906 83.077 -6.82754
4.690312 82.72513 -6.925902
7.187449 84.26463 -6.820789
5.378399 85.58722 -7.688681
-6.103575 83.67927 -6.852574
-4.35661 109.2902 -5.30495
9.015877 110.5518 -3.59921
5.85955 110.3911 -4.823206
1.042136 107.5557 -5.774848
12.47075 105.0254 -1.999247
12.21634 104.1423 -2.595904
12.34682 99.31666 -2.429602
10.44181 107.7447 -3.490127
8.669206 110.1461 -4.301654
12.67184 105.3603 -1.536403
-10.52962 84.41005 -5.477261
-13.23039 82.24414 -2.451565
-11.55844 82.39622 -4.184514
-10.61771 84.72487 -5.484548
-8.198774 82.88623 -6.030458
-15.34624 90.55448 3.258826
-15.20813 82.3908 3.019032
-15.32727 83.89359 3.602882
-14.08588 82.28198 -1.05757
-9.011544 111.0507 -2.670407
-8.211014 109.7252 -4.817223
-13.59341 100.1673 3.098671
-12.93031 106.6786 2.964297
-10.64106 111.0547 -0.797433
-12.57494 109.8481 1.457063
-12.8653 108.954 3.08806
-11.76708 109.4034 -1.226622
-12.86936 106.1885 1.066086
-12.64344 107.5859 -1.479522
-12.52359 107.9528 -1.5607
-10.84633 106.7154 -3.571764
-10.83133 108.9707 -2.678746
-12.69951 107.5249 -1.173077
-12.61302 106.2397 -1.855437
-13.3248 103.6592 4.270166
-13.56194 102.3698 1.802462
13.64902 93.72156 -1.286543
12.61215 97.11036 -2.274478
12.84426 88.30443 -3.871517
11.76482 91.91982 -5.430435
14.00432 92.35255 -1.216766
14.20327 87.5848 -1.787429
14.19168 88.28387 -1.863686
14.25681 87.8179 -1.692814
8.672978 85.15221 -6.70168
5.18573 83.66174 -7.013395
5.697439 85.23771 -7.488424
1.111663 82.77326 -6.95652
-1.372899 83.18187 -7.046099
-2.705148 110.3124 -4.664987
-0.1306685 110.3632 -4.453555
1.629171 109.49 -5.692896
6.652235 110.1161 -4.597054
6.810652 109.5772 -5.299957
3.343646 109.8423 -4.948525
12.3772 106.7012 -1.47065
12.76483 102.8914 -2.336629
12.65939 100.4426 -1.53083
11.59063 109.6993 -1.971008
10.21654 105.9412 -5.07211
9.352764 109.7826 -4.020676
10.06774 108.7851 -3.652424
8.379704 108.047 -5.11327
10.00141 106.5268 -4.69931
-12.90849 83.21015 -3.040909
-13.7291 84.04687 -2.026685
-7.649912 82.88177 -6.241282
-7.217311 85.61493 -7.53018
-15.18268 92.27303 3.35702
-14.91245 82.72395 1.00089
-15.13663 82.70614 2.227719
-15.3225 85.2905 4.910853
-15.34229 84.83242 4.322544
-14.50333 85.23438 -0.8285691
-13.90363 83.13799 -1.491988
-15.29209 89.19209 1.928401
-15.33914 90.66461 3.482703
-14.83454 91.4574 0.7371302
-15.16355 87.87537 0.8743708
-15.01506 90.10306 0.7008967
-15.22593 88.82234 1.374479
-15.02167 90.73351 1.286728
-14.89549 84.66989 0.3703478
-14.98392 85.51696 0.4265662
-15.34974 84.55254 4.042557
-9.989902 110.3578 -2.814628
-5.840802 110.3734 -4.76428
-13.59283 104.8249 3.953372
-11.65013 110.7148 0.4996251
-11.89179 110.1185 -0.2381865
-12.78488 109.6584 2.357013
-13.34373 103.6099 0.8950519
-12.86264 106.4884 0.5133876
-12.89994 104.4376 -0.3008829
-12.28996 108.4598 -1.481207
-12.66606 104.7985 -1.448032
-11.40259 108.0716 -2.152112
-13.63421 100.0657 3.455592
-13.79456 99.25057 3.507336
12.45256 97.76698 -2.497502
10.72028 98.76196 -5.785627
12.20586 95.8688 -3.657892
13.01237 92.82357 -3.101242
11.68756 85.93285 -5.06855
14.224 86.35275 -1.703244
9.778392 85.25471 -6.193665
8.60044 86.99824 -7.619794
10.99603 89.04026 -6.464873
9.930826 86.16424 -6.476379
1.91899 83.9343 -7.227248
-0.4273148 84.82001 -7.549013
-2.504837 84.43413 -7.399996
-3.092868 110.0894 -5.151371
-2.029774 108.0909 -5.891769
-4.667607 109.6089 -4.967602
-5.257244 109.5201 -5.500194
0.6176359 109.0715 -4.744818
8.095186 109.4923 -5.037038
5.855049 108.9076 -6.190924
2.692696 109.8197 -5.023208
3.560874 107.2925 -6.967652
1.428992 110.0929 -4.907709
12.84255 104.0333 -1.71118
12.32804 105.5589 -2.199097
12.73903 102.3194 -2.618532
12.55537 101.0636 -1.854946
12.35143 106.4727 -1.678063
10.09041 105.3259 -5.465521
11.44232 107.7902 -3.380681
9.852739 107.1176 -4.309319
-13.93716 84.85749 -1.966238
-8.092487 85.94197 -7.36595
-4.922954 83.88688 -7.053857
-4.761551 84.32729 -7.206499
-14.82858 92.48638 1.511203
-14.7351 93.6665 2.075442
-14.75651 94.88829 4.03747
-14.39534 96.32496 3.403117
-13.75582 98.26935 1.845504
-13.46591 96.31006 -0.3176559
-13.50086 99.056 1.315509
-14.48186 94.98531 2.023102
-14.40182 87.38944 -1.32423
-15.28777 85.93257 2.085369
-9.543445 110.7995 -2.559473
-8.51015 110.4944 -3.960644
-7.236226 110.3872 -3.992405
-5.988284 110.1183 -5.252438
-11.32717 108.9577 -1.743599
-12.94711 105.1961 0.5878831
-11.40027 107.1256 -2.866992
-9.5189 106.1256 -5.102583
-11.19434 105.6235 -4.012934
-13.76781 98.88469 2.529507
-13.7149 99.12199 2.465075
-13.18051 102.3092 -0.1321002
-13.62556 97.93075 1.167303
-13.21527 100.0488 0.1332001
-13.35283 100.579 0.9880619
-13.44839 101.972 1.110806
12.66165 98.50164 -1.771369
13.54635 85.94366 -2.718389
12.09502 86.31015 -4.675958
11.60876 88.68777 -5.609262
12.13981 86.55354 -4.645727
-0.594566 85.98602 -8.072346
-0.8617927 85.77058 -7.966172
-6.875257 86.62294 -8.129037
-2.158682 89.46262 -9.770947
-0.8358989 107.8667 -5.39852
-3.190637 108.469 -6.261142
-6.090916 108.811 -6.096017
9.314158 107.9681 -4.29973
8.72982 105.9098 -5.480065
7.822425 105.5081 -6.129139
6.273016 107.4839 -6.643154
3.744826 108.6808 -5.919493
5.341007 108.8123 -6.265736
2.408522 109.5808 -5.676868
12.97101 101.7131 -0.4014319
12.33884 98.11617 -2.709639
11.56484 107.5126 -3.047175
11.41569 106.451 -3.66724
11.29776 105.1501 -3.698873
-8.174837 84.99149 -6.806989
-3.979486 84.84917 -7.489085
-5.568199 84.75729 -7.338253
-14.8969 93.65129 2.924741
-13.07 91.66426 -3.285113
-14.93705 86.4516 0.109975
-13.42891 88.64032 -3.05442
-10.55519 109.2334 -3.149399
-13.42021 102.9729 3.307108
-13.62108 103.7373 2.298322
-9.46875 107.0235 -5.146985
-13.37093 99.5074 0.9875963
12.32994 90.87595 -4.612015
0.5595664 86.97123 -8.613726
0.4970386 86.32751 -8.244033
2.81728 86.25277 -8.176953
-4.322033 85.79377 -7.958256
8.266217 106.4738 -5.437413
8.100139 99.88303 -8.121669
9.011668 104.0964 -6.483545
7.368144 106.059 -6.245431
4.182546 104.8113 -8.063914
-15.00233 91.56869 1.684116
-13.947 88.58408 -2.202439
-12.7554 96.07278 -2.304282
-13.79732 93.24661 -1.186311
-13.64032 92.40382 -1.9996
-14.60318 91.93658 0.09033673
-13.79662 90.65137 -2.217886
-14.61437 87.88525 -0.809551
-14.13882 89.65458 -1.834258
-13.90434 87.79436 -2.176336
-14.9431 90.82426 0.8441867
-13.0165 95.32096 -2.012717
-7.64174 105.3608 -7.01752
-13.37349 103.8234 1.173235
-13.61029 103.1072 2.404066
-11.60675 105.0226 -3.872577
-8.44691 107.393 -6.055682
-11.30226 103.7026 -4.6158
11.83966 86.41223 -5.019733
10.38791 86.76528 -6.442382
10.26936 89.9414 -7.41351
-0.9857595 86.51556 -8.351041
-1.962922 86.44694 -8.304607
-0.6477869 87.28222 -8.778395
2.658086 89.38744 -9.733283
2.28787 87.49206 -8.908295
8.821496 89.83287 -8.643968
5.711171 106.84 -7.100828
-13.7242 95.81778 0.113471
-12.24977 88.75043 -4.719235
-12.78065 90.78609 -3.88808
-14.85892 87.51945 -0.1235558
-13.62449 85.51991 -2.542099
-13.9511 87.15179 -2.048358
-12.12528 98.47876 -3.132912
-13.43813 94.9978 -1.109207
-8.422791 108.0334 -5.806646
-9.018512 106.1496 -5.654389
-8.550224 106.462 -6.115165
-6.712808 102.3089 -8.10121
-5.929538 108.1064 -6.405869
-8.92845 107.1767 -5.691937
-10.80066 104.4574 -4.825889
11.52787 87.69026 -5.587707
5.69618 87.90095 -8.997551
2.572913 88.77821 -9.528424
2.409429 88.14266 -9.255816
9.294425 87.70937 -7.587951
-14.28312 93.31959 0.06843507
-13.53686 95.64546 -0.5242687
-13.95096 95.17235 0.3793108
-12.64664 89.63355 -4.19492
-7.490511 105.9628 -6.924743
-4.865764 108.1043 -6.49081
-5.754536 105.6944 -7.238029
6.57358 86.81715 -8.308479
6.658051 89.19237 -9.442706
4.52495 94.39626 -10.00485
6.305758 87.73862 -8.837368
-12.56442 89.0591 -4.299582
-9.408748 87.55027 -7.426291
-6.74699 106.5458 -6.908638
-6.846344 107.1169 -6.69192
-3.717179 103.2588 -8.049869
9.274527 89.07079 -8.248399
8.435246 88.6067 -8.428981
6.284599 89.87592 -9.638733
11.31789 96.70437 -5.275827
4.927301 92.90756 -10.05959
8.502359 90.65331 -8.871034
10.57381 90.76612 -7.105678
7.875515 90.87443 -9.243896
11.94118 90.84392 -5.226519
12.1009 90.53056 -4.999146
3.403041 91.20689 -10.01773
3.919279 90.26962 -9.905081
7.57364 86.34766 -7.669063
8.276721 85.95015 -7.22791
6.199306 84.31862 -7.042698
4.941785 87.04082 -8.618847
-12.15757 91.183 -4.847068
-12.2894 92.25806 -4.478914
-6.088291 106.8574 -6.843095
-4.573418 105.2291 -7.286179
-2.38871 105.1241 -7.20922
7.224586 88.01025 -8.767614
10.8886 90.59755 -6.750596
0.09568539 88.78926 -9.578075
-0.2160381 90.15372 -9.923568
0.669517 92.98106 -10.09363
-1.78842 90.7985 -9.999012
4.847061 88.69739 -9.476597
5.762064 90.22626 -9.767039
6.602667 91.36294 -9.64912
5.441177 91.28735 -9.913347
4.911345 86.23579 -8.149906
7.347823 86.32539 -7.741016
3.067782 85.21264 -7.656169
2.820499 84.56434 -7.401883
2.634605 86.05492 -8.076427
-2.486516 107.1156 -6.624348
-2.818194 105.812 -7.106039
-0.85201 92.94184 -10.09112
-6.564408 96.20786 -9.520077
-0.2052402 95.04191 -9.9637
-1.068238 93.89895 -10.05539
1.498999 93.74627 -10.06115
1.464848 93.2103 -10.08588
4.205949 90.46481 -9.928527
-0.3871955 104.7745 -7.053794
0.02536748 94.25836 -10.02641
0.2463374 96.00184 -9.877954
11.05958 96.31571 -5.840533
0.9452332 93.76401 -10.06043
3.310054 92.64878 -10.09084
-3.195377 107.8997 -6.551992
-0.7715231 107.14 -5.786008
-1.709635 106.6863 -6.370616
-1.486568 106.2273 -6.473793
-0.3367449 104.5088 -7.267326
-9.612442 93.59475 -8.005857
3.692652 95.67914 -9.904369
4.374797 92.82957 -10.09069
0.9431302 97.00453 -9.763159
2.83149 94.65934 -9.990031
4.813618 95.21305 -9.941399
0.871726 95.56429 -9.920544
4.491525 95.95036 -9.877546
0.8972668 96.63259 -9.809859
3.408051 97.43639 -9.696679
1.285812 103.5019 -8.774507
6.188067 97.23356 -9.474566
5.707443 96.65395 -9.655498
5.380089 93.56609 -10.01628
6.8927 98.06867 -9.098972
0.7304865 101.3239 -9.168138
5.111539 95.69212 -9.880796
-2.286407 92.82204 -10.08241
-0.6784165 95.94891 -9.886387
-2.091477 95.3997 -9.933619
13.55059 90.17032 -2.789487
11.78235 95.1123 -4.794529
-3.020946 108.5083 -6.20229
0.7671026 108.2857 -5.14681
1.52519 108.2882 -5.958089
0.6739666 105.5805 -7.016305
2.382019 107.8428 -6.927081
-0.1636716 105.6191 -6.5719
-0.366209 105.0618 -6.807584
2.122589 104.9603 -8.288306
1.315464 104.766 -8.245221
0.8285101 104.7855 -7.736003
1.897876 103.7021 -8.687001
5.001169 103.929 -7.998194
-0.8174619 102.0432 -9.123764
-1.203412 102.1352 -8.927165
-0.05331906 99.47958 -9.290733
-1.450328 103.4375 -7.832382
1.251027 97.81854 -9.631948
-3.04743 103.1366 -8.038688
1.328132 99.15123 -9.368964
-3.199928 101.1319 -9.105187
-1.389463 100.6197 -9.222901
-3.253308 101.9289 -8.935583
-2.062208 99.81511 -9.271131
3.490837 103.813 -8.395126
-1.311512 98.02671 -9.596698
-4.893403 102.8842 -8.453462
-5.256151 103.5994 -8.147482
5.269118 104.8056 -7.742093
-0.3639283 97.55743 -9.680962
-0.9353114 98.11313 -9.579714
-3.054188 99.73413 -9.295632
-4.230563 99.07486 -9.383988
-3.075833 96.37726 -9.847343
-7.480674 100.101 -8.355182
-5.57143 101.8578 -8.629721
-7.273522 102.0207 -7.887044
-7.81772 103.768 -7.100018
-9.100617 104.1251 -6.004942
-1.616062 99.55611 -9.296416
-4.766232 96.7416 -9.763441
-8.506642 103.5787 -6.635207
-9.927216 103.0519 -6.010925
-10.57708 103.9922 -5.176795
-9.466945 100.1351 -7.067901
11.83537 99.72973 -3.60269
11.64169 98.2272 -4.241223
-10.47322 86.20109 -6.180928
-7.265491 84.92854 -7.104148
4.286369 106.6812 -7.399425
-9.317621 89.70488 -8.223824
-12.18645 103.5165 -2.857826
-11.8578 102.6879 -3.638808
-11.34389 104.2831 -4.482916
-0.3034082 89.48086 -9.791559
-3.778402 107.2094 -6.805768
-11.59984 86.19123 -5.222422
-11.76749 84.68047 -4.493611
-10.81997 88.20359 -6.425851
-8.308233 88.08018 -8.277228
-7.601483 86.2021 -7.734461
-11.00211 87.23829 -6.059759
-12.33395 85.00247 -4.049745
-9.63095 86.23868 -6.686316
6.761621 92.29192 -9.657075
10.20315 90.30001 -7.509471
9.614764 91.67576 -8.115737
7.002314 96.15559 -9.359477
8.340551 92.14948 -9.049304
7.886534 92.95784 -9.306645
11.78453 94.54377 -4.932898
10.99856 91.49186 -6.572532
8.716881 91.37504 -8.82029
6.047012 92.51521 -9.830743
6.033601 94.08772 -9.904858
7.678605 93.45197 -9.393503
12.05791 97.37213 -3.565086
11.82593 95.93306 -4.460745
1.741737 108.2674 -6.246044
2.691842 107.915 -6.894269
2.505249 101.6026 -8.878569
3.427557 102.7168 -8.57623
2.530216 100.7979 -9.053493
2.851816 99.88349 -9.255713
3.817389 103.2099 -8.419794
1.839708 100.9693 -9.039472
4.831951 98.8512 -9.410805
4.281303 102.1083 -8.565647
5.434349 103.2206 -8.027822
3.736124 99.67505 -9.308841
3.07489 99.19757 -9.394644
5.32313 103.4468 -7.991004
5.441854 105.3641 -7.563457
6.006115 101.621 -8.460614
8.408055 103.7552 -6.784429
3.790891 101.1807 -8.888165
8.581386 103.2542 -6.968784
7.129015 101.8753 -7.982747
7.665581 103.0349 -7.350729
7.184559 104.5102 -6.801538
10.00159 105.2007 -5.568254
11.44112 101.424 -4.507935
9.466241 102.1159 -6.606475
10.77709 104.284 -4.824756
10.9052 99.68521 -5.678258
5.853054 98.07006 -9.424713
10.93122 103.0095 -4.66646
9.404158 101.066 -6.792115
6.261 103.1922 -7.775804
6.718131 99.26521 -8.902316
4.708321 98.48952 -9.499092
4.558949 101.1153 -8.843171
10.89825 101.5799 -5.009286
12.05022 100.4544 -3.501583
6.571852 99.97388 -8.746766
11.30901 102.6381 -4.234341
-0.6678745 100.3956 -9.216407
-0.9089557 98.93041 -9.395568
-1.261713 93.66983 -10.07379
-6.115256 96.18858 -9.63706
-6.069208 95.20093 -9.786438
-11.74778 91.35495 -5.473591
-10.25833 89.31187 -7.336474
-6.338677 90.10303 -9.628309
-1.335344 90.1475 -9.92497
-1.413925 88.92575 -9.615106
-1.235229 93.00564 -10.09218
-7.636724 87.41102 -8.285399
-4.247964 90.06224 -9.90274
-4.644809 96.20549 -9.851452
-7.850217 93.95879 -9.192101
-9.785647 89.59944 -7.898949
-9.038787 91.04131 -8.543479
-6.99262 89.03447 -9.247956
-7.919457 88.26591 -8.53143
-6.669441 87.97701 -8.877047
-7.311171 90.43589 -9.394753
-5.260856 90.03578 -9.809186
-4.832373 91.41562 -10.01141
-4.240378 94.73703 -9.98439
-2.807601 93.28586 -10.08765
-2.999947 87.26705 -8.720758
-3.175754 86.8826 -8.504583
-4.114134 97.94175 -9.638388
-6.359482 94.23341 -9.787398
-11.81114 92.64003 -5.223567
-10.01008 95.34366 -7.479019
-12.31863 92.45107 -4.392586
-11.37215 92.90761 -5.929023
-7.563592 86.81728 -8.041859
-5.47487 87.46922 -8.778401
-5.684536 88.94391 -9.474639
-4.495816 85.05219 -7.570216
-4.924281 87.06879 -8.572752
-5.415779 90.93291 -9.938582
-6.089341 88.56117 -9.283583
-3.57428 88.22066 -9.251145
-4.149004 93.87135 -10.04767
-5.478251 92.26193 -9.988
-5.253559 95.51656 -9.903489
-10.88318 93.94569 -6.521355
-7.038764 95.05169 -9.490756
-12.33429 94.64694 -3.775123
-10.91053 91.48072 -6.678655
-10.47783 94.01575 -7.04738
-9.694717 94.47097 -7.852
-7.511058 94.44441 -9.375203
-8.062146 94.13257 -9.086713
-6.43855 94.58389 -9.739065
-8.328926 91.81113 -8.969526
-6.099371 91.29852 -9.849828
-8.859582 94.43086 -8.550966
-8.491412 94.81571 -8.822796
-10.59389 84.85259 -5.557027
-13.1975 103.282 0.339339
-11.72918 101.9263 -3.782001
-12.21164 103.0518 -2.705321
-11.15061 97.42308 -5.371734
-12.73485 98.65721 -1.521083
-12.62171 101.7283 -1.692037
-13.25129 95.91145 -1.122673
-12.17058 96.01234 -3.70581
-11.19075 95.54187 -5.749642
-11.93147 95.35519 -4.406067
-12.26742 94.35684 -4.008652
-11.24973 98.13548 -5.041886
-11.9709 99.79203 -3.35142
-11.0904 95.17615 -5.966216
-10.70461 96.3098 -6.355196
-10.3301 95.75799 -6.994865
-11.65825 100.0778 -3.963672
-12.80852 95.09838 -2.600833
-11.58942 94.48011 -5.289132
-12.80419 93.31431 -3.325706
-11.60164 97.27013 -4.547932
-11.34164 100.1366 -4.566991
-11.89232 101.4012 -3.393251
-10.25568 97.4381 -6.783868
-11.41006 99.62788 -4.491482
-10.56531 99.88857 -5.917717
-9.77564 99.2301 -6.985977
-9.961918 99.65034 -6.721689
-9.546765 99.76678 -7.092023
-8.280311 101.323 -7.577913
-10.09246 100.8007 -6.455544
