# .PCD v0.7 - Point Cloud Data file format
VERSION 0.7
FIELDS x y z
SIZE 4 4 4
TYPE F F F
COUNT 1 1 1
WIDTH 1664
HEIGHT 1
VIEWPOINT 0 0 0 1 0 0 0
POINTS 1664
DATA ascii
-19.68261 82.90273 -3.377559
-19.77928 74.62847 -2.981432
-15.13953 94.94794 -7.834017
-23.41021 31.45741 -2.526594
-23.2791 27.10189 -3.964506
-23.25865 24.69753 -4.155116
-22.66276 38.44192 -2.900468
24.06674 51.81773 -7.983102
22.94067 57.12514 -9.94397
20.97627 57.6311 -10.21323
21.41191 62.95872 -7.33874
21.28321 75.17995 -8.545948
2.619809 5.427819 -10.92199
8.620389 6.883466 -10.18997
-20.30912 60.62511 -1.892725
-23.85122 57.28496 -1.163206
-20.63007 4.63805 -11.15669
-20.8198 80.48942 -1.196399
-17.19551 95.5012 -4.116053
-22.67747 31.15805 -9.530123
-23.07699 32.57281 -7.165845
23.70771 52.86572 -9.670313
22.3162 65.48327 -9.335615
21.80984 69.19894 -9.355025
23.74562 7.175387 -8.74296
22.75801 24.17748 -9.903196
-3.402473 4.964937 -11.91729
25.33438 43.52634 -8.101871
-19.60174 64.66469 -3.324121
-20.29187 64.05862 -6.591651
-23.07425 29.33297 -7.562022
23.40992 48.7718 -9.936385
21.23715 59.36288 -10.19687
22.81853 63.33035 -8.967868
18.49756 76.38153 -9.381248
0.48037 5.386471 -11.3436
8.41385 6.89615 -10.19682
-19.68642 62.65414 -3.957195
-23.1615 27.91602 -5.128973
18.76394 69.89131 -9.840741
17.1992 78.9913 -9.302264
10.30518 10.8582 -10.29207
10.98724 11.18813 -10.37343
13.07937 15.15009 -10.79278
-19.94124 58.98648 -3.965554
17.89409 70.30806 -9.83346
18.93603 75.6634 -9.448733
13.7939 12.28293 -10.89572
16.10545 7.4966 -11.2083
17.68785 70.9497 -9.823524
14.99695 15.65016 -11.36128
14.92262 15.18622 -11.31973
10.17555 118.8021 -2.473413
-13.02177 112.2128 -0.9070687
5.9618 108.3645 -7.960936
-21.21582 6.100121 -11.03613
-22.62904 10.53797 -10.66916
-26.34842 8.265467 -8.359982
-25.95854 5.986915 -5.758008
-26.03215 7.995553 -8.710546
-24.58396 3.340461 -8.201555
-25.45899 9.253836 -9.247438
-6.475439 117.2201 -4.994902
-4.432558 113.716 -5.63407
-3.450667 2.872361 -11.6959
21.17181 6.500404 -11.06232
17.14356 7.969337 -11.41805
22.4649 10.25741 -9.75556
20.71717 11.8557 -10.95367
19.84534 11.04176 -11.46143
5.172011 121.3372 -6.378758
5.937644 122.2696 -6.466362
-20.42993 53.39522 -2.10683
-20.59666 51.53247 -2.806321
-20.25831 55.55395 -3.892024
-20.51722 56.44826 -4.874736
-20.43047 59.94433 -8.498926
-21.34239 52.43404 -8.214549
-21.38401 51.37518 -5.668719
-20.69357 58.36687 -5.865493
23.71699 18.79244 -10.21399
23.14678 14.69393 -10.13955
20.44822 14.49505 -10.9663
21.5967 14.51191 -10.40053
18.7087 15.31754 -11.78892
-13.52801 4.189114 -11.9075
-5.800438 125.9813 -8.102935
-21.65254 44.24351 -1.754205
24.74496 38.21072 -9.004964
25.13596 39.58039 -8.953187
-19.49765 66.94376 -4.597321
-19.59541 65.87502 -3.141706
18.45059 80.92176 -9.064711
17.01454 76.57032 -9.553742
9.271773 121.6314 -4.337496
12.40472 99.41892 -9.031191
7.324549 98.06245 -12.09679
8.951085 104.2652 -8.965676
-18.38997 89.80902 -4.353741
5.549721 5.692206 -10.45602
-1.291208 5.66371 -11.66949
5.752395 9.222239 -10.44954
1.221642 8.138213 -11.31084
17.92086 84.32184 -8.729925
18.36901 81.72935 -8.989184
16.55197 79.8049 -9.341734
14.73471 85.51691 -9.777502
12.239 87.92274 -10.7805
11.22901 88.01279 -11.29602
8.564654 85.46468 -12.5994
-19.5219 82.75607 -3.752982
-19.14868 84.7421 -4.195167
-16.729 82.31299 -8.814011
-18.46281 80.92529 -6.709066
20.12254 27.11426 -11.89866
19.74319 26.74982 -11.97035
24.44114 49.49509 -8.810227
-23.028 36.19269 -7.208499
-23.20679 33.13221 -6.308911
-19.3213 9.924452 -11.44288
-22.06783 8.04373 -10.74143
-19.36935 8.9057 -11.43678
-22.38907 11.35586 -10.77269
-23.99942 16.92787 -6.84239
-23.73329 14.87031 -10.60762
-24.05317 16.67738 -7.236355
-23.71005 18.89505 -7.778008
-23.2159 25.02254 -9.034938
-23.26021 23.96205 -9.011207
-22.10845 25.00046 -11.22958
-20.79098 25.3217 -11.62873
-20.08688 32.27744 -11.68662
9.858805 14.92113 -10.28916
-19.60447 66.17583 -8.643082
21.62116 46.26641 -9.822239
6.783061 12.40484 -10.34891
3.868232 9.825738 -10.76865
15.62567 10.19998 -11.25683
17.53937 73.12004 -9.714051
10.16681 119.5874 -4.004811
9.122452 118.8476 -3.867441
-7.986259 118.7266 -5.594327
-4.154334 117.4891 -5.821602
-9.449316 123.3777 -4.955619
-14.78842 97.97999 -7.06098
-15.74583 96.82014 -6.187971
0.8359621 124.5374 -7.979423
6.523033 121.3858 -5.904348
10.14385 105.171 -7.886674
-22.26771 45.58364 -7.004058
-21.68759 50.26435 -7.870359
-22.79289 39.73784 -7.219923
-20.59003 52.68473 -9.425207
21.85505 19.19513 -11.10279
-21.53752 45.72123 -1.6387
-22.41202 41.61857 -4.242472
21.79934 36.36284 -9.954683
20.94443 38.87879 -10.53417
20.67661 47.18009 -9.904904
21.61929 31.21584 -10.21441
23.89496 44.63901 -9.690765
24.29549 43.1538 -9.576897
7.147634 102.4494 -10.49221
-16.58367 89.6788 -7.509288
-3.804241 9.570261 -12.62924
-1.185728 11.17558 -12.25434
15.93915 82.08745 -9.402041
15.94547 78.9828 -9.753291
12.45725 76.39304 -10.56218
14.19262 78.25255 -10.50629
10.9445 72.34495 -10.69175
11.35199 80.14035 -10.86835
7.659067 70.00166 -12.47648
11.59974 81.56893 -10.83193
12.9803 95.5612 -9.866777
-16.52277 80.70585 -9.07163
-21.48049 30.75813 -11.09207
21.67863 29.64658 -10.29672
21.65404 24.37838 -11.42225
16.77196 27.71098 -12.07849
19.28316 31.44327 -12.08095
22.50877 46.56347 -9.906351
-22.18391 33.19673 -10.01304
-21.49887 8.258944 -10.90755
-17.58324 10.19558 -11.63428
-20.60441 12.21077 -11.18247
-20.69484 11.8895 -11.15607
-21.8812 18.17487 -11.31371
-23.71183 18.70153 -7.117201
-16.66968 5.253474 -11.63211
6.062346 13.99518 -10.43563
6.903597 16.72079 -10.33298
10.77217 17.29416 -10.35279
12.52314 17.4647 -10.68671
-20.27957 64.08499 -7.327581
-19.45132 65.59794 -8.898532
-20.15471 60.11732 -8.997584
-20.28138 59.02134 -8.998776
20.74811 48.46594 -9.890873
7.5001 116.3558 -4.484653
4.721601 120.1506 -7.390259
4.56984 117.2336 -6.179317
2.891055 117.3602 -6.600034
6.236451 119.908 -5.911619
-4.758235 114.741 -5.458982
-5.019174 113.8001 -5.502704
-8.433334 115.1136 -4.169154
-14.44852 94.21185 -8.830791
-17.12157 91.99589 -5.966365
2.632704 122.8985 -7.351329
-2.609715 119.0192 -6.463207
1.609135 120.2886 -6.458285
2.770428 119.6503 -6.990965
-5.517532 120.0856 -5.863574
0.1992437 122.835 -7.345886
-1.974553 116.7418 -6.084727
-5.688446 118.4441 -5.566047
0.382384 119.2833 -7.191194
-0.6316375 118.2674 -7.062519
8.633049 102.7675 -9.921843
-22.00646 40.95922 -9.163781
-22.77795 40.72261 -6.197129
16.51125 14.77654 -11.75665
13.1254 37.56216 -11.17426
-20.5443 74.12579 -1.562158
-18.94656 75.12091 -5.460868
-19.43374 69.7614 -5.865283
-19.41995 71.74305 -6.494887
7.418976 106.0155 -8.397345
5.275937 100.3508 -11.55791
6.052907 104.3027 -9.667621
6.099244 98.09687 -12.24319
5.818258 96.69145 -12.56734
11.56967 95.02845 -11.05329
12.1439 91.73531 -10.95496
-17.69296 90.2038 -5.533727
-4.273991 9.492188 -12.67765
-5.304987 9.836024 -12.813
-5.599137 8.597187 -12.68623
-13.07741 12.23722 -11.9979
-10.06241 2.581473 -11.68469
-13.92702 5.472858 -11.93872
-14.62725 5.070764 -11.85263
-13.39985 8.309324 -12.01385
-13.41823 10.00787 -11.98806
-11.12467 12.30982 -12.2133
-11.60139 13.36679 -12.13489
-11.70679 12.34347 -12.14242
-15.40598 10.09046 -11.79057
-14.67136 8.152779 -11.86787
-17.33613 15.38261 -11.72669
-8.452619 13.5676 -12.57103
-17.50986 15.83781 -11.71797
-18.94013 16.22396 -11.56472
-15.71787 19.01403 -11.90063
13.16709 84.95401 -10.46864
11.64969 72.33768 -10.56453
13.01584 70.92392 -10.69108
13.31399 66.87483 -10.88278
17.92134 64.12554 -10.24703
9.621207 87.04111 -12.17699
-18.80421 76.73035 -7.702045
-18.68058 78.94795 -6.708513
-19.01072 75.76548 -6.46791
-19.47473 71.63725 -7.304218
-19.22929 71.43653 -5.744894
-17.32207 72.04102 -9.564708
-15.04082 76.60651 -9.892304
-15.59457 76.20107 -9.769244
17.20404 34.33704 -12.22852
-21.90033 21.33779 -11.40629
-18.70391 24.59939 -11.88202
0.7719896 11.6869 -11.73189
-4.91925 16.01439 -13.10355
-1.476538 10.07407 -12.18423
-12.72698 19.73381 -12.01133
-1.922285 12.32794 -12.60716
-0.6741797 9.497441 -11.9068
2.126673 58.16739 -12.19199
-17.40401 51.03545 -11.12962
-15.75665 52.98565 -11.19974
-15.71622 53.28943 -11.18825
-13.14658 54.98635 -11.26521
-16.66569 57.26902 -10.85139
-15.16844 58.33592 -10.94781
-12.20368 51.60452 -11.48239
-17.87518 56.72875 -10.58091
-18.1861 57.44638 -10.42525
18.66813 49.84829 -10.7044
-6.867078 111.8267 -5.641522
-13.60969 97.32085 -8.701613
-8.054513 120.0262 -4.572188
-13.84065 47.9871 -11.49489
-16.21527 36.77115 -12.14165
-16.20928 48.98674 -11.40346
-13.6738 37.22922 -11.92662
-20.18467 47.06911 -10.32673
-14.30302 38.68586 -11.90845
-20.38435 35.39673 -11.30958
-20.34269 33.24479 -11.51933
-17.18693 29.48459 -12.10204
-12.79757 29.16975 -11.99092
-18.30368 23.92755 -11.89168
-22.4672 42.45311 -7.599503
-22.45057 39.27197 -8.426235
-17.35124 40.3313 -11.89085
16.21832 49.93777 -11.81825
6.396348 104.8511 -9.294125
8.203327 96.0616 -12.32213
8.147961 91.10339 -12.5028
10.68427 88.62045 -11.62017
10.31736 93.75874 -11.8712
6.892936 90.38841 -12.45136
5.241071 87.58865 -12.4246
5.47476 87.35892 -12.34598
4.705461 94.09457 -12.83625
4.068723 85.94989 -12.57609
-11.813 79.203 -11.04022
1.98214 87.99685 -13.16566
2.66594 84.04993 -12.94862
3.422921 81.04819 -12.08875
6.593048 80.58587 -12.51631
15.16218 82.18203 -9.878575
7.388818 81.68841 -12.63265
3.442513 81.69602 -12.19368
8.470628 84.31652 -12.63395
16.00365 68.73196 -10.66761
18.72711 57.25259 -10.24934
16.33973 62.48914 -10.97347
15.97504 61.16413 -11.16196
17.02941 60.25972 -10.8608
20.52123 51.38559 -10.00552
16.63505 64.74432 -10.70904
18.07613 54.62471 -10.74267
16.85765 56.53665 -11.24123
-15.66036 77.61412 -9.647497
-14.70256 77.16975 -9.955243
-12.99714 75.43596 -10.59143
2.236686 79.4963 -12.43744
-11.69179 78.4679 -11.10233
18.59144 33.84183 -12.13065
18.31312 35.83937 -12.12085
15.09871 36.33099 -11.99132
19.71754 47.22432 -10.22056
0.4107412 14.80411 -12.22791
-16.46124 57.94042 -10.83622
-7.679213 119.7258 -4.714732
-3.637506 106.423 -8.5754
-14.80554 93.46308 -8.635565
-20.19334 39.28684 -11.09757
-17.63017 43.45877 -11.62234
-16.80559 44.81721 -11.62003
-16.6697 46.2706 -11.54061
-18.28136 46.58998 -11.26643
-14.46262 31.23575 -12.03343
-16.49226 30.25503 -12.12639
-19.00364 20.66924 -11.72235
-11.16444 24.3823 -12.03926
-13.01738 24.65562 -12.00967
-14.23146 28.498 -12.0237
-13.31004 23.92931 -12.00697
-17.11458 18.87694 -11.8154
-13.43787 19.55759 -11.98675
-12.07265 19.4415 -12.03899
17.73768 15.70219 -11.93483
18.51814 23.59618 -11.84401
14.47632 18.6828 -11.30434
20.8197 20.26138 -11.30526
18.6989 22.43438 -11.77105
15.15039 35.41586 -12.00796
13.68678 38.85077 -11.42968
18.51662 39.30358 -11.92092
10.19817 42.16141 -10.34033
9.957968 39.08176 -10.3009
10.46434 41.3822 -10.34095
4.820936 41.38917 -12.51392
5.302093 38.75983 -12.10088
13.71108 43.0422 -11.41042
2.736202 41.50169 -13.02286
1.683688 99.86306 -11.52189
1.26206 88.40223 -13.04661
-1.655889 85.4022 -12.82939
-0.4015269 83.76427 -13.12173
11.0416 82.69695 -11.12722
12.54673 63.19247 -10.77377
10.58704 66.8836 -10.58558
10.26895 64.73016 -10.56618
9.537966 63.5236 -10.89253
8.050758 68.79236 -12.2781
4.059278 60.80423 -12.73896
6.400269 64.8154 -12.72262
13.11198 62.42956 -10.9791
6.55406 63.30392 -12.64781
14.04464 57.23135 -11.33746
11.46631 60.75722 -10.48082
10.03856 60.11023 -10.50737
12.5451 58.99265 -10.8041
14.44176 54.65556 -11.54751
-11.28266 71.71317 -11.27019
-11.4481 94.61975 -11.20174
-7.795907 66.60255 -12.18177
-9.804962 76.10383 -11.77361
-7.398091 73.57475 -12.29746
-14.92604 70.81691 -10.27515
16.59995 31.72137 -12.19094
15.67974 31.33394 -12.05348
5.457378 19.15019 -10.72496
4.932433 21.19111 -11.00048
1.519676 17.75084 -12.15741
-5.058777 18.94482 -12.96751
-5.440355 23.45884 -12.59728
-4.57877 21.34041 -12.92394
-10.58484 16.63308 -12.16946
-8.320898 24.64122 -12.17014
-14.86686 64.30378 -10.65163
-19.05819 62.13078 -9.679308
-10.19085 64.7975 -11.62328
-15.79409 65.00449 -10.45895
-9.450841 73.06852 -11.8373
-12.17143 65.27855 -11.12552
-6.143421 62.92632 -12.50232
-8.673466 66.78313 -11.98319
-11.05181 67.23933 -11.37663
-8.058084 109.4905 -6.281134
-10.97641 114.2597 -2.581553
-9.989559 91.41673 -11.98774
-11.8904 91.78115 -11.10921
-14.03417 89.31276 -9.678846
-15.01572 88.85017 -8.9946
-13.38305 97.06462 -9.020191
-15.23057 90.02766 -8.740068
-18.07689 85.75848 -5.948426
-12.9742 87.09969 -10.41983
-14.23394 87.64023 -9.573802
-16.3367 41.36833 -11.86929
-12.55796 43.18322 -11.70377
-21.38303 17.52699 -11.3393
-8.961258 27.13729 -12.07802
-12.38075 29.92202 -11.98226
-11.51533 35.64513 -11.91686
-12.63025 34.89875 -11.9383
-9.483106 26.06999 -12.07527
17.69764 39.11547 -12.14517
11.55719 46.33323 -10.50615
1.030107 99.01875 -11.81405
-4.986309 83.73787 -12.67248
0.5254753 80.39999 -13.23864
-0.6039644 77.99985 -13.23087
0.1187041 74.45802 -12.67797
1.543735 74.79909 -12.07354
3.183228 74.60666 -11.62255
-3.173255 80.92062 -12.80503
-0.7319134 81.30302 -13.205
-1.703688 80.25657 -13.09607
-3.128231 82.21176 -12.77647
-4.399691 77.07861 -12.73482
-7.789182 72.64832 -12.21165
-5.354578 73.97428 -12.62851
-9.789327 70.68467 -11.72186
-2.801128 75.50478 -13.09406
-10.64012 70.73151 -11.47537
-0.3971024 74.86046 -12.91181
10.58962 82.80705 -11.36015
3.265826 65.53554 -12.11404
1.258264 70.72836 -11.70437
-0.3772651 68.82504 -12.0767
-1.383036 69.41121 -12.58702
-2.301236 71.56324 -13.01692
-4.405685 68.9258 -12.83123
-6.229918 68.61943 -12.51337
-5.427062 70.61192 -12.66986
-5.240641 62.66884 -12.55622
-3.60916 63.64376 -12.57117
3.449267 63.41937 -12.36337
7.275717 60.88304 -12.23657
1.957396 60.45383 -11.91483
7.885313 57.81117 -11.71958
3.591486 55.37813 -12.86374
-4.753608 56.93566 -12.22197
-8.333184 55.74427 -12.04656
-12.62624 49.15055 -11.50646
9.077278 57.04964 -10.88174
7.538402 57.53868 -11.91837
-9.915523 53.67995 -11.78074
1.13369 61.12825 -11.58431
0.3943329 62.96423 -11.4288
0.5029516 61.80981 -11.47142
5.228481 53.59975 -12.82549
12.03566 49.90445 -10.68562
11.96143 48.41731 -10.67245
8.227939 53.42722 -11.22112
7.414148 62.47385 -12.263
-9.864472 83.7403 -11.95458
14.13414 30.445 -11.50589
11.9946 32.29508 -10.65913
10.79659 30.48951 -10.35943
13.8652 28.47005 -11.35643
8.717115 26.71087 -10.27246
14.81426 26.62119 -11.68481
17.54498 45.59612 -11.83987
4.273157 16.17323 -10.91283
-5.871066 25.6961 -12.39632
-10.85016 24.37624 -12.05034
-12.81124 58.00203 -11.20644
-6.355907 57.73185 -12.32755
-8.62517 57.03396 -12.00274
-7.028148 56.44631 -12.22995
-9.122066 60.32418 -11.89227
-4.252802 55.33399 -12.01733
-2.658198 55.13517 -11.59701
0.1347222 59.59648 -11.44546
-4.398349 60.40593 -12.41433
-3.095849 55.81564 -11.75608
-10.71862 109.247 -5.424635
-9.001998 94.92115 -12.268
-4.585401 94.11481 -12.81603
-5.724557 96.74439 -12.55645
-11.82239 100.8622 -9.014157
-9.721124 49.87375 -11.84058
-11.84247 47.89843 -11.6176
-2.896182 51.84223 -11.51021
-13.25362 47.45727 -11.52743
17.46163 20.02595 -11.9485
17.06523 21.38203 -11.99818
12.29521 21.20077 -10.65523
8.115242 20.68598 -10.23366
12.16424 19.06993 -10.6114
8.42019 23.3352 -10.24181
2.920384 21.82406 -11.98867
16.28683 39.84896 -12.14907
18.27033 41.4796 -11.8748
4.449849 90.95979 -13.04994
3.990767 71.15291 -12.08827
8.545797 70.55122 -12.06375
4.423511 73.79646 -12.06713
6.782755 73.61958 -12.72215
7.804045 75.62386 -12.62488
9.794061 74.31469 -11.389
-7.445512 79.88609 -12.40678
-7.618261 64.74493 -12.2196
5.935845 52.24163 -12.54026
12.85812 54.7489 -10.97367
9.51419 47.76751 -10.4653
-5.798141 84.88019 -12.67367
-9.557949 86.81041 -12.12534
-6.977542 88.26926 -12.63065
-6.747461 90.49611 -12.66958
-2.503436 86.04063 -12.74699
-9.614787 96.18331 -11.83151
-3.958735 93.20336 -12.80666
-2.253696 90.32719 -12.76111
-4.208202 91.01808 -12.77064
-1.398632 96.23502 -12.52988
0.195804 93.20995 -12.76583
2.064298 90.72887 -12.97545
-4.83437 99.97932 -11.70642
-6.510298 98.38835 -12.1521
1.825078 102.9071 -10.365
-7.472064 99.83 -11.62854
-3.909078 93.89227 -12.80163
-1.250112 102.4639 -10.77559
-10.61021 102.0343 -9.24852
-1.155997 104.8592 -10.60873
-5.207082 106.221 -8.815691
1.218375 104.052 -10.21483
-8.002117 102.1014 -10.83573
-11.61044 106.9991 -6.169906
-2.448333 102.5043 -10.91607
3.123509 104.92 -9.749701
-11.90808 108.0357 -5.155848
-9.801556 106.5108 -7.318292
-7.982934 106.4308 -9.542866
-9.230302 109.6362 -5.902507
-5.369108 82.68481 -12.63933
11.88165 34.40172 -10.63501
9.765191 27.3136 -10.23993
10.45736 24.17849 -10.2876
-0.1276122 23.71446 -13.19026
-0.6584135 22.72452 -13.23529
4.289463 22.37121 -11.35483
-8.734137 17.96108 -12.33554
-11.80437 58.7178 -11.35781
-8.034444 63.25948 -12.12788
-13.85337 85.35748 -9.86735
-10.16199 40.53459 -11.87628
-10.66306 44.61919 -11.79554
-11.51346 40.23056 -11.82533
-9.317048 37.91594 -11.90429
-6.787393 47.00773 -11.96895
-7.441084 35.31399 -11.94944
-12.7719 42.89673 -11.70944
-7.313951 36.16436 -11.93189
-6.790206 39.203 -11.85401
3.45167 22.86294 -11.82661
3.453691 24.79203 -12.01552
2.843159 25.70798 -12.39966
1.791455 25.47601 -12.79547
7.573059 32.17471 -10.6242
3.278936 32.1478 -12.66662
5.141615 31.92855 -11.69551
3.894578 30.18887 -12.25026
3.073195 28.22505 -12.49356
9.466784 36.98362 -10.32364
15.81005 54.84872 -11.59458
9.100732 44.3148 -10.49865
5.710935 43.13654 -12.16529
6.169387 44.93578 -12.01223
14.67357 46.0713 -11.74846
0.3982698 98.41193 -11.9973
-3.994575 107.5076 -7.815654
2.87798 107.8652 -9.459012
2.000499 107.6065 -9.66058
2.016664 105.8112 -10.09346
1.190751 107.5301 -9.654994
-2.136483 106.6553 -9.811166
-7.821294 105.1407 -10.47919
-4.341407 24.38135 -12.77809
0.3361632 54.14125 -11.7607
-5.564361 46.31143 -11.7825
-6.964507 43.63232 -11.8773
0.04658789 43.8011 -12.57948
-2.955537 39.31642 -12.08686
-0.983198 47.59463 -11.85707
-1.752263 47.84161 -11.66912
1.653585 46.3974 -12.88975
1.96883 42.59924 -12.99724
2.708552 41.76739 -13.01902
-6.879898 39.02457 -11.85969
-1.576043 41.02416 -12.2592
-4.920837 39.94672 -11.82211
-5.989519 40.44339 -11.80932
-5.466687 38.01342 -11.89797
-3.392658 38.12051 -12.09798
-2.384757 54.40449 -11.49319
-2.221326 51.40197 -11.47724
-5.186545 49.83323 -11.86553
1.870148 30.72933 -13.05472
-0.8459111 28.85093 -13.20102
-1.649127 27.11692 -13.16584
-7.65993 29.39984 -12.08291
-4.591071 30.92836 -12.33043
-9.145794 29.31406 -12.02807
-6.263206 32.9529 -12.06027
6.076109 34.57066 -11.3671
17.53025 51.34938 -11.37711
18.06132 49.52347 -11.19742
14.72071 47.82738 -11.7594
17.66656 43.51895 -11.9531
14.69393 45.48413 -11.75536
14.03189 44.50359 -11.51391
6.098977 50.49171 -12.38104
-2.188882 107.0776 -8.143543
5.214343 45.49612 -12.56882
-4.592297 43.50721 -11.68969
-0.7339592 33.66218 -12.97593
2.327901 34.9027 -13.03493
-1.12867 34.99163 -12.8208
2.21616 33.1747 -13.03236
-4.404445 34.20057 -12.20316
-6.958727 33.30632 -12.01991
5.600533 45.89034 -12.40996
5.736485 46.86523 -12.38943
3.621083 39.80034 -12.8993
0.4489691 109.5885 -6.823277
1.899669 111.1793 -6.201895
5.312368 111.9687 -5.86188
2.861619 111.5266 -6.176222
2.915386 114.562 -5.723455
1.00729 116.9932 -6.40696
-2.6521 116.2704 -5.934127
-1.073514 28.00724 -13.20671
8.972588 146.6038 2.481201
7.113424 152.2339 -2.738457
8.761744 148.3937 1.002134
-1.163278 155.8364 -8.618693
7.952585 149.4781 0.5389186
-1.688731 155.024 -8.794194
-10.7088 142.8084 4.682612
-0.339699 156.3753 -8.559502
-8.731952 150.0802 -0.6063027
-9.724588 143.5243 4.869557
-5.441099 154.2965 -7.184657
-14.70903 132.6767 4.647086
4.723701 131.0929 13.26661
9.369862 132.5306 13.67733
-8.546117 137.0841 11.96041
12.46912 129.0648 10.46267
-11.57052 124.0917 8.459251
13.97304 133.6366 9.822932
-14.14397 138.2071 4.618845
14.69234 133.8748 2.688953
-11.35479 141.0869 5.781669
10.76916 139.7773 7.580903
13.81957 127.9109 3.726391
14.316 130.2187 4.969487
3.070978 130.4135 12.8534
5.873185 138.5276 10.60838
-12.14107 120.8526 7.116361
-7.311701 127.7901 11.78796
6.398778 132.1684 13.79467
10.21022 127.1065 10.40994
-9.035377 125.169 10.40285
-6.058566 131.6965 13.68974
-14.76294 136.1841 3.763483
-9.333543 126.6878 10.77792
13.01052 122.5258 4.685736
12.74561 122.2479 5.990338
10.96734 131.4106 12.90504
-13.6205 136.5766 7.795721
-14.89057 134.4403 4.511032
-12.8518 137.3045 8.372045
-11.83924 137.8016 9.139097
-13.11541 120.0586 3.793324
2.196303 137.4321 11.45979
-4.291976 133.2732 13.42406
14.39567 130.6079 6.008128
11.03394 140.3436 6.73442
10.11827 130.1526 12.82733
-14.38854 130.5968 4.024329
-12.59177 138.0066 7.761896
-12.61071 134.832 11.22574
-13.3121 131.5825 10.88772
-5.590789 133.1513 13.62573
-10.89023 134.7457 12.74311
-8.674467 131.9349 13.73076
-5.329183 137.6742 11.38747
-7.504809 138.5202 10.62271
-7.146888 137.6937 11.51512
-6.562297 136.5641 12.42442
-9.769407 137.2426 11.44303
-13.06087 128.0593 7.964578
-13.39336 128.3203 7.329988
-13.62072 129.1429 7.918151
-13.60594 128.0412 6.076989
1.295611 133.709 13.04339
14.83659 134.5383 4.125487
12.12371 135.3477 11.40893
12.57222 134.348 11.42543
-13.55363 127.9277 6.164469
11.60382 132.3631 12.64238
10.53447 134.1196 13.09513
14.64094 131.4782 7.028725
11.22587 129.3556 11.79987
9.842241 132.4354 13.49237
7.714137 136.5899 12.45079
5.758206 136.6052 12.3054
6.618651 138.9042 10.204
-14.20173 129.7915 3.303571
12.80373 121.7451 2.519874
-0.4141002 135.8274 12.42201
-13.60556 126.4224 3.834108
14.58281 132.5409 2.824127
12.5968 136.0698 10.27198
-14.08887 130.0149 7.868566
4.028068 138.1409 10.87695
-14.56834 131.2847 5.550247
14.32701 130.5572 7.293547
13.73198 127.7968 4.706157
9.888646 138.5171 9.861629
7.416749 139.5389 9.41996
-13.11369 123.4943 4.831665
13.11244 125.473 5.916591
12.9889 127.9705 8.012951
-5.238875 133.8642 13.46368
14.81499 106.3692 -2.309659
-27.40329 9.90379 -1.859911
13.70787 119.9864 5.678036
2.605847 124.8301 12.43936
13.43889 109.5474 -2.581445
14.97951 107.9353 -0.3024436
-8.195531 1.297619 11.16722
-7.790026 0.7691197 10.84764
19.62817 90.39132 -1.101875
15.14593 107.8633 0.2723958
-25.29662 54.83822 -0.8243562
12.35194 122.906 8.116353
-23.19435 75.53802 -2.012957
26.39877 24.79814 -3.094927
-22.87258 75.65715 -1.801029
-16.50032 103.634 0.6601914
-13.10995 115.9277 2.944864
-12.47836 118.4628 5.744352
7.690481 0.6573323 10.53688
0.7434093 128.7309 12.02089
19.92231 2.680905 11.47598
25.94527 4.572166 8.139952
25.76711 10.81337 -6.469086
28.95407 3.039101 4.545546
20.33831 58.32334 -5.491784
1.350752 124.6519 12.54315
26.61823 27.40425 -5.857242
21.47068 53.76816 -6.0112
-17.24805 102.1744 -1.033395
-13.44022 114.9646 4.029899
13.55905 116.3225 2.80367
12.32518 112.9003 -1.681027
27.20378 4.190548 -0.3118119
9.006481 124.639 10.76683
12.51387 116.9025 1.285174
19.24465 68.16608 -5.228617
26.36897 8.612794 -5.018175
17.12047 97.56169 -3.819275
-13.91192 111.8841 1.774284
-13.09225 114.0085 5.823833
13.638 111.8271 0.8976905
-22.97166 6.816172 5.010255
-25.80436 6.105007 -2.100228
-18.75282 74.78551 7.064077
1.827498 128.7581 12.04097
6.317858 127.7434 11.75342
25.79142 7.227344 12.1504
25.15629 10.6145 -4.893067
26.60398 3.023393 -4.362085
12.47455 122.6593 6.899632
18.10737 89.07691 -5.190222
13.86085 111.2069 0.4678934
15.49479 106.8237 0.3489909
15.62506 102.1868 -3.583328
17.28388 99.83801 0.8710961
-14.0852 110.8739 3.587363
-27.06714 11.07164 -1.685216
-21.67931 7.476496 4.073713
22.14641 77.75786 -3.379618
-5.257966 125.8755 11.99991
-1.981274 129.1808 12.20938
23.3816 19.18373 -0.8275691
24.5207 12.67398 -5.205272
25.32964 11.86882 -6.579554
26.63552 7.197474 -5.761081
-12.37946 118.8365 7.626783
-14.64717 109.7162 1.840983
-15.17488 107.089 -0.4669859
18.90646 96.51456 -2.76458
17.34516 97.17065 -5.180357
-26.99075 41.03754 1.31936
-26.03965 12.85564 -0.6191248
-23.3518 6.547928 5.191108
-21.5811 5.787503 6.47262
-25.70781 6.94938 -0.1672564
25.504 43.33696 -1.985964
-23.83697 71.02927 3.203797
5.029748 127.7432 11.93365
-4.21314 123.9263 12.25765
5.12669 126.3895 11.81719
26.02587 24.90429 -5.95234
25.28312 5.303741 11.29918
13.52801 2.517127 11.63473
24.73645 13.63739 -6.083277
26.10495 5.90305 0.612193
-7.609984 120.5569 11.2354
-11.83691 117.8794 7.85324
22.36299 76.84797 -2.067384
-17.77615 98.91017 0.6695133
18.96465 96.23478 -2.407995
19.19965 92.30012 -3.299331
-24.70134 36.55252 0.06723923
-1.771803 1.311765 9.467666
-27.15022 9.282176 -1.37289
-25.29083 22.83271 -1.163282
-24.94068 8.190816 -3.923417
-15.70031 4.88203 6.073488
-25.61004 27.79966 0.1319123
-24.31064 9.845406 -1.112952
-24.0435 7.688444 1.076154
19.4304 66.28892 -5.987102
25.04103 44.18561 -1.069069
-23.95103 76.77576 -2.222482
-24.38943 69.19059 -2.179192
-3.539052 127.2256 12.01592
-1.910319 122.9326 13.21122
3.684738 127.5131 12.01783
14.63313 3.177761 11.92594
26.44983 27.85899 -3.071662
29.3073 3.640128 7.666239
17.97921 3.217322 12.69896
25.23202 19.31077 -5.072411
28.03955 4.339871 3.488873
25.72779 6.57735 0.6407062
-8.37861 119.6167 10.65182
-12.30832 117.1104 7.868855
-11.85965 120.206 9.769785
18.18524 83.83778 -6.572744
-21.49006 90.82668 -1.717282
-24.73725 50.52947 -0.3882354
-25.39708 45.23882 -0.3565687
-7.397185 1.222427 11.06181
-7.876081 4.829174 11.4521
1.614445 0.5064291 9.623367
-26.46809 23.91533 0.5662304
-23.20551 20.71211 2.105464
-25.67103 15.55477 1.895929
-18.25226 5.064474 5.997199
-13.39747 4.071346 8.035957
-23.75497 10.00915 -0.4137313
18.91702 73.04919 -6.479889
24.59398 43.47254 -4.156813
23.95239 42.8352 -5.302344
-23.14757 85.23378 -1.129355
-24.61567 75.21944 -1.660954
-23.96074 71.23394 -2.298835
8.559358 124.9881 11.18931
6.745151 2.511781 10.06148
26.35084 24.26714 -5.299034
27.02114 28.9485 -4.340451
27.09485 34.43733 -5.644665
27.54057 6.530797 10.47057
21.99353 5.354496 11.94644
24.69206 14.17191 -3.360494
14.251 5.436036 11.6261
24.12331 12.51046 -3.898898
24.92261 10.04735 -3.510917
-9.411408 120.2758 10.31207
10.92902 122.3226 9.608084
19.252 83.18225 -4.538587
-16.79234 102.3176 1.269709
-20.69537 93.26053 -1.92633
-26.32405 50.99488 -0.1200945
-26.78514 49.01353 0.04145776
-25.24457 45.30287 -0.3437303
-3.394362 5.266801 9.904294
-26.38032 25.19503 0.13745
-13.66714 3.891719 8.368492
19.92056 62.53575 -5.177496
18.32573 77.76837 -5.944681
20.41083 58.40569 -5.950202
25.93413 38.56419 -6.704842
-22.10594 87.19549 -1.725145
-25.23827 72.07906 -1.28355
-24.64067 74.15002 0.9851491
-23.79158 69.97201 3.516695
-24.33433 66.51551 -2.190813
7.996952 4.221344 10.13214
0.7811959 4.088955 9.066346
26.21677 26.85982 -2.789829
26.22204 22.37165 -2.916154
26.91684 27.90379 -4.037625
25.40066 8.531025 0.1852553
25.20739 15.62296 -3.036474
25.14559 8.14842 2.799423
18.20479 82.52766 -6.72108
-19.9967 95.52294 -0.2805983
-26.75682 51.38299 2.547317
-26.8472 54.03437 2.35453
-26.68177 36.63507 0.7287516
-27.02792 32.62392 2.155846
-26.71167 44.21202 2.81579
-26.57112 28.41615 0.5655613
20.55371 64.75234 -4.394864
22.56519 74.93105 -3.338162
22.07554 74.4757 -3.872844
21.32431 53.80989 -4.885312
20.43202 58.10964 -5.184335
-22.52787 87.19367 -0.2051628
7.326523 5.473058 9.939573
0.4261494 4.661872 8.98269
-2.2587 5.808012 9.225767
-0.2185229 6.596102 8.804063
25.24627 25.63784 -1.978516
22.45915 24.93248 6.021571
26.36146 36.63281 -2.374502
26.00301 33.20949 -2.204378
22.43645 36.02907 -0.1740182
19.41701 88.71098 -3.960852
20.46161 88.0406 -1.640197
21.31466 81.89584 -3.771889
-20.47099 92.59892 0.2279714
-26.5829 56.15852 -0.09098852
-27.10173 47.40984 2.125755
-25.19053 34.48491 3.241725
-12.02462 4.973646 8.137409
-12.10427 4.563846 8.326856
-26.80868 30.81058 1.003057
24.38052 53.72616 -2.774847
24.27304 46.72816 -3.171806
23.79628 54.61752 -3.423908
23.91096 45.01041 -6.771341
23.11226 26.44803 -0.7384053
21.5515 28.63991 0.7917154
27.22186 7.167605 9.321135
26.31384 7.119919 6.067719
24.54028 10.13156 4.409203
24.35366 11.00759 3.653274
25.06011 10.1674 7.554218
-26.80762 55.91701 0.2971551
-26.37619 33.41967 2.912157
-26.99341 42.05777 2.273548
-18.70333 10.1169 8.049439
-8.549362 6.399224 10.35866
19.88293 66.46786 -4.557592
22.88609 72.21265 -3.077725
24.1689 28.73665 -1.368002
24.47462 33.28243 -1.214447
23.42016 12.09054 -1.457423
24.21877 11.66514 5.450188
-19.95473 88.9758 1.895242
-25.4258 46.07933 3.358492
-12.80001 8.161425 8.779682
-26.69914 28.43799 2.184259
22.17405 72.31255 -1.04425
20.6314 70.51128 -4.316376
25.18431 28.04941 -1.915364
24.93807 48.70923 -1.296882
23.62285 12.00563 0.5129789
24.29852 12.40016 7.18313
-23.94113 47.19084 3.483567
21.49886 73.71297 -0.5328197
20.33104 70.00971 -4.346883
20.87986 57.92313 1.144976
23.58983 41.83112 -0.2599035
24.10984 46.77183 -0.4109035
22.22099 37.80513 0.01931969
23.26384 39.78444 -0.2703133
22.80465 19.13994 4.616741
23.02225 20.09502 7.136351
24.14996 14.5571 9.014592
-24.19686 46.51447 3.461516
-23.29086 33.0298 2.627592
-22.75786 80.11794 1.274178
24.42051 42.75207 -0.5010673
23.14948 17.29389 5.127238
-17.74154 8.878468 4.903504
-18.43666 9.029784 3.613951
-15.41959 8.813851 9.034388
-11.88802 9.399132 10.02064
22.8044 68.20647 -3.795559
24.46498 51.45221 -0.9790961
23.73029 41.61828 -0.2972338
23.34441 16.02514 4.917184
-25.47947 41.87356 3.336425
-14.77392 13.81177 10.1303
-21.17022 13.92669 7.361031
-18.08808 6.350405 4.357248
-19.44138 80.8819 6.093782
22.18688 34.62529 -0.001536928
-19.83206 46.19426 4.788184
-19.43173 49.88266 5.465749
-19.53731 44.32528 5.389152
-22.7115 44.19578 3.228327
-20.31267 51.1406 4.446301
-25.10861 53.24312 3.500882
-11.84938 13.29583 10.41466
23.10268 63.50111 -3.69335
21.52929 40.03677 0.5501304
22.9185 17.1368 3.43873
-22.37525 61.9984 4.243777
-26.60723 40.31829 2.906617
-24.57552 57.83477 3.727259
22.62945 61.8318 -3.799714
23.53027 15.9528 7.08014
-25.57207 38.39846 3.322644
-25.92195 10.23779 1.835447
20.95896 62.21795 -4.281497
23.08474 21.78931 8.186099
-21.94473 54.18454 3.922126
-20.81343 12.52404 7.410419
22.47991 16.85615 1.069526
-26.69832 58.77866 0.3377424
23.61274 62.53138 -3.029551
-19.8137 80.31343 5.554165
22.40732 20.8922 3.791048
-23.21833 62.6819 4.146021
-26.40698 59.2614 2.144567
-21.81222 10.53303 6.110629
-20.75267 80.65051 4.833158
22.23127 18.86349 1.520642
-22.98109 9.744833 2.598032
-21.12836 13.48171 7.346106
24.12793 56.825 -1.708956
-23.28614 76.952 1.520576
22.19594 23.84839 4.443592
22.35108 19.28331 0.3155333
-22.98829 65.54673 4.262738
23.65054 60.50801 -3.248422
23.23705 59.64291 -0.715331
-19.80785 75.66244 5.438753
23.47076 58.48088 -3.42371
23.32696 20.18071 8.756301
-20.22321 63.81504 4.822271
20.86715 61.87634 4.031834
21.11564 68.28587 0.2935492
20.47817 66.53719 2.017381
20.54877 67.19713 2.98003
20.63668 67.11977 1.1987
20.59509 70.92204 1.31213
20.487 61.81919 1.728257
24.18336 19.54948 11.96903
20.58642 75.32277 2.839636
-20.24955 60.2071 4.710609
20.9806 71.98154 7.244639
12.33973 120.6342 8.025385
12.9765 117.9339 5.40486
17.17306 100.6357 1.933735
18.45507 97.24947 -1.700689
24.40423 10.72017 -2.91195
-5.110298 123.1176 12.04518
-9.078543 116.7439 9.987861
-15.4843 107.5002 2.749738
-14.53925 109.9704 2.228502
-13.43138 109.875 6.482227
-11.36254 114.4412 8.033361
-26.48416 8.766581 -0.9035826
0.128639 122.8596 13.66794
-7.205518 5.165288 12.24109
-23.24454 21.81231 1.981094
-24.37525 18.79233 2.344302
-25.14285 29.5454 2.930009
-20.70095 26.42557 4.983848
-25.73 16.25805 1.965331
17.71751 5.681871 12.79068
-7.722234 114.118 10.95787
8.930435 118.4659 10.9318
-21.16636 88.90824 0.6315778
-26.04922 66.62854 0.1302956
-25.46988 69.43066 1.002599
22.75405 18.40711 -0.2659796
25.4864 20.34608 -2.065511
23.90483 17.02577 -1.175962
10.91174 6.052976 10.61134
21.97891 80.00196 -1.824767
21.84461 82.73297 -2.286867
-26.35327 61.32109 -0.3125852
12.05996 7.142434 10.7916
8.142829 8.263861 10.08634
11.42959 6.795567 10.67035
-26.10271 28.13354 2.733697
27.00578 6.157589 5.766167
-5.810578 10.19634 11.83017
26.30334 7.91968 11.97714
-23.07906 33.60128 2.619649
-23.19425 38.03545 2.931854
24.57138 14.80072 10.77033
22.71243 7.870939 13.52773
-22.95888 77.17485 1.89871
-22.87303 79.34399 1.35052
-21.10073 73.26805 4.827682
24.8623 45.97883 -1.021906
-15.07482 16.04886 10.21079
-21.02255 9.792893 1.08451
-23.61266 8.433287 0.07985214
-20.29825 13.91168 7.948456
-21.77869 14.02137 6.866002
24.40824 55.6839 -2.644851
22.4157 55.87302 0.04866345
24.35577 55.6291 -2.103487
23.67602 52.21966 -0.4484852
24.47136 54.9574 -2.184579
21.9315 23.95506 3.425406
21.661 25.56568 3.092821
21.979 27.61731 4.721498
20.96266 54.497 1.027659
20.52292 55.156 3.339169
20.44357 54.6273 2.562014
22.49333 51.96115 0.11234
21.71812 48.84131 0.4053391
21.25282 47.83385 0.8109823
22.96139 44.13943 -0.04900489
20.53992 44.40719 2.046126
20.76215 43.32926 3.515012
20.73002 39.84252 1.860732
21.55523 49.8899 5.411225
21.12525 46.94895 4.5806
20.73618 77.94389 0.06886308
21.55292 81.86399 -1.539062
21.13704 76.38277 -0.4550008
20.57917 82.58864 1.874264
20.60661 82.45229 0.4933895
20.76598 75.33484 3.858668
20.58932 78.16606 2.991168
20.64715 68.23904 3.489316
-20.62436 56.81997 4.427563
-18.79424 61.61961 7.800263
-19.74968 58.85707 5.157166
-18.93696 57.38294 7.150686
-19.00058 56.70398 6.808802
-18.62757 51.11101 9.402857
-14.41476 48.55915 11.06938
-18.69027 52.91571 9.044499
-18.33338 49.87411 9.765896
-18.76904 57.70689 8.432325
-17.2666 51.89568 10.57285
-13.83329 54.20402 11.1468
-15.04348 55.95046 11.14284
-16.55578 64.39438 10.8179
-17.91411 49.3421 10.17382
-19.15958 46.55013 7.461686
-19.60822 38.36201 7.429327
-19.65129 44.50737 5.139443
0.4218746 38.35892 9.625437
-10.12494 49.09131 10.46573
14.92862 109.0636 2.303719
13.38824 112.8492 1.463762
12.6496 117.4849 6.537785
14.56276 109.1977 4.430712
14.88573 107.5493 5.297324
14.57688 106.9029 6.394271
14.16681 106.4495 7.25478
13.13454 108.761 7.561829
13.15058 112.1224 5.268071
14.47459 102.3803 7.848505
14.8907 102.8953 7.245136
12.57925 112.6633 6.361981
12.44009 115.4142 6.313694
8.299909 106.3267 10.60524
16.71859 102.2401 3.554854
11.72728 118.1554 8.05122
10.43141 109.785 9.442119
5.966261 101.9347 11.28851
9.195786 102.478 10.06736
12.42919 102.3495 9.141978
17.73784 97.44196 0.2153223
-6.439487 113.5166 11.53167
0.8249347 120.7546 13.61821
-5.976552 116.5729 11.96972
-9.919828 116.0063 9.299954
-24.40719 11.0546 3.638225
-22.99252 9.87391 1.968661
20.00825 3.757475 12.73924
-4.643387 7.034844 10.77959
-5.143165 11.01492 11.22414
-26.05679 14.44434 0.6796412
18.89619 7.660491 13.14511
25.20411 9.428288 12.77696
19.24547 7.60823 13.25456
17.58052 12.59899 12.4683
23.49886 11.86676 13.44868
1.099971 120.4887 13.58675
-0.5791089 120.1345 13.34521
-3.986467 119.4747 12.06632
6.530182 123.5716 12.23862
-24.40552 67.18056 3.284525
-22.21161 67.96744 4.464362
20.10603 92.63395 -2.427336
17.94018 96.92776 1.539986
2.061257 13.23156 8.728322
-1.688805 8.971969 8.76035
-2.576639 10.16019 8.972498
21.1332 85.99395 -3.260385
20.22157 85.33732 2.858228
20.59398 84.97596 -1.281601
20.31727 82.86839 4.128624
20.11939 79.67979 6.57002
19.87248 84.84334 4.96954
19.2194 84.76819 6.559365
18.2574 86.0888 7.626881
20.89664 76.81902 5.746255
20.26471 78.78767 6.575318
-25.43657 27.28436 2.757541
-22.94508 33.26791 2.616951
-19.94793 35.21508 5.106501
-20.84744 25.15206 4.951139
-19.81631 35.85546 6.192045
-20.27285 31.49874 4.724138
-19.26959 37.9743 8.502557
-18.3788 93.43504 4.259231
-19.34105 65.45121 5.837085
-22.56877 69.28224 4.387768
-16.86406 14.46354 9.512463
-20.5135 16.68273 8.014019
-23.09435 19.99148 2.328921
-20.70535 24.87972 6.997255
-21.78926 17.84986 5.701102
-22.27794 17.84722 2.925768
-21.30976 18.20779 7.120201
21.38177 28.85026 3.18001
22.81059 28.71637 7.847116
20.89587 59.00182 4.185131
21.88967 58.20903 6.078815
21.9465 58.2623 6.232989
23.96289 19.78261 11.15492
21.1788 70.06075 4.845607
21.22699 66.78373 4.928093
21.60111 63.84043 8.042842
-15.30054 60.62008 11.14062
-15.2168 60.11712 11.15331
-10.33758 46.48849 10.58521
-13.31212 52.9147 11.11078
-12.24341 43.30769 10.9196
-14.99934 43.25065 10.93422
-13.67809 51.80955 11.11375
-11.49112 52.95997 10.82021
-8.0163 45.71502 9.670633
-23.30478 42.48384 3.178585
-20.2958 42.78154 4.15248
-19.15706 42.21782 8.479005
-18.83296 41.25156 9.187902
-13.7334 39.14569 10.91436
-16.26034 42.65628 10.75242
-14.37183 37.47641 10.86602
15.68326 106.5145 3.777079
5.764028 104.865 11.43932
7.94713 105.2809 10.68306
-26.11128 13.64325 1.424432
-26.34679 63.1598 1.111523
21.0344 10.24727 13.74366
19.71532 12.32784 13.44401
23.36967 19.79878 13.22335
19.27853 25.83483 12.71102
19.90518 18.33035 13.37914
22.49034 22.77101 13.2566
16.59815 13.87457 11.9025
-20.85073 65.42149 4.559658
18.85339 92.71008 0.439463
18.99762 92.18166 0.9950018
20.17905 86.58702 1.520053
19.78288 88.82999 0.668506
-0.6522222 10.3698 8.536314
-1.372013 8.164095 8.766485
5.727026 9.097722 9.628506
8.321767 9.614091 10.17365
8.263966 11.58904 10.272
12.38781 13.13745 10.53271
6.420043 13.64884 10.11632
12.3484 8.588128 10.73781
16.02594 88.92493 9.135585
19.59611 86.00282 5.176664
19.44694 87.94822 4.583585
17.50125 86.51887 8.348155
16.80583 88.68848 8.618711
18.89448 91.18224 4.179213
15.92023 81.85425 9.630756
13.85252 81.07147 10.28281
-23.38309 27.75928 2.337309
-20.16553 32.26314 5.076499
-17.13105 73.90311 10.08119
-18.42705 78.49776 7.866621
-13.98661 15.0355 10.38006
-11.65738 10.18589 10.31116
-8.560084 14.71753 11.24125
-9.071976 15.30809 11.04466
-20.96103 26.52244 3.810461
-20.81657 28.83055 3.501899
21.3918 26.90496 2.370864
22.1553 28.66068 0.09572999
21.33576 29.4037 3.176557
21.26216 30.32834 3.164204
21.82006 31.5624 4.926593
21.39057 33.12462 4.046094
21.30633 36.09939 4.276779
21.62618 38.39395 5.101429
22.32953 54.60548 8.30928
21.96293 60.57053 7.547522
21.19614 56.4598 9.942316
-13.74604 44.55099 11.00048
10.26464 113.0711 8.747612
11.30952 114.1772 7.996755
16.9406 101.0018 3.711933
0.9718782 106.4968 12.31719
4.042524 108.0902 12.19243
2.977 107.9336 12.30343
-0.2889228 110.2202 12.09601
7.252965 111.2013 10.6584
6.452816 114.4759 10.98659
6.08193 119.1024 12.56278
6.704645 107.4735 11.30117
2.125466 119.8798 13.44817
5.032332 115.3351 11.69987
-0.7093156 117.4424 12.95581
-2.436726 118.1354 12.35002
-1.683062 115.208 12.39787
3.100914 113.3495 11.97656
-5.100157 115.5902 11.96515
-2.518785 114.8645 12.17449
-9.198228 111.847 9.917233
-1.834358 110.408 12.06269
7.233005 115.1658 10.83641
8.775785 116.3195 10.36257
-14.70915 107.532 5.721549
-0.9787828 104.0686 12.20231
-3.678578 108.977 12.20495
-10.1672 111.4355 9.275366
24.06182 15.64056 9.337734
24.54266 16.70864 11.72882
20.30812 17.57469 13.52672
18.23217 16.93809 12.615
23.48116 25.23204 10.02652
22.59189 25.50955 12.95303
21.12088 22.3128 13.48378
23.457 27.55224 10.92762
20.78921 27.22952 13.16161
23.14424 30.0318 8.966073
22.9594 38.9649 9.116747
17.59547 82.39844 8.790596
18.34923 94.81207 3.005548
18.29475 91.98234 5.429494
-20.38231 31.03254 4.374767
-17.59824 64.70121 10.17103
-20.03212 17.17014 8.359369
-20.14578 18.94777 8.321561
-19.71968 26.31234 8.652123
-19.97913 25.38182 8.419903
-19.60662 23.35071 8.764667
-20.39978 30.37474 4.68361
22.80214 37.74799 8.042425
21.1638 54.49322 10.30995
21.90212 59.81574 8.309063
15.77555 78.34454 9.688884
18.33901 72.28848 9.453854
17.19288 70.66176 9.712157
15.4964 68.55927 9.831157
15.19088 73.50979 9.858387
14.87204 75.46257 9.957325
16.37045 67.7168 9.844884
-13.60574 42.07896 10.95939
-9.074155 46.89066 10.10145
-11.9458 38.53788 10.87157
-9.524436 41.02133 10.45059
-9.752877 38.22679 10.57254
16.9758 101.5582 2.510508
15.66492 101.0773 6.76542
10.50921 100.6799 9.524646
15.15187 98.52373 7.940215
9.416072 93.74521 9.95152
16.40971 95.79085 7.331528
15.98693 94.59676 8.043006
13.0636 95.06863 9.618276
1.357246 104.2453 12.18867
0.6484525 102.0361 12.11978
2.450526 100.7598 11.96153
3.135691 111.4576 11.90375
5.05888 118.7487 12.78096
-6.008305 110.2722 11.45733
-9.620202 106.4484 10.09687
18.8178 12.40385 13.0678
20.26036 27.64885 13.03833
13.1283 24.12332 10.30349
13.08749 26.9195 10.27026
22.17252 33.80682 6.011694
22.23716 37.94048 6.378678
-18.78457 69.98656 7.015895
-17.65533 68.5777 9.926977
-17.25799 68.34199 10.26319
-17.05685 71.87341 10.26133
-18.64346 72.39352 7.434385
17.26298 89.6989 7.974726
14.68907 91.91485 9.338323
12.69004 91.2602 9.953815
16.90042 78.66139 9.312257
11.28821 92.50286 9.901712
10.92901 81.19254 10.29606
-18.85987 19.99843 9.166708
-15.80277 17.87209 10.11835
-16.98014 16.97482 9.688651
-14.63557 20.17568 10.44351
-14.30468 20.53975 10.47305
-13.38967 21.17557 10.52958
-10.39205 23.29005 11.12498
-9.981734 21.81968 11.22743
-9.223246 27.29966 10.96364
-14.85351 27.35085 10.60054
-17.29387 26.51228 10.1175
-17.14379 23.34188 10.026
-19.67573 31.47857 8.366162
22.91749 38.14534 8.597512
17.09765 73.37164 9.543903
11.67372 69.78871 10.46378
19.40086 65.12701 9.840164
19.42099 66.16397 9.707685
15.30043 66.41091 9.913654
-12.05443 44.21053 10.90897
-9.465718 44.28746 10.33657
-4.881223 43.61755 8.763102
-3.615658 44.64519 8.723858
-2.586131 107.3023 12.28961
-2.475859 104.4173 12.16766
1.151547 101.0009 12.0743
13.15667 14.20831 10.63288
8.135441 13.23929 10.32327
8.601939 16.62462 10.41139
10.44488 11.89238 10.35218
-17.81717 72.07577 9.479668
-16.03368 65.00491 11.00498
-16.31903 71.95444 10.62073
-17.40314 77.44881 9.59383
8.980822 95.75253 9.963565
8.129223 101.0465 10.48614
8.98191 97.42989 9.961665
8.76231 100.3195 10.1519
7.607141 98.7889 10.6193
4.275787 97.13852 11.55897
9.502092 94.64566 9.911145
15.86085 77.73952 9.665265
12.27447 88.30798 10.14087
12.03178 83.37869 10.30402
22.00152 39.64748 5.930102
21.35181 43.19129 4.841326
20.91115 46.61549 4.145913
22.05768 41.22307 6.133043
21.97389 34.35066 12.22257
8.833754 70.09212 10.42015
-4.680768 45.65205 8.779317
13.11253 66.60973 10.20374
10.24387 68.10293 10.44865
18.95408 61.78198 10.22838
14.40555 63.12228 10.02014
-11.27938 44.88402 10.80523
-10.73795 35.01831 10.79931
-8.261232 38.70534 10.04341
-4.655843 36.6694 8.601959
-2.428602 38.08921 8.579418
-4.490778 42.26079 8.663235
-6.862852 35.417 9.552492
-9.954727 27.70378 11.00736
-12.7343 29.93489 10.83669
-14.32732 35.93176 10.84383
-17.96158 35.26971 9.990108
-16.42132 34.78832 10.56227
-7.861139 35.62273 10.03624
-8.518143 30.66228 10.61954
-14.32932 31.14485 10.73935
-16.6558 28.71388 10.35452
-16.2963 32.71037 10.54576
16.55002 15.19984 11.80951
14.09686 16.87119 10.75056
4.227629 18.76558 9.825174
6.303512 19.60394 10.42436
5.26587 24.59535 10.49755
11.71083 23.17981 10.26066
8.605964 22.05516 10.44822
14.54313 26.42179 10.48724
13.43541 25.48876 10.31277
12.75029 22.77806 10.29815
17.43126 24.2367 11.77287
19.40049 20.47059 13.08777
16.60719 22.76108 11.43717
12.90377 18.16967 10.44976
15.2539 18.42336 11.05844
11.15898 92.06488 9.931142
10.09342 89.13953 10.17391
11.53908 89.87628 10.07276
9.340629 82.36164 10.34745
5.961769 81.32198 10.70578
13.12389 78.58686 10.38742
7.422037 73.56851 10.48592
6.738906 73.65299 10.5603
5.305462 70.82254 10.72035
11.63785 76.28628 10.45622
12.62794 78.28319 10.45372
7.478414 79.78902 10.50976
6.611276 73.17733 10.57607
13.60915 63.92364 10.10464
13.11973 60.83643 10.16013
21.26459 61.92865 9.201655
17.87942 58.31784 10.37305
12.32107 62.05044 10.25506
-2.125751 40.6759 8.808228
-0.816856 35.91412 8.898044
7.512746 30.82475 10.63509
3.180522 35.34057 10.65639
2.923238 39.77642 10.80007
8.207137 44.8271 10.56244
-1.692568 43.6833 9.137173
-2.083661 45.80735 9.171835
-1.94426 26.26396 8.217772
-15.28947 34.84996 10.73951
6.589733 24.53097 10.59824
9.99615 26.49468 10.31068
8.972156 28.7965 10.43674
6.108064 29.38035 10.70862
18.4004 28.57292 12.0727
14.91584 29.20387 10.53185
8.013796 17.7077 10.45226
13.77042 14.9593 10.74829
15.82209 16.84289 11.36072
19.12086 23.88098 12.75057
-14.02633 69.36218 11.0466
9.146011 89.81355 10.20362
9.660219 92.66283 9.953807
8.690165 85.81075 10.4232
4.728766 85.1565 10.91132
22.83261 41.36277 9.639986
0.3834769 77.32721 11.13711
5.061427 74.81551 10.76844
3.229724 76.77947 10.96372
2.646354 74.833 10.99337
5.157489 79.85182 10.78919
-1.731166 78.56435 11.11848
-1.608871 75.1136 11.00564
-4.882791 76.63792 10.40283
-2.536249 72.32262 10.75663
-1.762214 77.76743 11.08567
0.3739773 80.13327 11.19103
-3.817218 81.93952 10.96675
-2.532241 74.72053 10.86922
-2.920996 72.84699 10.70095
9.585687 63.85773 10.45896
15.05325 59.90424 10.05439
15.06489 56.48021 10.13512
15.28182 55.5615 10.16585
13.29852 58.1058 10.15038
21.05357 57.28211 9.987605
-7.31162 25.09295 10.64345
-6.791892 32.08782 9.734833
14.85847 14.67742 11.09053
2.609572 96.55874 11.76248
6.170767 87.7991 10.75699
6.932189 69.56824 10.55165
5.182014 65.76168 10.71722
4.510505 69.13601 10.79046
4.047956 65.61381 10.80152
6.248893 64.35888 10.63039
-0.2650978 67.24016 10.8488
4.289086 63.07086 10.76795
0.9001882 82.70078 11.23098
-9.048092 78.8851 9.652401
-9.384335 74.04377 9.792748
-3.247686 72.08975 10.59521
-2.739232 69.67981 10.57698
5.338443 59.56781 10.70088
11.92682 60.65133 10.2796
1.934538 59.96954 10.7778
7.187363 57.32693 10.59195
-1.467907 55.30725 10.11047
1.260538 59.45939 10.74119
10.23017 56.98301 10.38863
3.199496 63.23 10.81728
9.851412 61.18205 10.44069
3.083682 61.24829 10.80076
16.88254 58.23319 10.23921
15.87714 52.6411 10.28396
21.87683 54.63881 9.524035
20.50769 53.42557 10.69899
22.00747 47.27933 10.54121
17.14506 48.01158 10.69029
19.08827 47.94676 11.22444
18.65023 44.15685 11.29477
18.99506 43.72699 11.42214
22.25135 43.39928 10.63576
7.034905 25.98013 10.59723
13.10232 29.09174 10.24488
-14.42901 62.66889 11.15118
-14.05468 64.46427 11.10817
-9.55615 68.84175 9.976268
-10.45912 71.12112 10.21001
-7.158299 76.31177 9.784698
-10.35876 74.73747 10.09096
-14.59247 72.26396 10.95447
-9.837333 67.63469 10.08487
-9.669914 68.93649 10.00711
-13.49135 56.48915 11.14082
-13.71747 72.45216 10.97988
-11.52098 78.6505 10.39641
-10.20125 79.74538 9.925551
-10.02803 81.20707 9.842235
-18.88077 81.5565 7.006904
-6.537512 79.7093 10.02049
-4.277672 64.17734 9.898356
-17.97448 78.07351 8.745918
-12.45031 79.79373 10.60741
-18.51938 79.89359 7.663903
-13.12849 81.61059 10.60515
-17.18192 82.76082 9.122278
-15.47312 84.74371 10.00108
-12.03149 84.13942 10.34378
-11.98732 84.13757 10.3353
-18.0518 93.23856 5.47335
-13.79639 86.48976 10.31558
-15.52964 87.06941 9.65432
-20.96686 83.9063 2.272213
-21.46335 82.44603 1.971545
-20.18478 86.50106 3.184379
-19.85039 81.13715 5.513
5.818951 90.41679 10.90108
3.316393 90.46795 11.36123
2.237306 91.04092 11.49743
