# .PCD v0.7 - Point Cloud Data file format
VERSION 0.7
FIELDS x y z
SIZE 4 4 4
TYPE F F F
COUNT 1 1 1
WIDTH 1673
HEIGHT 1
VIEWPOINT 0 0 0 1 0 0 0
POINTS 1673
DATA ascii
9.789127 124.85 -3.876207
11.79147 127.1279 -0.05601794
9.381547 118.7742 -0.6190045
11.83742 127.8001 1.012072
0.7987589 116.7071 -3.543621
10.9675 121.3104 2.244118
11.13301 121.7774 3.972019
11.77742 128.9809 2.881687
9.890373 118.5247 0.4790733
7.666301 119.1942 -2.497805
3.736599 117.8893 -3.840908
0.8324429 116.8706 -3.622321
10.02748 124.2466 -3.195513
3.819519 117.0008 -3.66779
5.466959 117.4681 -3.392012
7.360149 118.035 -2.402812
2.146482 118.0389 -3.875653
8.284364 123.6406 -4.231905
9.723316 120.2549 -0.8940086
11.42493 125.0179 3.680892
2.389591 119.757 -4.332747
4.527118 121.5868 -4.639635
3.215196 119.5663 -4.21827
4.335456 123.7043 -5.336969
8.781418 123.5578 -3.86615
5.028681 121.9123 -4.657513
6.138556 122.4345 -4.534151
9.958629 120.0842 -0.2661218
5.386296 121.5333 -4.46755
3.375171 119.1194 -4.064116
6.141719 120.8167 -3.961997
9.106186 120.9704 -2.083965
10.18476 122.1106 -1.343649
11.56503 125.8077 -0.1654549
8.804874 122.9302 -3.512337
11.77297 127.9764 1.817979
9.418247 123.3411 -3.243139
9.556845 122.7772 -2.820566
7.642888 118.7526 -2.365803
10.61395 120.7605 1.053325
5.158473 120.928 -4.373377
10.83599 122.2038 0.4607373
11.10919 122.7014 1.194316
7.62843 121.6699 -3.550495
9.724596 119.9399 -0.6820424
-2.781924 116.216 -3.568709
-0.3055538 114.9781 -3.631557
-0.9434847 119.5614 -4.213589
-3.182151 116.0281 -3.567593
-0.0857077 124.917 -5.770895
-10.30953 124.3738 -2.932704
-9.835566 117.3266 0.7619479
-11.12628 121.7355 4.080892
-12.00386 128.3272 0.4640125
-11.43734 126.2558 3.917863
-12.13787 130.984 3.118836
-0.5542371 123.9754 -5.463339
-3.381891 124.6026 -5.677354
-10.29138 117.9908 2.143406
-8.811733 117.3741 -0.8885545
-11.23448 125.55 -1.960269
-6.047585 116.478 -3.037565
-5.712683 117.6247 -3.351997
-3.17006 118.6363 -3.940732
-11.16739 122.3673 4.451059
-2.448238 116.8744 -3.716861
-0.7790141 116.657 -3.580432
-1.928159 123.3769 -5.267144
-10.83691 120.4182 2.92105
-6.791103 117.119 -2.694164
-7.551545 117.1604 -2.119058
-1.125976 118.0677 -3.778937
-0.2888651 118.959 -3.989869
-0.5676416 119.7284 -3.931154
-9.088879 123.5706 -3.683717
-10.05386 123.6243 -2.710019
-4.202219 122.8712 -5.075328
-11.10559 121.7039 4.467066
-11.61726 128.0729 3.457547
-11.25997 125.4739 -1.50384
-9.620114 118.8755 -0.2464662
-0.4163735 120.089 -3.904487
-3.056369 120.623 -4.373859
-1.329226 122.5213 -5.010578
-10.81182 121.2185 1.449719
-11.70098 127.2876 1.904965
-7.10082 118.9708 -2.867062
-2.173187 122.2375 -4.931925
-4.221007 120.3177 -4.301995
-2.847076 122.0928 -4.882948
-7.776737 120.9868 -3.219775
-8.279044 119.7201 -2.248817
-8.699134 118.5083 -1.298935
-11.47979 125.4757 3.383562
-9.992948 123.259 -2.543072
-10.62258 124.0209 -2.042095
-9.333311 119.9344 -1.250579
-11.19028 123.8686 0.06825493
-10.32362 122.6926 -1.608631
-10.78706 123.4134 -1.203385
-11.27535 122.8571 2.745255
-10.00177 121.3083 -1.094921
-11.28775 123.8032 0.8444241
-11.11316 122.8581 0.8643256
-11.68339 126.7263 0.8422889
-5.646331 120.2833 -3.975405
-5.428379 136.206 10.71129
-11.35392 128.1262 5.255447
-8.919448 122.2964 10.16786
-11.21791 128.1827 6.019799
-11.63411 130.4559 5.579125
-9.399218 135.3626 9.548719
-12.01426 133.2683 6.182595
-5.732933 124.0801 12.83155
-6.051702 123.5359 12.64497
-2.131387 125.917 13.37039
-7.089822 135.9563 10.3479
-7.767336 135.7396 10.21249
-6.60266 135.9208 10.541
-0.6368849 135.5733 11.43099
-3.970526 133.4155 12.26328
-7.792241 133.9207 11.2284
-4.376363 136.3539 10.84375
-10.87514 131.5067 9.630403
-9.808664 123.784 8.895878
-11.28063 131.7208 8.489263
-4.45298 126.1764 12.91896
-10.26653 121.3911 7.613316
-11.96141 132.5039 5.713766
-1.606813 127.6809 13.12601
-7.988583 125.8923 11.03615
-10.56125 130.6624 10.11232
-9.965224 124.2037 8.605345
-10.19864 123.471 8.076492
-8.460238 124.7891 10.75761
-7.09199 126.0132 11.67809
-9.690246 124.8959 9.005129
-1.016599 132.9871 12.38698
-11.80523 132.8398 7.076437
-0.504767 125.1477 13.47739
-0.629436 134.7955 11.7444
-11.15869 128.7246 6.688909
-9.760733 132.7189 10.60095
-10.75273 122.486 6.497209
-10.14651 125.8427 8.021901
-10.96628 122.5068 5.715738
-0.02410512 132.5927 12.49778
-0.9538943 130.8765 12.84447
-3.203445 135.381 11.4546
-7.276157 134.3563 11.19518
-11.0788 126.9788 5.918374
-11.11571 130.4953 8.37356
-9.818451 126.7348 8.850307
-3.164486 128.3002 12.93344
-5.258118 131.9212 12.68826
-3.149532 126.9661 13.07767
-5.506582 134.8617 11.41492
-8.509856 134.3669 10.63338
-4.557575 133.2104 12.30391
-4.046183 132.9045 12.43648
-10.51642 129.2978 9.312146
-10.01493 126.4499 8.387289
-9.379838 127.3333 9.8716
-1.557767 131.9581 12.65674
-0.937636 129.2781 12.96303
-0.7402102 127.2405 13.20229
-8.559009 131.45 11.922
-8.506931 132.8027 11.50676
-3.899718 130.8859 12.88742
-7.486791 130.3618 12.53377
-9.247071 130.2577 11.64518
-7.665936 127.4311 11.57436
-4.64751 127.8869 12.69503
-5.377453 128.0297 12.66168
-1.338398 129.7815 12.93649
-8.997697 131.7091 11.53051
-9.869364 129.981 10.98619
-10.43367 128.7333 9.038619
-6.083777 125.6181 12.42443
-5.6619 125.2475 12.72296
1.572337 125.6263 13.37484
0.3904536 135.8546 11.31076
7.907969 123.0699 11.32932
9.354263 135.548 9.454474
8.084044 134.748 10.6436
4.664623 134.0705 11.93826
1.427238 124.6249 13.52161
9.955709 135.5956 9.030487
7.692074 134.8405 10.74899
0.1133953 135.1697 11.59383
8.871036 136.0528 9.488011
10.60295 135.3806 8.596734
0.2448985 132.1271 12.60736
11.65806 134.0442 7.379332
9.832804 122.0802 8.669441
11.01448 121.2862 4.891284
0.1674832 127.7232 13.1211
0.7627468 133.465 12.24284
0.4057989 124.3952 13.51602
0.7270256 125.9184 13.37626
0.7050662 128.0666 13.07185
2.433245 134.9363 11.69454
5.215484 124.1232 13.00749
11.05116 123.8118 5.614944
2.712739 133.1029 12.37526
11.60104 131.2766 6.268907
10.7534 124.7805 6.597813
0.6984204 130.2356 12.90929
4.396384 129.5897 13.01884
3.871388 128.7827 12.94756
2.567481 131.039 12.83512
8.563817 123.6189 10.69141
6.904994 133.7376 11.66898
9.76105 134.4305 9.713417
10.37262 125.575 7.519757
9.006984 123.2717 10.15012
11.76582 130.817 4.823212
1.358685 134.3371 11.92782
6.36412 125.0138 12.39331
8.198221 125.9485 10.85236
7.256687 133.5057 11.68417
6.300854 132.7113 12.25324
9.818779 133.1264 10.37977
3.202911 133.6166 12.21192
9.690858 124.4486 9.044067
10.34316 124.9244 7.652547
10.12827 124.1552 8.179933
10.48921 123.4716 7.353925
11.16317 128.4138 6.336971
10.57531 129.0298 8.903254
10.80013 125.6056 6.436128
9.681949 127.5797 9.518454
9.695002 127.9986 9.813061
2.873583 134.0383 12.05288
4.808866 126.3168 12.79885
5.230334 124.7542 12.97672
7.300913 126.0672 11.59316
5.263688 129.1379 12.97669
6.180408 129.8437 12.93803
9.030323 131.4631 11.67962
9.176969 132.2007 11.35545
9.147207 124.9896 9.847261
10.88448 129.4793 8.324467
9.724309 131.4051 11.14092
11.20151 131.8858 8.745806
7.337811 132.0081 12.32404
8.340419 127.5714 11.17698
7.114988 127.3998 11.8552
6.253339 128.5964 12.7378
9.132496 133.5889 10.71529
11.48336 131.8278 7.40866
11.29424 131.6949 8.351979
11.55669 133.6563 7.560426
11.10328 133.9376 8.359862
-15.61044 70.80898 2.320915
-5.144431 121.262 13.04675
-0.1657668 119.3174 13.46574
-16.42459 79.83474 3.325473
-2.679891 119.5421 13.47958
-15.4487 84.61784 3.498693
-15.61385 70.5993 1.726355
-15.40635 69.20631 4.563204
-13.61465 101.9736 4.723384
-13.84457 101.1937 3.143123
-4.445794 117.5395 13.09362
-1.443374 120.2323 13.50139
-13.56193 101.935 8.144859
-9.905301 117.2834 8.643786
-13.05988 103.1836 5.58255
-10.56102 117.6089 5.496347
-10.15004 118.5778 6.966917
-10.3735 117.3552 5.886842
-10.59933 119.0904 5.287086
-10.59479 117.3145 7.520002
-11.63484 107.1068 7.986126
-9.499715 117.1471 9.443482
-4.893432 122.288 13.11657
-3.367002 123.0686 13.4204
-10.05899 120.4126 7.873566
-3.624628 121.2888 13.40551
-3.174744 118.7475 13.38344
-10.40391 119.2375 6.477106
-15.80566 86.17144 1.850746
-15.47837 88.22025 2.775033
-1.389328 68.12316 11.80223
0.2414673 76.77384 12.23047
-15.11908 76.61263 3.137141
-0.3872808 81.68396 12.56113
-1.525083 82.01128 12.41653
-2.756114 117.9478 13.478
-0.579306 96.43987 12.88639
-9.512766 118.8246 9.225881
-5.732073 120.3325 12.66576
-3.337399 93.11894 12.52104
-0.1270648 121.4377 13.47761
-9.920561 111.6228 9.925823
-8.867762 118.2706 10.10484
-6.053471 122.3563 12.54851
-2.385231 120.5141 13.49574
-3.574823 122.8618 13.40147
-0.6128504 118.6103 13.49817
-1.483505 103.9532 13.44145
-8.039891 119.2748 10.97858
-0.2456434 69.4475 11.46585
-8.929383 114.9694 10.16764
-5.682596 68.56155 11.77661
-13.10491 70.21199 10.00739
-2.171121 123.0522 13.52928
-6.408757 97.76191 12.41392
-4.811696 96.07597 11.72311
-7.781625 108.2136 11.55155
-12.14587 109.8812 5.095757
-11.93886 110.4512 5.65173
-12.18775 107.8548 7.629497
-11.96261 114.8651 5.849847
-9.918454 118.4691 8.566978
-11.80288 113.5972 4.524722
-7.451268 117.0193 11.56303
-7.499536 70.35385 11.83468
-5.353878 68.09242 11.62082
-9.750975 113.384 9.631764
-9.59395 115.7132 9.533107
-2.674673 114.0264 13.74209
-1.420073 115.4717 13.64296
-1.670302 114.4314 13.69432
-6.849949 109.8166 12.03988
-4.197882 112.8988 13.43344
-1.617551 109.9541 13.62609
-4.070989 112.4335 13.50629
-2.872975 111.8014 13.64306
-15.05922 70.65719 4.701501
-16.42349 69.45296 3.518764
-16.10966 78.55157 5.169354
-5.504136 78.7101 12.98086
-15.91849 92.20689 6.194293
-2.312955 83.40872 12.08833
-14.11038 99.92804 4.07949
-5.476754 106.0804 12.92121
-11.03816 108.1885 10.28591
-13.42433 102.6359 4.164739
-13.09015 106.0888 4.563148
-13.90759 102.9341 3.83895
-10.1061 113.3101 9.321137
-12.59367 111.7087 5.207255
-12.41967 112.8615 5.011535
-13.09033 106.299 4.613513
-10.33019 116.3694 7.864676
-10.13681 116.1303 8.168673
-11.44838 113.2368 6.089559
-9.879206 111.3934 10.36565
-6.476063 67.43817 11.4119
-1.527347 72.23724 11.74009
-4.723296 67.26375 11.10123
-1.99136 72.65958 11.64856
-8.828061 113.5536 11.22859
-1.167437 114.7147 13.64249
-2.73423 111.2905 13.55102
-5.839593 109.6161 12.92067
-7.154655 109.8692 11.85106
-7.037218 112.4612 12.39488
-7.328182 112.4366 12.39055
-9.471747 111.3554 11.65727
-9.213326 110.7692 11.87266
-7.226594 110.3848 11.95999
-16.18945 77.64581 3.904975
-15.04385 67.68554 5.350157
-15.92927 80.05177 3.43904
-11.84021 66.56108 10.1339
-0.8846245 77.69418 12.30217
-15.34265 91.77859 2.898995
0.2446079 93.29032 12.63888
-1.033194 98.79288 12.87138
-15.4668 93.81252 4.260187
-14.67693 97.48962 3.657815
-0.9793613 101.36 13.10068
-14.23239 99.88039 3.203733
-12.28267 109.3504 7.39291
-12.03654 109.7446 7.868268
-12.15109 109.4743 6.109588
-11.5526 110.6296 7.335163
-12.27337 106.1704 7.119486
-12.78645 107.0758 6.823301
-12.86892 107.3003 6.374084
-11.77218 105.8716 8.225729
-11.62818 111.4759 5.69347
-10.90975 112.7371 6.956812
-11.0292 112.0299 6.993701
-12.48612 112.2541 4.759533
-0.2747306 110.0366 13.45777
-10.6587 107.2905 11.04988
-6.193707 66.89057 11.23227
-12.80987 67.81654 9.523824
-2.459892 74.63621 12.50232
-4.29152 67.8382 11.22297
-4.09139 71.71438 11.67931
-5.778181 113.4796 12.62424
-1.153387 111.3038 13.67396
-9.928441 110.6165 11.14775
-10.32313 110.1129 10.39536
-14.62399 69.30394 5.978715
-15.96286 80.29601 2.177936
-12.99265 69.01791 9.512766
-2.060591 75.18383 12.63065
-0.9446568 79.20306 12.51588
-0.6959842 82.57185 12.18337
-16.14438 86.9035 4.016503
-15.04036 94.09798 3.597848
-15.01224 95.69659 2.509717
-0.2336246 90.20483 12.28432
-0.3562648 93.23289 12.78922
-0.08209202 95.145 12.66616
-0.9718491 97.63458 12.8525
-0.1460746 100.9781 12.77202
-1.49249 102.4917 13.46045
-1.732349 105.8277 13.6886
-10.69869 113.8353 8.102342
-2.236711 108.0259 13.66409
-4.305912 107.1568 13.01499
-9.305637 106.3553 10.80529
-3.293835 104.189 13.5005
-4.244278 101.342 13.30543
-4.295448 102.5033 13.31343
-9.609643 106.1597 10.60576
-9.01793 106.6021 11.0651
-6.971917 68.77385 11.82494
-7.892336 67.46346 11.44549
-10.37634 67.01379 11.01463
-10.67603 68.63441 11.1777
-4.064012 73.67592 12.3317
-5.629766 69.06211 11.91619
-3.420208 72.775 11.80121
-4.723073 72.82966 12.10318
-7.153702 71.77717 12.06462
-4.805317 68.37092 11.62825
-8.127628 114.98 11.54823
-14.68879 69.47717 5.855359
-15.8131 78.05772 3.023139
-15.96563 75.51202 2.786436
-15.99563 79.04778 4.913208
-16.07573 86.64386 2.959134
-14.19531 68.02374 7.474801
-2.973678 80.07394 12.86453
-1.232204 81.24268 12.72994
-0.9043401 81.05003 12.6278
-5.408226 81.75082 12.18786
-15.49769 88.40796 2.470746
-16.0648 90.51402 2.709254
-16.02252 91.83354 5.121193
-1.156261 89.94586 11.987
-0.2905611 90.57144 12.27723
-2.229704 94.57902 12.60624
-1.717006 94.82554 12.85906
-0.1528816 99.32624 12.69423
-14.60342 100.0934 5.488152
-14.68 99.4482 5.729807
-15.08722 98.47641 4.602589
-0.8856323 103.5709 13.42884
-1.86958 101.5271 13.28834
-4.829495 105.1515 12.67469
-5.068685 104.1599 12.57509
-8.351779 101.3713 11.49758
-9.163409 107.2624 10.89962
-11.24129 105.9549 10.81369
-12.3825 68.38869 10.24486
-12.89298 68.34785 9.516371
-2.024877 77.33108 12.25338
-1.126116 70.67818 11.89755
-15.02436 76.19411 3.598016
-14.80488 74.27053 5.830774
-15.23058 71.41506 6.189283
-15.5561 76.46288 4.776629
-14.11306 78.51875 9.241022
-14.87216 74.30669 8.454852
-16.17584 77.36652 5.378659
-15.15254 78.79319 5.954637
-15.22686 80.65074 3.317087
-14.79294 72.80243 6.214672
-14.15838 68.80222 7.933394
-14.6928 70.20529 5.598932
-15.24561 80.70772 4.918277
-16.01049 81.43278 5.029838
-15.99343 84.34029 2.32962
-2.070507 79.1246 12.70192
-4.09203 82.28574 12.12116
-1.921319 85.32817 12.84939
-2.18453 86.00861 12.90971
-15.50121 89.55545 6.943152
-16.14527 91.73799 4.932089
-15.23998 92.91733 5.01387
-14.93763 94.43625 2.669654
-1.899125 91.76748 12.66968
-2.124708 92.92636 12.96684
-6.338783 90.93348 12.05895
-2.210876 96.86362 12.30264
-10.61012 105.4495 10.38298
-11.84142 103.3704 9.592448
-10.91767 103.601 9.758976
-5.76201 106.3811 13.00445
-6.633207 104.5491 12.57535
-7.845695 105.6228 12.60115
-12.38598 70.15149 10.70629
-14.88275 75.18266 5.453697
-15.28017 80.08716 6.755618
-16.18157 83.60622 2.841226
-15.70744 88.61647 4.878183
-4.411039 80.66646 12.53721
-5.001039 86.78421 12.37259
-4.647484 83.25651 12.24258
-4.343926 81.05079 12.44463
-15.32036 94.71386 6.527528
-4.47052 92.80956 12.08939
-3.556664 92.49562 12.63682
-5.379456 96.8768 11.98575
-13.41763 99.36055 7.473254
-7.706543 107.0646 12.2192
-12.02128 71.54988 10.79094
-13.72906 71.46674 9.387834
-14.46222 78.43764 7.6715
-14.13258 77.58013 8.817135
-15.83478 81.11112 6.36061
-15.48504 86.45348 7.116801
-15.35464 84.13819 6.3933
-3.671671 90.1172 12.38249
-5.474711 83.23391 12.26314
-5.950601 81.12794 12.32105
-6.826668 81.38003 12.35083
-7.627128 79.11102 12.63421
-7.364076 80.7942 12.44496
-8.152802 81.82223 12.43935
-15.66198 90.29102 6.197599
-14.99908 95.21812 5.441068
-9.810398 103.7933 11.47987
-11.88329 101.7837 8.921752
-14.3149 100.9767 5.873738
-12.38108 99.88147 10.12213
-10.60203 102.1989 11.16851
-6.915301 70.55727 11.76798
-10.67574 69.36255 11.25219
-13.64572 69.89185 8.344933
-12.87627 71.74014 10.15878
-13.7067 71.5048 9.833701
-15.81293 80.96228 6.563402
-15.32041 80.81158 7.591939
-15.43423 87.09556 6.830685
-3.590976 87.89517 12.04127
-5.47136 90.50344 12.49699
-4.159691 84.4985 12.70246
-6.742744 87.25338 11.94019
-10.31402 92.85551 10.84058
-10.50537 100.842 11.28365
-10.59048 100.9494 11.29232
-9.949063 69.95959 11.6112
-11.28356 73.02608 11.41369
-15.38908 83.7166 7.119072
-14.58573 86.6105 8.09094
-5.343994 89.75654 12.36218
-6.521208 91.50489 11.7694
-15.21716 93.05198 6.839248
-5.490073 96.02894 11.70648
-7.357776 98.09436 12.36912
-6.814286 96.13335 11.62436
-6.473278 103.9161 12.29486
-8.839753 104.2119 12.22147
-10.53939 72.6808 11.89125
-11.73489 70.92337 11.09952
-13.7937 77.68764 9.369001
-15.18436 76.30684 7.707794
-15.72175 85.28699 5.632689
-15.40235 88.50982 6.022737
-13.80257 81.83969 10.0174
-15.01184 87.75033 7.946529
-8.518902 84.65817 12.57612
-6.64978 85.97215 12.57708
-11.50291 97.35541 9.726108
-7.25967 101.1815 11.73859
-11.60755 71.8027 11.04856
-13.19966 74.42407 10.23162
-14.075 75.4164 9.197556
-13.95405 75.79739 9.541465
-15.94226 89.60999 5.246973
-10.08963 85.53814 11.8891
-8.406989 87.198 11.91687
-9.111537 86.80978 11.87305
-12.15312 87.09305 10.71715
-12.0202 85.25195 11.09746
-12.28439 86.14889 10.91715
-13.85344 90.52047 8.988986
-11.83107 87.59989 10.88909
-11.79421 88.40142 11.26878
-14.1982 90.4032 8.484503
-5.758053 92.10954 11.78426
-10.36765 84.30745 12.20109
-9.314792 82.14604 12.32262
-6.700217 83.64174 12.44329
-9.818763 97.4774 11.47661
-6.905119 99.59528 12.55099
-7.030615 96.24325 11.66992
-8.908692 72.83405 12.25905
-12.56973 74.09683 10.82582
-4.998892 92.71215 11.89198
-7.12273 93.39948 11.10416
-9.126444 99.69211 11.0085
-8.795628 96.33271 11.49869
-10.43043 73.83413 12.1564
-11.47785 75.55877 11.63846
-12.96407 91.45367 9.712553
-13.81716 92.08801 8.492291
-14.08118 91.17076 8.309664
-7.752061 91.41885 11.47606
-9.173282 89.39559 12.09833
-9.656725 88.90899 12.09624
-12.7678 83.16544 10.80179
-9.899822 96.49857 11.36061
-12.43042 95.16225 10.26616
-14.34351 95.09345 7.154412
-8.676802 73.79855 12.37324
-8.521008 74.65958 12.58121
-10.05678 90.48564 11.15362
-12.90195 92.42917 9.41887
-9.061531 91.93682 11.05337
-8.974284 93.17463 10.89902
-13.58703 99.33125 8.101156
-14.29273 98.23766 7.405027
-10.98054 91.1537 10.94315
-8.385369 93.37463 10.94242
-8.878162 94.5218 10.82714
-11.42055 94.6589 10.31478
-11.71901 95.86682 10.59728
-6.636763 93.54943 11.15923
-13.62964 95.33499 8.866022
-13.38984 99.25626 6.853524
-15.18085 96.12514 5.134019
-13.31671 94.01868 9.650104
-13.13521 94.82831 9.604055
-11.15542 93.48547 10.44919
-12.82174 92.31452 9.543217
-7.664278 113.9342 12.44331
-6.980463 116.8375 12.4436
-5.956495 116.0304 12.82331
-6.233553 118.8331 12.58593
-7.029287 115.7824 12.5593
-7.71019 115.2506 12.20595
-11.43687 115.6304 6.158314
-13.33403 102.6734 8.674827
-12.66314 102.8723 6.777983
-12.04644 105.4495 7.690711
-12.01975 104.6715 7.973324
-14.9127 71.00308 5.048522
-14.74632 97.4753 4.252678
-3.813574 74.86243 12.64472
-15.85911 77.20239 6.470802
-5.558092 79.61335 12.76496
-8.32935 80.31503 12.47919
-7.329154 79.94647 12.49008
-5.578673 76.21754 12.34613
-7.798504 76.71725 12.60721
-6.053161 73.26696 12.42256
-11.75774 80.95052 11.54408
-6.8834 75.33917 12.38754
-10.23678 79.03233 12.34497
-10.30729 79.36799 12.3849
-10.76173 75.73009 12.09916
-12.91876 79.08457 10.39871
-9.420088 80.85017 12.35036
-8.357327 106.7329 11.74839
-3.928026 90.72293 12.61399
-15.83479 85.10104 6.790611
-12.92607 84.08434 10.34214
-14.11661 82.41874 9.730825
-13.39973 83.6584 9.943993
-15.40735 84.04543 7.724615
-13.43258 79.67027 9.906994
-12.45715 79.90116 10.95578
-13.59505 80.08022 9.744099
-12.05867 77.69018 11.42259
-15.48587 94.33926 5.684708
-14.06084 97.19547 8.197174
-14.95281 96.36567 6.879615
-14.35798 94.42504 8.096951
-5.670774 118.1251 12.98019
-12.67143 104.5875 8.427265
-14.64342 82.08138 8.633215
1.648054 70.15383 11.97124
0.8360668 116.2833 13.55915
0.9000459 70.37543 11.94102
1.234757 79.80228 12.68007
1.359463 80.13179 12.73621
0.4403191 81.25491 12.35847
16.09826 73.90795 2.21933
8.08916 67.49386 11.42878
11.23219 65.99751 10.44982
0.1984057 118.7694 13.45801
7.582974 119.3546 11.25141
4.649587 101.5903 13.009
0.9475866 86.50639 12.298
9.590732 116.5338 9.825769
9.394047 118.3385 9.853454
8.957877 111.1961 12.05774
5.819494 66.80733 11.42639
3.310108 69.99632 11.71811
1.474927 121.7034 13.49964
0.6443804 109.2516 13.44492
8.130755 122.3182 11.07127
9.586593 116.1561 9.764962
7.181399 117.4898 11.06199
4.552836 121.6232 13.25261
8.711977 121.9692 10.35496
1.170161 120.2116 13.48625
15.76125 81.02518 2.324152
10.86859 113.6091 8.702321
13.33991 106.3868 3.293029
10.21766 119.5445 7.211466
16.36011 70.58586 2.198117
16.1921 71.17847 1.473658
15.38724 83.12661 5.690267
0.491713 119.8061 13.46953
2.395272 78.3839 12.32511
16.00893 74.48354 1.265316
16.0355 89.00389 1.786273
8.062019 120.7798 11.19646
7.90098 67.07117 11.401
10.0131 119.6921 7.798902
10.46979 109.3883 9.722342
10.53203 108.8596 11.10695
8.813764 120.7729 10.23307
7.223427 121.0609 11.76028
1.801383 122.7364 13.45798
9.720411 119.3785 8.76525
11.98679 106.14 8.009624
2.833714 111.8289 13.5955
1.049543 67.45612 11.55378
1.310215 108.3271 13.54725
5.714941 122.5333 12.74198
5.031538 98.74334 12.60789
12.0416 111.8272 5.930322
13.69242 103.4679 3.743763
14.36573 68.39309 6.043536
11.31183 107.5267 9.724802
13.33259 105.8283 4.915802
13.69359 107.7602 5.316495
10.43523 116.0191 7.243946
9.758659 118.5713 9.002581
10.67375 119.7278 5.629927
9.12355 116.0275 10.01262
4.905658 120.8285 13.0944
1.974934 119.3406 13.39828
4.196904 119.7413 13.36979
5.478938 119.6162 12.6819
8.617748 119.0198 10.62514
8.759829 115.4097 9.98213
9.293012 118.6044 9.964931
1.72741 71.14541 11.65717
3.308963 66.98489 11.3681
2.658526 69.61691 11.90919
8.864752 66.10475 11.16565
15.23122 78.69263 4.174544
6.409656 86.83706 12.27409
15.80786 85.70052 3.302806
0.9396608 94.23978 12.7239
3.062411 99.25001 12.64454
3.1831 97.20373 11.82803
9.545035 108.8098 11.85093
1.556936 104.0382 13.46726
12.70654 74.11589 10.62477
15.7397 73.67002 2.653851
15.88728 76.12509 2.49584
11.0556 107.9285 8.789885
11.84918 107.0372 7.858881
12.39842 109.2414 3.57247
11.14356 114.508 8.562833
12.01005 111.0786 3.954215
11.83669 112.4341 4.371364
11.52705 114.9939 5.135046
9.966112 119.1485 8.055737
14.2644 99.68634 3.355922
1.784139 117.0914 13.47739
8.373899 113.9067 10.62355
9.066473 112.5752 10.11039
6.869909 116.3841 12.118
1.605273 75.13164 12.58015
3.915073 71.21951 11.41634
5.388209 68.11269 11.5921
12.9211 67.7417 9.30191
16.2217 80.76338 3.247752
2.344555 84.71718 12.34236
3.522556 80.23035 12.67562
15.1052 92.55329 2.521522
0.9506558 92.9483 12.46095
0.7519776 101.6363 12.85163
1.533935 105.4538 13.67149
1.912443 100.9489 12.87161
1.657306 99.33984 12.40871
2.951427 94.59641 12.3432
9.116816 106.8614 11.49348
1.341865 113.0588 13.63313
0.6794128 107.4301 13.39966
14.47107 69.48857 5.637248
15.43991 75.54391 2.427103
15.37728 79.52149 3.401436
10.6153 109.0058 9.199674
13.89354 103.4697 3.095499
13.06375 107.7836 3.973387
13.78502 104.2829 2.854939
10.55885 115.3502 7.023812
12.25974 109.887 3.66466
11.29205 112.3922 5.511238
11.59581 113.5546 6.828516
11.2861 114.5379 5.50921
10.36352 117.3493 7.340047
14.59388 96.32591 4.089261
10.07487 110.0382 10.3575
5.702668 118.6112 12.78317
6.356089 116.29 12.76874
5.446887 111.3317 12.57549
7.364292 111.6836 12.70286
8.385182 112.9538 11.61659
4.675539 110.1076 13.34078
5.644736 111.935 12.60865
0.6396498 75.04493 12.33218
3.636149 70.40058 11.41009
2.753863 73.50903 12.38371
4.465724 67.89189 11.65071
10.81965 66.46453 10.74158
9.601355 67.84007 11.36359
15.75115 79.79106 2.446265
15.78984 83.31656 3.062276
15.74377 88.10496 3.148387
3.294179 83.99323 12.32127
0.8515146 91.10363 12.37168
1.980881 78.74208 12.39573
16.14283 89.15079 2.575493
15.51564 91.90993 1.510186
15.47421 93.22787 2.475367
1.53096 94.52522 12.6826
1.049397 89.83364 12.55934
2.764565 90.87746 12.4165
3.361661 107.803 13.25867
2.070106 95.52857 12.02979
2.950645 95.78024 11.70131
5.016623 97.05496 11.89613
3.502802 100.4189 13.11111
0.9727373 111.6713 13.32017
2.489347 104.7036 13.58792
2.902405 108.0124 13.22323
14.68954 69.65565 4.627568
14.45385 69.2383 5.772597
12.55288 67.75193 9.781445
15.28203 78.68547 4.583605
15.77245 77.61056 4.529954
11.99634 110.9192 7.400965
13.3385 102.5786 3.757259
14.02276 105.7112 4.254538
12.67657 103.4531 6.928887
11.68511 111.7883 5.805912
12.04814 108.714 6.712679
12.80655 111.2489 6.908865
13.21566 109.9024 6.126613
14.50189 100.9966 5.809848
15.03614 96.46851 3.17914
4.284547 116.5135 13.20499
3.37466 116.809 13.21876
5.426681 112.4971 12.71828
1.623544 113.6704 13.69458
4.04849 74.6565 12.60071
4.789184 69.99516 11.33173
11.41487 67.92867 10.63381
15.89326 80.32114 4.77848
15.48933 80.35174 5.41627
15.69715 81.70287 4.209119
1.151155 83.7172 12.3623
3.983697 85.64223 12.54251
1.018316 87.74207 12.27757
2.275489 76.48766 12.10681
4.217346 79.06306 12.80177
2.841875 81.87395 12.40193
0.8929762 82.57115 12.51209
15.63256 90.59964 4.645459
16.02701 86.75134 2.852102
16.00097 92.05622 5.670698
16.02838 92.59669 4.939083
14.91592 96.58672 3.768996
15.37667 94.70588 3.489129
3.420783 93.43052 12.4585
3.245401 103.3615 13.47767
7.039589 95.69008 11.29172
8.722478 109.1099 12.09454
8.992068 108.2129 11.93214
4.119205 106.6664 13.19971
15.69632 69.97862 3.74348
14.40367 69.33815 7.055828
12.98199 67.22766 9.099714
13.77884 101.8093 6.279885
12.44413 106.501 6.651705
10.50777 116.0116 8.952207
2.537431 114.7953 13.49042
2.697269 112.2798 13.5941
10.86084 69.03403 11.14016
7.270016 69.89803 11.71723
6.643682 70.85405 12.0203
15.72772 84.72411 3.170103
15.11583 83.83517 7.506948
4.472727 82.16313 12.54068
2.968481 86.92367 12.17148
2.496136 85.88345 12.54771
4.537158 85.81937 12.54409
4.996118 86.51123 12.38494
15.58364 86.86619 4.260571
15.77269 84.82986 6.350839
15.79154 85.70016 5.669338
15.55242 94.06293 5.603568
14.67973 96.29758 4.439377
2.26384 88.92402 12.20663
3.517773 96.71882 11.64823
6.42977 96.51552 11.58332
5.030649 107.47 13.40609
4.486542 108.2509 13.49881
13.24392 103.3698 6.289825
6.988066 72.26742 12.43416
15.28747 82.46526 5.265813
15.24646 80.87213 6.979021
13.46849 80.78635 10.3012
15.01374 80.4799 6.607174
15.39774 84.18252 7.128333
10.00334 93.01218 11.25844
7.345103 96.66782 11.65506
6.531028 98.05742 12.28879
10.81419 98.16154 9.864101
4.293918 102.4746 13.05966
6.305092 107.6794 12.70907
7.005309 107.5628 12.01398
7.614306 107.2846 11.63208
8.319921 108.4931 12.06275
8.429198 110.9989 12.34175
9.396447 104.7745 10.74797
14.52276 101.1471 6.2091
11.81821 105.7267 8.891397
12.94612 103.5872 7.888679
15.85706 84.61376 5.646887
12.64023 86.56767 10.8368
14.80892 85.01751 8.175436
11.94744 94.32172 9.979832
7.682462 109.7825 12.36351
10.16491 105.0486 10.5482
12.49588 98.98893 9.799419
14.75755 99.90267 6.151015
13.82667 99.47122 6.869806
15.9548 91.68241 5.817643
12.4894 84.15885 11.08193
14.15533 83.44797 9.197758
14.0261 94.5379 8.764979
12.7609 104.6153 9.132773
11.25628 102.0791 9.167866
14.94751 97.91973 4.763936
13.80277 86.15974 9.54091
14.23038 83.4411 9.078555
15.03355 84.11301 8.08351
13.36287 82.54538 10.48699
13.3683 85.28273 9.845452
13.99461 84.45449 9.616787
11.9692 81.89737 11.23354
12.85407 81.97526 10.78008
10.5919 104.56 10.38114
11.8654 99.6594 10.25986
8.121029 104.515 12.2488
15.02213 95.92732 5.262833
12.11748 102.2727 8.935228
15.43426 88.86604 7.344002
15.0845 86.67011 7.246636
13.45822 89.07729 9.822019
7.072286 83.75654 12.44093
10.22024 85.40172 11.94845
10.59087 82.17487 12.07251
12.04294 105.4049 7.979952
9.206053 103.8953 11.24683
11.22908 101.3435 9.427164
13.61674 101.7354 8.030533
9.199216 97.98911 11.47357
13.80096 102.0176 8.140285
14.50336 90.34157 8.2031
15.02476 90.1242 7.428539
13.80904 91.66015 9.315187
13.10847 92.23083 9.893792
13.40981 90.02621 9.992514
13.92417 87.51297 9.523512
11.57856 85.75183 11.47676
11.79359 106.0581 8.305083
9.959611 102.7501 11.30589
11.18595 101.1913 10.16449
9.354469 102.0949 11.79064
9.932249 99.61825 10.47675
13.45323 103.0905 8.315486
13.95183 92.41735 8.54522
13.25037 87.43078 10.15164
11.36602 85.41518 11.5377
7.577015 105.5066 12.45301
6.61872 101.5294 11.97071
9.40975 96.77789 11.40054
10.25226 97.55217 10.68991
12.92098 87.30605 10.47669
6.909508 99.80615 12.11337
6.019016 106.0813 13.13016
12.35515 97.55779 9.027372
4.90391 103.5915 12.63669
11.23964 96.94562 10.63525
12.81042 95.54041 9.848228
13.67467 97.50549 7.046369
12.8914 98.61932 9.410316
14.73986 96.26846 7.333136
14.11702 97.97647 8.079309
12.09871 96.54226 10.08288
9.255797 94.92885 10.73954
8.629825 95.25475 11.04939
11.70714 92.15941 10.56167
11.57739 89.84609 10.70327
13.01931 93.53674 9.32788
6.023284 118.7118 12.36008
12.17165 74.86709 10.94145
14.66732 71.60365 4.620705
14.76666 70.62812 6.881085
4.441914 117.6926 13.30629
1.523247 101.2658 12.78948
3.429075 102.597 13.40598
4.80568 100.4076 12.98607
15.9753 78.93507 2.708183
15.73017 73.82681 4.775667
3.995625 78.80759 12.74327
15.45484 89.86069 3.125606
15.71627 91.93495 6.081656
5.25884 110.0708 12.84773
4.825475 79.05995 12.77745
5.872994 79.10817 12.81996
7.244938 80.24982 12.47018
4.339036 91.58878 12.28598
5.151486 76.97779 12.26183
9.719877 73.61121 12.10244
5.606025 72.69544 12.583
10.78896 73.4717 11.68949
9.18249 73.0546 12.19585
10.96018 75.85871 11.93246
13.08434 72.87554 10.12146
9.602813 77.31663 12.27478
9.423603 75.3708 12.3587
12.38365 76.47022 11.22184
14.30287 70.42247 7.798867
13.62729 74.42798 9.297887
11.14031 79.43932 11.86269
13.64457 71.07756 9.194919
14.6844 71.86732 7.069965
13.06593 76.39443 10.50914
13.38849 79.58507 10.52176
15.33516 77.85265 6.744147
15.33844 78.80671 7.454372
15.55385 78.45486 6.047606
13.55899 74.96587 10.22325
11.01577 77.51589 11.77245
11.95467 78.24466 11.64521
15.16764 71.94877 6.340232
14.32748 73.16068 7.6408
15.54304 76.07043 4.271247
14.43704 75.71078 8.174304
15.21425 73.8419 5.984129
15.49033 75.86894 4.408305
15.76474 75.4534 3.945626
10.65233 78.2747 12.15915
10.03347 78.39174 12.32438
9.350518 76.19275 12.32177
9.15431 77.957 12.37133
14.19653 81.19416 9.343315
13.13031 78.75109 10.45125
14.90285 77.03667 6.521347
10.74016 79.78684 12.01964
8.721405 76.25616 12.38442
7.607326 97.0337 11.85005
9.030526 92.93991 11.60266
13.52582 81.15699 10.19463
13.86437 80.19326 10.11021
6.269114 79.81015 12.6808
6.850505 83.03112 12.56944
8.353172 83.08777 12.50353
9.766644 88.04298 11.66687
15.68931 90.94167 4.88044
10.03515 87.23582 11.71999
11.06168 83.98193 11.79368
10.39974 88.48695 11.53298
10.37999 88.00449 11.52742
12.14919 90.82677 10.26327
9.467937 91.5202 11.06216
10.02167 89.98284 11.2546
8.634789 90.03032 11.36144
7.060093 87.56477 12.06268
4.950252 88.08573 11.72355
5.086312 86.00804 12.5309
9.23966 89.94669 11.31978
8.782001 91.79501 11.10069
7.418102 90.47679 11.29617
5.57083 89.87061 11.47223
5.509429 94.06952 11.77996
4.547886 93.7031 12.36192
7.796156 94.7429 10.92816
10.35127 93.77867 11.23809
10.1311 94.53484 10.66483
15.46957 71.6528 3.25573
12.14901 68.31651 10.23793
10.78465 69.18248 11.20638
8.222604 70.99709 12.16166
14.67198 76.65688 9.124839
6.395299 78.13606 12.72369
8.611733 96.1662 11.37929
8.109495 90.10149 11.38551
13.04181 68.8013 9.39815
8.712484 69.8536 11.92135
12.41905 69.14408 -0.9390621
2.335541 67.09541 -7.209041
2.184154 65.36345 -7.399295
15.07767 80.50435 -2.545167
5.298928 111.7948 -3.842935
0.8193305 111.3073 -4.991371
12.45844 67.55358 -0.8227435
9.090743 89.294 -8.445259
11.17665 110.7422 -0.2475117
7.940183 113.3402 -2.447178
14.13561 95.49052 -0.1109776
12.49393 103.8354 -2.608155
5.06303 109.2797 -4.868224
13.51089 103.9296 -0.765152
9.372052 115.4089 -0.2357203
13.51137 104.5141 -0.5454984
11.28569 113.3856 2.958979
10.56566 118.6852 3.791138
10.90843 114.4557 1.505409
12.94543 105.5826 -1.462577
10.85672 115.1334 2.722311
10.98366 104.7757 -5.689887
10.55447 118.5826 3.808681
10.36661 118.4651 2.111656
9.30834 115.663 -0.2735162
14.63731 96.06979 1.479862
13.70015 100.5285 1.267682
10.59305 115.3969 0.8715253
11.06513 115.1269 0.9217148
0.6843563 68.04953 -6.598197
0.8168494 71.97836 -5.177873
12.56213 109.6955 1.376377
14.90025 84.12325 -1.247995
2.071001 74.32282 -7.398534
9.657733 109.0741 -4.083965
10.21789 116.1864 1.487393
11.35558 94.5104 -6.02494
0.2776922 95.22269 -9.787316
0.02968404 94.54111 -9.744149
11.78791 107.7725 -1.642632
13.78617 102.129 2.105459
12.08791 111.7055 2.701088
-0.1599205 98.34003 -9.081336
8.126116 115.6832 -1.706657
12.02797 112.0371 3.429044
2.12477 107.3611 -6.926066
1.315396 102.034 -8.640934
3.750806 101.3258 -9.578456
10.6697 107.2705 -3.870092
0.0522292 109.598 -5.43648
0.5371192 98.43661 -9.032711
1.044526 112.627 -4.430551
5.367342 103.14 -8.208574
13.81118 78.14565 -1.429245
1.922969 79.54011 -8.5646
2.676557 85.19123 -7.85556
14.49011 83.35946 -1.115578
13.35801 100.5866 -0.8417715
1.072829 91.57129 -10.14481
11.3742 105.5402 -3.567801
12.85022 105.6253 -0.7657297
13.28801 105.0534 1.519687
12.61493 101.4754 -2.819426
11.02895 109.2827 -2.555121
10.80882 109.6696 -2.548607
12.54292 109.7784 2.662828
12.92269 107.9555 1.535704
11.40503 106.8777 -2.841804
10.96757 115.2385 1.628597
9.909289 113.1782 -2.408154
0.4840225 104.4449 -7.975635
11.69268 104.2182 -5.369168
4.207691 64.93465 -5.43793
1.635779 69.2206 -5.861899
1.031797 68.85416 -7.024754
1.90032 67.31873 -7.373383
2.614612 108.1102 -5.481024
8.393465 112.1721 -2.758504
2.34675 104.0277 -8.127753
9.124122 113.0996 -1.558164
0.9404828 112.7253 -4.241973
1.678111 113.2 -3.803537
9.948331 117.0524 1.131414
13.89497 77.20916 -0.1861803
15.03378 76.23069 -0.6267782
12.36565 68.46415 -0.814787
14.87356 73.99982 -0.08664495
0.1252391 76.16388 -7.111068
1.030913 79.60067 -8.448661
0.03583131 86.85952 -8.48816
14.65135 90.70046 -0.7154707
15.20203 85.72313 -2.128034
14.76091 91.65474 -1.136559
0.2319304 95.83294 -9.374713
14.27003 99.84818 0.8943868
10.22965 109.3796 -3.147968
12.0851 108.2055 -0.9657135
13.05515 106.509 0.5418691
12.82524 108.7746 0.8231442
13.00767 107.7469 0.3238104
12.16487 106.0191 -2.893384
13.60708 104.3576 0.1566859
13.90235 103.4128 0.6430253
12.4897 104.3147 -3.658234
11.49223 102.2493 -4.141834
12.07306 103.4317 -2.934387
12.10518 103.7556 -3.956396
11.51741 110.0527 -0.1160594
12.70128 108.2898 2.591227
11.45236 112.1978 1.924768
10.89228 113.6063 2.163854
0.3807702 103.7867 -8.092385
-0.2465869 100.3221 -8.869418
8.300187 107.5349 -5.516741
1.055226 99.83707 -9.705592
7.468596 65.39042 -3.023813
1.465728 73.32153 -6.54984
1.837615 68.858 -6.087372
3.371791 66.13364 -5.475097
3.755306 66.8982 -4.18021
4.036997 66.90528 -3.942719
1.286306 107.0277 -6.632398
2.451546 109.5741 -4.819257
1.40749 106.7489 -7.348627
4.298839 114.3718 -3.420864
8.719382 112.8615 -2.078475
4.575333 109.8103 -4.59229
3.357961 113.8188 -4.253426
11.09059 114.1465 -0.07406978
14.80284 78.95306 -0.02213357
15.60318 81.37631 1.286834
15.84825 70.23597 -0.1932873
0.4618086 74.66647 -7.165945
1.245015 74.1302 -7.303487
1.313026 76.20573 -7.276041
2.869804 78.227 -7.537852
1.110445 78.61404 -7.561474
1.82776 84.3876 -6.635332
1.687086 88.65785 -9.099261
15.23938 89.74921 -1.276224
16.11485 82.15372 -0.369774
14.53623 93.92722 0.4455915
14.52451 97.74934 1.58828
1.397852 91.06358 -10.25858
0.6488141 94.3875 -9.764233
13.12686 105.5283 -2.528551
4.939074 96.57185 -9.813865
9.642075 103.5432 -7.278278
10.43013 112.8284 -0.6320062
2.514379 105.6032 -7.635216
3.216205 105.3313 -7.938327
2.576529 100.9508 -9.615064
4.983484 106.8064 -6.509014
8.222307 105.7858 -5.856741
0.6320935 101.1911 -9.289838
0.315057 96.94798 -9.774353
1.478492 69.35662 -4.782077
3.635324 68.21684 -3.947469
0.1163728 107.6732 -6.087406
2.720719 109.5345 -4.752413
4.518166 110.5519 -4.315241
3.10392 112.1462 -5.025344
3.621699 112.5824 -4.786234
5.293557 111.0356 -4.072214
8.045702 111.2728 -4.406429
15.01262 74.46027 0.5564415
15.01198 73.04418 1.005561
15.20977 80.98811 0.141184
10.09276 67.14893 -3.392345
9.299267 67.73543 -4.08374
10.76586 67.30193 -3.012547
11.98887 69.13761 -2.156642
12.34398 68.76957 -0.9081247
13.76771 69.7024 0.06085436
2.212241 73.84758 -7.392225
1.905413 72.27097 -6.440553
0.8384777 79.28609 -8.353763
1.157672 80.55113 -8.446412
2.932338 84.24491 -6.370995
0.6560442 84.73139 -7.701487
-0.2216084 87.23253 -8.863485
0.6729308 87.87725 -9.618104
15.13798 88.85082 -1.121914
12.69221 86.48646 -3.967424
14.25777 90.5816 -1.98051
14.70327 91.31272 -0.01061362
15.97445 83.20801 0.3991748
15.89925 86.19636 0.6638023
14.09301 95.36631 -0.9001175
14.57617 93.63842 0.812642
1.874939 93.35477 -9.668714
2.997311 93.1927 -9.927194
3.401694 93.81921 -10.312
1.903597 94.2305 -10.19831
2.043941 90.01598 -9.492976
3.357273 96.88766 -9.797282
3.962986 93.47343 -10.21427
10.19068 101.8608 -5.888515
12.11891 101.1636 -4.432084
12.29859 100.8358 -4.440164
10.93955 99.06177 -6.17127
10.2408 99.40149 -6.639859
11.88808 99.06491 -3.931998
3.355171 101.4085 -9.475462
1.539958 100.0383 -9.735712
5.290478 102.1783 -8.430924
5.994102 102.7752 -8.052763
8.092029 103.2659 -8.069082
5.406689 100.4137 -9.118035
6.122069 102.7623 -8.048857
9.301312 103.1586 -7.57164
9.510421 105.5707 -5.30507
8.674984 108.4378 -5.238712
2.390733 97.78599 -10.31851
5.428017 67.66556 -3.754057
8.306527 67.11433 -4.115129
7.352128 66.28669 -3.510428
2.384748 107.416 -7.022169
3.938438 113.8222 -4.374117
7.670431 113.4432 -2.585485
6.469952 113.2573 -3.151255
5.132255 109.903 -4.513432
14.50656 72.85045 0.6555809
13.09756 76.26003 -1.154142
13.80404 79.29083 -1.868544
13.93767 72.10221 -0.8811695
3.252326 71.23364 -6.265456
7.259518 68.26462 -4.936881
3.471759 76.14622 -7.551641
4.063511 87.34196 -8.958161
14.88431 87.13777 -1.036457
13.62984 96.78046 -0.881677
13.36874 98.09112 -0.6261578
13.35283 99.82074 -1.760976
2.436781 94.80244 -10.13182
3.465287 90.83957 -10.46024
5.397222 91.12077 -10.30406
1.663764 100.363 -9.586113
9.658399 101.4853 -6.914425
9.716779 98.54804 -7.701908
6.685705 100.0167 -9.282098
9.587858 102.687 -6.950348
6.241105 70.07127 -6.163219
6.061925 68.79541 -5.240939
7.325381 110.6237 -4.907356
5.41347 112.5676 -3.622617
13.46804 72.08649 -2.372874
14.95521 74.4361 -0.8633721
12.55124 76.83855 -2.750059
14.10733 71.05161 0.5010641
3.791796 81.95478 -5.853406
13.90043 95.99501 -0.1753858
1.583952 88.87228 -9.151171
3.005253 88.60279 -9.189065
7.98407 93.59737 -9.301957
4.371454 91.73403 -10.27192
6.507254 105.7312 -6.791417
5.614631 67.41373 -3.684094
5.925829 71.26714 -6.8713
7.014883 107.9539 -6.299299
5.656854 107.7487 -6.478776
4.825057 106.3782 -6.827865
3.474957 105.9347 -7.100116
14.95439 74.43261 0.06873783
11.40555 78.42415 -6.317234
4.830792 79.14943 -8.214869
5.895369 69.67725 -5.938176
4.312231 108.2446 -6.596129
2.277439 105.1062 -8.19451
3.391996 107.1772 -6.839776
15.21868 83.1132 -0.2711529
3.578316 69.62096 -4.574138
4.416139 69.79787 -5.482328
6.527798 75.86713 -7.204068
8.248096 68.9631 -5.059536
9.610837 71.31538 -5.589854
10.88295 74.95837 -3.619843
5.056107 72.20463 -7.38561
5.901254 74.39418 -7.848485
7.641872 70.62128 -6.115821
9.75415 71.72707 -5.384752
9.741382 70.1967 -4.948962
6.237897 106.6751 -7.480092
11.95213 76.11479 -2.874938
12.73063 75.3122 -1.647302
11.99442 76.72461 -3.462883
10.05484 73.82415 -4.099852
13.69628 71.80728 -1.431555
11.40759 72.29134 -3.885162
11.89963 71.83353 -3.785993
12.67221 71.53066 -3.156652
10.66929 74.85282 -4.685028
13.16551 73.94022 -1.788587
9.683825 75.68633 -6.876617
7.670448 73.14602 -7.249022
5.343214 78.26377 -8.187194
4.619545 74.60844 -8.021217
7.682048 76.75626 -7.252352
6.367585 76.0838 -7.158417
6.292595 78.12483 -7.983472
7.940283 80.28117 -5.371255
11.33209 76.57428 -5.703851
6.440656 77.21761 -7.548923
6.229293 76.64064 -7.125215
4.008194 76.82449 -7.123415
10.76562 76.53975 -6.305677
13.74412 82.60935 -3.128773
10.6902 78.68783 -6.358341
9.173917 80.25494 -5.177526
4.18181 78.56429 -8.384216
10.75797 79.06155 -5.937718
10.15462 80.6769 -4.781187
12.16253 77.72717 -5.463661
12.92026 78.02602 -4.487506
7.257845 79.40018 -5.928244
9.61965 79.3177 -5.018332
9.9144 80.74145 -5.100563
11.96713 80.83289 -3.532491
15.28647 80.46671 -1.77005
6.434136 78.4392 -8.019817
5.520216 79.96821 -6.09418
13.46479 81.0619 -2.747889
14.13506 79.71822 -2.045025
4.503273 80.19249 -6.633447
14.86311 81.49242 -2.338098
13.68189 78.87607 -1.332315
5.339899 81.0089 -5.602829
3.198293 84.76973 -7.324461
5.515274 84.01329 -7.300097
5.261162 83.08209 -6.002522
3.023041 87.32249 -9.168924
13.2062 100.9182 -0.1010991
13.10688 102.7416 -1.951298
13.05952 100.6542 -2.776966
4.719456 78.4941 -8.349792
2.060622 81.01995 -8.246855
14.88694 82.0099 -2.001301
13.85734 94.57012 -1.99959
3.446545 95.78417 -10.01186
9.907871 95.49158 -7.581986
8.991713 103.0455 -7.784954
13.37752 93.71516 -2.039853
12.6808 94.11251 -4.068388
3.130278 97.65548 -10.3966
6.850346 104.4577 -6.939641
6.733397 109.7361 -5.689167
13.65683 79.53028 -4.27862
14.25003 81.01431 -2.870118
12.33084 82.81621 -5.008337
6.169539 83.75523 -7.209584
12.85078 82.52625 -3.904143
3.14538 85.10417 -8.091508
4.211173 85.47565 -8.799882
4.545108 88.55812 -9.471665
3.630759 87.16242 -8.954194
7.525722 88.71099 -9.013255
5.922767 89.05267 -9.511926
5.715698 93.09811 -9.993751
10.56038 90.80026 -7.433083
7.180562 89.55508 -9.304838
13.36477 82.47727 -3.323693
13.00237 81.8388 -3.076815
11.55372 82.86055 -5.527949
15.18405 85.4364 -2.007844
10.9284 81.63693 -5.405168
10.44457 84.59578 -5.592709
14.00855 84.9109 -3.607285
12.37896 85.83352 -4.325355
12.75583 91.10513 -4.753143
14.02629 88.24302 -3.439633
11.58511 98.44509 -4.964477
9.299138 95.56799 -8.236303
12.27129 97.05878 -4.595956
9.921605 97.84423 -7.847898
8.640441 99.85687 -8.201713
9.99931 96.64931 -7.944142
9.379117 94.91382 -8.137392
9.137552 96.13149 -8.707523
6.309471 93.01331 -9.878429
12.51946 92.78319 -4.534041
12.6524 91.38638 -5.010808
8.222538 91.10432 -9.109468
11.01788 94.07908 -6.539555
10.95865 92.38911 -7.040471
8.525094 92.0069 -9.178239
12.85337 90.70502 -3.886243
9.305965 91.69641 -8.479207
12.17599 89.8518 -4.897018
8.861711 94.33913 -8.600903
9.418562 91.4243 -8.314533
7.034209 88.35118 -9.026225
9.534781 88.23687 -7.682134
12.09571 87.53246 -5.648089
12.43991 88.78591 -4.768496
12.31494 86.87001 -4.632392
11.17891 90.87389 -6.847798
11.33762 86.23088 -5.451074
10.84392 85.61438 -5.73512
9.907119 85.59028 -6.326173
11.56813 89.31824 -5.785217
6.452518 85.19806 -8.127592
7.251459 84.26534 -7.747526
7.667363 83.58603 -7.118451
4.618117 85.73707 -8.852019
13.40639 83.90325 -4.212263
13.16844 83.36219 -4.417893
13.26259 86.02623 -3.227952
12.4212 96.16639 -3.450433
13.32023 95.06232 -3.340616
6.946717 95.86695 -9.735165
6.175111 92.89281 -9.909226
13.47193 86.35492 -3.000536
11.45246 86.68097 -5.863998
7.445647 98.14571 -8.948835
9.756676 96.54585 -8.24407
5.283455 96.76065 -9.767979
6.462767 96.47067 -9.520549
6.897566 83.29844 -6.59664
-13.59989 102.9911 2.703809
-0.7220941 76.40935 -6.963791
-0.2966361 74.04283 -6.074499
-2.144302 89.31342 -9.292942
-13.1894 98.59776 -2.242459
-0.7985147 81.46097 -6.972657
-0.4276396 65.05735 -5.42311
-1.277201 89.45337 -8.962124
-1.79745 110.8734 -5.312134
-1.925937 72.8996 -5.363604
0.008365456 67.72541 -6.759874
-1.598285 107.3182 -6.129825
-5.394237 65.36267 -5.207661
-10.81057 82.23151 -5.636504
-1.264786 102.8072 -7.877934
-2.595277 102.6924 -8.980735
-0.3226599 112.8425 -4.519566
-10.38323 117.0967 2.79879
-0.3631696 108.3728 -6.086229
-11.04659 109.102 -1.716544
-9.386163 107.4732 -4.901256
-8.326626 66.58609 -4.298355
-4.967967 113.4911 -3.535211
-8.53166 114.6446 -1.639049
-10.65875 106.1387 -3.869933
-14.47926 71.17661 0.9774703
-11.1174 66.19236 -2.961901
-5.089796 96.58315 -9.998791
-8.006602 107.7757 -5.469795
-9.972089 104.0515 -5.628759
-14.18112 94.0729 0.126331
-15.58664 73.99126 1.208177
-14.08717 101.6562 2.42174
-13.73415 70.56201 1.0386
-13.66863 70.34196 0.3373385
-16.13355 80.39285 0.7637717
-9.197634 67.35319 -3.484153
-1.523603 98.27015 -9.990788
-8.57137 104.3997 -6.252019
-14.48794 71.49966 1.199806
-9.873769 116.4699 0.8455279
-9.328459 114.8395 -0.4679534
-11.73891 102.3848 -4.315434
-10.32863 113.3683 -1.424484
-10.24046 116.1644 1.946305
-10.52122 109.379 -2.935453
-13.14675 107.8934 2.479282
-13.32101 107.24 3.309644
-9.592109 106.6761 -4.649197
-4.49808 112.8754 -4.793844
-0.9671719 113.9865 -3.647603
-3.484564 113.0165 -3.953284
-0.9280322 107.9941 -6.323986
-6.146112 112.4521 -3.660925
-13.33871 106.4039 -0.57816
-11.29499 112.0661 -0.1391518
-13.32825 106.0885 -1.002664
-11.26996 112.2408 0.8018902
-12.34992 74.82196 -1.735566
-14.4318 77.9736 -2.589524
-4.328764 96.42834 -10.26264
-13.79681 85.29604 -3.911542
-0.4003924 68.5735 -6.583664
-1.543773 67.39142 -6.49739
-1.775418 73.751 -5.388772
-6.78328 64.76028 -4.351564
-6.245949 66.84995 -5.251686
-9.469913 105.4675 -5.105492
-0.4078279 105.8277 -7.015538
-1.278465 99.0262 -9.387576
-5.294556 114.2379 -3.517713
-6.820909 114.6308 -2.728916
-0.6802832 111.9938 -4.440034
-4.36473 113.1083 -3.72998
-8.30779 115.5123 -1.509448
-1.972932 99.49835 -9.29505
-13.13769 67.49403 0.12989
-15.47722 72.28655 0.004672385
-15.11349 72.85379 1.35725
-12.92798 109.6342 3.687889
-13.19337 107.7595 0.8510197
-11.21483 107.8297 -2.343836
-11.46421 107.2707 -2.308847
-10.42397 111.4616 -2.691909
-12.44915 110.721 2.29572
-13.36631 103.1375 1.697893
-11.98102 104.203 -5.129158
-1.633062 82.18022 -7.37575
-0.369309 74.2325 -6.290207
-14.54549 77.86903 -0.1713528
-15.26342 88.59261 1.138012
-2.177397 92.23261 -10.21812
-14.08275 97.54596 1.809715
-1.351459 74.17387 -5.956158
-9.063121 64.88477 -3.29196
-3.037574 65.8079 -6.019876
-9.728555 107.6784 -4.427347
-10.15344 104.7195 -5.084426
-1.251422 107.8632 -6.220694
-2.007518 109.3131 -5.148627
-2.120242 105.6021 -7.047822
-1.077561 102.0244 -8.913784
-4.672404 113.1034 -4.090102
-3.219474 109.8091 -4.892435
-3.191072 111.8373 -4.835425
-6.957378 114.0643 -3.224434
-9.050899 112.9887 -1.66087
-0.6660489 96.43141 -9.676615
-15.24881 76.77876 1.339021
-13.20264 67.69106 -0.008977349
-15.52914 73.66602 1.644453
-14.84021 95.4464 0.1931421
-11.7023 108.6462 -0.8477626
-13.33374 106.8894 0.7383878
-10.75223 107.5305 -3.074257
-11.29169 111.2344 -0.1523437
-10.78054 110.2542 -2.960339
-13.51369 105.3855 1.302304
-11.24256 114.3457 2.076225
-11.46963 113.0563 3.28873
-11.43248 113.079 3.13407
-13.49133 105.4667 0.6989682
-0.4430167 82.09467 -7.497065
-0.8806965 78.0024 -7.928709
-1.661789 77.33624 -7.996815
-1.303963 74.05015 -5.688033
-2.306039 86.80254 -9.217607
-15.12575 82.20515 0.8968044
-15.15455 84.87986 0.8623785
-14.99849 88.76399 -0.7545747
-1.726985 87.93332 -8.261905
-1.193592 90.21162 -9.578952
-15.18421 89.25192 -0.6191795
-14.95217 95.29404 1.370064
-0.710055 73.06073 -5.631114
-8.439063 66.75445 -4.169068
-11.28665 68.78001 -3.202695
-2.721139 71.3203 -5.892571
-9.795708 65.67326 -3.441203
-8.969879 107.4547 -5.558562
-9.426748 103.7907 -6.024935
-8.54661 105.1911 -5.906214
-7.387112 110.7116 -4.831629
-3.046553 106.1962 -6.851426
