# .PCD v0.7 - Point Cloud Data file format
VERSION 0.7
FIELDS x y z
SIZE 4 4 4
TYPE F F F
COUNT 1 1 1
WIDTH 1667
HEIGHT 1
VIEWPOINT 0 0 0 1 0 0 0
POINTS 1667
DATA ascii
20.16088 86.76997 1.266967
11.84553 114.7399 -0.966997
16.1319 99.21842 -4.082855
17.76001 96.88468 1.585988
20.23716 86.25922 0.8955289
-5.275114 106.9036 -8.052478
12.85764 123.6628 1.088122
19.40512 89.12005 -1.841628
15.93053 104.0218 -1.103521
17.23539 99.76359 0.5858592
19.91636 87.93947 -0.06425533
13.73122 127.9102 0.479518
-0.5632241 126.0034 -8.527096
-13.90698 128.9215 3.378855
13.15938 126.4979 -0.8050153
7.06281 125.151 -7.317174
20.23356 86.10902 1.717822
19.91912 87.13151 -1.059272
11.05315 121.0208 -1.63535
-9.278768 120.8222 -3.795001
11.94416 114.7294 -1.063904
17.01996 93.13946 -5.728936
0.009567057 100.7702 -11.39099
9.477989 97.10364 -11.67839
-1.173145 111.5315 -6.357316
-12.57771 114.8892 4.127084
12.10915 112.6693 -2.118197
-15.04082 107.6905 -0.2698474
-12.20072 120.1846 6.770217
-13.6428 126.831 3.637823
-13.30579 112.2511 4.536526
15.47048 105.0813 -1.537114
-0.5138847 125.8794 -8.481756
-1.027457 103.9004 -9.89125
-13.15522 126.8235 -1.148884
-5.28929 126.8175 -8.575101
-10.84943 126.3108 -5.457352
-13.59978 126.2203 2.922444
19.558 88.78509 -1.409386
-13.88688 128.4215 1.369041
-13.67712 127.966 4.2952
5.252964 105.1901 -9.155168
3.807936 113.7424 -5.706407
19.36276 88.74894 -2.300661
17.93962 90.71199 -4.923359
19.23755 90.55937 -1.158664
18.04833 94.33212 -2.288852
11.56804 94.4228 -11.12258
15.52076 103.5731 -2.594604
4.26395 98.42332 -12.15758
12.30252 109.2922 -4.169602
-5.212945 103.6656 -10.03359
5.662986 126.7402 -8.460354
11.25426 124.5968 -3.627725
12.883 124.3477 0.467092
13.138 126.298 -0.6778937
11.99145 122.8136 -0.7783301
10.52262 124.9349 -4.850018
-11.34617 114.8794 -1.737771
-14.81266 109.2856 2.147613
-14.22516 109.2791 -1.190673
-10.67757 127.5048 -6.455306
-0.8228458 124.8292 -8.088423
-13.41243 125.643 4.493913
18.72734 92.81677 -0.4884023
18.44197 93.19745 -1.88675
16.75706 93.83815 -5.898198
11.7338 96.77689 -10.47378
14.43143 100.4261 -6.3719
10.4371 95.69291 -11.57243
1.037624 100.7573 -11.39309
14.13778 109.292 -1.400508
-0.7907469 103.3651 -10.19028
3.053636 127.0291 -8.902288
6.849062 126.7165 -8.156024
9.560233 117.6607 -3.111108
12.89329 124.8386 -0.03387419
11.52249 126.5863 -4.826793
5.67593 119.5487 -5.646646
-13.38615 107.1568 -4.091148
-13.06876 112.9024 4.590216
-13.69542 111.3919 4.339839
-12.16713 109.6835 -4.089973
-14.58532 108.2035 -1.185517
-12.61283 120.5371 5.668569
-12.87978 122.0749 3.125715
-9.327367 126.7461 -7.04287
-7.921745 127.2782 -8.071173
-3.589799 126.7619 -8.746442
-13.17274 127.9599 -2.22089
14.38765 97.01797 -7.966577
17.33243 99.16476 0.4711407
15.5105 92.20403 -8.073249
13.36528 97.5695 -8.861832
14.73918 95.08685 -8.271626
16.9716 101.298 0.7197955
15.57038 104.6754 -1.596882
9.668986 99.18312 -10.96756
13.37521 111.7828 -0.3506582
9.313557 115.3531 -3.60843
13.62875 110.0607 -1.837665
-4.487672 104.0152 -9.837198
-7.013059 105.0583 -9.066602
5.198497 126.3952 -8.407526
10.66349 120.4622 -2.091311
9.84337 126.4482 -6.518946
11.05968 123.5179 -3.082406
10.41271 116.4584 -2.378697
-11.26263 117.6594 7.763487
-13.26873 112.85 3.475748
-11.77516 113.1295 -2.350459
-12.58886 120.1943 5.399198
-11.8414 122.1894 -0.7014341
-12.05317 123.7734 -1.424082
-12.48028 119.5419 3.215074
-8.451769 125.5493 -6.902201
-10.72847 123.555 -3.626053
-6.559154 127.0342 -8.382765
-13.49528 125.5078 3.029512
16.32892 94.3959 -6.341505
14.619 96.50603 -7.900872
17.08728 98.77029 -1.767462
15.32231 94.54618 -7.721821
16.18847 100.2849 -3.232217
16.10385 101.0576 -2.941011
6.794602 97.05315 -12.38306
10.03799 112.7694 -4.811515
13.59523 111.1159 -0.6086385
9.332475 114.7253 -3.802549
13.33235 108.2558 -3.487679
13.57554 109.0999 -2.649716
4.060003 102.0695 -10.85426
2.304517 101.9405 -10.90967
-2.577869 102.9406 -10.42514
-3.878871 105.8858 -8.76509
-6.772269 104.5864 -9.384092
0.6342434 127.8218 -9.175835
9.743506 119.1729 -2.978905
5.106613 117.899 -5.523157
8.129066 120.9913 -4.829728
9.44617 122.4203 -4.357831
7.735646 124.7647 -6.8041
-12.86149 113.9384 1.459888
-12.2107 117.6441 2.343142
-12.06336 117.056 1.336278
-6.777754 108.9773 -6.682607
-7.210056 107.1034 -7.667737
-10.54962 120.2569 -2.185527
-12.87268 125.2835 -0.5540462
15.74172 96.43181 -6.383758
16.27714 99.81872 -3.325512
17.01689 99.1719 -1.664201
14.64336 107.2178 -1.863085
7.028227 113.7043 -5.199698
7.928344 113.9404 -4.648944
2.683871 99.97281 -11.69592
0.07941552 123.8467 -7.700658
9.785333 120.5261 -3.257299
9.608593 119.6954 -3.222976
5.774059 118.154 -5.329921
3.410212 118.7874 -6.085412
1.658242 118.5855 -6.028022
9.291024 123.0687 -4.906433
8.74764 123.9763 -5.849583
-10.07067 108.2475 -6.212373
-10.8226 109.2428 -5.361141
-11.99893 111.6522 -3.036618
-13.47864 108.6327 -3.110405
-9.004188 110.3688 -5.666627
-10.77754 119.7356 -1.663574
-11.0439 121.1142 -1.737534
-11.37419 118.6497 -0.4169599
-13.26102 126.7526 -0.5202476
-12.18257 123.1886 -0.6067045
-10.11355 122.1996 -3.56039
16.38367 97.96198 -4.349519
13.42196 101.0322 -7.315543
15.66516 100.6745 -4.155393
13.26004 106.1056 -4.812212
8.768765 114.6792 -4.097103
11.70989 108.6462 -4.974921
-5.761022 125.045 -7.697762
3.646959 125.6953 -8.349117
-13.30153 109.6034 -2.772969
-5.998099 124.2681 -7.281951
-10.08576 118.4531 -2.534922
-9.984222 122.3152 -3.789106
13.03968 100.2886 -8.068725
4.039716 115.5284 -5.578992
-1.955129 120.5122 -6.577253
-4.121104 125.1824 -8.117682
-8.603261 111.0874 -5.497963
-4.404784 108.6311 -7.151508
-3.095745 107.4202 -7.922617
-5.845799 122.3889 -6.554103
-8.531767 120.4623 -4.351915
12.37002 106.2225 -5.685223
5.139138 118.2778 -5.574979
6.750313 116.7664 -4.810689
-2.104013 123.1858 -7.451722
3.826035 122.3444 -7.087806
5.947253 120.3733 -5.789875
4.752075 123.0387 -7.156377
-3.126511 123.0431 -7.4002
1.710435 121.9158 -7.00937
-6.583487 121.5648 -5.924266
-0.9247759 120.9566 -6.757408
2.539906 120.7225 -6.662064
3.569738 122.8423 -7.28907
9.941084 99.77757 -10.63458
12.05441 99.8782 -9.145709
9.811561 102.8125 -9.336918
11.62677 101.4025 -8.740034
8.581582 101.788 -10.40878
-10.74499 108.5174 -5.726463
-8.923962 111.924 -5.006799
-9.926526 114.2855 -4.272706
-10.8026 112.6211 -3.561011
8.358665 102.5543 -10.12293
8.018305 103.2385 -9.868944
7.477135 99.7201 -11.54784
4.925591 99.51385 -11.85505
7.433651 104.7115 -9.18065
9.29584 104.9917 -8.367943
11.34835 106.4563 -6.407874
9.396096 106.7246 -7.328966
-12.38067 119.964 2.340065
9.454122 115.1049 -4.508104
9.017512 113.5421 -4.684563
5.020332 106.3565 -8.423428
6.510549 103.7915 -9.888795
4.498835 103.7504 -9.974557
5.669184 106.6022 -8.211833
5.498064 106.2719 -8.452296
7.769713 107.5068 -7.304224
-6.359213 120.313 -5.572952
-4.972888 119.6835 -5.920115
-3.53813 119.3511 -6.231959
-7.947554 119.3389 -4.469382
-9.041142 118.3909 -3.554689
13.5997 104.085 -5.524959
14.52265 102.9971 -4.880036
13.21161 102.7972 -6.625616
14.73878 103.4257 -4.274332
-10.91812 113.9802 -3.73945
10.41828 105.4804 -7.536273
8.53447 112.4755 -5.449982
0.7064028 104.6918 -9.436888
2.780303 106.5319 -8.427421
3.469927 104.8429 -9.355087
2.182773 106.3405 -8.541201
6.226679 107.0472 -7.856676
1.665384 106.4682 -8.47956
0.8897237 119.1177 -6.662529
-1.42538 118.9881 -6.306362
-7.603287 116.9711 -4.433572
-8.419775 117.3194 -3.956733
-8.907653 116.3955 -3.69129
-5.212379 116.8543 -5.421079
-9.431456 113.7771 -3.979715
-12.29342 115.2359 0.6904566
11.48156 109.9883 -4.52185
-1.420998 106.8092 -8.295462
-1.840814 112.3869 -6.784859
7.046353 108.5765 -6.845741
3.651615 109.9692 -6.656759
-7.086629 113.9409 -5.175372
-5.911993 114.6268 -6.406411
-3.321641 115.1654 -6.568207
-6.001506 114.4632 -5.4822
-0.3942149 115.0922 -6.529211
-5.090282 114.4353 -6.691592
-7.046043 112.8254 -6.018529
-2.076284 114.1351 -6.284584
4.473071 115.1123 -6.598556
5.03781 114.8292 -5.977407
-3.16176 113.2899 -6.184853
-8.554423 114.3536 -4.263982
9.548891 111.4408 -4.971116
9.271354 110.2011 -5.620062
5.199372 108.7223 -7.012306
3.720173 114.85 -6.302214
2.056846 114.9628 -5.599426
2.124798 115.3449 -6.869547
0.3207001 115.1118 -6.42718
3.913778 113.354 -5.740222
3.825744 115.6854 -5.643458
-1.583961 116.65 -6.04087
-1.007397 116.0658 -5.924975
2.164741 118.5181 -6.032243
-0.3640383 114.3382 -5.563168
-0.1143276 116.239 -6.357898
-0.8063285 113.7216 -5.540857
-3.467466 114.4944 -5.645512
-5.783971 114.5202 -5.212867
-7.125097 113.8773 -4.948975
-3.400562 113.8413 -6.150626
-4.942232 110.6383 -6.303835
-0.2041549 113.3603 -7.405109
-0.3181738 114.2227 -7.345783
-6.588498 112.7395 -6.181287
-1.52079 113.5857 -7.356697
3.111296 109.1008 -7.061305
-5.46591 111.6145 -6.069983
-3.279811 111.2637 -6.270378
-0.5819262 115.1073 -7.150506
1.528563 110.4639 -6.45564
3.790966 109.2932 -6.91055
4.942546 114.4368 -6.839497
6.588192 113.5696 -6.043055
3.381218 112.219 -6.371314
4.397763 112.8456 -7.087588
7.199714 112.5878 -5.899439
7.260434 111.7151 -5.597375
-2.726771 116.037 -5.946237
1.350119 111.6815 -6.214456
-14.38266 131.0986 8.457741
-5.037578 134.5737 13.15816
-12.77535 130.8314 11.31378
-9.90077 130.9716 13.19728
-14.02484 134.49 9.307791
-7.1982 143.5328 6.287317
-9.694512 133.9126 13.44336
-13.52005 135.8819 8.979443
-4.623221 132.7152 13.60173
-7.484111 145.5266 4.459476
-6.321529 144.0128 5.837218
-4.292971 136.7651 11.67508
-8.346556 132.28 13.83054
-7.187102 144.4858 5.430905
-7.582008 143.1222 6.634818
-13.65129 131.9804 10.49637
-13.21188 132.8709 11.16958
-6.714569 137.2174 11.94196
-10.10484 141.5341 7.08958
-12.59353 137.8134 8.239709
-8.097692 133.1814 13.85031
-5.745103 133.9172 13.52877
-7.014236 141.6263 8.001825
-12.63457 136.8185 9.354456
-12.45303 132.5053 12.01179
-5.652825 138.5942 10.55493
-10.53258 140.7941 7.50273
-7.668617 136.5253 12.51171
-7.601897 139.009 10.34885
-5.642265 134.4789 13.36001
-8.037652 139.1304 10.19407
-7.431115 141.0875 8.481541
-11.04868 135.3662 12.31504
-10.34386 135.4275 12.70267
-10.86649 141.0745 6.800071
-7.06122 137.8129 11.41708
-10.08007 140.3057 8.406455
-13.18035 134.8291 10.5031
-11.20319 137.7397 10.10807
-9.213573 136.6177 12.22057
-9.43523 135.8567 12.71127
14.21066 138.15 4.71989
14.75209 132.5325 4.937812
14.25676 130.2211 3.903545
9.191939 137.1084 11.7813
8.700586 145.2704 4.100638
12.71646 132.6545 11.69384
14.23013 130.126 5.271728
14.42294 130.7254 6.664442
8.954356 130.6783 13.38958
5.05875 132.0794 13.70068
11.30347 143.6107 3.482238
10.84555 143.5527 4.016255
12.31968 142.4948 3.644932
9.433448 131.5396 13.50563
10.61991 131.5363 13.09415
10.50888 140.2023 8.123224
9.913313 138.2741 10.39105
14.22128 130.4214 8.059057
14.31109 130.3559 4.849375
12.08109 133.7511 12.22311
9.842704 139.7181 9.032541
14.73896 131.9038 5.952722
13.07638 130.9577 10.99103
15.00852 136.0544 4.441133
14.85018 134.5911 5.871156
13.55798 137.961 6.319921
14.21439 132.104 9.434561
10.08855 136.1095 12.37556
13.04831 135.09 10.51355
12.13841 137.2469 9.574874
14.27567 136.7237 6.162399
12.17254 141.5464 4.54711
13.39201 140.4035 4.257785
13.2902 138.3772 6.310512
11.0282 141.1495 6.445192
13.58956 130.1384 9.562425
12.80409 136.6087 9.352015
12.69256 139.3212 6.230579
11.72331 143.5246 3.283653
13.97141 137.4083 6.135111
10.064 144.2355 4.182135
-4.598454 154.8107 -7.443503
-7.855695 146.9155 3.063276
-7.174114 147.4389 2.796598
-7.039031 149.7805 0.5875137
-6.865721 151.9407 -2.164864
-2.460024 155.5324 -8.438098
-2.424321 154.7528 -8.721953
-3.267938 154.694 -8.431519
-8.035911 147.6192 2.255557
-9.04498 148.9178 0.3472981
1.421595 155.6062 -8.106364
3.322599 155.137 -6.780584
0.03808288 155.0834 -8.88113
3.397865 154.9212 -8.298043
6.384367 154.104 -5.20846
12.09346 145.3927 1.917932
9.603367 146.5185 2.198706
0.07732878 155.9296 -8.641378
5.309919 154.7989 -6.78691
0.6250839 154.5863 -8.983457
10.35877 148.3573 0.2363084
8.992331 149.6277 -0.2906952
-13.3607 63.30419 7.092571
-18.93064 91.09691 3.788898
-18.71407 63.25465 3.445831
-20.2036 72.32515 -0.6086164
-18.62351 73.49212 6.47719
-12.72142 102.9934 8.709654
-10.38841 99.83666 9.321618
1.326369 48.12402 8.520656
5.021631 45.21596 6.48084
20.15835 57.51128 2.82234
-16.46016 62.40567 5.850664
-19.41593 83.29854 5.974557
-5.465856 73.00359 9.205295
22.23269 13.03028 5.235235
19.78951 20.70778 5.09452
-14.73656 96.1068 8.266809
-17.13267 96.12438 5.182311
20.88186 17.257 5.621866
-15.33638 105.2468 5.813361
-17.72627 96.93095 0.432928
22.2821 15.771 4.815854
22.88528 25.13111 4.391459
7.960402 91.07587 9.627173
7.480505 92.54427 9.787223
15.03321 79.02515 9.806295
18.07676 57.31703 3.079929
-16.2434 104.3356 3.663629
-14.4441 102.7472 7.502699
18.12587 86.38091 7.610823
22.9896 9.11158 4.583209
18.65899 17.13166 4.285922
21.93692 14.07863 5.337804
-4.885354 93.59905 9.345572
-4.267903 93.65377 9.358873
23.09647 23.81365 4.216339
15.77914 83.73514 9.687478
20.66753 13.18851 6.002003
23.51112 7.950599 4.208333
-17.27408 99.56513 0.243222
-6.338446 93.37114 9.5056
22.31292 11.45807 5.305437
23.24713 14.07538 4.188479
10.52213 39.39041 9.385889
19.76323 67.47167 2.198708
-19.76713 66.00708 1.177805
18.42509 30.55152 2.538607
19.59186 77.32178 5.438803
15.16133 89.12929 9.536404
15.79993 35.02419 5.195095
-18.06927 67.39112 5.885658
12.01458 42.53582 9.795654
22.68471 39.36849 3.336787
15.71936 32.8555 8.579761
-20.0816 69.28807 0.6251189
23.16553 22.69906 4.101737
19.30928 68.02452 3.993632
-5.029502 95.59901 9.56056
-20.46782 81.04973 -0.992968
11.26063 41.45881 9.630837
16.20104 24.76399 1.635253
22.30577 32.14913 4.318472
18.17076 19.667 3.385312
21.93514 16.36501 5.156634
21.83828 25.16167 4.870112
21.06398 34.68205 4.312224
20.6292 15.28709 5.863202
22.75662 16.3287 4.44778
18.22217 75.54987 7.331487
18.76204 81.51801 7.147831
-20.09533 75.52055 3.679997
-20.01069 69.12903 1.345842
-17.52565 61.65274 4.721008
-19.7372 65.48235 0.623479
5.765586 92.59459 9.95188
13.03715 89.1799 10.03002
-2.066586 50.82642 6.644808
1.413471 51.93718 8.347088
16.06246 48.92404 8.145662
19.73404 73.03281 4.292002
-7.917311 97.77534 9.603996
-2.381423 96.82075 9.928944
-19.32916 90.34355 -0.821849
-18.22196 93.76176 3.638981
-10.49392 100.8944 9.338594
-17.80989 96.22576 -0.6446415
-16.40748 103.61 3.643502
-15.83556 102.1308 5.897039
-16.21417 104.9423 2.93846
-14.34219 99.73119 7.816305
-16.33521 99.8522 5.443947
-13.97636 100.6334 8.000499
6.451482 44.47911 5.4003
22.61739 24.98752 4.60948
23.05549 32.74358 3.681968
15.74173 33.42011 8.530399
18.28314 22.41514 3.175474
19.73441 18.78741 5.247488
14.90539 32.68805 9.600846
22.17005 37.28504 4.033226
22.77864 37.43819 3.464942
22.2829 38.32927 3.80688
21.77931 42.79664 3.680048
20.14859 17.22582 5.594214
20.47957 81.35262 2.943388
16.93172 88.83672 8.457729
-20.49418 76.24651 0.2035205
-20.58813 78.22614 1.720823
-19.73855 66.60693 1.721667
-17.30201 60.66093 4.639679
-18.11059 65.91588 5.31106
-19.436 65.2559 2.490833
-16.43777 61.22284 5.559446
-13.35954 60.71 6.526904
2.835428 95.00361 9.270926
12.11913 89.28915 10.00631
-20.35287 83.41261 -1.123246
-0.7730656 49.98983 7.372975
0.04536356 52.191 7.7941
20.40724 58.7107 2.432401
19.12415 66.0226 3.698308
19.13266 66.2643 3.772379
19.834 69.49622 2.758249
19.05397 75.799 6.174202
-7.192965 99.94223 9.991835
-4.339268 94.37711 9.334975
-19.21836 90.88081 -0.7167816
-17.87444 96.20098 0.2194685
-20.29218 85.85733 1.109865
-8.970306 98.85185 9.478341
-17.78085 96.81549 1.237029
-15.51909 106.0074 4.932259
-17.08076 97.04081 4.781758
-15.28284 101.0761 6.768051
-14.5943 96.91598 8.09627
8.777469 43.9195 6.887575
11.50333 39.85251 9.840088
3.491511 48.52088 8.090226
19.7655 47.63559 3.097517
21.37545 28.31828 4.70647
20.62141 29.63293 4.602062
22.51951 32.23371 4.209826
14.85455 26.50091 3.013631
19.62541 21.71914 4.846648
15.8936 32.10258 6.612798
21.00701 33.877 4.366018
22.54793 16.96988 4.667271
18.47581 85.45769 7.315032
20.06342 82.79884 4.353279
-20.22579 71.42542 0.286855
-19.98161 72.59609 3.26836
-20.36542 73.77346 1.413405
-18.27534 84.26318 7.67901
-20.63125 79.74194 0.4000467
-20.54211 83.23891 0.3649171
-18.67301 70.70268 5.836149
-20.26506 72.26942 1.005651
-19.48423 70.24101 4.215601
-18.38044 65.46008 4.831929
-12.34225 57.60079 6.289593
-11.00389 59.9845 6.527143
-12.75088 62.59008 6.918543
-13.11351 62.05694 6.779292
-8.164533 55.94332 7.533079
10.34941 91.92876 9.661077
10.25216 89.87196 9.888659
-20.13836 86.55722 -0.07788824
-0.1364947 51.59838 7.698771
-3.909343 53.93496 6.623986
-7.169579 55.92492 7.650497
19.71661 63.67855 2.336317
18.32965 59.66398 3.304905
19.91815 64.2256 2.056152
-9.182028 98.24904 9.371716
0.2608478 93.47812 9.835924
-18.11008 94.09379 3.805481
-11.76197 102.163 9.044888
-14.23727 98.86867 7.958814
9.678117 43.21746 8.42206
8.958514 44.07883 7.161203
9.358209 43.82009 7.933005
12.65399 45.99213 9.585062
11.57101 43.99641 9.604826
7.493084 42.75045 5.378404
7.218008 47.11951 5.613561
5.060554 48.4259 6.945529
7.599918 53.87761 6.281339
2.599823 48.24086 8.579226
18.64128 49.79372 2.540596
19.04144 29.85702 3.269731
20.51432 31.10488 4.452677
15.2461 29.02036 2.790645
15.12187 29.19822 4.658927
16.11856 34.17435 7.003197
11.38305 38.85982 9.868969
19.81597 36.01583 3.833107
20.58432 30.5074 4.527204
19.04101 78.22773 6.537551
19.9845 77.74364 4.531593
19.62082 80.70631 5.648003
-20.47255 82.53484 -0.7713506
-19.81052 70.127 3.11236
-19.43731 67.26988 3.344783
-19.65901 67.83442 2.845684
-16.3343 63.7248 6.347188
2.628924 93.59235 9.892015
9.049635 90.79881 9.708474
13.54468 86.92043 10.17626
-20.49496 83.5555 2.163714
-19.15925 88.96301 4.87896
-19.47124 88.89983 3.739791
-19.55209 89.45421 2.431392
-18.74533 91.81386 3.742249
-0.8358082 51.72513 7.276911
-5.538478 55.67615 7.415029
-2.266422 56.09105 6.656048
16.59466 71.60174 8.059713
-2.456325 56.45558 6.66476
3.003333 49.45993 8.365927
18.72716 63.28217 4.41751
19.17984 57.94573 2.718688
19.2807 64.88326 3.054358
-1.176471 94.38105 9.251895
-13.906 101.3269 8.010426
-18.66628 92.73726 2.761429
-16.59334 94.65963 6.852327
9.534297 40.35182 8.479391
8.974751 46.48551 7.110721
5.026286 47.42331 6.864032
19.45873 45.71156 3.0101
18.02801 28.29131 2.367906
15.82029 33.84828 5.656763
15.83044 35.46011 8.563748
11.88461 36.57668 10.15015
17.21969 85.01007 8.712763
-18.74911 69.36897 5.464692
-15.73228 63.73958 6.619339
8.031701 92.52577 9.756211
10.85935 89.22412 10.00719
-20.03847 84.82701 4.083241
-11.6333 87.27605 10.15834
-17.80728 90.97561 6.71109
0.6297645 50.10449 8.143337
-8.842603 58.35883 7.06964
-5.380758 58.63763 7.38598
18.92598 56.26598 2.715136
20.12864 55.17055 3.093021
17.75074 52.89785 2.931402
18.04607 47.42001 2.468041
19.14437 31.239 3.350344
16.0978 31.30146 2.171458
15.27354 31.66898 3.905925
17.34347 29.64803 1.965419
16.37256 28.35159 1.793388
15.25709 27.35215 2.242226
15.22515 30.08275 4.73577
-19.21 88.55723 4.949924
-17.46799 85.53053 8.431458
-18.42883 85.91876 7.293756
-5.252824 89.67889 9.892096
2.834017 50.03424 8.422843
13.85826 50.93575 8.987261
4.254179 52.49075 7.779731
-0.7146597 57.52787 7.349627
0.7958345 54.43684 8.017076
0.03668197 54.47454 7.700947
-2.095481 58.06614 6.795592
-9.897696 62.66595 7.03628
-15.56414 94.52505 8.055867
18.04769 52.03852 2.637734
19.20257 46.29023 2.808952
16.12151 34.76817 6.272982
11.98361 39.53802 9.970165
-20.52615 81.56799 2.614011
-20.2337 77.17538 3.684119
-16.79007 92.20547 7.633566
-0.5663728 56.28261 7.379426
14.15878 68.82458 8.369981
-4.007884 59.90678 7.055369
17.22994 51.6217 3.496553
-12.73443 97.86916 8.814226
17.37599 51.19497 3.195025
16.80831 47.71683 3.538609
16.85634 45.84156 2.953586
13.57124 43.05994 9.673638
12.45459 38.4263 10.11238
-16.2233 89.73259 8.841465
2.846927 53.80369 8.243648
-5.213302 61.01731 7.249049
-10.3932 95.31249 9.436001
-8.824867 95.63181 9.400639
-12.80408 93.71442 9.374894
-13.94493 93.1708 9.268199
11.4153 41.31034 9.698123
-17.33086 68.94205 6.96852
3.195749 54.23639 8.178271
4.9521 50.63341 7.191851
6.53797 54.59196 6.27023
6.849304 50.80249 5.925355
8.239342 51.38558 6.288504
7.754137 53.21568 6.27631
10.72284 76.24892 9.683369
14.31644 46.95552 9.186242
15.59178 42.22437 8.696017
3.772214 49.51985 7.96373
15.24646 62.04676 7.353471
7.528831 56.72069 6.498115
5.618591 54.95725 6.979631
3.52169 57.37048 7.950033
14.75038 40.78439 9.383723
16.3789 44.09557 7.820777
16.50763 46.69189 7.696232
15.14625 45.78849 8.863211
8.355319 61.72937 7.169003
4.398897 58.78505 7.558348
1.520513 59.07129 7.911102
1.539277 57.69407 8.011182
17.36703 53.39076 5.625991
16.99533 47.46758 6.408226
16.90376 49.9804 7.175863
15.70964 48.84454 8.400256
16.93978 48.86415 7.053536
17.30608 51.98279 6.131445
14.53363 50.22445 8.858508
16.8062 52.88554 7.331841
13.30966 55.86159 8.648721
16.13034 54.24139 7.77633
13.50856 52.20901 8.965905
19.89441 25.8618 4.644623
22.3581 24.11796 4.794232
18.8225 24.60062 3.583906
19.46666 39.87951 3.424735
20.50417 38.58263 3.960996
18.5547 41.06056 2.627482
16.00201 38.11527 3.466465
16.11467 36.72683 2.589428
15.58857 35.03789 3.394215
15.91347 37.15564 4.812022
16.50324 39.29303 6.522826
15.83317 35.58371 2.980422
18.46863 72.15209 6.463041
14.19645 67.49648 8.045338
17.25089 74.80011 8.202989
17.79961 75.88718 7.861006
17.7455 76.74965 8.017051
14.39545 72.8027 9.145727
14.90072 70.44176 8.565154
16.58347 69.88402 7.730701
17.623 72.05515 7.404716
18.15824 74.02868 7.201701
19.78517 75.08904 4.580324
17.28153 70.55432 7.379707
15.31864 69.10881 8.127571
16.06114 67.67086 7.500809
18.53152 66.86352 5.132069
15.69126 65.22913 7.16995
1.793497 83.60353 10.21064
11.66749 74.11346 9.390194
11.63662 77.82397 9.867332
15.07658 75.8047 9.432364
11.80225 76.68309 9.736827
13.36126 70.55562 8.781642
17.75907 60.902 6.116893
8.397535 65.29285 7.749238
11.20598 66.61958 7.943791
18.47627 82.92937 7.453509
-16.66275 70.35254 7.788
-15.48032 65.45681 7.17763
-13.8246 64.97978 7.443293
-15.91906 67.92216 7.640542
-14.17541 69.95914 8.611765
-15.46841 82.57405 9.820662
-15.45915 68.98279 8.100017
-17.38892 68.44812 6.815522
-15.54879 71.81036 8.666133
-13.5549 74.21632 9.415611
-17.82246 74.86227 7.695732
-18.74285 82.55251 7.183994
-16.50601 75.78572 8.843096
-17.01925 77.4593 8.711957
-18.86749 81.10233 6.944471
-16.00998 76.94904 9.189307
-18.05958 79.14741 7.963726
-17.71941 73.31599 7.543231
-19.89968 77.605 4.681987
-18.54784 75.78083 6.955596
-1.836556 54.46132 6.766247
-3.424634 90.92046 9.539928
-10.32959 92.80109 9.919433
-2.251482 93.41867 9.95151
-6.687861 94.09659 9.35155
-8.036695 92.82659 10.26869
-11.10652 92.06979 10.30064
-8.793963 91.66451 9.782024
-4.531207 92.91404 10.41483
-12.00783 91.66534 9.799289
-12.11852 86.69307 10.19749
-9.021317 91.29337 9.584856
-7.08761 89.6985 9.924232
2.560284 91.17155 9.530419
-2.666406 89.03228 9.9936
-1.689441 93.64507 9.648039
-0.7619982 92.01099 9.873894
-6.263084 89.55601 9.938521
1.377181 90.84418 9.62811
-7.681209 88.01949 10.11898
1.85885 88.06586 10.11879
1.092835 88.53404 10.0766
-6.005961 88.15764 10.1129
4.115239 89.30145 9.943725
-2.256349 87.25016 10.16693
2.969455 86.76108 10.19214
7.405365 87.83897 10.14533
-9.814857 87.84978 10.12527
-3.50684 84.42796 10.21945
4.144892 88.12414 10.11484
-9.868811 87.18476 10.16394
17.5947 83.80045 8.466375
-20.45208 79.51994 2.991279
-19.38131 79.24614 6.026023
-19.06976 78.41483 6.54637
-19.0477 79.43369 6.638008
-18.53355 78.34359 7.33371
6.428387 89.69757 9.88795
4.361079 88.73618 10.06144
4.90455 86.08899 10.21288
-17.36718 94.48683 5.680473
18.01986 41.31282 2.357956
16.29815 41.63284 3.412208
19.53085 35.2044 3.680286
19.06783 31.83387 3.247747
18.49379 32.99907 2.561206
-18.24835 86.40908 7.41878
-15.7971 87.34692 9.474162
-13.37173 87.82496 10.11733
-14.68053 90.54481 9.485808
-15.78592 91.55521 8.720541
-15.33557 91.02917 9.126949
13.32445 39.49561 10.06422
9.854675 51.39651 8.123721
12.91848 53.29568 8.960464
11.83281 50.0788 9.223019
16.85003 44.30198 6.61634
-2.261072 61.1011 7.106663
3.320081 62.21291 7.718148
1.133038 60.39185 7.726132
17.85379 57.45856 4.771558
18.69049 24.71555 3.392155
16.08406 42.5612 8.212874
15.47089 36.74446 8.898897
18.62751 66.32552 4.802356
15.42083 67.71683 7.76494
17.05621 63.91739 6.475109
15.62973 77.63464 9.486725
16.87447 77.14413 8.775328
13.50001 80.23294 10.0903
19.19875 81.5468 6.458649
11.01035 63.55014 7.91455
12.08382 66.64602 7.937998
10.85121 64.14409 7.840006
19.95207 82.62148 4.669859
-20.21853 75.77737 3.341251
-6.815434 82.53175 10.18995
-10.14012 62.65897 7.026785
-11.2824 62.98585 7.046136
-9.395368 64.1535 7.33071
-11.74252 66.21136 7.816582
-11.90601 90.05941 9.947406
-0.3704327 85.81252 10.21716
2.658471 84.67885 10.22402
-2.376396 86.85329 10.19231
3.586913 82.51051 10.1842
-1.519217 87.35612 10.16493
1.747029 82.05943 10.16458
-5.941292 81.88885 10.16008
-2.828622 84.59499 10.22102
-6.689151 84.57748 10.22427
0.6127876 83.12125 10.20007
14.18592 83.47595 10.14901
12.97769 82.46083 10.20998
14.10564 81.52692 10.13282
13.80111 84.78787 10.23507
12.05144 86.14484 10.22623
15.76216 81.99316 9.64835
15.65222 80.97187 9.690445
5.631331 83.78865 10.21829
4.967895 84.68678 10.22451
8.895148 85.74675 10.22134
-13.57202 86.43563 10.17491
-11.11911 85.82143 10.2317
-9.040154 86.25047 10.20783
-14.002 84.6016 10.17064
-14.96926 92.96999 8.81828
11.11667 49.00612 9.136124
12.5992 52.23917 9.061063
10.69826 52.23034 8.788894
11.92132 55.16462 8.855812
12.7492 61.55433 8.134533
11.78049 56.53386 8.741503
15.02131 58.66525 7.817766
15.82023 56.07862 7.765204
12.91257 58.56003 8.4398
11.27992 48.49161 9.213995
13.34266 46.39205 9.478568
7.971605 57.6051 6.663767
7.879878 59.87532 6.852556
8.392325 60.95967 7.06487
17.87637 57.52746 5.127574
17.83988 56.57927 3.451278
17.84263 58.91248 6.043427
15.82892 59.41166 7.433404
12.11359 64.13532 7.872614
17.63821 64.77853 5.919663
17.70035 81.3405 8.36804
9.218528 75.86915 9.63065
-9.551519 79.50867 10.02942
-2.346166 82.94923 10.19519
-5.730511 86.5869 10.19389
-3.219358 82.98912 10.19795
12.86044 79.73635 10.05986
7.967328 85.97186 10.21467
-12.52063 83.30378 10.22469
-15.80038 84.10633 9.654946
-15.08283 81.46904 9.925855
-15.58345 80.18559 9.704335
-17.78281 80.24932 8.255851
12.60796 57.92978 8.550639
7.450607 58.14962 6.616277
16.63529 43.90838 5.33429
16.53951 44.95273 3.915833
16.39959 39.04963 5.757054
17.89363 57.75785 4.958528
16.61509 41.13115 6.243506
16.64132 60.81407 6.975162
10.81174 60.65289 8.224031
9.829947 61.8188 7.863135
11.09159 58.47084 8.499497
16.16927 63.02339 6.982094
11.34462 60.7097 8.326926
15.56529 62.46139 7.193466
-11.47884 67.19437 8.05753
-8.757316 85.85217 10.2237
-8.182688 84.60131 10.22656
-13.86205 83.25896 10.2073
-8.401964 83.2068 10.20953
-7.658988 81.9139 10.16765
-12.53693 80.94157 10.15257
-10.33873 81.67187 10.17128
-13.163 81.56985 10.18416
-11.3558 80.46732 10.1173
-1.543763 82.05798 10.16392
-1.946399 79.93771 10.0426
-7.122793 79.12934 9.984846
8.474502 81.34053 10.13911
11.71019 81.15137 10.1477
7.694476 79.83344 10.0334
12.02398 79.66214 10.04475
10.32298 82.43771 10.19683
8.456953 81.93951 10.16941
4.163071 81.82116 10.15519
8.753345 66.39043 7.912837
3.564417 60.12817 7.863527
2.277317 63.92103 7.524021
3.8271 65.97831 7.809968
1.769799 65.14709 7.655529
2.365222 60.03835 7.884188
0.2131378 61.68759 7.41201
-10.13634 73.77993 9.335308
-14.11827 75.19199 9.548496
-11.45998 73.88285 9.358725
-12.56206 74.0402 9.391113
-12.92026 72.57588 9.153842
-11.5802 77.05015 9.796635
-7.849713 79.18239 9.992232
-11.10274 69.44474 8.573977
-9.366424 77.85084 9.868881
-5.43252 78.65831 9.936464
3.414314 80.08848 10.04845
7.241489 78.41819 9.906116
6.738269 79.09668 9.971051
3.71801 77.37699 9.794756
5.10259 78.31525 9.895307
4.626656 73.52629 9.286178
6.813494 75.80449 9.613317
5.605368 71.82355 9.007391
3.064298 79.28 9.983088
14.50362 61.36774 7.718031
8.751772 63.7368 7.511618
11.01058 69.88398 8.652042
6.748319 60.78766 7.097704
-0.6467028 63.91975 7.448452
-8.563274 75.80019 9.615942
-7.249763 73.73795 9.320363
-7.541293 76.54015 9.707279
-13.96813 68.78332 8.38545
7.60117 72.75822 9.167294
7.832894 75.101 9.52405
5.42514 72.68098 9.152263
4.573975 68.60027 8.366782
11.04975 73.90898 9.358921
3.417284 64.55327 7.60948
6.377614 67.62908 8.16109
8.154524 72.01182 9.045526
8.151099 69.78416 8.62212
8.110901 68.17377 8.285011
1.695305 68.86511 8.420518
-0.1944767 64.88992 7.586766
2.92573 69.3 8.515833
-1.650238 64.98 7.585992
-1.946703 66.75389 7.941308
-6.018021 64.83241 7.504938
-11.01671 66.00954 7.765308
-7.607887 64.07263 7.327408
-7.306913 63.17133 7.192029
-4.048821 69.26459 8.51236
-6.029311 63.65118 7.296982
-5.90751 64.95725 7.531493
-8.299705 72.03708 9.051706
-2.793856 73.83574 9.333371
-4.953665 71.58102 8.961873
-4.296052 71.14899 8.882829
-8.393747 74.50413 9.437295
-9.040036 69.23772 8.514563
-4.674986 73.41302 9.270008
-1.179669 73.42013 9.270338
-1.058024 76.02299 9.633
8.443262 73.87189 9.345341
6.23082 70.56718 8.774518
7.303246 69.74013 8.611879
5.081615 66.63297 7.944862
2.167635 71.90824 9.017747
2.151464 73.26792 9.243502
0.1895856 72.24117 9.074046
2.562407 71.76957 8.993922
1.134307 70.91046 8.838362
1.576272 75.49685 9.56732
-2.794282 75.29755 9.539543
0.37503 75.27659 9.538265
-1.267945 72.67998 9.147458
-5.78332 68.54116 8.355605
-1.328896 71.184 8.887137
-7.954378 66.38727 7.854234
0.003243991 80.36164 10.0699
-1.676708 75.95375 9.624885
-4.728615 67.82991 8.191997
-2.195167 67.72437 8.165601
-2.375454 78.57961 9.923053
-0.9398026 78.08812 9.87279
-17.74811 81.28004 8.332977
24.1642 7.471835 3.541513
24.54697 12.52973 2.511337
23.00454 37.33584 -4.031105
16.6212 43.20506 -11.11336
-7.350971 58.39226 -8.620933
24.85901 11.19663 1.727113
23.68995 32.28534 -7.311347
-19.08014 88.0135 -3.447371
23.92405 26.57417 -6.230719
23.36777 28.36852 3.531117
23.69023 10.24528 3.589595
-15.49417 105.6335 -0.956434
23.38652 32.01276 -9.00146
-11.95938 66.43485 -8.424447
22.70079 37.75535 2.486082
17.90279 53.16922 -7.843256
21.92914 50.17255 1.637585
24.13978 20.45079 3.042772
12.97687 71.13596 -8.688303
22.65531 17.74118 -2.180276
19.26679 72.8783 -4.042933
19.87757 67.00043 0.9723887
-17.02049 100.8739 0.2659581
-15.74038 100.9472 -3.844863
20.56118 81.46773 2.378673
20.64655 80.52332 0.7953194
23.14591 16.34513 -1.053095
22.95234 21.94536 -4.187221
9.677041 47.62896 -10.48797
3.885045 53.80001 -7.762577
-5.451972 55.95296 -8.125652
-16.94845 67.16714 -6.753635
23.68405 27.25213 -5.494281
23.92873 30.43712 -7.340279
-17.69766 65.0956 -5.674903
24.99151 12.34955 1.091113
-19.50872 87.91406 -2.29347
-15.94107 104.0734 -0.9977383
-16.72762 68.59888 -7.089846
-18.99829 78.12042 -4.649891
16.62058 87.36372 -7.101817
-18.13132 79.32386 -5.790023
7.26647 94.43619 -12.7022
5.769756 95.1866 -12.76472
24.18478 18.58523 2.054381
4.096497 98.24796 -12.2034
23.11575 23.8819 -4.461926
-9.453615 104.4547 -8.618708
22.64658 31.28294 -2.549963
22.55717 19.13235 -2.136219
-13.48455 105.5481 -4.837418
-17.63221 96.36194 -1.77029
-14.8549 102.0443 -4.858515
18.89972 88.34067 -3.768424
0.09228995 57.31458 -8.501886
-15.79622 106.469 1.740652
22.03361 34.30669 0.08410666
21.9029 48.71487 -4.100972
21.49284 55.0252 1.283114
7.129305 46.36225 -9.181723
-2.84945 55.61123 -7.702322
20.31092 84.15588 -0.7522042
19.68316 75.37664 -3.185052
-19.12021 68.88822 -3.96009
-18.73973 65.45576 -4.161452
-19.76427 71.66029 -2.555598
-18.68972 70.04465 -4.923373
-19.07906 90.43174 -2.119126
15.71702 83.19353 -7.684357
2.745045 98.09056 -12.22769
-15.62583 100.5174 -4.311553
-16.59373 99.72871 -2.61513
-14.4129 105.1483 -3.710371
-15.46339 103.0196 -3.152484
-14.59304 103.3282 -4.567188
22.65926 21.36416 -0.8372613
22.83057 18.16161 -1.30189
22.81274 21.39138 -3.868588
23.12153 32.24436 2.677425
23.1783 28.72275 1.862506
23.90437 29.11094 -8.720302
22.39627 34.96329 -9.746986
22.54349 40.94013 2.831414
21.79596 34.65015 -10.92066
21.57587 36.51649 -10.81555
21.56099 53.88329 1.496485
20.11442 70.96478 -0.7638855
8.787194 48.53183 -10.00706
20.40175 74.94055 -0.06684407
16.841 85.99107 -6.939205
20.62774 81.4549 0.7090134
20.28105 85.31226 -0.2914542
-20.15038 74.8613 -1.714788
-19.97407 79.75713 -2.770371
-19.69841 71.24737 -2.724988
-18.09816 67.04263 -5.458691
-19.61162 66.96049 -2.120841
-18.29909 86.61644 -5.248896
-1.19824 98.55218 -12.10534
-17.59216 94.55957 -3.676037
-18.84516 91.52663 -2.040412
-7.44331 101.5943 -10.8269
-17.36257 98.72211 -0.3236386
-15.9753 103.5817 -1.403923
24.39371 17.14294 1.74394
23.45457 23.97087 -5.213585
22.38982 28.03027 0.02634365
22.1842 30.94839 0.08186616
22.05059 32.40932 -0.1603036
22.48379 37.97177 1.778346
22.43691 35.78686 1.439296
22.10762 35.63499 0.6250114
21.72374 39.85034 -0.661207
23.92033 27.76221 -6.200737
23.04107 29.57296 -3.731109
22.37968 40.52156 1.789802
20.60335 35.84369 -12.16331
22.37918 33.60975 -10.28924
16.08287 39.63291 -11.92503
21.41252 55.90943 1.080431
20.35515 61.57501 0.1613335
10.84447 44.42426 -11.151
2.988193 49.56809 -7.682559
20.28157 72.53185 -0.1267328
-0.7051334 54.89339 -8.552493
-6.948715 57.71189 -8.583283
20.59773 79.30367 1.895349
20.453 83.91879 2.126587
20.56258 83.19849 1.558793
20.49231 76.18479 0.3962178
-12.97118 60.95417 -7.926005
-19.22504 73.87196 -4.182106
-20.02093 76.6525 -2.441089
-20.37567 81.55727 -1.430587
-19.30918 71.82263 -3.819607
-18.82773 83.79121 -4.803591
-19.36016 86.80228 -3.227434
-17.10402 94.43368 -4.919369
7.967547 95.54173 -12.43917
10.93401 91.90759 -11.60649
-17.90146 94.86928 -2.34509
-3.549339 101.2227 -11.22017
-8.233315 102.7299 -10.06884
1.993943 96.81974 -12.48876
-17.13939 98.59731 -1.652026
-13.38786 102.0392 -6.836813
-16.55003 101.027 -1.695094
23.3392 25.86343 1.634008
22.53853 28.07457 -2.722768
23.13839 28.30972 -4.111976
23.68133 28.87116 -5.403194
21.14069 49.7052 -0.7777327
21.63863 38.54268 -10.01438
21.02094 40.02989 -10.3051
23.37367 33.84503 -8.103573
22.93684 38.99377 -4.901976
23.08383 37.74165 -5.756416
18.87845 39.88644 -11.58588
14.00146 43.51416 -11.27329
15.53778 46.64354 -10.60228
13.6216 42.86624 -11.43724
19.3976 44.18645 -9.898913
18.70273 41.16602 -11.26041
21.35389 53.92433 0.5288247
21.00683 53.04665 -0.3400393
20.78555 59.42083 0.5622478
19.89114 67.45699 -0.1638462
19.76921 65.43973 -0.8376452
11.18501 45.18399 -11.13097
12.46848 45.07911 -10.90376
13.22609 45.0182 -10.74742
14.4876 49.07775 -9.740838
15.03354 49.7957 -9.564138
16.43831 49.352 -9.571363
13.60778 51.11859 -9.293865
18.78437 46.45066 -9.116166
15.65738 44.62333 -10.93869
4.343311 49.57381 -7.821477
6.546075 47.27764 -8.82661
20.28176 72.21757 1.064322
-2.616197 57.75042 -7.766077
18.66141 84.65714 -4.930334
19.57105 86.36463 -2.824261
17.75629 87.55446 -5.851367
20.13864 86.18344 -0.6410335
18.32433 72.74835 -5.686741
-14.37059 61.55936 -7.589582
-20.12279 75.16031 -1.862295
-18.26801 75.72289 -5.717481
-20.18843 78.95431 -2.065606
-18.45381 81.49313 -5.414549
-18.17907 88.15092 -5.168688
-18.63134 87.89071 -4.462758
-17.79184 86.94032 -5.871488
-13.09288 96.43246 -9.490685
6.463122 96.12536 -12.582
3.192278 94.36334 -12.76002
1.047553 95.14373 -12.70204
-1.802184 98.11195 -12.21865
0.007122645 96.88654 -12.47245
-1.523081 94.52437 -12.72492
-4.543324 96.72617 -12.53936
12.21955 92.75634 -10.88258
10.04912 92.69395 -11.9989
-16.25348 96.23624 -5.615278
-9.500558 102.8002 -9.49858
22.34874 28.82416 -2.062196
22.39014 24.79099 -1.30765
21.63841 41.22937 -0.9256207
21.62796 42.71872 -0.09541767
22.23483 29.37405 -1.635585
21.69368 49.0292 0.7806759
21.71539 37.11016 -10.18956
23.20314 36.32939 -6.055071
22.05023 34.18301 -0.9843016
21.14684 58.10183 1.588871
19.86455 65.57356 0.4294701
7.801609 50.27242 -9.36887
13.2131 49.14061 -9.846428
6.036622 50.57981 -8.423231
-1.177523 58.14708 -8.102202
17.01032 86.52383 -6.754442
16.03326 87.75344 -7.710024
14.72906 90.2951 -9.03854
14.59794 91.45172 -9.114478
20.10875 80.02994 -2.30132
19.39438 73.47333 -3.794899
20.25578 73.78673 -0.8790493
-7.198713 64.14941 -8.186086
-7.820715 61.32644 -8.158954
-13.07585 63.06241 -7.965437
-17.30165 72.95756 -6.820307
-18.91986 86.29963 -4.302113
-16.85936 91.56035 -6.490729
-1.738153 97.61817 -12.32606
-1.931997 99.28914 -11.8982
22.71904 24.64977 0.227625
22.7887 23.15532 0.1173753
21.55592 45.28231 -2.017324
22.94343 32.59733 -3.260182
22.39207 32.74281 -1.950577
22.11426 33.61972 -1.20619
21.21388 48.90976 -0.723914
23.11279 35.59376 -4.064086
22.71951 36.58591 -2.828527
20.20627 62.07345 -1.143288
13.44468 50.80219 -9.380821
4.746814 51.57329 -7.911088
6.334694 50.85369 -8.555284
-3.657982 57.61837 -7.711808
-4.098886 60.03495 -7.999405
16.1352 86.80244 -7.558179
19.43039 75.9969 -3.808821
19.53498 83.0759 -3.634628
20.12513 71.13899 -0.7905625
-15.69845 65.84152 -7.527045
-14.40402 92.39298 -9.229654
-15.4538 87.9342 -8.250232
6.5843 90.42999 -12.38425
23.5117 22.78001 1.41433
23.24866 20.00051 0.4143806
21.77085 46.24936 0.7342156
23.60533 32.14613 -5.440162
23.16563 36.56772 -6.301423
22.0033 38.8258 -9.35593
22.77145 40.41079 -4.564471
19.95007 64.2646 -0.4284709
11.30965 49.64557 -10.5647
12.20171 52.23742 -9.7316
4.565245 52.53409 -7.861957
0.7904716 55.94712 -8.551188
-0.1688819 54.28554 -8.608342
16.80173 84.40934 -6.954984
14.42595 88.54688 -9.122981
9.942562 90.35232 -11.79585
10.6773 87.40396 -10.74707
19.89363 73.23679 -2.37207
-12.95221 64.72405 -8.197961
-15.48742 68.87733 -7.872878
-19.30809 70.07229 -3.694904
-11.833 68.82841 -8.609556
-14.22216 90.44345 -9.461122
-15.0883 90.64649 -8.687525
23.9189 20.99745 1.939657
22.86504 39.78678 -4.976176
19.66255 65.37721 -1.727193
19.79579 63.06853 -3.215599
9.201715 52.53712 -9.942221
7.759778 53.52715 -9.216481
-2.566826 59.69644 -7.859941
5.597162 57.00186 -8.071009
14.70449 86.52838 -8.615405
10.07059 84.85777 -9.538023
10.80235 86.61877 -10.42057
12.52309 89.77158 -10.58667
-15.76861 66.59966 -7.576221
-14.57409 89.03769 -9.093401
22.19327 42.40654 -3.025163
1.760294 56.83732 -8.3629
3.887845 55.85448 -7.828123
14.23943 87.49619 -9.107642
7.092615 86.86694 -10.94542
18.04056 75.30945 -5.992898
-8.526592 68.24679 -8.57791
-17.56 86.33863 -6.199917
-3.035768 85.81688 -10.32289
-18.5257 80.59505 -5.338461
-14.11854 84.46867 -8.573443
-16.36906 80.72321 -7.243891
-17.00586 82.59653 -6.805161
1.926967 60.42773 -8.247551
6.103132 54.95805 -8.31849
9.542043 85.37126 -9.913439
-5.912507 82.52718 -9.055679
19.74112 78.11081 -3.304487
-11.02179 70.72515 -8.72198
-13.90508 68.32935 -8.408304
-16.98762 82.25094 -6.827611
-19.37188 76.91442 -4.019293
22.62296 40.64096 -3.677323
22.84593 39.99563 -5.933216
21.7191 44.63787 -2.423563
22.33203 43.49587 -3.733573
0.2374688 61.25838 -8.25614
15.37034 80.90939 -7.747508
9.563815 84.24347 -9.331335
5.029139 87.92817 -11.44666
-14.52211 70.95972 -8.360687
-14.8526 68.30847 -8.133051
-1.132767 60.84888 -8.155137
0.1036628 62.63384 -8.179619
18.57116 84.24065 -5.125058
10.48026 85.39629 -9.81708
1.819148 86.13054 -10.49234
-17.53491 71.8482 -6.55699
-11.10711 72.43217 -8.742247
-10.32578 69.67271 -8.662644
-9.961748 72.12581 -8.745461
-2.431676 62.77945 -8.145575
14.3005 80.97514 -8.163634
13.61037 80.01253 -8.358126
-14.6643 71.66523 -8.332178
-15.71832 75.63936 -7.844263
-6.362456 63.12688 -8.116089
-7.131385 60.59893 -8.220164
-8.419085 61.22718 -8.143408
18.18346 83.19917 -5.665928
19.90964 84.60591 -2.461555
17.89237 80.14867 -5.98512
10.57549 81.97846 -8.748044
-12.19232 74.814 -8.795674
-17.01704 76.89951 -6.913199
20.12049 83.41093 -2.058318
18.90168 81.101 -4.810387
17.84691 79.78876 -6.04942
16.75508 79.86902 -6.976041
-14.1364 74.60934 -8.505442
-17.2419 75.71748 -6.779562
11.45787 82.47655 -8.784678
11.90317 81.09739 -8.587585
5.768256 85.24301 -9.979447
-17.00563 72.83929 -7.042764
12.7316 79.41891 -8.525067
12.47775 77.70082 -8.656738
11.05143 81.23621 -8.626093
7.567533 80.15911 -8.688237
6.313595 81.25571 -8.775598
4.991273 84.29326 -9.54367
-13.24865 77.80537 -8.552804
6.168655 78.52232 -8.702187
6.633745 77.47836 -8.734735
8.665996 76.09051 -8.784966
7.639151 77.00725 -8.751966
16.72162 74.94072 -7.242567
11.58375 77.80177 -8.715654
11.35085 75.50462 -8.792202
9.101053 76.09763 -8.784935
7.554143 75.41305 -8.789728
5.330267 72.79234 -8.781953
-5.513043 68.16173 -8.573602
12.06335 75.30367 -8.770094
4.72023 74.35555 -8.789709
5.357827 71.27247 -8.742362
5.28789 75.11568 -8.788388
11.78341 72.32874 -8.778146
15.56182 73.20812 -7.952143
15.04559 72.84892 -8.20474
14.1423 70.6247 -8.456216
12.90628 72.27514 -8.725166
16.17852 75.60822 -7.546215
12.95423 74.84683 -8.735595
15.06746 70.53963 -8.149288
16.15464 78.58582 -7.429886
14.66257 75.9605 -8.279195
-15.79276 101.5378 -3.406089
-14.62487 100.8506 -5.833885
-13.10962 99.42216 -8.375313
-12.82342 101.7842 -7.546847
-11.90266 100.3432 -9.037204
-14.71514 96.66624 -7.743431
-12.79372 95.32558 -10.09883
-15.57717 97.47226 -6.153255
-14.83656 94.64329 -8.29653
-14.02291 95.98608 -8.754489
-13.556 95.24226 -9.426429
-11.44576 95.37411 -11.06233
-12.66227 91.82676 -10.6269
-13.53548 89.77425 -9.950513
-12.73634 93.58777 -10.46259
-10.73556 89.4886 -11.37339
-11.65145 89.3714 -10.95848
-8.749958 88.36099 -11.54019
-16.65446 65.19387 -6.768563
22.91821 28.96895 1.331429
22.81951 28.28245 1.077827
18.40369 39.45593 -11.76156
19.60876 42.2239 -10.51486
20.34811 42.65548 -9.91602
18.86605 44.35063 -10.0906
21.05335 45.04649 -8.338371
20.11272 47.40346 -8.069034
22.17361 44.91245 -6.501061
21.92939 44.1326 -7.390057
22.25562 44.43702 -3.777519
22.2537 45.86484 -5.310871
20.88633 47.46996 -7.649246
21.31496 45.53088 -7.833769
21.70151 47.81139 -6.41553
21.57709 49.01044 -6.110112
21.35511 54.27922 -3.465949
21.35475 50.57706 -2.594778
21.59757 50.28782 -3.281664
21.35953 46.83255 -1.745531
20.91777 56.24739 -2.47085
20.83597 55.01505 -1.980142
21.02919 52.65191 -0.5110154
19.31869 51.71277 -6.845609
20.98614 54.35062 -4.861295
20.3162 52.57921 -6.055816
20.36411 55.73602 -5.054239
20.23739 56.58573 -5.135561
20.04716 55.32896 -5.410283
19.10349 53.11813 -6.766534
19.4895 70.05669 -3.178402
19.89028 68.7859 -1.322964
19.04861 67.99771 -3.965475
19.19062 70.60779 -4.017587
18.87545 66.68328 -4.135835
18.89792 71.22245 -4.674361
17.16069 72.84847 -6.90869
16.14299 51.13265 -9.203135
12.64765 52.69343 -9.323059
13.74988 52.06742 -9.031406
-18.73224 85.75599 -4.71437
-9.015507 96.09281 -12.07019
-17.59373 93.35576 -4.462801
-3.001537 98.21229 -12.20222
-7.048027 98.45592 -12.01688
-10.908 99.54371 -10.10117
-9.010491 98.0117 -11.60127
-9.574598 99.44175 -10.92874
-11.74651 100.7959 -8.973901
-11.77223 98.11459 -10.03369
-6.240985 96.01791 -12.63586
-10.84076 97.44743 -10.87947
-9.395681 100.3357 -10.68101
20.66015 58.09978 -1.882327
19.79331 59.27712 -4.607164
20.29409 59.95679 -3.477448
20.0419 59.59481 -4.060938
-7.605169 62.3707 -8.089921
-9.650421 67.2178 -8.505377
-3.782784 62.92166 -8.139413
1.509012 66.05437 -8.394899
-6.629313 65.9521 -8.378777
-17.93322 70.06221 -6.011868
20.38321 82.05534 -1.352426
7.765189 90.44498 -12.29227
4.045275 93.55017 -12.77952
2.424304 89.88879 -12.13923
4.272634 88.69093 -11.7527
1.669051 86.82424 -10.84805
0.3092704 87.62578 -11.23204
0.8933175 90.62472 -12.33495
-7.370677 89.22347 -11.98568
3.733841 89.88498 -12.17111
-6.54813 89.75315 -12.21785
-1.780829 88.85352 -11.78957
3.748958 61.29627 -8.122021
5.741206 55.69152 -8.142194
5.621316 57.43814 -8.07709
2.581841 58.50665 -8.102453
22.2153 45.36307 -3.905008
2.505535 61.39499 -8.157637
-8.860347 71.93332 -8.744782
-11.98629 73.39227 -8.794149
-8.148563 73.8174 -8.778353
-6.624722 80.90575 -8.796259
8.770113 72.28622 -8.776274
13.14996 76.03652 -8.675978
-6.882488 91.1441 -12.51681
-8.729856 91.40366 -12.29851
-4.918511 89.88454 -12.20425
-6.888353 87.85902 -11.45972
-2.438105 88.20159 -11.50465
-9.220191 90.25985 -11.98868
-6.803807 92.76724 -12.72654
-9.417637 86.60254 -10.69803
-5.545057 86.42992 -10.64915
-11.96546 85.95746 -9.784043
-10.22481 84.67612 -9.473833
-4.422509 84.89516 -9.849421
-1.819918 90.96214 -12.41588
-1.042374 90.28277 -12.24893
-5.238258 92.01002 -12.69138
-1.934632 94.70496 -12.72217
-10.23832 87.63329 -11.00367
-6.027564 94.3443 -12.81515
-9.679015 94.58533 -12.06517
-15.99673 91.24702 -7.645598
-15.80071 92.86761 -7.606655
21.04094 52.35862 -0.4796362
21.35232 49.82187 -2.415897
16.11106 53.55729 -8.4897
17.42242 52.19939 -8.39459
17.01975 68.76287 -6.839768
18.74605 67.03262 -4.462547
14.84073 69.19027 -8.180063
18.96718 65.15399 -3.76184
18.69064 66.4333 -4.494548
19.33931 64.21001 -3.443006
18.82364 62.59491 -4.72598
15.13004 65.70648 -7.793367
9.913455 68.11012 -8.570539
14.41534 67.84832 -8.269665
10.22369 56.8978 -9.557586
6.586711 57.62219 -8.47576
7.882126 55.88432 -9.149812
8.765781 59.47667 -8.883007
11.18296 57.30693 -9.441977
10.90676 57.94868 -9.361269
8.943463 60.11203 -8.823113
-1.496918 93.42094 -12.73232
-1.041342 93.79578 -12.74956
19.6158 59.22394 -4.929163
12.62426 56.70015 -8.924623
12.07836 56.91494 -9.335007
18.70787 60.73035 -5.305519
12.55606 60.17598 -8.751287
12.19881 65.60145 -8.354402
13.7054 61.71636 -8.202981
-9.081714 63.91569 -8.149404
-8.716768 69.9386 -8.678311
-10.38029 68.23086 -8.577217
2.80193 67.80026 -8.544923
0.1207272 85.3597 -10.10475
-2.745829 85.58 -10.20312
-2.223058 84.73955 -9.812004
-3.371598 86.70865 -10.78687
-4.330799 84.48408 -9.683732
-2.130937 84.36777 -9.669567
-7.015384 83.55811 -9.279686
-9.572274 81.3772 -8.762478
-11.73001 79.42519 -8.63768
-11.16796 77.0508 -8.743974
19.71301 63.64873 -2.986604
0.7979941 74.22216 -8.784348
11.51591 70.87736 -8.721796
8.612448 70.26701 -8.6962
9.810251 69.72972 -8.66922
9.357549 67.33936 -8.511285
6.254991 69.91348 -8.679645
5.769762 66.86464 -8.470469
2.328495 65.08799 -8.310737
8.44214 64.92116 -8.319674
8.023056 61.78299 -8.42708
4.567156 61.43764 -8.117549
7.172923 63.27567 -8.275667
4.035295 64.14816 -8.262621
0.2607511 66.79719 -8.464852
-1.661161 65.30588 -8.316297
-1.172797 65.04504 -8.293445
3.074633 69.9632 -8.684713
3.64846 62.69668 -8.208434
-1.372287 65.74886 -8.361073
2.866057 70.90724 -8.729956
-0.05511925 68.54095 -8.59796
-1.686394 70.03727 -8.687212
-2.146357 69.2757 -8.646954
-2.727014 67.32439 -8.508687
-4.398996 66.06861 -8.389437
-0.8643257 67.71571 -8.538179
2.217028 73.69923 -8.784928
-7.8956 71.686 -8.741158
3.430089 70.17414 -8.694996
-9.049232 93.55401 -12.35083
-12.49816 81.04353 -8.575324
17.90052 55.96902 -7.204744
16.3526 57.44751 -6.996769
