# .PCD v0.7 - Point Cloud Data file format
VERSION 0.7
FIELDS x y z
SIZE 4 4 4
TYPE F F F
COUNT 1 1 1
WIDTH 1652
HEIGHT 1
VIEWPOINT 0 0 0 1 0 0 0
POINTS 1652
DATA ascii
-21.86779 35.91269 -1.209994
-16.12916 29.70078 -0.3007677
14.4363 42.26302 1.694161
17.18538 38.70451 1.214238
-17.29208 55.83868 3.595622
-14.81617 47.96545 2.985006
-16.29214 62.44573 6.007929
-17.95461 75.95554 7.695076
-13.3016 76.54825 9.750526
-16.1911 76.65504 9.129766
-16.43126 67.91196 7.355092
-13.34214 87.75797 10.1425
15.51092 103.9899 6.018411
-7.138083 137.5375 11.62441
-13.18278 116.4956 5.704337
-11.02494 115.6566 8.007159
-10.81734 120.3831 9.474636
12.05008 135.6901 11.28409
-20.92565 31.588 -0.5291539
-18.09967 53.18867 2.69842
-13.0207 60.22911 6.336195
-16.68629 78.45731 8.998044
-18.4586 80.89729 7.559914
-13.94277 85.76723 10.13449
-15.75208 90.9591 8.893318
-11.99447 121.6938 7.713858
12.09255 134.351 12.00905
6.442305 142.1881 7.445059
-13.11872 54.24856 5.094498
-17.98687 84.71141 8.02667
-14.66337 92.07327 9.238983
-6.63575 117.5456 11.6085
-12.029 124.7417 8.178689
8.16445 134.3095 13.66117
-19.72996 33.93729 0.2478005
-16.63659 61.91158 5.591723
-16.41189 61.10859 5.598255
-12.391 63.97234 7.269862
1.173862 94.66552 9.518187
-18.2896 92.71062 4.602396
-12.52899 122.5979 6.73741
14.02573 132.3602 9.92374
-18.26686 33.91761 0.6726321
-21.87164 36.92517 -1.23337
-16.10781 66.84847 7.264959
-18.27019 93.15594 4.282479
-12.46866 128.0996 9.211809
14.43943 135.0418 7.699975
-19.61648 35.81607 0.5191329
-10.49302 61.37162 6.65169
-12.74252 128.4751 9.263856
-21.88924 38.67178 -1.443238
-9.776713 126.9371 11.49873
-10.34744 126.9022 11.1033
-9.883754 58.2801 5.926123
-11.67499 128.9927 11.21591
-12.60441 34.94321 0.8204465
-19.08204 40.03569 0.9869065
-8.698396 129.9877 13.15784
-11.94261 57.13701 5.64907
-9.067315 132.3151 13.72861
-18.84923 39.19389 0.9753211
-10.09568 124.2236 10.61304
-6.937593 121.2006 11.84913
-6.224019 115.2302 11.55084
-6.734634 115.193 11.36828
-10.8598 132.0089 13.07687
-10.19224 123.6027 10.43195
-7.059713 129.7769 13.27651
-17.49796 40.95269 1.369066
-10.66488 123.1811 9.879154
-5.198762 117.5462 12.02915
-6.792578 130.1972 13.41845
-10.06745 132.5332 13.46113
-7.391691 143.2703 6.354749
-21.42928 15.79727 -2.134308
-21.79241 17.34578 -2.62182
-14.48868 14.86884 -1.314571
-20.77512 18.49192 -1.961896
-20.29445 27.65217 -0.7436501
-19.2303 26.79082 -0.636181
22.08821 26.4832 -2.466623
22.8326 26.53545 -4.17014
16.73605 100.3675 4.361194
17.37297 96.99844 3.904205
16.81832 97.20216 5.360329
16.27019 101.7433 5.106365
16.22467 96.82841 6.563376
15.10037 98.5464 7.407261
15.26812 96.37171 7.794598
15.00247 95.19206 8.304647
14.87216 103.3928 7.055415
14.47342 101.1116 7.589439
12.90256 101.1378 8.594311
15.5088 92.21323 8.72581
17.61246 86.96781 8.17815
15.60904 90.37287 9.128078
12.92039 98.79259 8.678432
11.05138 103.4262 9.417438
9.117496 88.69939 10.19174
17.25802 92.44108 6.946302
18.75991 91.55115 4.051781
11.01381 100.1899 9.182512
10.82146 104.3546 9.565563
18.7818 92.02245 3.279374
8.296803 99.67545 9.760571
10.25413 106.4786 9.861885
9.514348 101.5658 9.690037
8.376216 98.29591 9.604253
8.388179 95.89806 9.474257
12.71373 121.2004 5.495923
12.78243 122.9591 6.152856
12.38427 124.0868 7.455756
11.96229 123.959 8.087656
9.035227 122.7714 10.72725
10.36556 127.7145 11.37278
9.388184 126.2632 11.59956
13.34493 126.7343 5.598536
11.95082 126.9165 9.404698
12.66298 130.1669 11.11857
13.27049 131.633 11.02776
-3.468152 140.1407 9.378098
-3.870869 140.0941 9.41668
0.5769947 138.8682 10.36539
3.782908 141.0508 8.631653
3.294249 142.1091 7.777681
2.691546 139.9284 9.556767
3.967336 136.7558 12.0416
14.76864 14.32796 -1.334322
-12.18703 15.26275 -1.237907
19.83806 49.74283 -0.7870777
19.60826 74.37801 4.919683
19.72696 74.60247 4.676586
13.02379 118.0009 5.170265
10.98068 14.25908 -1.211465
9.628992 17.2971 -1.177471
16.84916 19.14934 -1.352047
15.34564 17.83731 -1.333938
13.27843 14.89672 -1.286396
21.54658 33.95579 -0.8547156
20.7472 32.42848 -0.3443483
21.03106 28.93599 -0.9634644
14.19152 21.8391 -1.045979
19.3533 35.01044 0.4745245
17.77458 29.87771 -0.1919748
19.50222 33.43659 0.2814762
21.00225 33.16473 -0.4264324
15.85898 36.27569 0.6855047
18.02926 32.96789 0.2990225
17.34459 34.10631 0.750501
18.63951 34.59515 0.5926322
12.28406 34.02869 1.1966
10.82411 37.62741 0.6858994
13.2272 36.29901 0.6146373
12.09155 38.29327 0.9634292
8.742807 38.16211 0.815574
10.72718 35.80079 0.7509906
19.71724 18.50454 -1.588215
20.74704 18.01879 -1.936959
18.06516 15.96749 -1.53487
-9.607165 17.0303 -1.17487
18.0109 64.98392 5.253217
1.558839 55.46739 5.212316
18.54187 61.85262 3.23944
17.79405 55.24984 3.152502
-19.43656 82.36644 6.011478
-13.50904 127.8486 5.499121
-2.060551 18.18219 -1.094936
5.488576 15.21367 -1.161839
-4.254338 19.809 -1.03886
-3.703598 22.96784 -0.7972305
1.247543 15.69418 -1.144463
2.197878 15.1767 -1.147667
-1.5745 19.86472 -1.028547
-0.01678444 18.47818 -1.084673
1.549328 17.23949 -1.120182
-6.78401 20.53605 -1.019702
2.176624 20.4504 -0.9987062
-10.31779 24.24017 -0.7779793
-9.599739 19.69225 -1.081642
-11.1675 21.80829 -0.991302
-8.325092 18.40248 -1.122543
6.869919 22.83134 -0.8587447
4.593978 19.98392 -1.032544
7.112911 21.56261 -0.9637241
5.905155 20.41008 -1.018569
8.493441 17.78521 -1.148525
6.159479 18.68525 -1.097107
11.02818 21.17829 -1.026621
8.251315 23.58373 -0.804758
14.76217 21.40949 -1.083337
11.95787 21.69169 -1.006173
14.75608 29.8476 -0.3706082
15.73037 28.42571 -0.08366362
20.99642 22.18765 -1.777035
10.07242 25.12131 -0.571293
13.70945 23.54942 -0.9362313
14.80291 23.14049 -0.9239905
13.3082 30.52135 -0.4698116
15.18402 24.00594 -0.9415691
8.853098 23.77538 -0.8004713
11.13255 27.44433 -0.1478182
10.91079 29.36714 -0.4440815
9.124092 28.22263 -0.2847158
5.891416 23.04662 -0.817165
15.27802 64.36224 6.963818
18.20152 80.73787 7.844951
17.03588 88.30909 8.480599
18.03551 79.42546 7.958021
17.45628 79.55913 8.549585
13.36675 79.54733 10.0818
16.4973 79.51539 9.21481
17.56487 87.49799 8.119774
20.1487 81.6086 4.28652
12.91321 110.1014 7.137324
12.03335 108.5696 8.726328
14.23073 110.0499 4.986136
14.07915 109.7227 5.266692
10.30238 112.924 8.721952
13.5102 112.5253 3.519534
16.38829 48.82301 3.090715
13.66005 44.40636 2.38998
14.96094 49.16349 3.453915
13.74698 47.06699 2.520524
12.8202 41.05345 1.401706
6.784512 37.01188 0.6015102
10.21484 42.16361 1.632817
6.953693 38.07542 0.8006319
6.759106 36.00632 0.7097135
8.779041 35.38667 0.9020088
3.097413 29.59307 -0.6511307
4.283339 36.72748 0.6141517
9.949185 30.95273 -0.496287
7.17414 41.77709 1.806939
1.582679 37.92914 0.8246067
3.489176 36.79893 0.5970446
7.958148 32.67654 0.7454216
9.617395 45.84607 2.918285
8.725074 46.70849 3.040875
6.086041 42.1573 1.907062
2.665445 34.45235 1.334263
11.48607 47.99022 2.885567
3.52355 35.01565 1.079618
4.955024 29.37211 -0.6008793
8.206791 30.60096 -0.6381092
10.95501 30.40079 -0.6171908
11.64095 47.94753 2.86825
-11.68771 52.83978 4.606074
10.2266 32.07099 0.1512651
10.13371 34.14166 1.358972
5.455443 30.40319 -0.6660986
8.735026 45.90791 2.937788
11.09817 32.5351 0.4704427
1.722056 29.18988 -0.6194841
-3.065202 42.52176 2.049573
-0.7056037 42.27826 2.004637
3.241657 48.76725 3.553741
4.372214 44.94718 2.595198
3.095748 47.32374 3.207248
2.633347 31.30726 -0.2348647
2.336104 43.56242 2.286434
-3.029868 55.25418 5.153028
1.86034 33.98357 1.515794
1.314836 32.13445 0.5881464
5.942317 48.95651 3.559744
18.69916 53.27533 0.71979
-19.95462 83.35417 4.655714
-11.69029 70.25185 8.714161
-11.85628 74.04058 9.381753
-10.02381 69.08215 8.458963
-10.43375 73.9541 9.357359
-10.56592 73.69661 9.31907
-7.43539 71.88801 8.992647
-10.87312 67.86613 8.204084
-10.98918 68.29021 8.299311
-12.44252 64.97196 7.513164
-8.931035 62.79198 6.998804
-8.69262 69.17414 8.467452
-9.847378 64.15514 7.323325
-16.00164 70.46118 8.210945
18.44601 37.5983 0.9233134
-17.68817 44.8802 1.534617
-5.883404 138.2553 10.98715
-16.85451 28.97116 -0.1445031
-15.60556 30.06913 -0.3646975
-16.35702 25.63697 -0.8330738
-13.60528 24.64874 -0.8808855
-16.13214 81.84119 9.489538
-13.31048 82.71353 10.22427
-15.31632 82.79342 9.888122
-18.17143 83.60642 7.860029
-7.155328 133.069 13.87096
-5.492705 130.9087 13.6046
-2.783461 127.2339 12.96688
-6.992906 125.1083 12.266
-2.68141 128.9504 13.23911
-6.153976 127.6077 12.82239
5.820745 135.3521 13.06478
4.552597 136.5142 12.24665
2.853908 128.9663 13.19917
5.108366 133.6689 13.62331
1.308214 133.2766 13.61048
-1.097693 132.4241 13.69867
-1.134519 129.624 13.35259
-1.810232 133.8966 13.46884
3.061745 127.9205 12.99557
-0.4276828 128.6929 13.18977
8.029649 128.0304 12.50703
-0.2518855 137.36 11.49594
2.609941 130.7643 13.54739
-4.518227 139.3578 10.0313
0.432677 136.0099 12.41313
6.719512 128.593 12.90971
-5.468686 139.1171 10.2384
4.765704 126.8258 12.6902
-4.60968 141.148 8.517004
-1.866417 136.1938 12.32161
3.109856 125.8837 12.66636
3.502076 123.768 12.37877
8.317377 125.231 11.68947
7.90839 130.5093 13.50249
5.588563 123.3124 12.01159
6.097834 121.6368 11.66266
9.297089 130.8213 13.38035
7.783298 126.4104 12.10638
12.30089 131.1885 11.90576
-15.30813 93.04758 8.633641
-15.15232 52.84741 4.688823
-12.08389 59.2959 6.11933
-12.7724 58.94021 6.01228
-11.13227 56.51991 5.542625
-8.933447 57.70333 5.793051
14.45616 132.5841 8.92837
14.75384 131.9181 5.815091
-12.53746 41.12448 1.461258
-16.1714 43.72403 1.663915
-18.4313 43.91771 1.167731
-19.75543 41.37008 0.5834133
-16.07343 44.44192 1.915553
-11.2809 47.35336 2.748364
-16.45754 42.16904 1.712386
-11.75554 43.93476 2.415824
-8.883762 43.88204 2.439759
-10.63118 45.93922 2.535172
-13.22226 40.83064 1.422475
-6.860699 45.73642 2.847219
-8.06816 48.08491 3.150864
-10.94532 48.33076 3.179456
-0.5256631 41.22894 1.762082
0.09720131 36.77431 0.6112624
-1.100005 39.11042 1.199347
-2.517593 38.41446 0.993852
-1.966858 35.22253 0.944961
-3.226401 36.8091 0.6373987
-1.201798 34.10439 1.464885
-4.427145 35.15365 0.9518614
-4.537955 32.20432 0.7071294
-0.5897467 30.20989 -0.7335213
-8.037148 35.91171 0.5423783
-13.18921 37.46793 0.8757446
-8.423341 37.29434 0.6873997
-9.179523 35.04537 0.8760353
-6.480299 39.6439 1.448395
-12.72359 37.55035 0.8954503
-7.549615 31.55952 0.06575086
-8.868845 39.81483 1.47784
-10.21587 29.72271 -0.6360635
-11.97899 35.99968 0.4936936
-8.838344 38.15727 1.043855
-8.803638 40.7797 1.579741
-12.02883 30.80375 -0.403197
-13.1191 35.42491 0.6141092
-13.28615 31.10872 -0.2722599
-5.695371 29.54098 -0.6583845
-3.641741 27.95987 -0.4299467
-6.574522 28.13033 -0.3822849
-5.322611 25.6171 -0.4023231
-3.803609 25.71456 -0.3777469
-6.626894 26.02991 -0.3502118
-4.872139 24.53516 -0.5827341
-7.961356 26.47787 -0.2848099
-9.381097 24.39471 -0.7212333
-2.630273 143.5195 6.709318
-21.48178 22.48121 -2.130576
-20.38732 22.54108 -1.397552
-19.17974 19.72524 -1.408679
20.26819 24.98375 -1.139491
18.73361 88.59859 6.132526
11.17562 93.92796 9.423678
9.504694 92.75105 9.526352
9.510771 91.0204 9.724492
9.24945 89.42433 10.08521
16.02564 88.27519 9.230143
15.1664 90.03653 9.382743
-13.94334 16.44506 -1.285556
-15.64583 16.67158 -1.354101
-18.45674 19.96531 -1.186491
19.75846 78.28384 5.20576
-16.11713 103.5118 4.747726
12.5275 115.655 5.191097
11.45176 18.43521 -1.170986
21.85068 20.20085 -2.777978
16.20148 69.37186 7.853172
14.31148 70.79432 8.798076
15.61982 63.96757 6.736399
15.59274 61.67081 6.161329
14.97498 58.92241 5.671121
8.906343 61.5479 6.699061
13.27592 61.89524 6.74465
8.284397 56.66728 5.521233
5.399703 51.87771 4.275292
8.927874 50.62267 3.83625
6.867483 52.95954 4.54155
5.871829 55.71453 5.269409
13.54083 51.50928 4.221079
13.15383 52.43696 4.539104
2.54257 52.9149 4.572472
2.491216 52.03761 4.353913
1.103915 54.31333 4.924683
-1.470024 55.74371 5.279258
19.23879 62.83047 1.925815
-6.819661 107.2404 11.28758
8.194958 15.27957 -1.183925
-0.2306603 25.81293 -0.3579269
-1.494465 24.92502 -0.4923356
4.609945 22.39572 -0.8725449
13.06075 66.5059 7.88864
14.11909 87.77529 10.03816
15.11 83.89313 9.942354
17.39457 85.90849 8.499657
11.80295 88.27717 10.15895
10.65007 86.66799 10.22929
13.34283 84.3925 10.25735
10.56325 80.21141 10.10932
12.71092 85.84763 10.24451
6.518123 81.86346 10.25856
11.66448 77.28078 9.838458
13.63352 78.18372 9.948954
5.725526 80.23809 10.11614
15.82687 77.77126 9.39672
19.04073 85.27875 6.435096
13.21347 112.8889 6.595571
10.67544 121.0071 9.499327
12.34678 116.7792 6.07272
-0.6938285 26.98039 -0.3375148
0.1664216 25.05043 -0.4697446
-0.9047908 43.78349 2.35318
-0.5424652 48.58862 3.514515
-2.093271 47.79048 3.317767
-2.613587 53.35124 4.670769
-1.283386 52.12204 4.372531
-7.368017 50.42619 3.82446
-2.830775 47.5764 3.265045
-10.21559 52.42828 4.413758
-9.433859 48.71524 3.260192
-8.962218 65.65261 7.680742
-5.836827 71.60506 8.933349
-5.996671 71.6208 8.936862
-14.03929 26.04539 -0.6152158
-13.81609 21.57944 -1.000902
-12.33982 20.64935 -1.057057
-11.24213 84.1385 10.22395
-4.671663 127.8204 12.98323
-0.9987108 137.337 11.52058
-0.2894012 126.4383 12.86842
-0.7417174 124.1669 12.65788
1.247105 123.4284 12.53689
-1.603319 123.0907 12.5901
0.9910188 122.5087 12.49792
2.769672 120.7472 12.23356
-0.7440253 136.7782 11.90954
-13.86412 54.54191 5.100147
13.64005 132.7108 10.58105
-9.873733 117.9645 9.980839
-8.817169 113.6962 9.939517
-6.514874 113.9553 11.33593
-4.079568 117.212 12.18348
-19.53943 42.82083 0.588303
-8.910611 46.19881 2.791282
-12.92831 48.41661 3.160479
-6.581353 43.16408 2.145103
-1.081912 32.64117 0.9616631
-12.14608 28.53485 -0.2998312
-12.03733 28.60397 -0.320403
-19.91574 20.98896 -1.387468
7.975132 83.26962 10.26072
6.268975 84.39954 10.18552
8.385008 88.07925 10.27426
6.798806 87.62497 10.32892
7.143587 88.27725 10.34012
3.903538 92.30104 9.451595
8.664208 97.33154 9.512264
6.856217 94.12682 9.432053
7.862592 105.2418 10.70305
6.550119 102.9156 10.7881
-16.61874 19.59773 -1.188377
-14.78836 22.79647 -0.9586533
18.27601 76.9439 7.51858
17.62032 78.14452 8.31226
16.59594 75.2437 8.678041
19.63806 73.41225 4.650484
13.12738 69.2305 8.539196
10.21364 71.03028 8.859638
14.60464 75.08027 9.432478
11.12703 73.11143 9.228994
10.65604 71.60197 8.970415
11.77709 73.16228 9.243131
10.66234 75.19202 9.549471
8.981778 76.35155 9.707222
9.289467 78.59841 9.971275
11.95099 116.2254 6.546923
-13.23757 109.6134 6.961525
-11.51781 112.9544 7.58322
-10.20012 109.2827 9.671536
-8.147822 112.7279 10.27565
-7.461239 108.2515 10.98153
20.28625 24.02304 -1.287764
10.35373 65.81039 7.720968
10.67109 50.87663 3.919763
13.83215 52.76731 4.704222
10.41247 55.27699 5.216348
7.766896 55.30502 5.16853
11.86175 55.90946 5.402784
9.165046 55.80231 5.315694
15.86249 54.45467 4.722428
13.602 57.34285 5.575302
13.15131 58.19682 5.819069
8.961215 63.28119 7.115763
8.85181 59.29441 6.156552
6.084629 60.30804 6.40314
4.614576 63.38953 7.141212
11.12739 58.15849 5.876719
7.035986 63.94307 7.274267
11.52832 65.22057 7.580829
3.067026 64.66367 7.439296
5.144783 64.97047 7.513528
7.240829 59.81625 6.283702
4.658022 56.13402 5.375828
5.134971 68.85616 8.383752
8.142284 56.91946 5.582706
0.8484952 60.68188 6.49359
3.568357 63.18486 7.09207
-4.51999 55.72707 5.272432
0.7997518 55.38724 5.192472
-4.331117 53.27333 4.637521
-2.237135 59.83832 6.290316
-0.7538217 59.81084 6.28305
-4.831689 56.68074 5.515753
-8.738219 56.18737 5.425298
-3.854582 50.94087 4.044259
-7.744359 52.85398 4.509243
-15.22152 105.3586 6.06575
-7.254492 106.745 11.09785
2.776727 23.77316 -0.6789714
16.20138 18.24127 -1.364356
19.25823 22.34587 -1.190837
15.88698 87.45312 9.37944
7.928409 112.4358 10.28042
3.475193 117.2882 11.97513
12.01685 114.6293 7.974521
9.795932 115.2094 9.057497
11.87827 115.6706 8.049957
5.327458 112.6462 11.43384
10.59833 120.1231 9.139388
7.218239 118.5536 10.76727
6.456993 107.8222 11.38899
6.32227 107.5982 11.44075
1.387315 24.32191 -0.5882482
-3.310408 45.28695 2.717937
-6.009874 64.58812 7.425002
-3.994036 124.7466 12.63239
2.24662 122.0048 12.36596
1.666675 114.0932 12.18014
-3.006228 116.8388 12.274
-1.454111 114.5541 12.2722
-1.360059 113.4467 12.24347
4.018898 117.5815 11.85532
0.3543273 116.0046 12.29959
-12.62604 50.90889 3.992598
-10.9189 51.80496 4.237041
-12.33547 51.79414 4.287493
-6.03861 111.8996 11.36222
3.880032 108.1221 12.20071
-2.749153 110.3986 12.16452
-6.565517 104.6058 11.03612
-5.228597 107.861 11.88016
4.077956 110.1698 12.01902
3.416308 110.1506 12.10577
3.807087 110.7668 12.00563
4.937011 114.1001 11.53241
-2.063331 119.5473 12.41542
-13.3487 34.12279 1.046541
5.976051 82.9194 10.29226
7.411439 92.27658 9.51381
0.6152894 94.00246 9.439757
1.613791 92.95341 9.40224
0.08782385 93.56168 9.391622
-0.5112998 94.41331 9.478597
1.228479 98.67636 10.68562
3.894015 99.17997 10.47714
6.871612 101.0036 10.30329
7.899942 99.36732 9.802486
-6.210753 97.58067 9.767824
4.016581 107.2776 12.18966
-14.68943 17.81936 -1.245004
19.52624 77.40646 5.581679
3.31283 78.95495 9.998325
3.845238 78.26816 9.933186
-3.882531 70.39388 8.693534
3.46606 73.38258 9.244335
-10.64999 107.0076 9.756776
14.02997 49.81171 3.645391
7.607314 67.48509 8.097865
0.2523413 63.40449 7.143089
-1.146515 59.8886 6.301957
-2.099516 62.34357 6.892437
-2.082169 60.73396 6.506789
-4.403015 64.54209 7.412131
-6.668871 60.33469 6.41355
-4.619752 64.39389 7.377733
-5.156577 58.70296 6.016778
-13.75491 104.1726 8.081028
6.292649 116.7578 11.08399
-5.8284 67.97285 8.19524
-0.4460123 121.1631 12.48445
-6.299809 109.5874 11.33734
-0.756119 119.2079 12.41835
4.51208 86.89342 10.29317
1.170687 87.19525 10.36964
0.6797477 88.42975 10.43094
-0.05260254 85.66059 10.08847
-0.04794825 90.07881 9.918527
5.166299 86.65723 10.24908
-11.47225 93.64192 9.464468
-3.98532 94.35535 9.450871
-1.081194 96.25731 9.860079
-8.779021 89.8037 9.993106
-12.47586 91.4333 9.748219
-11.50444 94.71373 9.360196
-6.511175 91.50318 9.548356
-8.651412 95.24432 9.414289
-8.758245 85.67673 10.17521
-7.200262 91.83448 9.523634
-6.365178 93.39368 9.438269
-4.311484 92.10329 9.453958
-14.28376 99.02374 7.9804
-12.40327 97.9824 8.919171
3.295785 96.70324 9.887539
-8.36758 96.56628 9.446386
-7.284004 96.74101 9.550239
-10.10936 101.0385 9.430495
-4.303452 104.668 11.83714
-10.30496 101.3487 9.407672
-12.84997 102.8936 8.616595
-13.90821 100.449 8.04861
-12.32382 103.0687 8.873754
-8.04151 104.5708 10.49144
-10.02561 104.1212 9.850719
-13.74268 107.5186 7.372559
-10.66684 108.6178 9.56686
-11.29284 110.062 8.824878
-5.49107 102.1863 10.92056
-6.438963 103.4586 10.9538
-4.63738 101.4893 10.96725
-3.901008 100.3433 10.80529
-1.811647 105.5558 12.26323
-4.339651 107.6755 12.14484
-1.354939 104.7832 12.20981
-1.458369 102.4189 11.78535
1.738626 107.0054 12.32037
3.199843 101.5274 11.31944
-6.73617 75.20649 9.535666
8.108498 70.43562 8.72556
1.160959 66.10676 7.769167
-0.5330168 66.37861 7.830797
-4.506533 69.42688 8.498664
-2.648196 67.96092 8.183982
-0.1763854 69.71756 8.552534
-2.537242 76.48266 9.714621
4.18917 70.7692 8.769308
-4.332116 74.09424 9.363317
-0.3173071 67.27663 8.031718
-1.807341 73.08581 9.191234
-4.743322 75.99519 9.646194
-3.791191 76.29211 9.686645
-0.08711825 76.33091 9.696991
-4.804438 76.51132 9.716143
-3.152009 77.50521 9.844644
1.331171 121.9189 12.43959
0.136151 86.01604 10.15347
-2.386182 87.59639 10.42687
-2.071404 85.61386 10.08925
-0.5119168 84.30497 10.12794
-6.998196 87.61417 10.31211
-6.666464 86.77026 10.25333
-9.069987 86.04196 10.19588
-3.931574 84.72285 10.08844
-0.8691478 81.25677 10.2406
-4.656479 81.88017 10.30241
0.09387521 82.74345 10.35013
-3.958791 99.04199 10.42032
-2.699886 101.4399 11.39066
0.8457401 103.0327 11.95059
-2.953465 108.6888 12.27187
1.407415 109.2325 12.25153
1.222504 78.88189 9.990582
-1.208486 78.22108 9.925602
8.556209 72.77546 9.153911
7.137892 72.73698 9.140848
4.022365 72.09208 9.018593
-6.842772 65.68179 7.68195
2.510351 72.37835 9.067954
-10.78629 76.63091 9.737488
-10.2094 77.99617 9.892311
-7.726938 78.04983 9.897536
-9.651452 78.02705 9.895844
-5.55922 78.68668 9.967398
-12.29313 82.70106 10.22932
-8.097689 83.84057 10.23748
-8.475133 79.55592 10.04792
-2.895313 80.31596 10.12251
-11.48728 98.99849 9.066037
-3.402285 97.06466 9.941291
-6.145249 65.1074 7.546422
8.628153 91.74904 9.601173
4.59115 80.50269 10.13945
22.42176 16.68901 -7.62128
22.61888 26.68171 -7.577187
-5.290627 152.8019 -8.685003
17.487 50.7873 -7.927167
-22.84476 25.1116 -6.182563
7.584661 152.5342 -4.01399
21.6978 14.76237 -8.75836
20.77668 16.10718 -9.387627
-8.515107 152.4229 -4.98675
13.396 138.278 -10.27577
-0.1779548 148.1743 -11.26051
19.84679 69.3819 -1.788567
21.14824 10.97512 -8.927254
-20.0105 68.57326 0.001547064
13.97863 21.06418 -10.82435
16.19354 103.0636 -1.174739
-23.45889 11.54253 -5.805995
14.73345 132.5805 1.566792
10.18787 16.17893 -10.98166
20.51408 79.72288 -0.7667859
15.03098 134.9368 -3.443573
-6.274915 151.184 -9.615251
22.55895 14.57766 -7.473249
10.90407 147.5019 -10.90635
9.037195 150.7249 -9.165269
19.26854 89.80235 -1.878182
-10.42385 118.7822 -2.140583
21.54577 43.10643 -8.138865
-7.869719 12.26261 -10.97355
19.0659 51.51982 -6.344314
14.95654 134.7385 -4.405486
-8.150517 70.62958 -8.73428
-19.31286 67.09887 -3.165371
-19.47897 63.08697 -1.450313
-8.292022 152.6591 -6.374317
10.1332 144.5409 -11.93448
15.11674 135.3141 -4.887805
-19.29225 50.3722 -7.094621
-8.404794 149.2603 -10.52905
-21.11509 45.13779 -7.305986
5.635233 152.0546 -9.149171
-9.963114 147.5074 -11.09888
23.10483 12.59535 -6.680146
23.19114 35.33158 -6.249446
-5.455885 153.4311 -8.0485
-10.02514 148.5153 -10.61461
8.030755 146.8831 -11.72282
-17.29495 97.18301 -2.36573
-10.94215 29.27003 -11.62297
-18.58528 93.42279 -0.3169074
13.35677 121.9339 1.546986
-14.98467 136.0142 -6.976327
-23.25337 12.88683 -6.287115
-14.93142 134.1912 0.41537
-7.108215 12.72325 -10.86061
-22.798 11.82148 -7.48094
-22.78982 16.73434 -7.101153
-14.04984 132.9726 -6.005831
-9.057444 150.9226 -8.9723
-14.78914 134.0053 -4.040323
22.48092 14.04381 -7.875618
20.88276 14.77091 -9.086379
20.38206 17.10402 -9.685586
17.75099 18.08094 -10.26392
22.642 18.74427 -6.554876
12.56917 11.658 -10.74517
15.88442 14.82616 -10.18111
19.2341 16.45326 -9.794427
3.261768 12.06641 -10.83337
20.28745 51.85791 -4.485018
-18.78877 69.39285 -4.682929
18.0678 91.92985 -4.116241
-17.17756 100.2118 0.5753292
14.13466 107.8209 -2.523622
14.86107 136.4714 -7.720924
13.97361 130.4514 -1.712304
-11.29578 110.5485 -5.595627
1.435871 151.3334 -10.141
11.93036 144.1757 -11.52506
8.726229 136.7918 -12.01459
7.463625 148.9596 -10.91185
8.642292 151.9643 -7.724077
-22.46856 18.95798 -7.091821
-3.301594 14.1958 -10.76537
-13.91143 12.33377 -10.62485
-22.68724 14.44427 -7.715099
-13.21186 124.4367 1.297328
-8.837515 150.1639 -9.732973
-9.707006 143.4176 -12.17135
22.34774 14.62764 -8.060295
22.91729 28.47334 -6.776543
22.46746 26.07155 -7.874156
6.838844 11.80346 -10.78033
-22.31563 41.42316 -7.395587
-19.50448 53.44627 -3.859536
22.50859 41.64939 -5.351282
-19.72616 66.36763 -1.312901
20.46498 76.98392 -0.4982934
19.50126 74.46973 -3.591721
-19.64567 89.21237 -0.4063657
-20.43346 82.95881 -0.8183021
19.14104 91.24078 -0.6207816
14.71167 134.6732 -6.144828
-13.16332 117.0488 2.135399
-13.53347 113.3706 1.775684
12.5725 113.2208 -1.376037
-2.145316 149.8821 -10.74492
10.11914 141.9214 -12.19058
-22.83259 29.01094 -7.188052
-22.71902 33.79007 -8.252564
-10.23556 12.50627 -11.48833
-11.15096 13.96664 -11.30426
-13.1382 124.5067 0.8697313
-6.864214 151.0403 -9.555537
-4.760679 147.8992 -11.62605
-1.017476 150.9657 -10.28622
1.28294 150.1592 -10.61228
-7.23341 146.5473 -11.94131
-4.184078 145.0214 -12.15021
-5.350806 144.9921 -12.27351
-6.28531 145.7362 -12.18624
16.91568 18.51457 -10.42177
22.12046 33.53139 -9.386738
22.71513 25.10346 -6.896785
8.59902 14.89017 -11.07115
7.827884 12.64068 -11.02362
-22.62198 39.87688 -7.44504
-23.03303 36.76014 -7.019692
20.17425 49.27837 -4.029818
21.90672 43.93406 -5.780623
-19.5563 65.5608 -1.865098
-20.45566 75.05196 0.8644278
20.16243 72.58731 -1.122442
18.87899 71.32204 -4.696742
-18.57127 84.42226 -5.138783
-18.05883 95.34469 -0.2345569
-16.06083 104.7069 0.1690896
15.37589 104.0929 -2.545808
18.29723 94.30849 -0.6099899
19.75912 88.60714 -0.4922642
14.39852 137.2491 -8.92573
-14.63458 109.8517 0.5365855
13.16826 126.9175 -1.235443
-11.96803 139.7661 -11.47048
10.50873 141.551 -12.10677
10.22501 141.3853 -12.18152
-22.29394 18.59788 -8.012562
-5.155778 14.31713 -10.61329
-13.61864 130.345 -3.747794
-12.72928 123.4163 -0.339523
-9.265875 136.9235 -11.89939
16.12824 20.59222 -10.65859
22.93807 35.09323 -7.651445
22.69676 39.46814 -7.510137
23.06996 29.66665 -6.239387
18.51977 23.40773 -10.82882
11.52528 14.11821 -10.96275
14.28921 16.05362 -10.44775
-21.90716 42.81246 -7.434173
-20.60099 44.56892 -8.657906
-20.35636 46.93139 -7.023206
-18.72869 44.44754 -10.08972
-22.05469 40.9063 -8.488554
-19.93854 49.78482 -4.251706
19.72831 50.31957 -5.698913
20.10346 54.90458 -2.30826
22.55828 41.08071 -6.706964
19.14052 45.22439 -9.528767
-19.74109 67.45428 -1.631399
-19.53715 69.25967 -2.902563
-18.04255 65.89062 -5.388176
-17.40545 69.31594 -6.530216
-19.67449 60.43021 -1.594194
-20.07302 75.94012 -2.099779
19.22042 79.04995 -4.34628
19.2441 65.9393 -3.20443
19.28624 64.16064 -2.631944
14.20041 63.42271 -7.842504
18.017 67.33274 -5.628601
19.47921 67.83103 -2.725949
19.99798 73.18549 -2.02436
-17.35707 98.45435 -0.7495127
-19.98969 85.90611 -1.640594
16.938 100.8761 -0.2147114
15.42537 106.6868 -0.1072889
14.868 106.8956 -1.588527
11.75795 111.0813 -3.788135
14.16566 110.7178 0.9123623
12.33804 105.9218 -5.88547
17.68529 95.02055 -3.019904
16.57476 98.00128 -3.885143
18.46315 89.69669 -4.219645
19.76796 84.90933 -2.776679
-14.78015 109.7606 0.956214
13.4398 127.8045 -1.064609
14.02623 130.808 -2.080066
13.83909 112.74 0.2820954
11.09071 140.3995 -11.8967
-0.7804099 12.8437 -11.20996
-7.28712 15.98648 -10.91944
-9.675237 15.24034 -11.23465
-4.82028 12.20708 -10.44336
-14.50948 134.4752 -6.556678
-11.89693 133.4331 -9.072547
-12.0509 137.2414 -10.7758
-12.57843 134.0131 -8.863746
0.4450304 142.0971 -12.33397
19.47635 27.23265 -11.03612
4.053593 14.44142 -10.78956
-17.29771 44.85595 -10.35138
-21.76157 31.44576 -9.603498
-22.9893 38.00709 -6.70966
-20.33514 49.72785 -2.940333
-21.15638 47.88986 -3.92231
-19.32291 57.67761 -3.074735
18.45721 54.41772 -6.093533
22.72329 40.3013 -6.359977
18.22764 46.10561 -9.563489
-16.64446 68.34727 -7.135447
-16.40411 66.57291 -7.145121
-20.07574 73.60865 -1.561584
-18.89801 71.75206 -4.689971
-19.5765 63.25277 -0.6578136
-20.10682 72.64151 -1.410808
-20.11668 76.2346 -1.97375
19.40406 78.80724 -3.995537
20.1285 80.19616 -2.3418
17.45465 61.83014 -5.50738
14.8879 63.69069 -7.652776
18.57493 74.31454 -5.326047
-18.98359 90.90366 -2.014308
-20.15402 86.61063 0.1246586
-15.8266 103.5784 -1.84906
16.64774 100.1224 -2.129436
14.9273 107.77 -0.6653031
11.57164 108.8475 -5.046041
15.1556 85.56487 -8.186476
19.95548 85.52541 -1.966018
13.24667 121.9363 1.936645
13.52997 129.4768 -2.829625
12.56657 114.4781 -0.3071192
-4.128395 13.71504 -10.63704
-13.14964 131.6888 -6.558095
-13.41566 129.1767 -2.884724
-8.531537 138.223 -12.42604
-11.5314 131.735 -8.42555
-9.051801 142.7081 -12.36578
-2.558108 142.5132 -12.3591
-1.83228 144.8104 -12.03294
13.46537 17.33381 -10.59999
15.58839 18.89287 -10.54796
-19.24193 54.16039 -3.574005
18.19014 52.38932 -6.868501
22.07218 41.22452 -8.285025
19.00002 50.23262 -7.428404
17.49218 47.05545 -9.353583
16.38192 49.37306 -8.64388
16.40829 46.09501 -9.956698
-19.21811 58.01086 -3.403726
19.78785 77.06786 -3.113869
19.54942 61.8853 -1.394639
18.88115 70.26617 -4.625494
18.37166 69.10255 -5.329036
-18.15861 94.23695 -1.902265
-18.30646 87.87202 -4.98623
-20.09595 83.78635 -2.010209
-19.30799 85.5279 -3.701176
16.04561 99.62025 -4.001336
14.04205 99.55033 -7.306252
-12.72073 115.1984 -2.339963
14.2168 131.4613 -1.610212
7.847967 141.5761 -12.63951
-12.40766 125.4113 -2.002884
-11.23123 133.4444 -9.539404
-7.907092 143.3829 -12.47562
-6.208623 139.9408 -12.78655
-15.87021 42.57077 -11.21389
-19.22169 54.78356 -3.916784
17.18964 47.23509 -9.334605
-18.53519 59.18977 -5.045212
17.20067 69.54063 -6.745988
16.13921 100.0591 -3.528813
19.90159 85.77744 -2.035484
-13.27372 114.8404 -0.04057702
-13.17554 108.7073 -3.504081
13.00328 128.5765 -3.588769
6.370269 142.1989 -12.68865
-11.13278 128.0565 -6.46474
-12.53805 128.4958 -4.76665
-7.285019 140.6882 -12.74282
-4.154537 140.3721 -12.6104
-18.66798 57.10785 -4.541679
13.01272 49.19003 -9.077228
-16.41597 65.32601 -6.979509
-15.05422 63.0555 -7.507872
-15.09475 107.7917 -0.02260068
17.51768 86.41575 -6.209314
14.49803 90.30988 -9.243908
-15.07763 104.4172 -2.996461
-8.653456 135.9379 -11.70861
16.03598 52.00395 -8.271223
-16.67173 64.16076 -6.558728
14.4994 67.51816 -8.210704
15.8311 89.37746 -8.000087
-15.63039 103.2832 -2.58608
3.655822 140.6422 -12.55559
-1.07094 136.4161 -12.10268
16.35042 67.4653 -7.276734
15.46277 64.66881 -7.525435
13.40176 64.7523 -8.162601
11.63333 65.94842 -8.430778
13.25914 71.25198 -8.63835
16.90052 70.64821 -7.064909
-11.82746 107.0611 -5.778819
-16.78805 99.6998 -2.00456
3.978065 141.8616 -12.53074
2.936451 146.0321 -11.88822
-0.1566321 147.4016 -11.46636
-3.487283 144.805 -12.12641
-0.6607007 147.6978 -11.39803
-2.108286 145.5069 -11.92588
6.031762 141.312 -12.76525
7.464247 138.3562 -12.62328
12.00951 135.4492 -10.0433
-2.098318 138.348 -12.38266
-4.402569 138.2055 -12.52308
15.53588 71.89778 -7.983926
5.520292 150.3113 -10.44271
2.989531 147.1047 -11.68523
3.270447 139.992 -12.53833
10.72443 138.9641 -11.87493
0.03851562 137.6484 -12.29415
0.4547004 133.6178 -11.44759
-1.487606 134.9986 -11.81954
13.52532 86.86134 -9.411654
1.453349 139.9066 -12.44853
14.46494 135.4643 -7.578364
7.112155 135.9565 -12.03514
-0.3836755 132.626 -11.13573
-15.05585 61.58121 -7.308707
18.27749 76.19349 -5.681218
13.98004 72.00016 -8.542182
16.46089 84.6798 -7.218625
17.15742 81.85723 -6.693206
13.67855 82.89697 -8.518902
11.78219 82.90076 -8.835731
1.973269 137.0831 -12.24137
2.156936 136.8392 -12.2067
-13.44315 62.34251 -7.832649
17.93022 83.97342 -5.863891
-12.39584 109.5872 -4.670333
4.43008 136.6677 -12.27497
18.83885 75.04079 -4.938983
-11.2031 105.6043 -6.979685
-15.9019 68.84288 -7.669399
-12.10961 112.1834 -4.374531
-11.22305 111.3751 -5.441519
-7.931252 67.82675 -8.570603
-11.72334 62.48695 -8.054583
-9.826307 64.62296 -8.368584
-13.13786 60.10745 -7.604295
-11.23291 66.01588 -8.443747
-10.28381 66.28985 -8.47874
-10.67142 66.49524 -8.487313
-11.16587 75.06454 -8.81069
-5.276185 68.17985 -8.590249
-15.6517 70.83133 -7.895156
-6.42753 66.51017 -8.514444
-4.17169 63.1988 -8.41401
-4.049124 66.86503 -8.528614
-7.88445 61.2325 -8.265097
-6.219396 59.70153 -8.327709
-1.681027 67.26118 -8.544582
-11.95909 74.77915 -8.803674
-11.83533 71.66418 -8.768665
-18.09837 82.33905 -5.78828
14.84024 133.8767 -1.797053
-22.7759 16.70393 -7.65659
-22.22041 15.46301 -8.316952
-17.84881 16.95611 -10.28782
-21.99125 22.19318 -8.515554
-19.70708 18.67893 -9.905022
-14.52915 22.7895 -10.98036
-20.36425 16.04692 -9.375998
-14.69472 17.62083 -10.59092
13.015 132.325 -7.272555
12.15676 132.3984 -8.282459
-22.67241 22.26252 -7.006641
-21.49933 23.83318 -9.284294
-22.39467 26.57611 -7.986193
-21.99448 25.11666 -8.692089
-19.92234 21.83976 -10.2665
-22.20082 20.27695 -7.97718
-12.27931 121.9147 -0.278322
-13.04317 123.5676 0.5266599
21.24669 31.84806 -10.26246
22.55168 38.03478 -8.496868
20.26907 36.16682 -11.27309
18.62252 39.43944 -11.65926
19.81855 36.03503 -11.52469
10.17348 16.70356 -10.94026
11.96116 17.07929 -10.74291
12.62267 22.04889 -10.95293
14.07186 19.20178 -10.67049
14.16357 20.55407 -10.77345
13.22095 23.55109 -11.06736
16.55223 23.34733 -10.92884
-16.98982 96.11285 -4.162844
-16.63159 95.78425 -5.148981
-14.30769 94.37981 -8.915537
-12.51575 99.90014 -8.731712
-16.38096 94.59028 -6.13111
-14.13443 97.56961 -8.037428
-14.52986 97.6265 -7.548606
12.87854 126.5148 -1.964898
19.97502 38.93716 -11.19174
5.300455 16.18243 -10.81896
1.04635 18.31627 -10.9688
-21.35831 37.31253 -10.39642
-21.56616 35.32071 -10.20236
-18.81939 51.50641 -6.933547
-17.50622 49.72684 -8.053717
-16.7148 48.01269 -9.120244
-18.57277 46.10156 -9.400846
-16.33605 50.42877 -8.256355
-11.53876 42.26344 -11.24221
-17.31394 53.39144 -6.782142
-18.4341 52.03585 -6.901298
-19.90865 77.8961 -2.861457
-19.62381 76.47636 -3.448497
16.605 91.39673 -6.891654
12.4184 117.6455 -2.193931
-13.36429 16.30725 -10.72497
-13.95935 15.12116 -10.60758
-14.4215 19.98928 -10.76851
-11.74602 20.78664 -10.93387
-5.286505 16.54682 -10.84317
-1.849058 18.538 -10.97101
-1.093325 21.9611 -11.07783
2.005192 21.74151 -11.06172
-12.55344 126.4387 -2.534011
17.46123 27.63946 -11.45247
19.51489 28.17363 -11.10391
-21.36061 36.14993 -10.41425
-17.98154 94.30753 -2.538337
12.14337 115.8213 -1.843344
10.61016 119.1608 -3.851592
11.04502 111.016 -5.072141
17.46931 94.56482 -3.940005
-3.694821 131.5508 -10.75815
19.63749 24.15089 -10.67451
20.68442 24.70095 -10.1241
-17.04787 41.68452 -11.46114
-19.19978 89.12658 -2.653324
-18.68414 83.94376 -5.020223
-15.93171 86.5901 -7.728195
-17.36925 82.24806 -6.488456
-11.70512 77.7166 -8.700451
-14.9575 82.20936 -7.976223
-13.37026 77.06694 -8.602931
-13.32884 80.9578 -8.418242
-11.78506 80.35031 -8.612832
-10.87995 81.74915 -8.730559
-4.034303 79.57169 -8.723537
-11.2075 75.96841 -8.790773
-10.51876 72.70088 -8.801763
-4.945945 70.43767 -8.736352
-9.723347 75.46444 -8.805285
-7.763581 72.62473 -8.811034
-4.185841 68.31886 -8.598064
-1.938776 68.96593 -8.636856
-0.8581004 77.07397 -8.743167
-5.948777 74.56332 -8.826262
-7.216661 75.62864 -8.804768
-7.629544 76.75904 -8.75607
-2.28621 76.29237 -8.779918
-10.01913 132.6344 -9.840043
19.04801 85.63927 -4.207966
-11.80801 125.2801 -3.189426
-12.37225 122.6449 -1.409216
-9.480399 122.8613 -4.902911
-9.248476 122.6392 -5.056112
-7.015378 119.2525 -5.476683
-9.819775 118.5237 -4.323828
-9.826422 119.0585 -4.432635
-11.31707 120.2641 -0.8788022
-3.373411 129.0794 -9.746031
-8.56334 126.094 -7.171518
-6.65647 125.0641 -7.458153
2.70248 123.8565 -8.690773
-5.127165 120.019 -6.667047
-5.147173 119.2644 -6.580647
11.62528 48.95752 -9.216187
12.23921 48.57846 -9.29084
12.93061 51.78309 -8.478204
10.9711 48.55165 -9.375639
11.08085 47.61117 -9.733005
10.80817 47.64755 -9.733918
-3.079781 61.07157 -8.421606
11.59889 56.13184 -7.916135
13.24798 55.68077 -7.895979
16.29438 58.44542 -6.425053
19.08897 41.64518 -10.99344
8.753481 54.67781 -8.665187
16.11858 58.69186 -6.574468
14.7803 42.03163 -11.326
14.27374 56.143 -7.56503
14.44667 44.40595 -10.63722
11.40925 43.17155 -10.87072
15.32172 42.69121 -11.1415
15.12913 47.55587 -9.457854
15.91862 42.32626 -11.28888
18.45272 40.43602 -11.49161
10.59163 38.97829 -12.29476
19.83644 41.33084 -10.71371
16.88906 39.46938 -11.94752
13.42435 40.8411 -11.88523
8.365336 42.11845 -11.26572
-6.917455 132.4238 -10.86039
15.14812 65.66013 -7.778172
10.96732 65.73124 -8.434594
10.534 70.14533 -8.70486
0.3443193 71.52555 -8.803473
8.187243 72.62239 -8.792828
11.62842 73.03856 -8.776402
10.66399 69.28275 -8.638536
7.457528 146.3145 -11.97123
6.450248 135.1568 -11.85795
7.652101 134.3976 -11.41418
2.481175 132.1747 -10.98897
7.650717 134.6551 -11.49956
10.33622 131.7031 -9.203113
6.207652 131.9557 -10.82101
5.921543 132.2491 -10.98261
11.67715 129.6909 -6.967607
13.66606 133.1352 -6.930757
3.695395 128.7751 -9.734406
1.823991 129.0815 -9.908304
-2.060991 128.5052 -9.631923
-1.245008 133.3957 -11.38572
-2.304653 127.1589 -9.267642
0.4719232 128.2775 -9.660399
4.941567 127.0962 -9.115772
5.547571 128.4081 -9.364745
4.45314 125.7635 -8.930395
15.00311 84.75553 -8.199822
-12.31146 101.4431 -8.216543
-12.27398 113.9424 -3.483413
-16.06153 55.94063 -6.94208
-13.31961 51.75895 -8.914574
-16.34941 74.07345 -7.478774
-17.37759 77.70474 -6.559793
-17.33584 76.12838 -6.693163
-16.25324 77.17201 -7.447913
-9.568849 69.70741 -8.662413
-5.257481 62.96455 -8.397902
0.03919636 63.99664 -8.44143
-3.230264 60.10965 -8.433206
0.1184893 65.13261 -8.466283
1.531041 62.42309 -8.417379
-2.811927 60.6117 -8.431057
-17.59946 21.97101 -10.69945
12.58951 131.0786 -6.900353
8.656028 126.0617 -7.441986
6.543051 127.0004 -8.686767
10.41161 128.7504 -7.537353
8.165503 122.4958 -6.012938
7.374896 124.8096 -7.41954
5.847555 122.7625 -7.690434
12.53678 134.5195 -9.200303
-21.02485 33.67192 -10.63814
-19.996 31.14561 -11.164
15.78615 25.35722 -11.18793
16.18966 27.57235 -11.45903
12.72015 24.52768 -11.17047
11.96985 27.82692 -11.50391
15.96842 27.93512 -11.50224
18.17406 32.49345 -11.98931
16.34494 23.32091 -10.93488
-17.72397 89.21198 -5.602765
-0.7868251 18.98311 -10.97957
4.205662 17.9905 -10.9299
7.326323 20.42019 -10.96169
-14.54121 34.49867 -12.43686
-18.92706 78.04755 -4.790604
14.35468 101.5429 -5.898102
11.69847 100.2044 -9.292601
17.76338 92.79813 -4.34389
17.94409 91.49464 -4.630894
12.9268 89.99696 -10.38472
11.62694 90.40771 -11.15417
-11.37226 116.6031 -1.635607
-10.81028 115.7524 -2.301075
12.80245 120.0203 -0.6180665
10.12514 118.1205 -2.549623
-12.60236 19.9091 -10.87014
-14.28405 21.24783 -10.8648
7.01389 19.44129 -10.93125
2.101657 19.43005 -10.97656
4.932546 21.50017 -11.03446
18.30444 43.99474 -10.45773
9.140705 117.4757 -4.429192
5.726846 117.5023 -7.426415
5.936687 114.8618 -6.230987
6.336357 114.4984 -5.148084
5.150757 118.3379 -7.25279
8.506247 117.4989 -6.00631
7.843309 115.9297 -4.425934
5.09632 114.3166 -6.255121
2.637813 110.966 -7.04009
1.191081 113.8772 -8.538422
8.025063 117.6806 -6.315855
9.949483 121.6854 -4.874289
7.749371 119.169 -6.174465
10.82986 122.6433 -3.782088
9.319437 123.2043 -5.31975
11.49744 124.1104 -3.769369
4.292711 119.2172 -7.248767
10.66296 119.6721 -3.761703
11.23833 123.0705 -3.261505
11.7614 123.288 -1.685084
3.103195 118.9458 -7.670835
1.150971 120.6013 -6.988326
8.198298 119.812 -6.284095
9.896753 124.1003 -5.381919
11.829 120.8709 -1.943493
1.822925 122.2715 -7.587368
11.27346 126.6623 -5.282261
-0.2301917 118.8077 -7.108412
-1.16962 117.5353 -6.390828
1.207888 118.8462 -7.198505
-9.572542 118.5647 -3.62688
-9.238271 117.7217 -3.675064
-7.142787 117.8286 -5.89387
-7.341954 130.6872 -10.02263
-16.63939 40.90825 -11.71465
-14.61361 91.96006 -9.079633
-17.19144 78.52459 -6.702119
-19.27686 79.50011 -4.247049
-1.062261 71.99686 -8.811109
1.223843 71.69371 -8.812166
-2.071873 67.57069 -8.559409
2.39076 65.00999 -8.457306
-1.061296 68.50681 -8.609501
2.821891 71.49504 -8.807461
6.645949 74.75511 -8.817891
6.946575 71.76843 -8.800912
8.477972 68.28109 -8.569156
3.413196 67.02903 -8.519233
5.322766 70.00037 -8.719643
-7.610518 80.9108 -8.741231
-6.170103 80.53333 -8.736973
3.175883 82.17783 -8.997005
2.031297 74.49896 -8.825651
-3.655576 82.59975 -9.089858
-6.933233 133.7773 -11.35064
14.59882 58.79256 -7.383502
8.831368 49.79347 -9.185667
7.194315 48.65747 -9.572805
10.85974 64.05022 -8.247275
11.37097 58.46355 -7.83995
10.99506 61.88094 -8.015051
7.003686 65.38611 -8.453282
6.20372 61.44315 -8.299065
8.46199 60.66029 -8.190913
5.309038 61.68477 -8.33785
5.465252 59.71579 -8.344157
5.036419 58.29539 -8.405138
1.362517 60.71725 -8.433662
13.74278 39.89338 -12.21616
16.72589 37.14502 -12.12158
16.2958 34.73035 -12.26878
10.77188 28.08928 -11.52166
14.71048 33.47569 -12.32783
-3.395124 30.76241 -11.83926
9.164331 29.86389 -11.67478
9.581616 76.34065 -8.781543
-6.382517 128.3058 -9.09489
-6.057998 127.2294 -8.623085
-3.433738 124.6305 -8.495904
-8.743022 127.0289 -7.580798
-8.760495 106.2925 -8.147991
-12.31823 115.2487 -2.575723
-9.762671 114.3583 -3.624543
-9.46636 115.3614 -3.768516
-7.324952 115.1042 -4.957023
-14.92777 54.70954 -7.658884
-11.94829 55.66833 -8.199389
-14.80258 52.24332 -8.818927
-11.19843 60.33579 -7.887694
-1.100987 59.30602 -8.490046
1.441288 59.02117 -8.491074
6.71237 56.8903 -8.310466
-14.98869 21.93344 -10.88534
-16.92912 25.55367 -11.19512
-14.93584 26.09487 -11.30647
-11.1208 22.38661 -11.03709
-11.04252 27.09643 -11.44338
-13.53897 27.42854 -11.46147
-16.74697 24.37466 -11.05369
-21.55285 26.79376 -9.442827
-17.51692 26.04918 -11.24664
-16.77741 28.62309 -11.56936
-20.2637 33.62225 -11.22777
-18.47117 33.72489 -12.00925
-8.218604 31.43195 -12.00463
-8.153728 30.02547 -11.66857
-16.03187 31.09754 -11.89065
-18.22891 29.68451 -11.64502
-10.40929 31.68433 -12.05329
-12.31819 32.72125 -12.30714
-13.06212 32.99512 -12.35126
-14.32423 35.86049 -12.17558
-14.422 38.51213 -12.01935
-12.75324 36.74262 -11.90007
2.111204 44.85107 -10.37004
-10.11331 41.35404 -12.00174
-8.578815 35.64425 -12.06213
-3.624519 44.0407 -10.51983
-9.17619 31.69992 -12.08097
-6.153897 32.60022 -12.57013
-6.559608 33.27717 -12.7791
8.466036 41.55596 -11.62236
-9.74276 36.00329 -11.92481
-6.60013 35.76654 -11.89419
-4.328706 34.83744 -12.46189
1.851132 28.89889 -11.52422
-5.914773 28.74405 -11.51675
-1.538435 30.96512 -11.93468
-7.499634 27.43133 -11.47581
-2.434797 27.56362 -11.4682
-5.855239 25.93162 -11.3624
-2.506814 25.33255 -11.31811
-1.612615 27.07813 -11.44335
-5.921472 25.18987 -11.29659
-3.835789 22.99654 -11.13651
-7.156735 28.52065 -11.52501
-2.232309 20.11062 -11.0028
-6.476412 18.96441 -10.95666
-4.564733 17.04251 -10.89157
-4.806231 21.07304 -11.02925
-6.809899 17.52325 -10.92598
-7.185058 23.25383 -11.13903
-2.531815 20.80056 -11.02504
-7.700637 24.84403 -11.25907
-8.651752 23.66213 -11.15891
-15.38647 93.35777 -7.986311
-18.78863 90.45477 -3.096031
-16.43093 92.98564 -6.73237
7.357093 19.54632 -10.93018
-18.14072 37.93723 -11.96091
-16.26536 36.73675 -12.1683
14.09415 100.8789 -6.577384
14.75785 99.59285 -6.32487
13.33537 97.95876 -8.7407
13.00241 97.87415 -9.090752
11.90345 102.128 -8.257636
9.850282 103.3288 -9.048743
8.892357 104.869 -8.666059
11.18674 108.112 -5.732394
12.70023 108.1394 -4.373036
10.05463 107.391 -7.127995
1.786049 109.34 -7.545744
6.087625 107.2445 -8.428123
13.55343 107.1586 -3.818672
6.857083 108.0212 -8.098452
5.95925 108.7056 -7.57936
5.81727 107.6241 -8.271116
15.61913 93.07017 -7.789483
13.86175 95.41758 -9.090748
12.01996 93.45959 -10.98851
5.797914 24.17263 -11.20779
10.52568 22.16502 -11.00996
4.561444 23.69757 -11.17681
2.934275 24.94558 -11.28279
5.230529 26.25148 -11.38247
1.385098 17.24544 -10.97178
4.812994 113.0981 -6.745559
4.248507 110.0873 -6.813494
-4.583171 108.945 -8.390079
0.3692044 110.6678 -7.798348
-2.606556 111.4482 -8.88599
-0.01556731 114.7783 -8.833406
-1.588951 111.0998 -8.757022
-1.286068 115.9124 -8.243834
-4.667329 114.1824 -6.760688
-7.605648 111.3977 -7.237249
0.533094 122.4584 -8.159446
-2.175551 121.233 -7.122513
-0.6168126 126.0163 -9.02376
-1.129112 121.3828 -7.264968
-4.524854 122.5514 -7.792185
-5.865418 130.7087 -10.35106
-14.3891 86.20181 -8.76353
-7.928319 83.65915 -9.23946
4.056546 67.57317 -8.541254
0.2398159 81.83157 -8.955861
7.942165 80.85703 -8.730486
-9.625668 128.8762 -8.129108
6.478766 52.70684 -8.828267
4.332249 56.07638 -8.588363
4.760061 53.69227 -8.809577
5.950793 46.08514 -10.17028
5.227218 46.75372 -10.02936
13.18599 61.93814 -7.788594
12.74668 60.24537 -8.068511
14.57304 34.54376 -12.36361
15.32119 35.25127 -12.27626
12.32127 35.81815 -12.05802
11.64826 37.25816 -11.75348
10.60454 38.04702 -11.91674
9.891854 33.11632 -12.56769
9.952321 30.89634 -11.86453
10.00229 40.84293 -12.03322
7.405536 36.26757 -11.72672
5.814067 29.16426 -11.57416
10.5063 34.49035 -12.55317
3.721634 41.46822 -11.86823
7.315867 40.82871 -12.21302
3.434773 44.9814 -10.35349
-1.218529 47.60838 -9.825625
-0.6923274 42.73681 -11.0343
0.7372137 44.41737 -10.4608
1.79294 39.29521 -12.51701
4.774381 35.89846 -11.77351
4.312212 49.08055 -9.556891
2.051747 51.43396 -9.192632
2.950569 56.57854 -8.605176
3.767821 55.08098 -8.706883
4.422643 34.60833 -12.5588
-0.07945886 47.57499 -9.838435
-1.10425 48.58874 -9.643921
-1.614062 51.65158 -9.161633
-0.1180824 51.35654 -9.216385
-1.798929 34.78102 -12.50877
2.955014 33.66348 -12.82977
0.3146718 53.04901 -8.998339
2.93449 33.17345 -12.84608
-4.127802 38.76282 -12.25773
-1.241271 39.31298 -12.54457
0.2335761 39.94475 -12.52742
-0.577518 34.19894 -12.7563
-2.109645 33.60036 -12.86165
-5.552181 47.269 -9.868156
1.635424 38.76244 -12.36503
-3.038655 53.94201 -8.854712
-8.512392 55.93076 -8.419261
-2.269313 55.96793 -8.68062
-1.515341 56.33044 -8.664956
-0.1233115 58.64653 -8.524209
-3.60283 56.66961 -8.586617
-3.162841 58.98572 -8.470963
8.290923 26.4951 -11.39291
5.672844 27.30221 -11.44607
-6.110635 127.7143 -8.846471
-3.745299 112.7003 -7.128448
-5.092325 114.3191 -6.552113
-3.716937 116.4124 -7.312318
-10.16 56.11698 -8.354391
-5.866696 56.77961 -8.484306
-12.93169 53.63103 -8.282701
-9.651655 53.8063 -8.416493
-19.04803 23.39695 -10.74108
-13.90272 40.69419 -12.15314
-4.764718 38.46919 -12.08629
1.781522 31.90369 -12.40691
-11.19978 102.602 -8.572659
-11.60324 100.0977 -9.40715
-9.835886 101.1771 -10.09658
-11.42162 98.55301 -10.13518
-13.24664 98.53187 -8.610647
-9.241531 95.7828 -12.04654
-12.76586 95.8015 -9.990483
-15.64256 37.4619 -12.08574
13.40581 105.4053 -5.023413
2.693604 108.4644 -7.434164
2.148138 107.4332 -7.949696
-3.618897 106.2074 -8.640825
-0.9794154 108.7256 -7.62738
2.345652 103.8375 -9.927844
3.019339 102.1096 -10.8162
9.850786 94.74587 -11.97569
2.591628 106.5392 -8.516808
12.74526 94.11886 -10.37582
9.198913 98.02023 -11.54439
8.369602 90.90247 -12.29259
-8.500493 112.7013 -5.298429
-12.7243 85.98573 -9.502472
-15.4925 89.11383 -8.305064
-14.7083 88.69465 -8.947465
-12.70616 86.04036 -9.529831
-13.36942 88.10081 -9.800346
-9.42039 88.19201 -11.37995
-11.60428 85.83585 -9.827586
1.838635 73.71439 -8.820874
0.9739124 75.09947 -8.827417
0.1047363 74.01894 -8.825321
3.864398 76.95221 -8.748149
1.687785 76.49958 -8.771841
8.694867 76.08972 -8.792157
3.849836 78.64742 -8.705519
3.289915 80.52592 -8.777059
1.974915 81.07336 -8.840681
8.518125 77.79177 -8.713833
-0.6013285 77.7714 -8.720603
12.41482 79.07124 -8.576495
6.263177 75.92737 -8.800185
11.27631 83.64656 -9.03642
13.94662 76.88032 -8.444288
10.81169 80.86691 -8.664368
7.395415 80.7317 -8.7333
14.57202 78.4622 -8.15983
14.04445 78.52196 -8.314297
16.81734 80.58235 -6.955637
8.884662 81.26719 -8.742514
10.08843 83.84056 -9.168437
18.93799 78.17626 -4.773274
7.082926 82.43278 -8.968061
2.174398 86.29031 -10.62395
13.39354 32.93061 -12.31352
-0.1203622 40.91473 -12.31505
-2.798762 47.72375 -9.795801
-2.329527 47.87643 -9.76667
10.45399 24.90241 -11.23695
-7.050871 106.8993 -8.31507
-10.18541 55.31293 -8.274959
