# .PCD v0.7 - Point Cloud Data file format
VERSION 0.7
FIELDS x y z
SIZE 4 4 4
TYPE F F F
COUNT 1 1 1
WIDTH 1669
HEIGHT 1
VIEWPOINT 0 0 0 1 0 0 0
POINTS 1669
DATA ascii
8.124249 129.352 12.96718
12.36752 130.2487 11.62373
8.520777 130.0634 13.31125
-1.459858 138.3183 10.7757
3.593047 134.5277 13.22187
5.309439 138.6881 10.58423
-9.377819 132.2906 13.75235
-2.889236 138.7429 10.46177
-5.482302 139.2359 10.04918
-1.737073 136.4662 12.12727
-5.849761 133.207 13.77478
-7.821778 134.5083 13.70165
13.55106 129.1173 8.545835
-13.71822 130.0744 9.59655
-14.34926 135.1792 8.122183
13.17647 136.5615 8.937095
8.626508 142.612 6.137759
9.173733 129.4956 12.89876
13.97647 130.5442 9.38621
-3.087719 135.4614 12.77481
1.715972 137.885 11.12426
2.050625 138.8255 10.38415
-11.76917 130.9078 12.38019
-14.42954 130.8938 8.127545
-10.84631 138.6039 9.203418
-7.384122 136.5771 12.6045
-9.531475 133.5411 13.65801
-13.18381 133.0892 11.34317
12.27823 138.1908 8.182528
7.085383 141.2433 7.88797
-9.397556 139.9623 8.418898
12.27148 131.974 12.22655
13.55137 133.4118 10.77339
0.01769786 133.4681 13.36189
0.8735568 137.0756 11.69483
4.481399 134.9529 13.15173
5.356004 136.1854 12.63501
8.102818 133.7486 13.8644
10.06621 134.7338 13.20025
-4.907871 136.1623 12.56942
-4.25651 134.8281 13.16545
-11.6588 129.4273 11.68225
-13.84983 130.9868 9.957722
-7.658844 138.1539 11.15168
-12.23412 132.4689 12.30816
-12.18981 133.6788 12.25697
-13.67786 134.19 10.26876
14.5028 134.4286 8.376393
-0.509434 135.7013 12.54445
3.798748 138.4083 10.77604
11.41802 135.5111 12.10121
7.416529 136.3946 12.73564
-12.47586 135.1449 11.3348
-11.4351 138.0433 9.444365
-10.27459 137.7474 10.77627
15.01974 133.4725 5.52427
-14.97151 132.8238 5.910666
13.16824 135.8194 9.854601
10.53824 138.2664 9.933145
13.48638 133.4073 10.86756
10.6928 137.3988 10.91219
9.287952 139.4242 9.126082
9.673886 139.9543 8.275441
8.015114 136.4899 12.65287
12.43162 134.6284 11.67619
5.052045 138.5658 10.69519
13.59408 132.9082 10.81477
-15.00792 133.4442 5.924167
-14.96296 133.0312 6.902305
6.746924 136.7833 12.40803
-3.079436 138.2655 10.85938
-0.06306264 134.2962 13.15495
-12.5112 132.1172 12.04657
-12.6725 134.6392 11.41058
-14.31304 133.7563 9.271795
10.13573 145.4721 2.988634
6.121705 143.5801 6.018764
-13.86588 136.9328 7.212214
8.928073 145.8065 3.179086
12.50524 138.8217 7.120509
14.85007 133.0306 3.376481
-1.249236 141.6078 8.135456
-2.110497 142.2079 7.640938
-5.787212 144.0553 5.706774
13.95698 129.3811 4.548348
4.129954 142.912 6.928671
-10.06194 145.3439 3.168223
14.69515 131.9788 3.68648
14.8208 132.9259 3.1595
1.474465 141.1791 8.474985
6.175256 144.3509 5.368443
10.46471 142.6902 5.222713
10.30587 144.7225 3.563674
10.65388 146.0269 2.333766
10.27804 147.8102 0.9647751
-5.593961 151.8657 -0.7509833
-7.046604 152.3933 -2.880914
0.4357004 150.2887 3.167198
-4.48625 151.2225 0.5953561
1.059504 150.8742 2.718781
-9.416023 148.8244 0.3673777
-3.448321 143.7431 6.386526
-9.475286 150.6428 -1.537349
-7.18771 147.1471 2.753531
-9.714575 150.2059 -0.9487545
5.872019 145.6974 4.410518
8.771445 147.7138 1.582999
2.706088 148.5976 3.422652
7.261311 151.1855 -1.175672
-9.391107 148.2702 0.8486454
2.992087 144.9793 5.576987
9.238063 150.8329 -1.938473
-5.92858 145.6352 4.430272
6.797596 145.9507 3.864621
8.457193 151.7314 -3.116134
2.681886 145.0577 5.563137
6.267626 145.4216 4.486134
9.348196 147.1129 1.864784
6.546242 147.4402 2.866261
-1.983302 149.2606 2.760147
-1.320003 144.111 6.300405
5.619609 147.6278 3.121886
7.511229 150.7732 -0.8293588
3.00297 147.8334 3.851997
-6.55956 146.0661 3.871678
4.829231 148.287 3.023218
6.273609 150.2018 0.5312135
-8.668158 149.2603 0.2918044
6.038466 149.201 1.839496
3.950282 149.3884 2.452972
2.131845 148.5613 3.443056
-3.573486 146.4723 4.517133
-4.535383 144.7354 5.490845
1.098729 148.4099 3.556854
-4.819807 150.3278 1.010698
3.44137 149.6945 2.229228
-6.215705 149.556 1.462869
-0.1270997 144.8338 5.838587
1.558575 149.6255 2.82729
-3.92186 149.1792 2.678347
-0.9310992 146.3813 4.838721
-2.907206 148.6115 3.370614
-0.7571334 147.561 4.077848
1.30635 143.798 6.514582
-9.949674 151.0351 -2.320728
-9.411052 130.5986 -9.243526
-8.018721 131.7453 -10.35596
-9.142976 131.2841 -9.70407
10.33663 131.2752 -9.071825
-13.14564 129.6315 -4.754288
3.896871 133.6931 -11.54129
6.637387 153.1894 -7.581102
0.8621344 138.0243 -11.96898
-1.750162 139.6092 -12.10568
7.564537 131.4177 -10.36541
-9.522739 129.4526 -8.585832
-0.962378 138.4895 -11.99397
-7.008473 133.0154 -11.17283
-14.50236 131.2888 2.711144
-8.323735 132.02 -10.36664
-1.821252 140.9386 -12.10128
-2.454065 145.6223 -11.85346
-4.98416 151.5944 -9.812046
9.236394 132.0782 -10.04429
-9.010704 132.0399 -10.11021
-14.12028 130.4485 -0.9992093
-2.393861 137.3 -12.06725
1.697308 134.7237 -11.62076
-1.989598 135.5208 -11.78957
14.43222 130.9827 2.725873
7.230656 153.0829 -7.026829
-7.083891 153.515 -6.089226
1.319603 143.4073 -11.91004
-2.800793 131.1478 -10.63914
-14.43218 131.0458 2.293904
-9.933858 129.0461 -8.157561
-3.824029 135.7148 -12.05348
-5.249132 131.946 -11.00432
-1.293658 133.9301 -11.44288
-0.6279073 130.8095 -10.48791
1.484133 136.4465 -11.8853
12.45194 129.2866 -5.83784
12.37905 130.5858 -6.919981
1.218692 150.1145 -10.64588
-4.083187 149.2967 -11.16567
-7.349095 153.2542 -6.254189
1.096291 138.8653 -12.02425
2.229234 140.5509 -12.19293
4.097918 129.1209 -9.818526
1.45006 130.2014 -10.25141
5.667029 131.2256 -10.68613
10.04071 128.9768 -8.050037
6.770532 129.259 -9.586332
-1.095859 146.1565 -11.60441
-2.713695 143.3416 -12.14176
-2.19443 147.1412 -11.58851
-3.625862 131.0037 -10.59888
14.20642 130.5091 0.1869863
4.334764 148.7337 -11.37787
0.5417713 150.3516 -10.55287
-4.322241 148.9724 -11.28441
-6.162098 152.5458 -8.542132
1.307282 143.9055 -11.86736
-1.404675 132.1463 -10.96245
6.202178 132.3141 -11.03932
-2.440779 129.6509 -10.02878
10.40504 129.0403 -7.850987
-1.412429 143.9867 -11.8781
0.4529973 149.9188 -10.69191
-0.411266 149.6497 -10.7717
1.088736 147.7632 -11.32379
-4.279961 150.8491 -10.37746
-3.66005 152.2117 -9.753997
2.944434 145.9234 -11.89688
-1.944291 134.6153 -11.6181
5.108521 133.5672 -11.56597
-1.833482 147.8452 -11.36682
-0.9667835 149.06 -10.96676
2.619541 133.782 -11.46136
5.200019 135.3858 -12.12002
2.064668 134.0322 -11.49427
-3.542833 133.2647 -11.38841
1.111144 147.9248 -11.28935
-3.779508 137.3218 -12.4112
-6.944227 134.412 -11.68278
-3.513651 143.5289 -12.30484
-6.482568 149.7597 -10.73994
-12.40013 131.1762 -7.390624
-9.186501 132.5879 -10.31231
-7.543167 151.5584 -8.981153
-7.188978 150.136 -10.33498
-5.827959 148.3186 -11.57516
7.210256 153.1976 -4.549726
7.50667 152.9477 -4.411433
-4.814444 153.1563 -8.773548
-5.819848 153.589 -7.782384
7.424321 133.7201 -11.37867
7.12535 151.8115 -8.898915
3.85284 138.1206 -12.52843
8.047806 152.887 -5.764592
7.894598 133.5045 -11.17212
4.506481 138.1093 -12.61949
12.31685 131.9507 -8.033256
3.513751 142.3397 -12.42206
13.40947 131.626 -6.2474
8.830153 128.3654 -8.433452
14.20145 129.9619 0.5542015
3.556013 128.7397 -9.680293
-11.79847 128.6145 -6.309814
-13.65976 129.3654 -2.596648
11.92704 128.7248 -6.180966
-3.057168 129.0404 -9.797515
-12.64713 125.9806 7.216266
-0.7495874 125.4626 12.36513
-7.09597 127.2441 11.53489
-6.163132 126.5439 11.63144
-1.958331 127.1829 12.28458
-13.50706 124.8928 4.093297
13.50888 125.2845 4.600925
1.209475 127.4331 12.31373
11.00131 127.074 9.662477
-2.274632 126.6638 12.30944
-7.265958 126.3865 11.21819
-11.12089 126.5654 9.070078
-9.234794 126.0494 10.27727
12.70798 125.9058 7.152081
-6.638643 125.4523 11.62459
-7.654641 125.2457 11.20579
-3.068204 126.4216 12.31215
5.615333 126.6239 11.76303
-2.205537 127.5519 12.29601
9.616849 125.0991 10.15388
10.99268 125.127 9.136905
-4.734075 126.0112 12.10293
-0.7209017 125.3031 12.36612
1.893733 126.8757 12.30144
9.655449 125.8227 10.02967
2.183923 125.7891 12.36666
-9.617549 122.7301 -4.583794
-2.393786 123.1017 -7.573823
12.74756 125.3133 -1.359369
3.910371 124.2025 -7.887294
-12.21986 123.1546 -0.7116775
-13.43591 124.4192 3.171831
13.0501 123.8467 1.221823
-0.01988315 122.682 -7.423476
12.90299 123.4979 1.0539
12.36067 124.7933 -1.879777
2.256603 122.3021 -7.272423
0.3099751 124.4098 -8.060888
-7.583371 122.7089 -6.057479
-13.42502 125.3778 1.261153
-11.97804 124.5123 -2.505119
11.15936 124.428 -3.870162
7.010369 122.989 -6.491652
9.720385 123.4043 -4.935901
-1.059503 124.3976 -8.055789
-8.133424 122.5089 -5.631809
-7.068097 123.008 -6.468245
-11.53534 124.213 -3.093618
3.57071 123.6695 -7.736764
-12.7118 114.4083 4.748633
-11.39091 114.0743 7.570631
12.54457 117.3231 4.079613
-13.19414 123.1544 4.041991
10.05181 114.2824 8.887339
13.08657 123.0097 5.164292
11.12907 114.2418 7.872281
12.67431 115.1636 2.972219
13.01904 122.6386 5.303781
-12.00625 116.9797 6.914172
12.22012 123.6831 7.687203
12.68566 116.7422 3.40784
12.81651 120.6581 4.382806
12.72505 120.0421 4.861568
-12.32736 119.706 6.513688
-11.45392 120.0548 8.201202
-10.97357 121.4642 8.999553
11.35471 121.1231 8.441698
-12.33386 122.4561 7.264099
12.3413 114.2134 5.997289
12.03635 117.6907 6.479833
-8.343202 113.6312 9.92379
3.221727 123.8243 12.29686
-12.90411 122.0801 5.546058
11.84479 121.1905 7.865941
-12.2881 116.5854 5.418806
-11.64118 123.6973 8.481757
-9.467415 121.2342 10.26595
-6.835031 113.461 10.74788
9.83044 123.4611 10.12885
12.82099 123.0021 6.213275
12.24819 118.0576 5.989904
-5.623913 124.5111 12.03769
-6.230625 114.7643 11.0453
-3.621488 124.1397 12.31674
6.054247 124.3011 11.90883
0.499227 113.1109 11.89523
11.42065 120.4222 8.304507
11.23822 122.1975 8.808961
11.81638 117.2157 7.425223
-6.262838 123.6048 11.89901
-3.182894 114.4838 11.88779
2.822631 114.5553 11.9009
-1.210869 114.5002 11.89886
-0.3376761 115.15 11.92106
-0.172527 116.6658 11.92448
2.09006 114.1183 11.89032
3.3543 123.9024 12.30475
6.635201 122.6743 11.7416
5.976414 122.0054 11.82417
5.885572 113.0887 11.28429
-10.22545 123.1504 9.826665
-6.271556 113.8392 11.04255
-1.282258 117.289 11.91924
-1.053696 116.0474 11.92647
1.013631 122.413 12.15574
8.684889 114.5246 9.732938
6.349885 121.1988 11.59618
6.718522 115.0725 10.79055
-4.802427 121.5261 11.92808
-8.423884 119.2959 10.53635
7.590248 115.2402 10.33611
0.9976953 120.9982 12.05618
10.28673 116.0915 8.760244
-8.377666 121.6748 10.9788
-9.125508 120.8154 10.44299
-6.458807 116.3777 10.93065
-4.616121 117.201 11.62177
4.833924 121.5964 11.92871
-1.745293 121.1815 12.06603
-1.11893 121.6266 12.09676
-9.863204 120.2597 9.841333
-5.075665 116.3321 11.50359
-1.721698 122.7818 12.18502
11.47467 119.3856 8.037873
10.12478 119.2405 9.451169
7.999327 117.6249 10.38485
1.326924 119.1755 11.93769
2.184031 119.0181 11.926
6.242439 119.6557 11.33512
-10.13959 116.9713 9.200069
3.673544 119.9418 11.91521
-9.494548 118.0725 9.708799
-7.554511 117.071 10.49365
-6.864377 116.9759 10.78108
4.905749 116.6609 11.55129
-4.6525 117.9428 11.61737
-5.236872 120.1922 11.66432
-7.144254 118.5049 10.86216
10.99762 121.6802 8.984455
9.632697 119.6155 9.899475
3.336199 118.8459 11.88554
-3.959213 120.5432 11.92994
12.43854 116.4707 2.973829
2.370867 115.583 -6.54745
13.22737 123.4767 3.339351
12.60413 122.926 0.6201075
-13.03161 122.9273 2.432759
-10.77614 115.6 -2.362753
-12.58369 115.4146 2.603025
-12.87967 122.2315 2.336655
-10.92403 121.5513 -2.277879
12.46532 122.5172 0.4610401
12.38058 117.1854 1.979262
-12.29968 119.5612 1.831706
12.40078 118.9376 2.530551
11.39845 119.1513 -0.6134924
10.65364 118.6451 -1.913519
12.22832 116.8675 0.7831017
12.38811 114.9161 -0.6794389
-12.43645 115.1316 0.7551918
-12.1712 116.8491 1.419691
7.656552 119.8207 -4.857454
12.79659 123.2278 1.000922
-12.28594 122.4917 -0.02159018
-12.27536 120.1633 1.389838
12.454 116.682 0.5822138
-11.84653 117.0076 -0.6059704
9.54903 120.399 -3.56452
5.226568 116.204 -6.146248
-9.066617 120.9712 -4.216859
11.23768 117.3545 -1.091106
-11.38069 118.9366 -0.6527065
11.88066 115.5541 -0.5831296
3.034132 115.3654 -6.362358
-9.249788 114.9277 -3.910565
-5.573427 114.7901 -5.362167
-10.97731 118.5975 -1.426309
-11.98307 121.6152 -0.2331564
-11.87601 117.1336 -0.8891078
5.769543 121.321 -6.27754
0.3856888 115.9243 -6.7791
-3.475371 115.8782 -6.540072
1.81266 116.1837 -6.523119
-0.4794687 116.2369 -6.535308
-2.112647 115.4279 -5.974451
2.293829 121.8051 -7.042974
-7.897964 115.112 -4.502419
-6.654991 121.7944 -6.087305
-3.281238 120.5708 -6.637751
-11.96413 116.9656 -1.021991
5.794315 120.5066 -5.984023
2.317481 115.8232 -6.145394
3.068759 115.7604 -5.810584
-2.680788 120.5215 -6.645953
-9.422623 116.0021 -3.77685
-7.199364 119.8424 -5.127966
-6.450308 116.4138 -5.381206
4.195309 121.2 -6.689961
-4.957834 115.7182 -5.648715
-3.86277 119.4258 -6.249897
-9.176036 115.8953 -3.908078
4.841519 118.3174 -5.749559
6.822113 120.5658 -5.551044
6.595214 115.5708 -4.970092
5.596367 116.667 -5.306194
-0.7067759 119.2152 -6.256776
1.452712 120.5971 -6.662372
-11.16025 116.9155 -2.258959
9.264004 117.2625 -3.468584
1.263774 118.2864 -6.378785
-11.11575 118.0801 -1.212193
-8.161029 116.8783 -4.216976
-8.780908 117.8415 -3.814116
-1.384311 118.0732 -6.245668
-3.380999 118.2294 -6.075826
-7.020911 116.201 -4.788893
10.58096 117.3838 -2.129061
-5.316927 118.2823 -5.601878
-7.403179 118.0348 -4.677341
7.098071 117.4335 -4.783068
-4.701652 116.9775 -5.610617
-5.156806 116.2795 -5.423423
2.804982 117.453 -6.001785
2.468111 119.266 -6.346947
-9.978373 120.0879 -3.03553
-11.44335 116.6427 -1.329632
1.362404 119.4293 -6.3613
-11.1538 112.2974 8.309262
-9.46293 112.7716 9.420544
-11.79054 113.5999 7.272678
-4.897445 112.4136 11.7326
5.584101 112.7912 11.45152
-13.14567 113.7438 2.770002
6.225401 111.4397 11.29544
13.0458 114.358 2.927639
-4.772477 111.8101 11.82922
2.150389 112.4462 11.96342
6.968496 112.0129 10.8399
12.86158 113.0684 5.539941
10.27583 113.7547 -3.623909
11.20986 114.8269 -2.462059
8.916102 114.5256 -4.201286
1.041453 113.4573 -5.914614
-5.484519 113.3727 -5.612768
-12.95341 113.5324 0.3665664
-5.977558 114.3794 -5.32194
-12.73543 114.2863 0.6655106
5.086602 114.2306 -5.555207
1.120673 114.4574 -5.884872
-5.910197 113.7298 -5.44765
-12.30074 113.851 -1.13167
-16.76249 101.191 4.351068
-14.45499 106.7735 6.965184
16.21204 105.5045 1.697278
-15.75383 107.1469 2.147409
-13.80216 111.9401 3.249051
-15.57364 106.905 4.382387
-17.02811 101.9505 1.736178
-16.23975 105.4475 1.983377
14.06363 110.9679 4.173918
16.71745 103.1389 2.907929
16.70971 103.4181 1.655869
7.231282 111.0722 11.00812
16.90232 102.4136 2.541174
13.38069 112.8192 3.875888
-14.52674 110.2407 3.331088
-15.62848 107.5127 2.736924
-13.80278 109.2315 6.540696
-14.45576 107.9742 6.181533
-13.15611 109.3215 7.471278
16.44206 103.8327 3.96958
-14.0991 110.6184 4.544083
16.87026 101.24 3.977014
-16.34638 105.03 2.150482
14.94408 107.0999 5.8703
-12.28068 111.2352 7.578621
9.016074 100.3711 10.62486
13.62645 110.4062 6.016111
-12.89894 111.2011 6.756804
-16.10572 104.5575 4.645009
-15.305 107.0707 4.971668
-14.92952 105.0586 6.915014
14.84166 109.4543 3.395585
14.41646 109.5537 4.878458
15.37351 107.9166 3.678801
11.68889 108.7003 9.120239
11.13609 108.6069 9.484269
10.69656 110.1385 9.448726
8.51649 107.1853 10.69182
-16.30428 105.1947 2.673984
-12.42469 108.5788 8.589163
-11.60072 111.3005 8.248071
-0.1394153 110.37 12.19338
-12.96008 100.6691 9.035689
13.16442 112.3074 5.406317
12.85302 107.9264 8.414973
10.49544 110.3257 9.542652
7.564331 110.5926 11.04647
-8.734732 111.0945 10.12557
-11.46104 109.4904 9.063121
-0.7796679 99.49839 11.42861
-14.76927 102.075 7.404912
-15.89129 104.2224 5.384688
15.37397 102.0348 6.793132
12.60751 110.2714 7.668456
13.38258 106.254 8.353094
-6.155357 110.6517 11.53085
-3.373983 99.69953 11.49693
-1.253447 101.033 11.56123
0.07383428 99.77339 11.27458
0.8627838 110.1454 12.2235
-15.44588 102.0277 6.704587
-13.66457 103.2625 8.334389
13.55097 100.9627 8.609847
9.331357 101.1145 9.670773
-11.66045 105.9826 9.384179
-9.778045 106.4335 10.24747
-14.54626 104.8326 7.455066
-9.752689 109.4242 10.01884
-6.053549 108.7723 11.64368
-0.1627221 99.56641 11.95244
-0.9381714 102.1001 11.87087
3.353073 99.79733 11.5364
-0.7711013 107.7882 12.48771
-2.76889 110.3319 12.20221
-11.52809 101.2418 9.223355
-12.86672 102.1607 8.754193
-7.42013 102.1534 10.45188
9.521263 101.3587 9.652401
5.406226 108.461 11.92659
6.733805 109.971 11.37222
-5.233659 110.0942 11.87696
-12.22622 102.5929 9.067713
14.05628 102.026 8.051671
-5.114597 108.4709 12.03157
-9.340117 101.4977 9.700961
16.02816 104.8265 4.7533
-8.092241 106.4918 10.94146
-3.085235 107.708 12.43216
10.9415 104.7286 9.615891
1.210173 107.9472 12.47667
7.276945 108.3096 11.2103
9.258279 105.2811 10.27698
15.05184 104.1749 6.898688
6.36436 106.292 11.51318
5.901228 105.9175 11.66488
0.3430113 105.7846 12.43341
8.341947 105.5651 10.80534
11.3974 105.716 9.516163
10.0553 105.7867 10.12863
-12.93848 105.4673 8.768372
-11.20837 103.4056 9.437291
-9.107998 105.0717 10.27836
-5.20709 102.8267 11.28886
-5.668617 105.2372 11.61674
-2.19586 100.8231 11.40583
-0.1941699 101.9306 11.84065
-3.547243 102.5416 11.68662
-0.5070658 104.2622 12.29853
1.682974 102.8835 12.02503
-3.660687 103.5227 11.89411
0.4754383 105.1478 12.38618
2.909924 100.0066 11.0497
2.605991 103.1766 11.99788
5.243189 103.2963 11.50118
-4.620979 108.0111 12.20959
-1.618343 108.5308 12.42768
-1.175178 107.2089 12.49663
3.078792 104.5015 12.18928
5.071321 101.6469 11.02616
-1.930345 109.4308 12.31676
-5.652196 106.3169 11.79626
11.71418 103.2094 9.314063
14.4359 104.9275 7.564161
14.51777 105.8231 7.267526
14.64371 105.5857 7.171473
-14.80242 109.7396 1.850422
10.89857 102.3779 -9.066643
14.23953 105.1259 -4.255319
15.41914 107.6577 0.6269845
13.84285 111.8024 1.255575
-14.76939 108.2593 -1.09564
-2.747101 102.5659 -10.73951
-11.13268 102.3043 -8.933708
-16.76677 101.7365 -0.763358
-15.49294 107.5545 0.8372999
16.37446 103.5298 -0.516878
-12.75241 111.7723 -2.170773
-13.86779 111.6693 0.9984106
-13.56926 112.5746 2.064775
14.77161 109.8036 1.644575
-15.82269 106.2108 0.3486748
14.44234 109.8458 -0.2640348
13.16708 108.1461 -4.015939
-0.04500567 102.2732 -10.9294
-7.682953 111.112 -6.524118
13.9682 111.2833 0.4982785
-15.37282 102.5006 -3.981453
-16.15407 103.8638 -0.98406
11.39163 109.9733 -5.102724
13.88115 104.6885 -5.038473
-5.757441 113.1826 -5.596957
-13.3227 111.8908 -0.8533971
-13.63575 112.1834 0.9620393
14.09818 103.483 -5.460489
-15.62655 105.5293 -1.105867
12.54306 112.5892 -1.777053
5.437755 103.7999 -10.10663
15.37572 103.618 -3.234286
2.207985 112.1586 -6.111046
-6.708201 112.0798 -5.715928
-13.22894 112.7075 0.0677926
-15.42306 106.675 -0.6310133
9.531961 112.1569 -4.803984
14.89615 102.6959 -4.711494
10.97816 103.956 -8.202648
6.869787 112.9411 -5.345786
-10.08587 111.9042 -4.628422
-4.869014 112.2266 -5.986636
-6.253148 102.5253 -10.74806
-12.76066 109.8468 -3.578132
-13.06219 112.0734 -1.294812
-15.26436 105.43 -2.151994
7.437103 112.7822 -5.282505
-1.137185 102.8914 -10.54405
14.78894 104.0291 -4.046656
10.01831 105.3408 -8.011769
6.474662 113.1311 -5.41871
-9.591919 112.2867 -4.707006
-7.544496 110.0577 -6.64608
-13.39979 103.3823 -6.351386
-8.665515 102.4003 -10.22575
-14.35324 107.6136 -2.533272
-12.04573 106.7734 -5.868196
-14.24939 105.0747 -4.302416
8.019386 111.551 -5.613757
0.3638702 104.6259 -9.66791
0.444954 112.3929 -6.004635
10.95031 103.3806 -8.526026
2.833929 103.4612 -10.30519
-9.002683 111.8794 -5.160565
-11.81283 103.249 -7.95288
-11.1041 110.7833 -4.659766
-15.4093 103.5894 -3.190643
7.568604 112.2752 -5.453832
14.3023 106.3136 -3.451352
-5.899335 103.6589 -10.16693
-12.05335 105.6666 -6.460093
8.567538 110.0204 -6.571848
12.71023 110.578 -3.184652
9.404908 104.6253 -8.703035
-11.94862 109.473 -4.605768
10.34215 109.6386 -5.809133
5.375629 111.0043 -6.68766
11.12511 106.3261 -6.809716
-10.19163 110.7983 -5.489872
7.789639 110.1051 -6.802649
10.9894 106.7101 -6.68541
6.267481 109.7608 -6.821317
8.903687 106.294 -7.938176
13.51058 106.9829 -4.212584
14.04719 108.3073 -2.656946
10.91889 107.2837 -6.415587
14.69856 106.832 -2.362304
14.03367 108.1048 -2.803006
1.792823 104.8655 -9.472903
4.09376 106.8047 -8.365712
3.459087 105.1001 -9.335384
-1.600658 105.1666 -9.237359
4.845014 107.9196 -7.625383
-2.227222 105.3834 -9.137154
5.279389 108.4126 -7.287024
3.105015 108.5595 -7.446906
4.736758 108.6738 -7.227422
-1.061255 108.3441 -7.569949
1.598384 111.3414 -7.041913
1.940433 110.0843 -7.541224
2.007622 109.279 -7.199697
-0.4695559 110.5128 -7.743405
1.302739 106.9616 -8.364031
-5.228945 111.125 -6.998983
1.183144 109.6503 -7.240888
-1.735905 108.1338 -7.698514
-3.342839 109.0803 -7.182686
-5.247405 110.4352 -7.245436
-3.799376 110.6293 -7.574925
-3.646668 111.1132 -7.348043
-7.874146 109.7862 -6.365498
-10.16739 108.2872 -6.310032
-5.281349 107.4985 -7.824585
-10.01279 105.8604 -7.720343
-10.50123 105.9358 -7.412597
-10.46711 109.1962 -5.731617
-12.4552 105.255 -6.32724
-11.97191 104.9833 -6.900616
-8.647279 105 -8.819515
-6.745727 105.5429 -8.963305
-6.542618 104.8291 -9.442753
-5.800392 105.9734 -8.783983
11.76084 107.3905 -5.755818
-16.16148 39.61315 11.0485
-16.08366 45.69325 11.1463
-12.47796 51.17633 11.01011
-10.26325 36.73826 9.684655
13.4152 36.46138 7.837609
-13.08584 53.25736 11.14258
14.32922 38.14271 7.940197
-17.637 73.06956 10.69795
17.36999 97.66643 3.945701
16.70241 100.1594 4.834439
-17.54083 96.34751 4.316855
-17.21294 100.651 2.636699
-12.60087 100.4017 9.271621
-12.1064 100.3432 9.428346
-14.72799 99.72603 7.689409
-16.70829 99.01012 5.164886
14.8216 36.53151 7.850851
16.79265 99.30952 4.861277
-18.25215 87.49046 7.785447
-18.23858 92.07263 5.630275
13.08865 88.12846 10.26626
-17.54833 90.80522 7.459943
-9.843066 92.22161 9.718266
7.788663 99.05574 9.662942
-17.81164 75.36793 10.68662
15.67323 36.39594 7.834863
18.13511 93.45204 4.894635
-14.85763 37.25526 11.00735
15.81473 40.34792 8.118934
14.48808 39.09926 8.003167
17.16985 100.3943 3.166161
17.21233 96.86383 4.940768
-15.3272 44.75883 11.15052
-14.21577 39.10466 11.02577
-16.39121 44.04173 11.10765
-3.279845 40.8298 5.74428
-15.20104 79.6917 10.65146
-18.43261 85.49268 8.58217
-13.9614 100.5538 8.146132
-17.437 99.65591 1.664586
13.64274 49.69861 8.532556
15.90184 40.17511 8.106532
11.7917 39.778 7.923469
17.49884 96.94599 3.99617
16.19657 100.5677 5.748792
-14.88912 39.34578 11.05802
-13.87849 55.63674 11.19686
-16.04276 43.30807 11.11517
-7.437149 37.2503 7.151342
-3.847625 38.52959 5.524168
2.758835 37.2907 14.67766
-15.55668 75.89716 10.71674
-17.5257 81.98501 10.34634
-17.95021 89.99331 7.201514
-0.2291726 98.9753 11.54023
-17.78384 93.93509 5.467227
-14.67891 99.37286 7.786586
-15.43612 97.35174 7.570757
-11.1665 99.17932 9.258224
1.959004 38.75002 14.54577
11.02355 36.42654 7.882643
5.43193 39.25375 12.60358
11.33138 37.3144 7.869551
17.3263 93.89377 6.401458
15.52924 98.9283 7.091083
16.32407 99.08275 5.920368
13.32893 99.95683 8.567884
10.93472 97.53688 9.318774
15.57996 99.69626 6.859959
12.89674 98.47879 8.867243
10.54303 96.53088 9.342508
18.38031 86.12266 8.298352
-12.22014 37.8103 10.58312
-15.30431 55.47082 11.16008
-13.83854 53.56751 11.19124
-13.49714 45.34594 11.07378
-7.597932 38.28301 7.347019
-6.284105 40.58558 6.318077
-3.190041 37.97337 5.609687
-1.544304 39.62363 7.203115
-0.6666884 38.65221 12.05139
15.96378 54.49439 9.468882
-15.24329 69.92167 10.90535
16.61556 80.29546 10.92092
-17.38866 81.36736 10.48816
-17.30302 87.62646 8.621746
-18.06907 84.62138 9.268044
4.319424 98.189 10.10292
-4.556989 99.27749 11.0725
-10.05432 98.68828 9.415383
16.26251 48.05794 8.862179
15.85135 51.09523 9.107953
12.2069 43.66607 8.016139
11.47818 42.05623 7.946273
8.043525 99.71617 10.20245
14.24738 96.73669 8.572369
14.84225 96.83043 8.199367
12.68071 97.48166 9.033209
12.41373 96.2001 9.243114
16.31692 94.46854 7.561442
-14.34213 40.57157 11.05344
-12.21392 39.56969 10.65868
-15.54216 63.18143 11.04374
-14.95825 56.28658 11.17234
-15.03227 53.44567 11.18813
-8.364517 41.94107 8.24087
-10.51114 42.12793 10.01081
-2.939656 39.99712 5.801788
-0.548309 38.8761 12.4046
14.46026 60.91743 9.607368
15.5651 57.61384 9.664961
15.7665 68.85995 10.67998
-16.88955 72.52512 10.73169
-16.34921 77.27764 10.69187
17.50584 78.42084 11.10508
17.4499 74.00723 11.29383
-18.25693 82.54768 9.990214
-17.3238 83.7822 9.977409
-2.853359 97.57699 10.2273
-0.432541 97.99779 10.63521
4.260477 99.11647 10.91424
6.571213 39.31708 10.33336
6.000755 39.83785 11.40174
6.309254 40.97466 10.73635
2.000351 42.03539 14.35538
14.8647 49.75534 8.800997
15.22873 44.81829 8.447979
14.55796 49.94792 8.754495
16.22039 52.60112 9.330484
15.78508 92.83321 8.547898
17.85795 86.12854 8.724841
-9.984598 41.9951 9.664525
-10.59332 42.72963 10.07997
-16.30528 60.57333 11.00676
-15.75573 62.49995 11.03355
-14.77591 57.41475 11.1778
-12.78038 58.0673 11.15302
-13.17489 52.82922 11.14491
-12.73365 48.43773 10.99181
-11.28978 51.13798 10.66941
-9.391221 39.09369 9.125009
-1.180206 39.97042 8.227901
-0.9832651 38.73311 9.178919
15.40059 63.00133 10.09715
13.9846 58.45451 9.244002
12.81359 56.41231 8.721911
15.09977 70.19154 10.56602
16.7388 73.86506 11.1622
14.50224 73.42193 10.58355
13.13643 73.25797 10.08536
17.29858 72.70395 11.24999
-16.68522 64.37254 10.9061
16.29582 76.31991 11.10813
-15.09541 82.34081 10.57741
-16.8526 88.04095 8.879391
-5.782962 99.17964 10.2299
1.650357 95.63673 9.729146
5.267759 99.61481 11.52935
12.22548 54.26285 8.442655
9.635537 96.86849 9.345292
5.277644 96.70258 9.775824
6.525758 95.08459 9.745017
18.34514 87.2615 7.80706
-13.86745 41.93954 11.04507
-12.43873 45.34374 10.87833
-14.28922 57.73379 11.19034
-9.855165 48.62931 9.821073
-8.944626 41.87188 8.786899
-0.9619387 39.57447 9.727885
15.13468 63.09055 10.01737
14.96147 74.16329 10.7588
-15.88581 67.98127 10.90152
-16.1426 74.69847 10.72363
-16.17791 76.32387 10.70085
-14.99359 89.33092 9.742151
4.013951 98.16562 10.16157
12.33152 44.15007 8.044929
16.78924 82.07401 10.61906
-11.68122 45.73808 10.68534
-14.45368 57.2858 11.19006
-14.89495 62.30042 11.11664
-13.40462 46.93151 11.08144
-7.567336 42.66576 7.50311
-1.317169 40.39612 7.867887
13.85507 62.23658 9.50271
15.37519 74.62568 10.88852
12.98563 70.33733 9.793009
-15.24565 70.97087 10.8732
-13.74546 75.39136 10.81837
6.081636 41.0897 11.17884
14.0553 47.58252 8.487876
-10.38112 45.06426 10.03116
-11.72927 44.49987 10.64913
-11.70401 55.5196 10.90278
-11.69488 62.51527 11.01724
-13.22202 64.09611 11.17105
-11.53614 61.12708 10.95662
-12.47722 66.72271 11.12338
-11.64634 66.07909 11.02584
-8.382616 43.69869 8.343701
-1.457479 42.13087 7.641393
14.67293 77.04963 10.79942
-17.33051 72.1896 10.71787
-14.84465 76.25474 10.72536
-12.4397 71.49654 11.02398
5.378561 41.97648 12.4962
12.04939 50.7503 8.241318
-9.286046 44.91589 9.221366
-4.230501 42.55534 5.76208
-2.783276 42.65699 6.131132
-2.470708 43.9474 6.401557
0.588935 40.65811 13.92126
-0.6495754 38.96078 12.133
0.04061052 42.39495 13.24082
-14.0295 68.36997 11.05723
-12.27197 69.2445 11.08376
-6.548394 71.12093 8.454553
4.727822 41.49205 13.37031
-10.57931 55.05702 10.46479
-10.70285 65.34633 10.75519
-0.9462255 40.95809 10.24762
14.89108 79.06695 10.86977
-13.05037 70.84978 11.03298
-10.91833 72.27473 10.86786
-15.1424 78.89478 10.66479
-10.67407 53.09837 10.4532
-3.961851 43.3085 5.816555
3.789238 44.61494 13.78046
-10.96769 67.81533 10.86608
-8.603003 67.18182 9.678237
-10.54179 74.50295 10.77148
-10.45007 74.04948 10.75785
-4.485974 44.19389 5.860886
15.2349 81.52648 10.81829
-6.115232 43.35449 6.373583
5.194757 43.23282 12.67127
13.42375 79.9862 10.57172
-5.157087 45.74205 6.093359
4.005563 43.55235 13.73994
-5.464687 47.83287 6.351483
-1.110274 45.76744 9.168404
3.571867 45.21324 13.83782
-3.134499 45.72428 6.195409
5.130271 47.41179 12.33512
-9.101256 52.03155 9.357097
-9.753661 48.88863 9.750943
0.7934538 45.00861 13.80534
5.160775 45.72397 12.44117
5.374388 48.34256 11.86886
-7.525166 46.94385 7.671204
-5.128653 52.89355 6.54411
-9.60985 47.84472 9.602414
5.761804 48.46648 11.22008
-8.401079 52.86214 8.782258
1.965876 48.50147 13.8965
-8.855524 53.22162 9.21115
1.125203 47.47105 13.81658
-5.867394 51.28059 6.725969
5.507156 49.06019 11.60334
2.91049 51.01819 13.67579
-0.7320146 46.24213 11.35707
-0.2517814 45.9842 12.59639
-1.027427 43.12566 9.640874
5.14113 50.77872 12.00888
1.446656 49.40612 13.78381
-0.6383847 46.70687 11.6313
1.925862 50.83872 13.72762
-0.8932152 44.1657 10.66448
-1.75935 51.44064 7.871633
-16.96843 97.68138 5.093616
-15.86548 96.02393 7.535342
-17.16775 94.26485 6.484851
-14.29807 96.30701 8.623795
-14.11112 98.32384 8.348216
-16.77557 93.08497 7.534465
-15.80479 90.37891 9.153537
-14.21826 91.65292 9.633035
-15.74676 92.11108 8.779853
-7.928223 98.65526 9.653594
-7.075022 96.31132 9.232684
-3.659156 98.12488 10.23713
13.65718 47.05949 8.377018
12.69659 94.02407 9.523138
13.5036 93.39828 9.479247
12.60975 92.92001 9.680367
16.1859 92.08181 8.397302
16.42507 87.84618 9.226995
16.54568 87.56062 9.216783
15.36754 90.58172 9.365712
14.53835 89.63944 9.846907
8.962523 40.57867 8.253803
9.702136 39.55354 8.044064
6.635648 44.23883 10.01869
11.25543 41.49611 7.941159
10.54683 41.28017 7.950795
6.263275 46.57818 10.48874
8.398308 43.0136 8.446387
6.693398 45.09184 9.876172
7.304322 43.74961 9.24049
9.672931 47.21342 8.100611
7.965288 48.58882 8.692496
12.58239 47.96595 8.221497
12.95808 45.3015 8.173043
10.18441 46.06627 8.014974
9.880327 48.88828 8.075476
10.2821 50.39968 8.062387
14.38494 66.75783 10.06065
13.91737 65.39932 9.780507
12.09984 66.42229 9.132625
10.58648 68.82762 8.804008
9.140434 65.42522 8.510646
9.337934 71.95459 8.811584
12.32306 66.43559 9.222146
8.933762 61.96841 8.419971
9.175418 64.05293 8.471763
12.74154 62.86368 9.131199
12.01777 61.94819 8.806309
9.13455 62.68054 8.393638
9.553145 60.8611 8.331101
9.731846 95.05008 9.970812
11.10721 92.69411 9.694279
8.542146 90.73174 9.866878
11.9423 90.70855 9.961041
8.32906 91.34337 9.806035
7.47287 93.0791 9.877254
7.240537 91.53014 9.794607
12.54906 90.40859 10.01696
12.48767 86.58668 10.33897
14.61665 84.64864 10.50909
12.49828 82.04428 10.37084
7.395465 90.77504 9.848658
4.07131 91.22394 9.843926
5.683403 90.06188 9.886871
5.456113 91.41565 9.829187
11.33651 88.19319 10.1703
12.69808 85.84992 10.37211
11.98762 80.92699 10.18426
5.509234 88.53907 9.974625
13.62557 82.85438 10.60587
4.52616 89.87502 9.89044
12.96418 82.22163 10.48668
10.29932 86.02161 10.12464
11.96593 82.45109 10.24755
7.10692 85.17239 10.01333
6.978443 83.70174 9.932738
8.870498 86.01424 10.05741
12.49808 81.27142 10.35645
4.903874 85.15286 10.11007
6.53653 82.42732 9.89343
8.09903 81.71478 9.625565
2.78125 79.85604 11.0466
6.411484 92.84618 9.942228
4.861727 92.94327 10.13957
14.04982 60.04076 9.393366
-11.85822 60.16619 11.03702
-10.07609 59.18224 10.31396
-10.837 58.12484 10.67543
-9.927316 58.93914 10.21998
-6.85497 58.88674 7.794181
-6.933748 57.945 7.789065
-8.139617 56.4926 8.714204
-6.543457 61.22808 7.716045
-8.573575 55.93737 9.07332
-9.267621 61.6884 9.899839
12.27364 78.11623 10.0982
-9.283614 71.12135 10.22812
-9.888922 70.00119 10.50091
-8.046097 68.94746 9.35997
-8.115788 70.72721 9.496036
-6.579048 73.72717 8.689284
-8.634897 74.01604 9.955309
-9.166834 81.0806 10.25482
-9.450998 76.5638 10.42351
-10.27301 77.84756 10.65903
-9.614021 65.67361 10.27082
10.07093 77.76314 9.359456
13.89818 76.81563 10.58123
6.855077 79.11093 9.608253
6.563876 79.86252 9.741426
4.101242 83.48156 10.29604
4.329194 81.28416 10.48885
2.038813 79.93369 11.04666
3.746948 79.87142 10.85102
11.19996 74.12211 9.36709
5.561106 76.47343 10.18644
11.72423 75.78283 9.712999
8.470487 75.27274 9.03364
8.702984 75.99377 9.060522
9.989447 70.93847 8.814116
1.581635 82.4822 10.56866
9.724442 77.81474 9.29715
8.004933 73.54429 8.99973
9.007452 70.27596 8.726249
3.645837 77.55465 11.13809
7.915133 71.98901 8.983525
3.390128 83.70329 10.33935
2.561412 90.62354 9.865529
0.2925058 80.98602 10.57442
-0.9565636 83.29716 10.02351
-0.6802579 82.18507 10.15349
6.652569 70.22918 9.552737
-1.800326 84.6864 9.902648
-1.181017 85.24537 9.96847
-1.897786 70.94269 9.05225
6.139783 69.40771 9.925211
-1.694799 86.69171 9.941766
-2.976614 82.69012 9.523
4.05847 86.76862 10.0431
1.287038 86.91797 10.00664
3.080432 88.38905 9.955044
-7.392823 54.65886 7.976218
6.493958 50.031 10.00283
-4.159537 55.71235 6.657778
-5.128897 55.41375 6.738246
-5.193406 58.14177 6.926559
-2.736844 54.14247 7.048769
-1.380487 53.67441 8.861028
-0.81763 54.96542 10.76105
-2.267397 52.60973 7.290156
-2.710113 50.99282 6.838917
-0.5232544 52.8167 11.66505
-3.546691 57.56149 6.915253
-2.534863 50.584 6.954347
-4.968547 49.25688 6.27616
3.097413 53.02929 13.48176
2.768507 54.21556 13.4844
-2.322313 55.76722 7.525573
-1.651765 57.16647 8.559983
-4.134421 47.40358 6.069086
4.222803 52.96957 12.82061
-0.4178486 53.26937 11.87153
0.8045194 52.90605 13.27252
-1.022935 47.67907 9.782062
0.819819 56.4869 13.01949
1.220138 54.04729 13.3479
-0.1456549 50.10813 12.5326
-3.733274 58.25492 6.913178
-1.736761 46.47369 7.440214
-2.828774 44.95082 6.258597
-1.634731 58.19884 8.66459
-1.694886 62.68182 8.898464
-1.120028 50.33136 9.378277
-1.527347 46.74347 7.902285
3.87087 56.4169 12.78687
1.249468 58.6013 13.06529
0.08216044 58.48731 12.27508
0.1148394 60.07834 12.21674
-7.139379 67.65987 8.582479
-4.128573 61.7582 7.123714
-1.646747 44.3595 7.432172
2.033039 59.03796 13.20779
-4.79817 61.11892 7.121518
-2.772943 61.85051 7.556408
-0.2170273 62.55035 11.59912
0.995377 61.27478 12.76675
-5.164558 62.01945 7.240034
3.732007 58.22025 12.74238
-5.689929 59.0874 7.177188
-4.701007 63.13926 7.263712
-7.805993 65.43587 8.963101
-7.40755 65.79202 8.661039
-7.926532 65.95979 9.092964
5.576069 60.8251 10.78668
-0.9874534 64.07426 10.23737
-8.960363 65.50025 9.859831
2.474935 63.41964 12.83039
0.121822 64.35268 11.89892
-1.709703 67.17188 9.11938
-0.3254605 67.31906 11.16574
1.828717 67.79181 12.4451
0.2556549 67.74077 11.77703
-5.977035 67.14668 7.863179
-4.663166 68.17838 7.649511
4.17139 64.21132 11.93418
-5.669867 66.99695 7.739959
-2.70619 67.97884 8.103366
2.453168 65.83147 12.63389
1.883554 68.94706 12.37492
5.899515 61.3223 10.38524
4.152574 65.11909 11.89038
3.29497 66.10127 12.32846
-4.511295 71.82906 7.969148
5.85687 64.48032 10.31317
2.758049 69.73611 12.2009
-2.360142 72.58138 8.749568
8.920231 60.81765 8.397021
5.129944 67.78003 10.88818
6.721652 65.93933 9.482559
-0.8276242 45.68716 10.97071
-9.988922 92.42658 9.699505
-11.63916 89.46725 10.07314
-9.141953 93.02862 9.702188
-8.865799 96.71157 9.28494
-6.66904 94.11293 10.37016
-8.718678 95.70311 9.425342
-5.398929 95.54865 9.262364
-4.10829 92.95136 10.2158
-3.863796 95.49676 9.356194
-3.755219 96.43942 9.766467
0.02959784 95.64506 9.816679
2.261388 95.34507 9.549644
1.28851 94.14407 10.40873
1.945151 95.6357 9.691892
-10.61202 91.2301 9.846422
-8.073296 95.55861 9.480791
-3.157733 92.64162 10.16239
4.790834 94.08979 10.5119
-13.07445 96.49277 9.065046
-12.55634 95.16352 9.459958
-2.597232 94.44068 9.702224
-10.03486 97.18655 9.339013
-1.74608 93.53645 10.73941
1.85816 92.87365 10.41312
-2.064858 89.56478 9.876749
3.281558 92.57964 10.13282
4.046711 93.31824 10.43521
16.02113 89.05791 9.279877
-13.89833 89.19978 10.06744
-13.29835 85.37356 10.41324
-12.34728 85.10588 10.39742
-11.83657 86.23228 10.31036
-14.20187 84.03794 10.48698
-12.61372 80.14413 10.64991
-10.46114 81.03553 10.54121
-10.87621 79.27751 10.6784
-3.952147 87.37943 9.913415
-6.565496 85.5358 9.863363
-2.468354 86.52409 9.919144
-4.071471 89.15582 9.88867
-2.744454 91.31837 9.862858
-2.441521 87.1472 9.925643
-7.885978 88.72323 9.94902
-7.150839 87.40783 9.949854
-6.962122 86.50447 9.927709
-4.206163 90.51505 9.836542
-4.420386 91.35582 9.825432
-7.071532 92.13736 9.752275
-6.656356 90.70793 9.820627
-9.65871 88.11511 10.04344
-11.71728 88.47828 10.16787
-15.56693 80.44543 10.64575
8.28906 50.04197 8.526638
10.5686 51.38066 8.0818
9.036258 50.79659 8.272034
11.52408 53.21864 8.250993
6.427009 51.52091 10.05365
6.799012 51.72896 9.580723
5.934913 52.0581 10.75431
7.594933 53.94582 8.867786
4.379285 54.71099 12.52372
7.780609 54.3855 8.776315
8.146578 67.44656 8.822267
8.50513 66.25533 8.666777
11.45041 53.84304 8.26154
12.30778 54.93681 8.500247
12.62729 58.40907 8.798497
11.34285 56.64906 8.367859
9.731647 59.98502 8.310219
10.79503 59.72877 8.380823
6.00554 58.2221 10.38715
6.239357 59.68553 10.05812
5.706277 58.98361 10.72151
5.134266 57.9089 11.49508
4.765653 56.14737 12.0618
-9.307921 62.14792 9.958055
9.652875 80.90311 9.606506
6.496785 74.50729 9.63727
2.742644 89.87284 9.882987
1.719375 75.40168 11.695
-7.677067 63.45911 8.730528
-3.288912 63.91608 7.463847
-1.725472 64.95882 8.986469
-1.711099 66.96399 9.110429
-2.414881 67.43758 8.305355
-3.432117 69.12611 7.9119
-2.941436 73.98004 8.518077
3.412104 65.79105 12.29182
10.03091 58.52407 8.256835
-1.358275 70.17646 9.693026
-1.158291 68.90096 9.956669
-0.7917181 69.67393 10.46862
-0.05885683 72.34483 11.17022
1.439727 72.0621 11.98503
-0.3950759 74.20094 10.77125
-2.94984 77.77458 8.891678
2.238938 71.47961 12.138
5.153121 73.1693 10.58446
4.948711 73.53067 10.719
5.939789 74.89307 9.977049
0.555415 77.55322 11.06849
0.8272783 77.01718 11.23537
0.3915096 76.24926 11.11824
-13.03345 89.65635 10.10518
-2.516266 79.47437 9.233807
-3.160761 81.05039 9.228048
-3.975132 82.45052 9.376277
-5.752292 79.34678 8.960815
-7.072454 81.94048 9.612239
-4.196009 77.92331 8.630456
-7.226163 81.51678 9.625027
-8.781368 85.51617 10.04616
-7.789807 86.02001 9.961075
-7.846239 78.20506 9.682156
-7.0107 75.99089 9.111156
-2.737182 76.4758 8.864119
-0.642755 77.83898 10.41961
-6.100367 81.98228 9.402773
-5.454914 84.00631 9.653084
-7.076288 86.81444 9.940265
-4.006599 75.32212 8.369083
0.3371287 80.2886 10.66707
-6.497264 81.65814 9.443423
0.01690074 75.03502 11.02833
-11.0068 89.65673 10.0155
4.318079 50.96641 12.93878
-3.706966 65.74671 7.55096
2.589895 74.92807 11.72444
-1.803249 79.02279 9.593032
7.86184 99.53263 -11.65934
13.53712 42.56469 -13.09139
12.88813 49.65585 -12.86989
12.66041 53.47475 -12.73319
7.114344 37.78658 -13.92977
3.304492 38.81096 -8.445969
-8.695214 37.72551 -14.78001
-12.11627 38.80877 -13.11246
16.11147 74.39307 -10.03147
-7.294018 38.72749 -15.3992
16.77851 93.15665 -6.383771
16.21443 94.92342 -6.576016
12.81155 38.84335 -13.61586
13.80503 101.1041 -7.031406
9.24109 38.20847 -14.36407
-1.350389 38.93902 -10.71025
-8.711587 46.00288 -14.63278
-10.89545 37.01164 -13.72228
-13.59812 66.64701 -10.37373
-13.02505 42.85926 -12.43777
16.65719 100.0264 -2.602959
14.19947 54.9575 -11.73754
-16.98459 99.83265 -1.720996
-16.79233 95.42046 -5.328278
-14.48418 67.20878 -9.795163
-16.95556 100.8309 -0.8573941
16.67618 98.8325 -3.392681
-12.71848 37.48114 -12.88238
-12.59017 36.82322 -12.95275
12.95987 38.36676 -13.58049
-11.79025 38.23517 -13.2818
-16.07976 100.7426 -3.558902
-15.68995 98.07188 -5.907946
13.362 45.74549 -12.9021
7.861772 37.56861 -14.15299
12.64393 61.73236 -12.15495
2.978804 39.77312 -7.080989
13.04183 78.46756 -10.89113
11.7192 99.86918 -9.589
16.90068 96.33076 -4.57426
14.15452 101.1971 -6.569061
14.71239 100.8825 -5.976113
15.08409 99.74461 -5.988388
-10.42221 55.71013 -13.20803
-10.72242 47.09028 -13.46305
-6.785509 39.16605 -15.56693
-8.307889 39.14182 -14.95788
-12.42095 43.06373 -12.72727
-16.88949 100.8134 -1.221959
-12.05566 102.0819 -8.309932
-2.142039 101.6052 -11.24492
12.01536 40.75856 -13.82519
9.331742 39.63095 -14.35399
11.2963 40.67966 -14.06134
6.584773 37.72229 -13.68571
12.31415 55.22229 -12.79023
3.538053 38.2948 -9.329464
-1.280052 39.87528 -4.970247
15.64016 74.41114 -10.17127
-12.94258 75.61497 -10.44814
9.614387 102.2021 -9.902611
17.11828 96.54216 -3.912312
16.7585 96.99099 -4.462404
13.66185 98.81532 -8.251594
-12.45615 52.29063 -12.05159
-1.151295 38.25111 -11.86851
-12.58183 43.01172 -12.64785
-9.355491 38.16013 -14.46155
-11.73677 42.54718 -13.12323
-15.67769 96.64941 -6.641528
-10.30528 101.9662 -9.638768
-7.185762 102.1712 -10.74587
12.36306 48.68781 -13.20432
11.44209 39.29135 -14.05455
5.13314 38.45333 -12.44072
5.949052 40.19131 -13.22131
14.55751 58.03167 -11.33651
13.62249 55.79531 -12.01774
12.11713 52.6439 -13.07851
3.704259 40.70845 -9.861238
2.162104 38.7474 -5.206103
-2.132229 38.84286 -6.712109
-13.51071 64.54201 -10.53152
14.79394 70.25647 -10.58149
16.43374 87.64822 -8.236712
8.62515 100.8954 -10.91704
10.20006 101.5398 -9.899077
16.09849 91.70837 -7.704776
15.96436 96.99062 -6.016753
-12.80603 47.00164 -12.22277
-12.3854 53.57832 -12.01075
-11.16733 54.9595 -12.75801
-14.20536 58.70214 -10.36055
-3.830109 39.37683 -15.83371
-12.83773 45.52309 -12.32133
-4.92104 40.64976 -15.90183
-10.03697 40.50289 -14.0941
-16.12238 91.94019 -7.667614
-14.10447 97.97915 -8.115544
-14.40144 100.331 -6.66882
-12.64982 99.63438 -8.912626
-16.39801 83.49891 -9.255678
-3.013645 102.1917 -10.96657
10.63581 37.43925 -14.29114
6.508531 42.54686 -13.57025
11.86651 57.82436 -12.85133
10.93958 59.27006 -13.24389
12.33022 56.73257 -12.67542
12.37918 47.95033 -13.24191
11.87394 47.27442 -13.52047
12.7827 51.97601 -12.77066
5.307032 42.88641 -12.7063
5.310831 44.30149 -12.63842
5.046297 46.13527 -12.35163
4.393521 47.32637 -11.45301
2.786365 40.73551 -6.538989
1.714081 42.01006 -4.958376
-2.124653 39.16502 -7.616916
-14.42173 63.44652 -9.95611
-13.96069 62.38268 -10.3277
16.40692 76.71913 -9.86523
17.41003 84.42257 -8.288861
16.77046 86.5098 -8.229971
-14.32302 77.06595 -9.789493
-16.85248 82.19264 -9.017883
1.931935 99.24495 -12.07104
15.3698 90.16808 -8.678668
12.53379 96.60809 -10.11496
-11.13827 46.26957 -13.25557
-13.11721 55.76776 -11.34399
-2.775635 43.00941 -15.30166
-11.87563 46.01968 -12.84005
-6.886482 41.74226 -15.48535
-8.463136 39.58014 -14.88146
-10.89478 100.1147 -10.08443
-11.70421 100.1894 -9.472904
-13.99031 96.85458 -8.675876
-9.799687 98.23309 -11.37309
-9.858038 97.14095 -11.65673
-15.94619 85.4752 -9.376718
-15.29929 89.22772 -9.082314
-9.307853 97.40513 -11.8111
-0.04945535 101.8018 -11.16503
-5.617831 99.60148 -11.94229
7.337872 43.44397 -13.96577
14.03675 60.61943 -11.4554
13.51032 64.83272 -11.45886
12.81282 54.28637 -12.58618
14.7466 71.28393 -10.5585
2.808728 42.04535 -6.67445
2.905821 44.34274 -7.043966
3.45711 42.21903 -8.954351
-1.831415 40.15183 -5.802214
-12.49684 66.91841 -11.08152
-14.79619 73.33675 -9.562805
-12.30242 63.70812 -11.41238
14.5215 72.8746 -10.57871
14.71031 76.30399 -10.40491
16.03752 81.5889 -9.639929
-15.56354 77.8203 -9.269564
-12.87211 74.92177 -10.50058
-0.2917024 101.3258 -11.35807
13.76988 97.52232 -8.659371
14.03956 98.04655 -8.162962
13.18799 98.18587 -8.986982
11.59053 98.08643 -10.35072
-11.55358 55.83906 -12.4425
-13.38595 60.1682 -10.86037
-1.260901 40.36009 -11.4779
-1.503177 44.37422 -10.65082
-1.27527 41.20934 -12.9202
-9.179394 45.62804 -14.40161
-7.333154 45.53515 -15.23276
-7.713137 44.05993 -15.12497
-7.431548 41.3686 -15.29277
-14.5629 96.95052 -8.009193
-12.29774 95.80785 -10.53347
-15.61236 96.36877 -6.867815
-12.18825 95.0956 -10.77623
-13.0951 95.61407 -9.932876
-12.50432 97.55434 -9.823134
-15.5736 83.78188 -9.547062
-14.93711 93.31794 -8.717251
-12.93046 90.02513 -10.53453
-13.45309 92.30902 -10.22734
-12.80229 90.97208 -10.68877
-0.4845178 101.0995 -11.4445
5.480277 48.55772 -12.82272
8.547134 49.58131 -14.20378
8.644587 44.88554 -14.27592
8.390069 47.09724 -14.23408
5.368577 47.14743 -12.71546
9.487888 41.681 -14.33165
11.46063 57.28151 -13.09548
12.68146 64.11992 -11.96289
10.85989 54.27988 -13.55221
14.45695 70.97598 -10.6755
3.532514 43.69747 -9.261735
3.020948 44.4423 -7.426478
-1.818033 41.81598 -6.018252
-11.66536 68.93531 -11.50668
14.62924 77.72529 -10.39105
14.32848 82.50546 -10.29349
-15.839 81.26634 -9.330894
15.10828 98.2033 -6.706883
10.35551 97.84694 -11.21062
9.553313 99.10394 -11.20639
-10.28225 57.89441 -13.17478
-1.324879 42.26385 -12.96076
-3.513692 41.35745 -15.70712
-9.414462 95.96259 -12.10453
-15.90822 84.81093 -9.429043
-11.42845 93.88323 -11.45176
-7.008421 92.59025 -12.85923
-9.021574 90.31193 -12.18753
-12.50177 90.51881 -10.84922
-6.450187 98.90952 -12.12463
5.322147 46.90292 -12.6774
9.761536 54.77079 -13.90981
10.70088 60.1682 -13.30225
13.57121 65.95164 -11.35144
13.07638 66.76351 -11.54887
11.71561 68.84572 -12.12899
2.952694 45.08336 -7.241296
-10.41847 58.32485 -13.06087
14.05123 77.27537 -10.59396
14.11855 79.7755 -10.49374
-11.59472 81.36943 -11.0196
-9.583103 71.55477 -12.73709
15.30484 94.90025 -7.85116
14.13599 95.25089 -9.057433
-9.144581 57.51157 -13.89812
-5.606637 46.66696 -15.66074
-4.478344 46.03617 -15.72035
-4.82048 43.45067 -15.83293
-8.165551 95.98044 -12.47468
-15.21353 87.03552 -9.514486
-9.32013 91.51456 -12.30145
-11.84072 91.2951 -11.27452
-5.453226 98.95561 -12.15546
6.70689 48.61377 -13.74063
9.813252 57.44415 -13.79055
9.823448 71.46877 -12.96115
2.260157 43.62039 -5.823293
-11.4565 67.29523 -11.76093
-9.850247 65.79624 -12.96763
-12.06778 64.14034 -11.54755
14.03815 81.50855 -10.45757
-11.61369 78.03309 -11.06618
9.721588 100.5436 -10.59252
-9.331467 55.71911 -13.88557
-4.206542 48.38109 -15.58647
-15.01998 84.51545 -9.737339
-6.431078 97.18896 -12.55729
9.357466 52.13477 -14.08221
9.313931 53.69166 -14.04599
11.63278 51.06667 -13.41915
2.94131 46.76593 -7.353358
-11.27917 69.12158 -11.75927
-9.624014 69.23215 -12.87648
12.10657 78.41137 -11.24489
16.27523 93.61674 -6.978879
10.95482 96.19586 -11.32818
-8.110093 57.06789 -14.47787
-3.130453 48.79763 -15.28658
-2.455473 49.50244 -14.7909
-3.844269 43.33723 -15.71724
-7.783965 91.74725 -12.66338
-11.2085 86.63633 -11.19697
-10.3074 89.53392 -11.69698
-9.685577 88.54311 -11.77719
7.921106 57.3118 -13.97644
3.290816 45.74186 -8.401662
15.28994 84.42806 -9.653775
16.80173 92.95905 -6.419115
14.09719 91.88134 -9.732955
4.502269 99.3977 -12.02385
-5.185087 48.68914 -15.63418
-4.8131 50.9879 -15.56271
-11.9461 84.21019 -10.87522
8.879491 57.4626 -13.97045
8.985139 58.19951 -13.9276
12.5259 87.98553 -10.70027
12.96002 93.32387 -10.49439
9.073448 97.66289 -11.84108
4.140511 99.78634 -11.90217
0.2319011 96.86049 -12.66198
0.3374327 96.55581 -12.71741
4.461576 95.98249 -12.81309
4.464477 95.33096 -12.88566
-1.845993 49.78806 -13.77878
-0.6564917 47.39342 -5.672481
10.02819 90.26401 -11.90636
8.294555 96.22334 -12.40762
-4.434043 97.32954 -12.57046
-3.578547 51.43786 -15.34355
-10.69107 84.76936 -11.38966
-1.974769 45.54325 -8.723128
-4.908481 98.19291 -12.3671
