# .PCD v0.7 - Point Cloud Data file format
VERSION 0.7
FIELDS x y z
SIZE 4 4 4
TYPE F F F
COUNT 1 1 1
WIDTH 1663
HEIGHT 1
VIEWPOINT 0 0 0 1 0 0 0
POINTS 1663
DATA ascii
20.2462 79.01485 3.930156
20.59979 81.67838 2.101781
3.790041 79.42015 10.06486
13.80847 111.621 1.546791
14.55118 109.9627 1.400525
5.812451 76.3718 9.738061
17.95296 89.82394 7.027835
17.29877 91.08654 7.465052
8.073971 109.9347 10.4514
16.75784 102.1936 0.6203974
7.459875 78.80375 10.0066
1.808473 91.61613 10.12187
17.54321 97.0789 3.059242
1.186373 104.7318 12.21866
7.986733 110.7181 10.58384
2.24076 110.9449 12.12818
19.96569 76.69531 4.447382
20.61194 79.01599 1.855567
20.37602 81.17496 3.522436
13.96741 111.3262 1.865236
12.56738 111.597 6.789673
1.147725 82.26834 10.23026
2.383713 77.4341 9.862422
4.219511 81.32683 10.18835
11.12611 77.74946 9.894675
19.64126 89.02873 2.691143
2.268141 99.51436 10.84399
16.74952 102.6023 1.696393
7.364322 110.3764 10.82766
2.078021 107.5604 12.34195
3.439007 110.8184 12.10156
2.195612 110.7286 12.25857
20.49152 83.67297 2.090897
19.13073 80.83206 6.603782
17.64214 76.91741 8.165331
15.35678 107.9465 2.282236
13.40456 111.0081 5.672852
0.9185319 81.75561 10.20931
0.1925311 83.06652 10.25518
5.055105 82.39676 10.2341
12.65578 80.1237 10.12019
19.62531 89.58644 1.558436
19.15475 91.06903 2.672305
18.43314 93.51488 2.887264
1.422321 96.43842 9.978968
18.1355 94.73922 2.801189
17.12171 100.7444 1.319241
1.173259 100.0525 11.13652
6.127287 110.3148 11.36808
10.97397 111.6655 8.496431
0.4040306 102.3625 11.8184
16.29652 104.7116 2.026731
2.838883 107.3798 12.34511
14.995 77.98937 9.731031
20.25211 84.68636 3.185949
14.47803 109.6896 4.037514
15.15307 108.3239 3.233212
1.931942 85.46421 10.27261
5.292799 81.27726 10.18583
5.92975 82.51058 10.23775
4.012832 84.9846 10.26951
5.056104 83.75127 10.26192
2.4857 83.72257 10.2628
14.16426 77.53004 9.82117
9.633798 78.88137 10.01422
19.09201 89.50164 4.690388
17.87927 92.28207 5.981485
18.67526 92.77622 2.811321
18.71848 91.69531 4.092172
18.06086 92.73401 5.282927
20.02541 87.30051 2.243501
19.69673 87.95332 3.620345
17.56662 95.50313 4.422849
3.141788 91.15139 10.02695
2.123518 95.32759 9.466457
2.183911 91.20342 10.04902
17.27522 99.78826 1.824628
16.85354 99.42348 4.330753
17.47298 96.37962 4.007885
17.26975 97.45306 3.951604
17.49098 96.96201 3.460613
0.5789323 98.61462 10.69926
3.389568 102.7589 11.64304
4.944947 108.6733 11.9662
3.861974 108.1566 12.23263
2.198537 107.4686 12.34259
19.38572 79.25764 6.090158
20.19856 81.95683 4.128293
19.58361 86.15961 5.063792
19.17557 85.41879 6.208381
15.20531 108.164 3.255948
13.55449 110.9478 5.376564
7.258716 82.75588 10.24471
16.96162 89.2686 8.376466
18.59021 92.95686 2.998173
17.50066 96.00929 4.265501
2.543414 93.7498 9.118949
1.871926 96.4176 9.9861
3.055444 87.73413 10.18061
2.079019 89.51624 9.89315
16.32832 98.07035 5.975767
3.397947 98.68862 10.35545
3.489864 102.1583 11.45358
4.458426 103.7906 11.62619
3.459582 105.2141 12.12019
5.439735 101.6145 10.77432
5.529704 105.6942 11.61235
6.160319 101.0923 10.48958
6.489633 100.4018 10.2514
5.292258 105.4242 11.65631
14.11011 104.4956 7.767882
8.069333 105.7991 10.66346
12.05385 110.4569 8.009544
19.11748 78.70856 6.516681
19.57163 86.88879 4.729445
19.76193 80.40002 5.335438
15.76777 106.5174 3.271499
7.415257 83.57829 10.2594
6.426068 80.12804 10.11999
8.229949 82.62078 10.23861
9.629804 83.03616 10.25091
9.447945 79.63013 10.08015
12.88298 82.23329 10.21922
11.06856 84.28509 10.26463
10.37127 80.01914 10.11085
12.47332 79.55708 10.07166
17.51333 96.91654 3.406979
1.794743 96.0302 9.800989
16.01 91.09084 8.693123
6.307147 87.74798 10.1814
9.49808 86.83105 10.23448
7.155142 91.05017 9.924185
7.490195 89.72019 9.90809
5.678273 92.40794 9.949211
8.909166 90.84165 9.83234
6.019556 85.65629 10.26471
8.226386 87.23171 10.21694
7.271005 86.52746 10.24805
2.666745 98.29303 10.35812
7.757198 97.1964 9.576895
6.055898 99.45629 10.01053
6.584902 107.8299 11.46299
19.14935 86.11515 6.11978
19.53906 81.37568 5.845423
17.83215 82.98151 8.25517
16.97224 81.79311 8.992895
15.1531 81.42989 9.908516
16.908 80.25859 8.998831
11.56196 108.5676 9.072206
11.79489 78.31594 9.958491
5.276845 96.17902 9.728594
7.204891 97.1053 9.718126
4.028269 96.06313 9.746192
5.3562 93.34348 9.327857
7.328616 85.28128 10.2645
15.70272 97.94185 6.939998
16.55842 96.75048 6.093268
17.76987 94.1028 5.008661
15.90966 100.7115 6.00978
15.59173 80.28415 9.709094
12.45387 110.0541 7.738353
11.70902 81.18949 10.18378
2.617443 93.28803 9.203018
3.991541 92.91951 9.572701
13.78786 94.89376 8.980817
16.00954 85.43922 9.522793
10.67781 87.99216 10.15858
14.51459 95.76096 8.489954
8.183085 100.4266 9.850786
10.28467 98.12197 9.232384
6.869775 107.2317 11.18009
9.128399 106.549 10.36926
15.16431 80.6944 9.88278
9.168795 94.34538 9.222635
17.14941 87.16808 8.57927
16.53999 95.07155 6.852242
11.19806 89.03041 10.05013
7.816264 99.69827 9.681629
8.366191 108.5876 10.58183
7.779274 109.2095 10.72224
10.09494 109.4974 9.67567
10.97011 107.9401 9.544008
12.89886 107.9876 8.161011
15.33522 83.3372 9.884015
8.96248 95.6818 9.260292
17.50837 83.42812 8.562654
9.112024 107.3447 10.35488
16.03932 86.94207 9.368351
10.19641 84.35943 10.26498
11.60993 110.5745 8.360083
17.90353 88.83923 7.422719
16.5126 90.71451 8.41398
17.19275 90.26032 7.850312
17.02444 86.36385 8.779778
14.8735 85.60229 9.97764
14.40787 85.95563 10.08557
14.07929 86.63557 10.11702
14.71955 88.88455 9.753385
13.88994 87.53861 10.10269
11.37835 86.36907 10.23319
18.7284 86.60016 6.765194
15.62523 88.88389 9.37661
14.07793 90.12408 9.759176
13.47263 90.99061 9.766986
11.40403 89.17078 10.03111
14.96769 92.5904 8.982798
15.50265 94.70245 8.085842
9.593106 91.47505 9.916085
8.560285 91.21074 9.925816
10.16625 90.48254 9.866255
11.72368 90.22581 9.890656
10.46839 92.64455 9.71303
9.254782 92.55029 9.803493
14.73056 95.51237 8.420829
13.7771 94.26175 9.133829
16.2479 104.5962 3.384179
13.68299 98.02626 8.481897
20.10156 80.08747 4.480853
19.48078 80.60682 5.974224
15.55624 104.8049 5.649262
5.056723 91.2663 10.03742
2.560293 106.2175 12.31789
17.03431 80.90047 8.920441
9.28384 95.87598 9.273741
11.2189 94.48046 9.373297
14.68111 96.72777 8.172527
11.54451 97.3644 9.123563
16.22372 104.0611 4.168883
12.35143 94.93406 9.306601
10.2873 96.8476 9.460844
14.27102 101.1802 7.752196
10.9207 100.8096 9.236709
8.188026 100.898 9.991677
11.72897 102.0915 9.075944
13.62578 102.6985 8.189515
10.27255 103.5077 9.837881
12.6123 104.7672 8.851727
14.31991 104.6422 7.546395
15.12889 104.6995 6.459697
14.15424 107.502 6.782615
13.34471 106.6043 8.121148
10.68669 107.4511 9.728984
11.10774 103.3404 9.399145
13.84078 107.3392 7.333512
14.8699 98.23469 7.699198
16.76031 101.0258 3.986553
15.0186 101.2165 7.074959
14.56418 100.1453 7.616284
13.53861 100.2104 8.283808
13.42959 99.28835 8.424146
11.91843 100.74 8.971808
12.49381 98.63903 8.840518
13.91387 99.49445 8.15541
7.444111 103.0663 10.50344
5.804684 102.9244 10.99123
-1.214116 82.81893 -8.965133
-1.20484 78.59201 -8.681417
-0.5453196 87.76859 -11.36458
-3.91573 77.41314 -8.733028
-18.80452 89.6693 -3.459716
-0.8310391 110.7282 -6.559964
-0.5646403 89.32104 -12.01143
-0.5471681 94.83956 -12.73655
-2.112474 103.1291 -10.29302
-0.5741124 105.5185 -8.983251
-20.26875 77.36019 -1.620692
-15.61965 105.3072 -0.9052817
-17.58975 79.28655 -6.364042
-15.78159 76.41814 -7.769927
-19.82519 77.08582 -3.018134
-20.0756 85.72298 -1.363317
-20.24473 86.22473 0.6131346
-19.39862 90.59331 1.238686
-20.33635 85.56057 1.478336
-13.4131 112.379 0.9884692
-17.54359 97.91364 0.01253767
-13.77098 110.4114 -1.175544
-6.096676 84.73954 -9.624618
-1.935397 103.0179 -10.34998
-16.48263 76.29379 -7.348389
-5.419416 94.40224 -12.82785
-5.078821 76.98242 -8.753144
-4.457283 96.18898 -12.63403
-4.881331 101.6098 -11.0628
-2.667542 109.4142 -6.909724
-4.00018 109.1565 -6.965965
-3.428721 109.9395 -6.683376
-8.048509 108.4708 -6.730659
-5.473747 110.289 -6.350601
-20.49419 82.87403 -0.4588116
-20.58562 78.44484 1.91039
-14.11182 110.6954 0.576465
-13.00949 111.7817 -1.398677
-0.9249884 85.5604 -10.12382
-11.35639 77.66351 -8.724356
-6.312253 77.13784 -8.74661
-0.6852326 80.96394 -8.693295
-1.448798 81.16129 -8.708665
-17.61511 97.7453 0.6724225
-0.7997804 99.77968 -11.71186
-1.532462 96.51202 -12.54433
-2.827287 104.9372 -9.303398
-7.311749 112.3855 -5.342498
-17.72787 78.02305 -6.260785
-20.36314 84.13594 -0.715052
-20.0437 78.63533 -2.536266
-14.61134 109.6838 1.002777
-14.06011 110.4445 -0.2395165
-1.085178 84.64046 -9.627063
-13.97605 76.42302 -8.488278
-20.049 87.40263 1.662463
-7.134796 78.83495 -8.668462
-6.528312 77.13336 -8.746939
-1.79793 82.55254 -8.91458
-3.989894 80.82619 -8.675779
-1.673903 84.31717 -9.481634
-4.124139 78.28649 -8.6934
-17.63104 96.7506 -1.163921
-16.82456 100.8718 -0.8473642
-0.63595 95.99438 -12.6176
-1.597245 93.44434 -12.77039
-1.144282 105.6685 -8.900978
-1.09252 108.1379 -7.561128
-19.2599 77.6397 -4.257404
-19.48197 80.27605 -3.883673
-19.67588 80.62733 -3.489086
-15.02764 77.75684 -8.027375
-13.43546 78.0991 -8.497032
-15.81516 76.86415 -7.7082
-20.4098 82.5722 -1.097499
-20.44034 84.69888 1.261691
-20.25128 85.70322 -0.2994065
-20.15366 83.28036 -2.006972
-20.37324 79.80535 -1.489331
-15.0402 106.894 -1.169758
-13.11379 110.0975 -2.723639
-10.27691 112.3444 -4.121533
-1.185102 88.93296 -11.87217
-20.17697 86.70868 1.467877
-18.97844 92.15873 0.350628
-10.11735 77.64002 -8.725966
-4.265823 79.63275 -8.65425
-2.605921 84.87984 -9.744613
-17.05809 98.37406 -2.205811
-17.9425 95.42832 -1.264196
-17.77212 95.28658 -2.403161
-17.20826 97.05595 -2.835328
-17.20944 99.60163 -0.2265524
-18.20882 94.42387 -1.196317
-17.16612 99.66186 -0.4421156
-0.8568351 100.8422 -11.3285
-1.168382 97.9066 -12.2534
-3.417565 94.12172 -12.79315
-1.033344 91.88855 -12.63496
-15.88033 104.169 -1.100985
-0.6589072 102.7114 -10.50022
-20.54552 83.57681 0.8303493
-20.22144 85.88544 -0.3604538
-19.77062 81.12211 -3.284673
-18.91971 79.98389 -4.825634
-20.41719 80.47641 -1.279668
-14.68269 108.098 -1.11009
-13.61236 109.518 -2.324403
-15.5408 106.5589 0.1611438
-1.527604 85.4334 -10.05081
-3.078709 89.15015 -11.96387
-6.491227 87.78717 -11.44205
-6.112341 88.9575 -11.95135
-5.956086 87.29641 -11.17166
-19.64404 88.55952 -1.349131
-5.281787 82.95479 -8.979018
-4.521795 82.76498 -8.939507
-4.455285 83.70921 -9.21505
-18.84724 91.50773 -2.059906
-16.39208 102.8201 -0.6746379
-17.00931 99.18496 -1.665967
-2.39116 100.4315 -11.49458
-2.430585 98.39127 -12.14132
-4.210632 95.63298 -12.70488
-1.953055 105.3552 -9.069384
-10.5648 78.90839 -8.661282
-15.3764 106.8433 -0.1054569
-12.84125 108.3983 -4.068152
-12.54831 108.9974 -4.095919
-11.20386 110.2841 -4.605326
-6.532226 110.121 -6.27338
-11.67392 106.0105 -6.408104
-9.159128 108.6637 -6.384417
-5.50106 87.10078 -11.05436
-6.157118 83.47614 -9.12295
-19.41607 89.22102 -1.756569
-9.73684 80.39069 -8.629184
-5.235681 81.70087 -8.748327
-8.439399 84.07533 -9.266171
-7.036913 83.07414 -8.977175
-6.030618 84.27209 -9.406468
-7.963557 79.98689 -8.633801
-10.17738 86.38171 -10.45843
-18.95099 90.03419 -2.878326
-19.36487 87.61649 -2.917796
-18.57087 91.88419 -2.753987
-16.75899 100.6307 -1.368706
-3.956371 100.1926 -11.59918
-6.571416 94.81637 -12.76553
-3.165296 104.3374 -9.643102
-5.826591 103.436 -10.14486
-8.006148 101.482 -10.75397
-7.753006 100.6027 -11.18079
-15.87057 78.45298 -7.578462
-19.78937 87.58492 -1.41053
-8.331761 110.0344 -6.002366
-11.67234 79.5441 -8.626809
-7.899331 79.30877 -8.650026
-14.50502 82.48301 -8.187702
-10.76474 81.98688 -8.728488
-6.558972 86.92222 -10.96912
-18.39841 92.80368 -2.532137
-17.63526 94.18573 -3.839765
-15.28804 104.3702 -2.553025
-16.30497 99.0382 -3.826104
-16.52909 79.66602 -7.139271
-6.308737 108.5934 -6.930411
-9.975742 85.66754 -10.08774
-18.16478 91.64542 -4.056903
-16.94515 97.19438 -3.496231
-4.341882 96.43903 -12.59239
-3.839302 99.28934 -11.89344
-11.06355 98.97248 -10.25738
-8.139596 103.9441 -9.458758
-10.34594 102.4744 -9.206219
-14.38644 80.84509 -8.148361
-15.6586 90.57491 -8.142536
-13.4564 93.1454 -9.978181
-16.89649 91.85567 -6.373599
-15.75374 99.35909 -4.788058
-10.97002 96.68155 -11.03145
-9.16849 101.4251 -10.33775
-7.960503 99.82231 -11.40365
-6.809102 100.5992 -11.38228
-11.27481 85.7729 -9.878741
-17.35828 93.06944 -5.137368
-15.83257 96.81068 -6.072186
-14.94277 100.7827 -5.422516
-6.678777 98.39706 -12.1141
-5.357472 107.534 -7.644281
-6.983432 100.3112 -11.45471
-9.532842 104.1222 -8.787439
-10.49909 86.79729 -10.58748
-17.36562 95.61584 -3.501426
-14.31552 97.81654 -7.736323
-4.514969 105.4479 -9.005417
-2.368129 106.8981 -8.240943
-7.389843 104.5364 -9.307011
-8.992367 107.5134 -7.021261
-8.143584 97.76936 -11.97693
-11.46448 98.58308 -10.10998
-11.91438 103.5699 -7.523279
-16.13249 96.25977 -5.827327
-13.7334 96.20435 -8.982988
-7.383636 104.8015 -9.152418
-10.50448 106.0417 -7.192882
-12.62869 96.12749 -10.01461
-12.10867 99.52762 -9.254193
-15.07594 99.4699 -5.918287
-12.67644 102.728 -7.261777
-15.59493 95.03821 -7.210147
-9.89396 108.1472 -6.361128
-10.30226 106.3757 -7.121083
-13.43382 98.73915 -8.333473
-13.259 95.28356 -9.707586
-14.46261 95.97869 -8.28861
-11.7633 100.2318 -9.243173
-15.79378 100.8662 -3.800139
-13.79323 101.8704 -6.464956
-15.4009 103.5986 -2.878937
-16.41222 100.7928 -2.347583
-14.56828 104.4589 -3.913114
-13.3179 104.2418 -5.789917
-13.68814 93.79928 -9.664919
-12.84535 105.1703 -5.795802
-13.44022 106.4448 -4.383974
-14.3359 107.3245 -2.454651
-8.4342 96.31315 -12.22548
-14.55154 94.88303 -8.540891
-12.31274 101.4935 -8.19374
-15.2366 93.55971 -8.125728
-12.52563 92.74956 -10.71926
-13.42897 95.68256 -9.435416
-10.70125 96.79305 -11.16125
-11.0587 94.31672 -11.46531
-13.51708 94.67947 -9.626707
-20.0209 79.86666 -2.604676
-17.97898 82.22775 -5.93876
-19.00966 81.5571 -4.660673
-20.20683 82.85359 -1.910478
-19.97203 83.05146 -2.596719
-5.305134 89.79921 -12.22155
-4.287942 91.30465 -12.57549
-4.391312 92.84853 -12.78994
-6.825927 91.46812 -12.58541
-10.88865 94.35401 -11.55758
-7.44666 95.60509 -12.54924
-5.806787 95.27686 -12.76719
-8.172007 95.33604 -12.44628
-10.14278 93.03665 -11.96845
-14.61132 92.43423 -9.031802
-7.808998 90.00809 -12.19888
-8.517623 92.59113 -12.47899
-8.23647 94.2001 -12.54756
-14.80884 92.8524 -8.753796
-15.36467 90.26857 -8.467209
-8.720444 91.72573 -12.35132
-11.5877 90.87759 -11.23036
-8.554029 92.01037 -12.42114
-12.91329 92.25103 -10.47471
-13.28748 90.87366 -10.21228
-11.47311 91.04804 -11.30414
-11.78928 89.95098 -11.01465
-12.48133 89.51455 -10.58567
-11.24222 88.04902 -10.83009
-15.07671 104.4792 -2.92695
-11.88607 107.9839 -5.200831
-17.70348 85.29081 -6.102294
-18.66791 88.15057 -4.30837
-15.28775 89.32412 -8.511836
-13.49486 89.77784 -9.990029
-16.60794 87.06007 -7.161578
-13.31089 88.71101 -9.957212
-16.15393 82.21928 -7.395956
-15.01618 83.18645 -8.04454
-18.38315 86.10172 -5.196329
-15.6285 83.02076 -7.721649
-12.2695 84.62744 -9.181176
-18.15487 85.21392 -5.60086
-12.99136 83.02233 -8.677453
-15.93059 84.53622 -7.60666
-13.55953 84.82613 -8.870191
-15.74312 85.16724 -7.788424
-12.0245 86.49264 -9.974399
-13.49324 80.68827 -8.393218
-10.89402 84.4866 -9.3161
-12.1679 86.41355 -9.883283
-8.671227 99.76516 -11.1956
-15.13477 88.98434 -8.632088
-13.46506 89.37438 -9.961705
-14.6409 87.70971 -8.864716
2.813356 79.30219 -8.660006
20.64678 79.67542 1.575488
0.3078732 105.7179 -8.875109
10.05657 93.58481 -11.99987
20.54897 78.70713 -0.219434
19.36929 90.7085 1.062619
20.57365 78.25658 0.08883559
15.40247 103.17 -3.190453
17.03933 100.5138 -0.1404704
-0.02004635 78.70587 -8.677471
14.88245 98.41811 -6.730793
15.48086 106.9783 0.5089192
15.42995 106.2158 -0.6335229
20.37522 76.76151 -0.9777787
20.52459 76.47237 0.5526875
2.38523 77.31617 -8.737037
17.15695 76.93304 -6.819874
0.8618611 80.03887 -8.657239
0.2151632 93.67754 -12.77137
20.62325 78.5949 1.35843
-0.03083687 81.42901 -8.733728
0.270099 79.26196 -8.662339
14.41675 109.8184 0.157964
19.95319 76.84516 -2.652376
10.10551 112.0723 -4.385473
3.743899 77.40786 -8.732951
13.28537 112.015 -0.3491595
20.52039 82.78466 -0.2895663
0.692654 100.2121 -11.5624
17.37051 97.5071 -1.749168
10.84272 111.4695 -4.23038
13.00241 111.8158 -1.330415
11.08593 110.953 -4.329131
9.688196 78.13604 -8.699018
4.061939 80.01409 -8.654752
4.043911 80.47924 -8.665147
0.7413613 110.0172 -6.671854
7.469899 111.8301 -5.499365
20.58218 82.96453 0.501533
18.17714 77.59357 -5.794017
20.45472 79.79929 -1.094375
20.6569 80.8616 1.274615
3.602571 90.95023 -12.49138
17.71196 96.19996 -1.560243
1.260305 95.5038 -12.68073
18.24289 94.77985 0.4172786
15.12809 107.9709 0.3386064
11.3443 112.36 -3.247475
11.85233 111.8697 -3.064157
3.954464 81.6905 -8.758973
6.169545 77.69749 -8.719871
8.653798 79.24702 -8.654762
1.413441 108.5629 -7.322929
18.90723 90.70871 -2.554015
20.60827 82.35768 1.143151
17.97429 77.88169 -6.014543
19.16154 81.00082 -4.435383
15.98374 80.12534 -7.449579
20.65311 80.15042 0.606117
1.56685 88.24675 -11.58074
0.3375336 86.49805 -10.6751
18.80713 92.17802 -1.430303
0.7643439 103.2672 -10.21746
16.65813 100.9931 -1.393507
17.31936 98.63101 -0.7712365
10.30874 111.8535 -4.375386
12.84785 110.7999 -2.587264
12.1732 108.7073 -4.594084
10.04298 109.295 -5.751943
8.297882 110.5024 -5.819059
11.82782 108.9403 -4.791983
7.597462 109.8533 -6.209179
11.10177 108.373 -5.590115
7.975147 108.2699 -6.853973
8.525463 108.3778 -6.688103
4.707753 107.6771 -7.636478
6.482213 109.5089 -6.50351
8.313396 112.2312 -5.101122
14.05402 109.3993 -1.459459
14.20966 107.3848 -2.671549
10.19106 78.71252 -8.669559
0.8919144 81.58415 -8.756555
4.211697 82.51277 -8.894306
3.232162 85.81077 -10.27213
1.044469 83.98333 -9.348351
6.290694 78.32102 -8.690629
3.539043 106.7505 -8.286423
19.63059 88.98277 -0.8970072
19.81435 88.26848 -0.4936552
20.62128 81.63921 0.2432674
19.95724 81.36024 -2.82212
19.74444 82.18432 -3.274832
20.31978 85.08778 -0.3498424
18.90303 82.80467 -4.765203
19.97964 85.44042 -1.919493
18.29131 79.83206 -5.628603
18.14539 78.9757 -5.80739
13.87415 77.27881 -8.4518
1.456003 90.84368 -12.44534
0.8221745 93.60579 -12.77394
1.058079 93.05114 -12.74825
18.92683 92.19399 -0.3895917
1.63384 100.3454 -11.51796
3.165833 98.95727 -11.98817
0.5033394 101.6944 -10.97236
0.6776153 102.9122 -10.40029
17.02188 100.2461 -0.6010718
17.0199 97.89418 -2.750606
13.56322 110.6685 -1.405525
3.864525 106.946 -8.154663
4.736518 107.0438 -8.021355
2.872452 107.1039 -8.11392
14.4757 107.8822 -1.795342
13.36745 108.0981 -3.578527
7.616181 78.76801 -8.672212
11.01975 77.6522 -8.725828
1.769796 84.96547 -9.798948
0.7978024 105.6196 -8.926963
0.1099769 104.8261 -9.365479
19.34556 87.4287 -3.060611
17.47112 79.89686 -6.456041
2.51512 93.68059 -12.78316
1.401183 87.30082 -11.12432
3.005794 92.45229 -12.72202
2.359996 87.02588 -10.9792
18.80481 92.33666 -1.124651
19.43719 90.08473 -0.5752985
18.56717 91.96993 -2.686684
17.39643 96.7272 -2.424571
16.47238 97.47672 -4.462053
16.78056 97.50723 -3.73561
3.236306 102.2441 -10.74298
15.73828 104.1184 -1.630079
14.20662 105.0474 -4.11436
17.01257 98.78642 -2.024107
16.4521 101.9163 -1.330724
11.18667 107.4259 -5.995228
13.0069 102.4283 -7.065932
13.0936 108.8133 -3.560548
13.14217 105.2691 -5.408721
13.48037 103.9949 -5.743544
10.48054 78.57809 -8.676003
4.148685 103.6657 -10.02373
17.85732 81.68089 -6.070992
15.38294 78.18399 -7.850895
15.5159 81.50186 -7.702334
2.394306 95.50043 -12.68671
2.788616 87.07076 -11.00768
3.978888 89.43392 -12.06695
15.48738 96.97837 -6.541685
3.272683 97.5605 -12.35373
15.20426 102.9059 -3.773303
15.20501 99.24127 -5.834541
14.17528 107.0219 -2.974031
12.49468 103.3925 -7.097324
15.69093 98.86282 -5.20795
13.61554 100.1393 -7.53529
11.14398 96.03621 -11.09523
12.65277 102.8407 -7.22142
14.15582 97.33374 -8.121043
7.364124 107.9556 -7.111706
4.710235 105.0569 -9.239688
19.29911 88.83408 -2.511266
17.96517 82.6136 -5.952855
14.21655 81.11221 -8.188324
5.352606 91.54017 -12.64101
3.864123 85.41455 -10.03164
8.546483 85.03053 -9.726995
6.105764 87.7806 -11.43347
14.46087 100.2629 -6.418058
10.95203 106.6911 -6.550269
12.16295 104.7717 -6.670708
12.78207 100.1476 -8.382732
14.46853 100.4751 -6.298709
11.69162 103.4758 -7.76216
12.41566 101.5186 -8.087703
13.25433 100.4637 -7.763743
11.10993 100.7396 -9.518085
13.50864 100.5431 -7.461832
9.508063 98.30322 -11.32185
12.93168 98.56124 -8.895588
9.042979 80.41241 -8.642676
9.711056 80.97546 -8.662377
11.65291 81.56568 -8.672923
8.752742 81.52784 -8.702038
7.546191 91.2552 -12.49461
7.150839 93.23634 -12.74575
8.908425 92.24281 -12.33773
9.116897 91.33226 -12.20109
8.143791 93.83067 -12.58217
8.059314 94.42901 -12.56409
13.49058 94.31985 -9.72974
9.755636 89.56779 -11.67685
4.175531 90.67405 -12.44086
6.821235 88.5004 -11.77557
17.63134 94.94614 -3.21618
17.82364 93.10305 -4.064502
15.31435 100.2649 -5.070262
8.671303 105.575 -8.298854
8.957718 101.2283 -10.50916
11.34631 80.90731 -8.651175
5.863887 81.78249 -8.757908
10.99556 94.43632 -11.48671
4.613275 93.60195 -12.81873
5.76179 95.66317 -12.71301
5.573193 96.57494 -12.58705
4.360343 94.25101 -12.81099
4.100736 94.02573 -12.81591
3.589852 95.86038 -12.65826
13.07829 91.80868 -10.36565
16.53755 94.40069 -6.01008
3.593589 100.4018 -11.52106
9.965761 101.6167 -9.845949
13.93144 94.76595 -9.216956
7.009981 96.90282 -12.41475
12.65024 94.55602 -10.38969
6.441821 101.5625 -11.03869
9.142897 100.4482 -10.75453
8.851034 99.4179 -11.24208
8.199899 107.7368 -7.092006
9.537057 93.35145 -12.19509
11.34337 90.81 -11.33368
13.84307 97.08224 -8.557174
6.283045 101.7456 -10.96963
7.797395 102.467 -10.3567
5.271772 104.2614 -9.6944
5.121869 103.8733 -9.916408
9.669636 103.577 -9.014565
12.67087 93.00582 -10.60133
12.18331 93.25029 -10.90507
13.30125 91.38391 -10.21498
13.40841 96.54151 -9.182315
8.560899 104.3546 -9.069732
11.88242 98.86086 -9.689795
10.29687 95.91685 -11.58808
10.20793 96.71289 -11.45292
13.9606 97.1881 -8.390392
11.14326 97.80751 -10.5915
12.0065 97.81364 -9.975384
12.53282 92.48193 -10.72988
10.26431 98.58781 -10.86659
17.08415 92.81807 -5.741275
15.90237 93.71902 -7.239569
17.40636 90.99406 -5.801744
17.23393 92.49109 -5.599974
18.25925 88.95787 -4.838508
17.82193 90.13261 -5.305829
19.49856 85.05009 -3.410632
17.50167 89.28747 -5.969639
16.79982 84.712 -6.971381
19.23069 86.76481 -3.568677
19.1383 90.33488 -1.990527
15.66748 88.9523 -8.1355
17.29875 84.6759 -6.528866
18.39157 87.9488 -4.869354
19.16529 86.0896 -3.904995
19.25034 89.36877 -2.360685
18.60278 89.34235 -4.057621
19.20572 89.35254 -2.514631
18.49162 83.51208 -5.309203
15.35116 82.97073 -7.858648
12.26602 83.46506 -8.889512
12.47822 82.8826 -8.750895
12.02269 84.05338 -9.063683
19.72697 80.56066 -3.383556
5.790893 105.0337 -9.243295
5.217523 106.289 -8.461295
4.360236 82.83684 -8.963566
9.300016 83.88909 -9.15936
4.297975 84.98829 -9.790097
4.994932 84.73441 -9.646641
8.600099 85.15953 -9.8029
8.241531 83.49052 -9.069722
13.06676 88.33479 -10.02371
11.80174 86.52939 -10.09713
14.48363 87.19083 -8.880931
12.10411 84.88954 -9.322827
9.045725 84.6088 -9.474671
13.94059 84.7031 -8.703919
14.25935 87.83884 -9.15795
13.51118 85.55257 -9.045799
15.46929 85.86785 -8.024261
18.1662 85.77954 -5.542203
13.12034 83.86245 -8.816023
8.391452 87.27225 -11.14215
10.26756 89.25474 -11.46467
15.31846 87.54893 -8.307594
15.63433 84.38864 -7.801682
14.76602 83.65445 -8.198681
8.703502 97.35693 -11.91955
4.083499 102.6469 -10.55633
-9.871925 141.1746 6.722198
-14.46579 131.4391 3.143373
-12.53195 119.9916 3.081622
-13.66989 128.2166 4.680497
-14.80077 135.3381 1.262105
-13.37947 140.8124 4.861536
-10.62564 145.0431 2.878979
-8.494617 151.0101 -2.070266
-6.615562 147.0135 3.228038
-7.531184 126.7607 11.0212
-7.380613 140.2907 8.650695
-7.90409 128.9359 12.64447
-11.42669 143.7466 3.611278
-8.471347 152.3528 -4.644463
-8.0939 152.709 -5.515326
-5.73571 143.8011 6.023689
-8.934247 121.2244 10.5309
-6.905877 142.0185 7.205837
-14.23626 130.2194 5.834569
-8.43636 135.3721 13.24425
-12.90428 121.8014 3.721292
-13.09318 123.2755 4.751933
-5.600939 142.6822 6.930552
-11.33779 143.2774 3.994381
-6.345613 146.6804 3.596453
-9.530102 146.0491 2.59251
-10.4703 145.6041 2.43997
-7.938661 149.7941 0.1844608
-9.200746 147.2188 1.764882
-6.568794 148.2007 2.334703
-7.102304 151.9259 -2.61457
-8.870362 121.3668 10.58347
-13.60672 126.4355 3.625316
-7.58548 128.2201 12.08978
-8.820419 135.5799 13.08121
-8.232621 135.1441 13.3537
-14.65603 132.6371 2.834762
-14.80619 134.2012 3.006949
-13.38097 140.2464 4.908359
-10.70412 121.6285 9.175044
-6.774159 141.5291 7.655986
-12.36066 141.8144 4.510962
-9.154266 146.0295 2.829134
-6.826626 144.8044 4.932011
-8.513629 143.4711 5.394527
-6.044854 148.1257 2.613025
-7.951773 150.8845 -1.576437
-13.86495 128.5758 3.479431
-14.50585 131.4553 3.845799
-7.970616 132.5725 13.88827
-8.395167 128.9139 12.57391
-8.463804 132.6566 13.84076
-14.75823 136.9268 3.391786
-12.16406 122.0024 7.272835
-13.40816 126.6446 5.153074
-10.25844 122.4025 9.675626
-8.567933 141.6355 6.992082
-8.02377 140.3942 8.352678
-11.4698 141.1252 5.647095
-8.92399 143.7413 4.963586
-7.768603 150.7592 -1.261977
-13.60241 127.5778 4.569401
-14.54287 131.1167 6.611417
-9.927083 131.9459 13.48048
-11.50311 128.5307 10.90467
-8.385929 136.9329 12.15372
-9.397944 138.0325 10.72789
-14.61795 136.5207 4.829401
-14.27519 136.5529 6.220386
-12.38606 121.4258 6.70047
-12.2563 125.8356 7.593145
-7.774426 124.7037 11.1323
-9.405589 141.8553 6.36963
-8.958698 142.5951 5.95528
-14.25465 130.3395 7.263575
-14.76531 132.8919 7.77142
-8.671314 128.2449 11.97926
-9.552485 134.9539 13.23013
-12.24553 133.6047 12.10258
-11.42066 136.1852 11.45612
-14.77587 135.4876 5.069079
-13.44 125.9074 4.734132
-11.50571 140.5555 6.063234
-10.47699 140.0879 7.379591
-11.52853 139.1898 7.537081
-11.42285 138.9302 8.007156
-14.78831 132.4121 5.766862
-14.81286 132.5652 7.442272
-14.77082 133.9085 7.425893
-14.82051 134.3755 6.697897
-12.38905 137.0148 9.476153
-13.43276 131.8024 10.82717
-13.67382 138.1945 5.644972
-10.53146 138.0408 10.07994
-8.630522 139.2044 9.516836
-13.00171 138.1716 6.912146
-11.68572 136.756 10.62442
-12.44502 137.8591 8.240583
-10.67362 137.0391 11.18834
-12.9 127.531 6.97753
-12.81156 135.5268 10.5132
-11.71202 136.3198 11.08253
-10.52899 123.0413 9.473133
-11.0537 126.3472 8.84195
-11.07101 128.1475 10.84401
-12.88615 129.1476 9.927631
-11.60968 127.4118 9.154013
-10.92713 123.5785 9.123242
-8.392948 124.9366 10.77874
-7.76684 123.6423 11.25571
-11.63241 128.2759 10.50258
-14.25818 132.3581 9.417032
-10.68423 132.3329 13.19396
-12.84533 132.3744 11.62252
-12.65376 134.0964 11.55747
-12.93258 126.7175 6.481627
-13.77565 129.3741 7.576492
-12.72599 129.164 10.19982
-14.17002 130.3195 8.094584
-13.19607 129.909 10.26053
8.664591 121.9562 10.76212
7.967053 127.7809 11.65057
8.370511 152.6592 -5.860528
9.471086 150.9116 -2.302505
10.50716 139.0191 8.751364
6.421088 144.1707 5.53567
7.565699 150.284 -0.2892364
7.118926 152.5341 -3.376999
7.726525 152.9742 -5.203284
9.553768 150.3992 -1.294971
12.53801 120.2432 2.822644
8.109607 150.4209 -0.7471702
9.464092 121.1943 10.17032
14.483 131.2632 3.990188
5.90277 148.9235 2.139225
7.919834 151.8805 -3.227288
6.656043 150.2965 0.1418377
14.7466 134.4467 -0.22326
11.78164 144.0102 2.982855
9.304027 123.4687 10.40003
11.28095 142.3809 4.644492
14.70741 133.0764 2.561445
7.779417 150.3112 -0.4214764
9.515782 148.1589 0.7567934
9.612095 149.1744 -0.1426451
11.72792 121.4791 7.962281
8.995951 133.0426 13.76054
9.238251 139.2783 9.16361
6.5089 145.1582 4.734392
12.70295 121.0129 5.511713
13.02596 122.9116 2.987021
14.77492 134.3805 2.018206
14.79782 135.5979 1.94976
14.71611 136.7577 3.690449
9.20942 148.0812 0.9965864
7.577168 147.2019 2.64271
8.333007 129.1157 12.70738
8.378854 131.3277 13.70423
14.0381 129.3537 2.884263
14.32872 130.9325 2.190652
14.6086 132.6353 1.847916
7.826613 141.0259 7.761703
8.615987 135.3969 13.15234
9.434715 147.3088 1.52586
6.137098 142.686 6.776308
12.25058 143.3557 3.599308
10.86613 142.4759 4.772399
9.524832 143.311 4.940123
8.10015 143.6808 5.357999
11.83752 121.775 7.838434
13.30392 124.8914 4.827356
14.75916 133.2587 3.183361
7.983352 146.0961 3.371031
9.134843 146.3321 2.54191
11.65794 122.3108 8.186697
8.350598 124.6915 10.84643
13.35122 126.5975 5.353218
8.649423 134.0937 13.68122
13.6127 126.2818 2.817948
14.73426 132.4032 4.358006
14.34293 130.5313 5.27476
9.370615 138.9886 9.502246
9.88564 137.8081 10.78442
8.140118 137.9479 11.18912
10.66414 145.7366 2.166813
6.625865 142.7317 6.636236
12.56243 121.7808 6.375163
12.89662 121.692 3.936025
14.90804 133.0181 5.885808
9.761712 123.1535 10.08511
10.33698 124.7589 9.541308
11.02363 124.811 8.965293
9.149759 125.2041 10.28962
13.14149 125.0946 5.728476
9.92361 128.6611 11.99356
11.31946 132.992 12.88202
11.88181 136.4833 10.71286
14.01866 137.1626 6.13222
8.822715 140.2885 8.109668
10.42331 135.8945 12.36546
12.97418 135.0779 10.64769
12.21884 132.9832 12.21881
12.1035 127.0095 7.909874
12.06052 132.5586 12.34805
13.65428 131.1718 10.28673
14.00236 133.3051 9.879043
12.36882 129.8022 11.21466
8.828829 142.7244 5.845466
9.90719 140.7491 7.041962
11.19778 140.5574 6.249355
12.92494 124.5507 6.293931
12.15707 126.1119 7.709654
13.03645 129.6252 10.24973
12.91526 125.8676 6.465769
9.690427 128.978 12.32699
11.89941 127.7761 9.399824
10.12042 130.117 12.83754
14.30301 137.2413 5.259474
12.31596 139.9255 5.799263
14.40208 136.0758 6.380891
13.5467 128.6329 6.485106
13.40585 126.9369 5.217709
13.4318 130.6905 10.41479
12.18017 130.7323 11.86902
9.21451 129.0435 12.50398
11.30762 139.4337 7.409317
12.60064 138.6127 6.937474
12.85626 127.4906 7.016909
14.87383 134.4823 6.086405
11.16678 138.9848 8.193132
11.93066 137.2685 9.742216
11.53547 137.0905 10.42341
9.977001 136.6972 11.9185
14.3978 131.8514 8.915226
14.55483 131.6753 8.222537
14.02872 136.5794 6.908972
13.01795 136.4962 9.183443
12.29226 134.9381 11.49851
14.32842 135.1626 7.728074
14.85188 132.5401 5.741389
11.15453 122.5614 8.834743
-6.96215 122.7198 -6.245477
-6.591151 150.6596 -9.933976
-7.316169 127.1565 -8.242685
-6.711616 131.0028 -10.33137
-5.378812 138.6606 -12.67298
-6.637863 143.4669 -12.54989
-7.636226 127.9647 -8.570014
-7.625473 152.7785 -6.995073
-6.553728 145.9427 -12.13462
-12.41582 120.7284 1.88834
-8.940221 151.9821 -7.465962
-14.51481 131.9896 2.227171
-14.39087 131.2735 2.325056
-7.799106 150.7135 -9.55238
-9.85192 147.6337 -11.07799
-14.78663 134.9374 0.3267295
-13.17557 137.6043 -10.22084
-6.129238 119.2643 -5.407474
-8.876961 125.1293 -6.42704
-8.283382 130.4482 -9.583138
-14.7542 134.2344 -1.767062
-14.73055 134.1976 -0.2664866
-7.405468 137.2975 -12.42254
-11.00225 145.1023 -11.63082
-8.808948 148.1273 -11.09615
-5.948175 147.4491 -11.79821
-12.72686 121.5731 2.640156
-6.08905 150.1741 -10.40954
-6.561541 122.2574 -6.234241
-13.05355 124.6879 0.7923816
-8.123683 128.6839 -8.77092
-14.55455 132.3258 1.918967
-14.64805 133.5567 -0.4208673
-14.25555 131.5875 -1.203052
-10.84319 141.0146 -12.0001
-5.741083 136.1716 -12.20976
-12.23472 139.909 -11.37366
-9.326716 148.9035 -10.55652
-7.043952 147.7877 -11.56869
-7.049197 144.5876 -12.36718
-8.291062 146.004 -11.93886
-7.30828 143.8476 -12.47071
-12.05011 119.5154 1.183877
-13.00846 122.7335 3.278109
-6.713119 149.7821 -10.53927
-8.970341 123.4822 -5.411808
-8.208545 127.7645 -8.236189
-13.30897 125.2317 1.415314
-7.27767 132.1899 -10.68808
-13.62897 132.9766 -6.854396
-12.56202 136.3001 -10.08779
-13.99386 136.4922 -9.014032
-5.466318 141.9654 -12.68519
-7.846042 135.3018 -11.67831
-10.08663 143.5373 -12.09453
-9.58654 142.6513 -12.29108
-11.74982 140.4743 -11.64789
-8.018419 149.2576 -10.63051
-12.49212 121.8524 1.305767
-9.070092 119.8179 -3.758614
-7.767298 123.2486 -6.071836
-9.270121 125.9943 -6.668138
-12.85413 124.2091 0.5253081
-11.44824 123.0162 -2.080855
-13.75367 127.1988 2.029839
-12.68043 134.8616 -9.275331
-11.71562 139.7236 -11.56473
-6.750322 141.11 -12.76725
-9.060197 133.8127 -10.78259
-10.32386 144.1364 -11.95423
-8.379169 121.5094 -4.878667
-10.32737 124.8565 -5.056575
-10.91585 126.1507 -5.307343
-9.523212 129.0594 -8.283546
-12.63977 123.0379 0.868572
-13.92882 128.513 1.919976
-13.88099 129.1765 -0.2275632
-13.99459 130.4534 -1.406267
-14.52385 132.8321 -0.6393431
-11.58651 137.2582 -11.04692
-9.783433 136.7809 -11.67845
-9.422294 139.3203 -12.34303
-10.54762 139.3074 -11.98528
-11.781 138.3471 -11.28706
-7.996402 141.268 -12.64089
-10.28818 125.0252 -5.213866
-8.864223 126.0642 -6.971398
-12.03061 128.6992 -5.83027
-12.52692 127.3318 -3.582295
-10.20155 131.0803 -8.96974
-9.109641 131.3599 -9.665483
-8.092061 132.4954 -10.57215
-12.35608 124.3853 -1.21422
-11.46128 122.1443 -1.50487
-11.70256 123.6104 -2.038342
-12.57421 125.4951 -1.65082
-10.34626 121.5722 -2.994001
-14.01091 131.5161 -3.828497
-13.35643 129.0174 -2.953683
-11.29131 125.4316 -4.260084
-10.40861 124.6031 -4.802643
-10.19859 122.8 -3.852447
-10.32137 128.4517 -7.431682
-10.17556 132.24 -9.56848
-12.20399 129.4491 -6.164429
-13.66933 130.1222 -3.138787
-13.39762 127.8862 -1.352314
-9.156682 121.6722 -4.326266
-10.48734 130.8683 -8.689063
-11.21828 132.0443 -8.836911
-13.81799 130.9091 -3.788565
-12.07969 131.2963 -7.644867
-13.87441 131.6234 -4.730578
-9.912243 133.1144 -10.10778
-11.3841 134.6475 -10.04208
-11.35361 132.4233 -8.944245
-13.29384 131.8564 -6.441127
-10.17573 136.0491 -11.23421
-10.04365 132.5122 -9.771971
-1.982385 118.9754 -6.645355
-6.211512 120.1064 -5.60008
-2.517442 121.2646 -6.818575
-0.4922808 131.9236 -10.90139
-0.7646661 133.8765 -11.54754
-1.453325 145.2322 -11.90932
-4.885225 150.9054 -10.18274
-1.085356 130.3426 -10.24894
-1.870819 119.235 -6.477459
-6.381624 126.7901 -8.32959
-3.749713 119.2572 -6.300238
-2.259836 135.2268 -11.90176
-4.307481 135.7225 -12.06702
-3.420752 149.9022 -10.82242
-2.950779 150.95 -10.32895
-1.130713 149.5454 -10.90526
-3.056531 119.8155 -6.38462
-6.165164 123.0672 -6.742594
-2.423801 121.5347 -6.901308
-5.530215 122.9713 -6.921772
-5.973295 133.2616 -11.33337
-4.770304 132.2397 -11.04152
-2.250072 145.8374 -11.8546
-4.324844 148.8607 -11.25617
-6.121006 123.6976 -7.020242
-3.100584 123.5009 -7.578879
-2.029155 122.2245 -7.1272
-2.203912 125.889 -8.453468
-5.335731 126.9683 -8.651709
-5.010257 130.4029 -10.27805
-2.231687 130.7679 -10.43417
-4.983536 137.6468 -12.49136
-1.176614 134.1577 -11.62851
-3.834286 143.7591 -12.27128
-1.033857 143.4895 -12.12426
-1.090318 143.1516 -12.16189
-3.342995 147.0026 -11.73303
-1.895665 145.0761 -11.95163
-2.209124 124.9585 -8.138912
-6.177588 125.2822 -7.687015
-3.560277 127.923 -9.230591
-5.411515 128.0932 -9.167292
-3.671469 130.8758 -10.48297
-2.488304 130.664 -10.3899
-4.002021 132.1355 -10.99827
-2.813921 134.965 -11.84578
-4.535639 138.1176 -12.51324
-0.7079358 136.912 -12.19505
-2.773643 144.3 -12.10932
-1.942345 142.1813 -12.29014
-3.778989 145.5888 -12.01834
-1.021968 140.3264 -12.36604
-1.653126 146.3351 -11.73927
-4.171428 126.3096 -8.541942
-1.097815 129.0835 -9.692619
-3.638695 138.6124 -12.47983
-2.330173 136.1249 -12.09217
-3.293661 139.8811 -12.49507
5.242926 136.3426 -12.24027
14.4899 132.2368 0.8567827
7.179803 151.3647 -9.15149
5.722349 122.8562 -6.813777
14.28208 131.7054 -1.18425
10.80918 137.4598 -11.49615
13.05525 136.857 -9.998572
10.05304 144.5252 -11.95831
10.20846 145.1272 -11.81016
6.034924 120.2316 -5.71687
5.788747 132.4552 -11.0643
5.542956 122.7142 -6.82127
6.178402 125.3324 -7.699903
6.251337 151.7137 -9.182462
12.97972 123.1803 2.280759
8.090005 137.9978 -12.47525
11.4695 125.6822 -4.164803
8.467735 146.6248 -11.72724
13.04803 127.106 -1.823333
14.69935 133.9727 -0.5996884
12.82421 121.9921 2.735244
12.88889 123.122 1.82525
4.427042 140.2237 -12.61978
8.882154 130.7448 -9.468668
10.67488 139.9182 -12.00263
5.144719 146.8077 -11.94423
10.49875 143.5575 -11.98733
5.524702 119.5241 -5.708892
7.173841 149.6062 -10.56111
13.62673 126.3733 2.285259
6.538892 123.0985 -6.603065
6.732548 123.2 -6.558244
8.571647 125.4826 -6.79027
14.37768 132.25 -1.562383
13.5665 126.2026 1.841054
12.62713 124.8395 -0.8690481
9.816915 119.7391 -3.016073
9.12146 119.9369 -3.745743
4.83831 137.2973 -12.42014
12.82136 137.6072 -10.46195
13.37768 134.9171 -8.688651
4.982254 143.1305 -12.4962
8.708621 144.0031 -12.2926
9.187285 141.6689 -12.41949
8.262714 147.9267 -11.30114
13.76759 127.359 1.830956
14.12286 130.1395 0.7609326
7.377843 121.9836 -5.709451
7.666449 120.7108 -5.040775
9.525255 122.7719 -4.555262
12.94116 126.3601 -1.406664
8.3842 126.897 -7.680685
13.71889 129.5204 -1.840748
6.611051 119.5293 -5.248805
5.667236 139.1962 -12.74472
6.548056 137.2804 -12.49012
7.400018 135.1378 -11.71641
9.532925 135.7511 -11.36051
10.35515 139.5787 -12.07838
14.45367 134.3701 -6.604786
4.569291 145.0762 -12.1783
6.843307 142.0748 -12.68314
5.87326 139.8285 -12.79365
7.156785 145.5392 -12.17523
13.43724 125.9699 1.158262
12.86502 126.0945 -1.388421
12.86606 127.0668 -2.34102
13.49204 131.1792 -5.333889
14.02227 129.5663 0.5035625
13.02573 127.776 -2.615458
7.181984 123.9467 -6.69716
10.55566 122.7057 -3.339218
11.87156 128.5685 -5.949774
9.74581 126.7275 -6.796757
14.25289 131.8959 -2.766486
13.50634 129.2831 -2.655019
13.08795 129.7131 -4.733039
6.193719 134.0986 -11.57835
12.25634 136.031 -10.16799
7.180597 129.8269 -9.671278
7.076527 140.6817 -12.76778
7.609056 140.0757 -12.73554
7.539045 148.0741 -11.37914
11.76569 123.741 -2.022284
10.81836 126.8609 -5.968705
13.04015 129.4944 -4.627111
11.20219 121.836 -1.83057
10.00908 125.4183 -5.75183
7.71955 127.9021 -8.505441
13.47877 131.5151 -5.701763
13.88385 131.5192 -4.484515
8.486558 135.0729 -11.43885
9.00497 133.5882 -10.71758
10.47351 134.4502 -10.4338
8.73614 141.4185 -12.51736
9.600656 137.0381 -11.83409
8.039891 132.5809 -10.62414
7.590798 137.678 -12.5103
7.891119 143.3369 -12.48572
10.96974 126.911 -5.829128
11.09603 128.3409 -6.691188
13.40139 133.9838 -8.019404
13.20092 133.4426 -7.865018
12.73388 129.3416 -5.1783
5.851126 144.418 -12.39112
10.24956 130.1478 -8.441278
9.958791 129.3716 -8.19287
9.469615 130.6546 -9.152363
13.64856 131.6502 -5.421143
11.41883 131.6042 -8.439395
12.67829 133.2744 -8.32325
12.98063 132.805 -7.687922
11.64671 126.9945 -5.015293
9.452904 125.6192 -6.318692
8.405807 128.5749 -8.583017
8.444118 129.4566 -9.037273
12.59645 123.2717 0.5479656
11.76789 123.1579 -1.546079
8.319016 132.15 -10.3504
3.795033 118.6011 -6.222039
3.79501 119.1065 -6.105633
5.100856 120.0368 -6.001349
3.912132 125.9767 -8.443319
4.026479 143.3173 -12.33282
4.193981 118.6534 -6.110025
3.255941 141.2767 -12.43169
1.139569 148.2234 -11.30555
2.397717 118.9069 -6.552479
1.856571 148.5872 -11.22645
0.2193155 126.3956 -8.653198
0.7881015 138.2007 -12.32363
0.4431199 133.4307 -11.41258
-0.2621751 144.5453 -11.97905
2.964217 119.4593 -6.300599
0.5442542 119.4935 -6.279482
4.261503 150.0795 -10.72152
2.469317 120.4861 -6.58222
4.118217 120.7209 -6.470667
3.128657 127.3009 -8.983986
3.011178 125.313 -8.242176
1.892984 130.2906 -10.223
3.927099 136.2961 -12.16896
4.035784 140.8609 -12.54257
1.812068 148.0761 -11.36558
2.563343 148.2607 -11.35333
1.69566 122.6179 -7.247689
1.629252 123.032 -7.397411
4.823004 122.1088 -6.788155
0.8044074 127.3005 -8.989682
1.28224 129.5262 -9.883529
4.929289 126.2913 -8.419345
4.163929 132.6398 -11.17196
0.2608266 132.3982 -11.0744
3.036824 146.2534 -11.83351
0.7586406 139.8058 -12.36198
1.106147 144.6339 -11.97847
0.09720178 137.8411 -12.28866
0.3478145 144.5127 -11.98378
3.558506 123.5047 -7.5508
3.836034 128.5472 -9.463563
4.682591 126.6403 -8.614622
1.671609 131.035 -10.54588
3.367713 126.0035 -8.503237
2.584797 132.528 -11.1248
0.2444876 133.761 -11.50937
2.094097 131.9806 -10.92629
1.82924 147.2374 -11.56138
3.354344 140.4528 -12.47652
2.32102 140.7524 -12.38858
2.708782 143.0392 -12.23849
1.968726 143.7464 -12.11894
0.01763661 145.9665 -11.76362
2.766097 125.5275 -8.33567
3.982983 129.4345 -9.842952
1.090307 126.127 -8.557549
0.09713992 135.5331 -11.95313
1.190749 136.1173 -12.076
-7.0248 132.8068 13.87808
7.801296 129.998 13.26479
0.9763504 122.1516 12.03354
-5.104095 121.6784 11.82458
-5.209957 122.254 11.90579
-7.178913 131.2301 13.73284
-3.141713 148.0113 3.685411
-4.115051 150.688 0.9139005
-4.675419 142.7308 7.026049
-5.645166 151.3263 -0.5897349
-5.647661 124.9959 11.89948
-4.428697 123.1982 12.12184
-2.838572 125.4739 12.26638
8.335441 133.5431 13.79389
-2.059183 123.4042 12.18028
7.001812 136.8133 12.30876
3.442431 141.2174 8.263736
4.081692 150.1708 1.351677
2.268611 148.414 3.552732
5.764036 150.2288 0.6267206
4.248701 150.8074 0.7783433
-6.990016 134.6961 13.51888
-1.48142 149.3354 2.622661
-4.712501 150.9538 0.4236191
-2.466635 149.1615 2.887585
3.147053 149.0358 2.927771
-5.517748 128.1937 12.0921
5.529031 124.6188 11.98006
3.685312 124.09 12.22868
-2.1941 124.2843 12.2619
3.370033 124.5713 12.26269
7.856266 134.2206 13.69946
5.74261 132.6825 13.77277
-4.22779 147.0623 3.991669
5.547529 140.9019 8.332991
4.951691 148.2814 2.963803
2.21102 149.3898 2.59352
-6.056695 126.6074 11.50918
6.604866 126.9343 11.3493
5.246886 126.2873 11.78147
3.933108 122.8668 12.0796
0.5026051 124.8963 12.2809
1.22702 122.7128 12.08398
-7.451593 132.6041 13.91976
4.853379 130.8819 13.45135
-6.383006 138.4786 10.71059
6.532176 133.2131 13.81689
7.087933 136.006 12.89555
6.161296 137.8574 11.32815
-1.962323 148.7097 3.297229
-4.242754 146.7744 4.176907
5.690119 141.8308 7.539556
4.506019 142.3091 7.317987
2.113661 147.88 3.882779
0.2224726 149.647 2.289207
1.047053 147.288 4.217937
3.578452 149.3985 2.459693
1.716992 146.3969 4.767642
2.489039 146.4974 4.655918
-4.295914 125.7528 12.11464
-4.944142 125.5193 12.00943
5.363251 128.8566 12.50793
1.15572 125.2879 12.27148
2.136942 124.3666 12.26842
-4.275817 129.3113 12.75521
-7.01063 133.4335 13.81605
-4.675223 136.0181 12.67178
4.854148 131.3216 13.56956
-5.326888 137.4978 11.61232
3.689152 136.3419 12.42092
5.078852 136.0985 12.64235
3.787335 136.4452 12.35799
-4.789199 146.3267 4.347689
-5.24816 141.3388 8.059998
3.413739 142.1789 7.521331
3.240594 140.8713 8.551453
3.373359 149.6749 2.129961
3.340221 143.6995 6.423848
-3.413715 128.2952 12.21322
-2.681594 129.7438 12.94755
2.288065 125.095 12.26948
-3.329103 131.1391 13.45709
-4.379337 136.6496 12.23525
4.338738 129.258 12.72069
6.390118 131.7085 13.76723
-3.711859 137.1076 11.86003
-3.442833 139.8111 9.471087
6.679066 132.9039 13.85698
-4.039464 144.2026 6.010566
-3.748489 143.0636 6.87334
-2.021033 144.708 5.858748
-3.531939 146.7239 4.364025
-2.627482 145.328 5.403147
-0.7261569 145.1876 5.581847
0.508233 147.1481 4.303155
4.935619 140.0251 9.175912
-1.842217 138.5455 10.6079
3.22789 140.0784 9.217009
3.66654 144.0066 6.174597
0.764393 145.1638 5.587954
0.4066529 127.3967 12.11795
1.869228 127.2591 12.1334
1.413351 126.2251 12.22269
-1.649838 130.6353 13.30197
-0.2899512 128.5191 12.35281
2.943843 135.4165 12.92434
-5.538352 132.7083 13.74436
0.7496257 130.1633 13.10565
-1.891948 138.2406 10.87512
0.3795314 140.6671 8.803736
1.376146 143.4644 6.715726
1.137888 145.1046 5.619234
1.889362 129.6164 12.87125
-2.672652 126.6292 12.18879
-4.614812 135.1158 13.13092
3.742399 130.631 13.32791
-1.835454 135.8349 12.6671
1.109158 142.3911 7.479652
1.322446 141.3858 8.223055
-2.357616 141.9698 7.770418
-1.644474 139.7363 9.565017
-1.541575 140.7149 8.758504
0.03728312 127.8847 12.15302
2.729733 133.1738 13.57642
1.858263 136.834 12.01647
1.332026 136.8954 11.9599
-2.332147 136.1502 12.49451
-3.800348 136.3373 12.42917
-0.2824273 139.7842 9.529544
-2.534813 145.7692 5.124083
2.985905 133.6165 13.51492
-0.3466933 135.6673 12.7374
0.9555997 134.5005 13.25239
-1.15009 135.1042 13.02106
3.272573 138.2473 10.87627
3.793644 133.0136 13.62845
2.714959 130.7207 13.33116
0.9993132 132.7851 13.54672
2.737516 123.065 12.11232
5.482272 133.7364 13.65029
-2.697303 127.4789 12.04613
1.731234 131.998 13.57707
0.6712924 130.5991 13.26803
6.207143 116.0046 -5.00599
6.731659 114.9487 -4.912514
9.351577 113.1349 -5.151469
12.13134 113.0761 -3.602924
11.30698 114.3144 -2.944251
12.89572 113.714 -1.969399
2.649451 113.0305 -5.823015
8.550084 114.7502 -4.235191
5.611259 113.2062 -5.966248
13.01601 113.0257 -1.88393
11.863 115.0141 -0.7891267
11.22625 115.4575 -1.579258
11.76678 114.3119 -1.764699
11.82862 117.7931 0.6099771
5.742246 114.8222 -5.984565
-3.345666 115.1644 -6.539793
7.435359 117.4274 -4.528459
7.50798 115.0824 -4.586818
4.151108 117.7866 -5.799578
5.62367 117.5684 -5.312708
-10.97006 116.6845 -1.384039
-3.719223 116.9304 -5.762451
-0.9862812 113.1655 -5.763526
8.980623 118.1303 -3.536553
-6.114725 117.8488 -5.157187
8.995163 115.6934 -3.730693
-1.587274 114.3525 -6.54224
-5.807316 114.4606 -5.354639
-11.7911 112.9489 -2.346592
11.50873 118.7933 -0.1655535
-12.27174 113.8345 -0.7476724
10.10941 114.6834 -3.873525
0.8134629 116.2574 -5.711782
9.667855 117.6353 -2.994714
-8.711583 113.9627 -4.321627
-11.46927 118.4446 -0.2232843
-2.940896 117.7565 -5.980207
-8.876498 116.9551 -3.720908
10.67328 115.3812 -2.448798
-10.38778 118.6636 -2.159367
11.49348 115.9019 -0.9197826
-10.77635 116.9762 -1.810642
-4.83282 114.6625 -5.979433
-5.952073 115.0503 -5.620393
-8.310131 116.4931 -4.625606
-6.883533 116.3459 -5.593788
5.106366 112.3695 -5.784437
7.83227 112.7336 -5.40234
1.844509 113.6763 -5.953957
7.405663 114.38 -4.857625
-9.177888 118.4833 -3.460725
-6.124324 115.9113 -5.045287
-4.63315 117.9144 -5.670599
0.08785623 115.2807 -7.203337
1.330856 111.8509 -6.079822
2.64403 114.6731 -7.0334
4.014705 115.2327 -6.413488
3.292379 117.7032 -5.937077
4.988663 115.07 -5.384876
-2.096108 115.873 -6.795765
1.47613 115.3137 -6.799579
1.270927 113.6104 -5.898533
1.346869 113.5479 -5.88063
-4.271992 113.6044 -5.788875
-5.733275 113.6594 -5.383795
-6.623659 114.7555 -4.993568
4.261113 114.8776 -5.561747
7.28459 118.4152 -4.701755
-1.073701 117.4418 -5.888548
-3.9439 112.3793 -5.933146
-9.347539 113.6954 -4.055686
-13.12631 113.3473 1.921354
-12.88608 113.7636 3.961673
-9.900465 117.9001 9.220655
-9.889466 115.6242 8.844557
-11.83457 112.946 7.184651
-9.057872 120.4915 10.30297
-9.01819 116.9991 9.70092
-3.924998 112.6391 11.69874
2.106602 111.8456 11.83032
3.690287 112.3974 11.74163
13.31314 113.1768 3.84421
-10.85962 118.2552 8.412745
-3.75121 120.3282 11.83844
4.45151 114.3224 11.57156
7.687907 120.1469 10.9167
-12.62436 120.1449 5.274163
-12.77723 114.1264 1.547189
