# .PCD v0.7 - Point Cloud Data file format
VERSION 0.7
FIELDS x y z
SIZE 4 4 4
TYPE F F F
COUNT 1 1 1
WIDTH 1660
HEIGHT 1
VIEWPOINT 0 0 0 1 0 0 0
POINTS 1660
DATA ascii
19.25494 83.24416 6.287776
19.13345 65.23799 7.043561
19.32378 64.56125 2.516222
18.54413 56.52235 9.747434
19.01454 56.2597 1.852028
18.22794 80.61227 8.077681
18.44938 55.79413 5.85423
16.67906 18.83921 13.10816
16.86724 21.94009 12.97593
18.74532 62.12094 5.328405
18.33595 54.62741 5.736063
18.05419 26.02271 8.158471
12.72612 20.711 12.76447
18.25195 56.47826 5.025097
18.46714 57.01652 9.842523
18.85516 54.47438 7.663713
16.93793 58.4517 10.78084
18.22985 62.60499 9.834288
16.73914 57.33379 10.88424
18.04073 53.1246 10.49981
15.58767 58.8713 10.99546
18.00226 50.80729 10.77237
18.46812 49.68568 6.810879
16.29465 62.51558 10.66677
18.14415 52.58086 2.380922
18.36407 52.26841 10.23008
19.39797 56.17159 1.614602
21.22622 48.15816 1.160237
-11.14288 127.5933 10.06635
-12.3926 142.5662 4.652139
-14.25424 143.7449 3.174998
-13.77516 137.8869 6.078307
-7.71582 142.0725 6.582168
-12.11671 138.8634 7.49445
-4.778167 137.6308 11.40758
-6.673156 138.4666 10.6977
-12.17187 139.3093 7.007239
-8.624618 133.9762 13.54707
-10.32395 136.5852 11.78103
-8.858523 126.8768 10.90982
-11.25001 138.3743 8.994546
-13.18762 136.6671 8.607562
-13.72369 129.5389 8.207771
-13.69815 133.1062 10.34211
3.154182 134.9176 13.01747
-9.943507 134.2541 13.21713
-12.01889 138.2439 8.285204
0.1551719 133.0437 13.39095
1.92588 134.1325 13.22075
-7.710349 128.5426 12.32606
-4.937456 135.6761 12.80498
-2.038979 132.8199 13.44891
-12.61767 139.4403 6.541556
-8.311516 129.5662 12.90238
-4.693613 129.8913 13.08786
5.636699 134.3933 13.34809
-10.09525 127.455 10.75264
-9.327702 126.4933 10.48015
-10.78149 128.9475 11.66341
-12.11838 129.1157 10.70344
-3.862248 126.218 12.16812
-3.92854 127.8122 12.389
-2.580938 123.7988 12.1801
27.90912 22.56396 2.906163
27.85638 26.13007 2.612619
26.00309 22.74691 3.044585
28.50705 20.69953 2.900445
-20.81824 19.28287 7.089025
7.788112 139.9513 8.755832
6.758611 140.2343 8.642126
4.15629 140.4971 8.5831
11.73114 136.9643 10.2125
7.581267 133.6837 13.66761
13.45951 130.0506 9.514302
10.08882 134.2068 13.06278
13.16588 137.2027 7.800479
12.34178 137.4539 8.829588
11.46024 130.2132 12.00622
11.96464 131.3634 12.11413
8.962276 127.645 11.36591
4.164067 133.8804 13.3771
7.535244 134.7343 13.40128
11.58652 128.617 10.66766
13.57284 143.2654 3.724419
7.043478 130.2304 13.31224
6.211266 126.5792 11.74673
8.829922 122.5846 10.64661
8.665063 124.4461 10.67772
5.311283 133.3039 13.55866
3.483562 130.7231 13.28735
3.115686 131.2941 13.39537
2.668319 128.1485 12.5347
-1.254167 132.5237 13.43792
17.52928 94.85307 5.04159
-12.16104 117.2078 5.653955
-12.43345 109.7945 7.890563
-15.97079 104.343 4.766593
-15.01405 103.7767 6.803574
19.45146 22.47069 0.832728
19.02818 22.62831 0.7978157
23.51998 20.98516 2.369274
12.84725 144.9258 3.028731
-13.98218 109.9285 5.146053
-8.10052 109.677 10.50524
-12.21251 123.1366 7.471868
-10.91593 118.9697 8.468494
-9.595291 121.6006 10.07026
-10.3739 120.3403 9.292241
-8.439098 121.4483 10.79959
-13.02331 145.3039 2.709517
16.47718 21.37923 9.857902
18.07643 24.66651 8.505725
17.06966 21.22474 10.64624
16.33489 21.77756 13.06303
11.93674 15.6331 12.75396
16.18799 26.19695 12.83793
24.43376 53.33643 1.577955
24.62945 49.96508 1.690232
25.75391 34.10783 2.440509
25.22989 34.1972 2.389664
22.8249 35.11055 1.724942
21.54302 32.0806 1.348694
23.14582 39.25522 1.729193
21.55618 35.46865 1.295032
21.98816 38.60925 1.362346
18.2921 28.98487 0.8808913
21.27917 41.01576 1.178698
17.16405 34.36558 1.378198
19.94514 33.30852 0.9743373
16.31701 35.10056 4.508176
15.80179 31.38318 2.518984
17.29026 31.04442 1.152546
16.39694 39.27541 3.05335
16.61323 36.00854 1.86805
15.541 26.34595 4.566991
17.49829 42.06296 1.858977
16.18349 18.07706 13.24761
18.57999 50.1063 9.704631
17.7411 48.96999 2.281497
17.10892 47.73163 11.32737
17.32089 48.58678 4.345855
18.86486 43.73155 1.213004
-18.16891 43.88847 4.443089
-21.95557 47.90594 4.812425
15.81009 101.5488 6.019589
-1.43206 21.67429 10.62943
2.145505 21.27971 10.76479
3.964357 24.69157 10.81837
-20.26464 63.43305 3.811934
-21.16608 66.49037 4.120177
-18.64738 23.47897 6.632835
-19.51002 22.50108 6.80953
-18.94818 23.44695 7.981551
-20.45455 21.03823 8.07631
-14.9158 21.28611 8.585719
-13.49 32.94873 9.320147
-14.11213 20.54567 8.82419
-4.132702 24.10104 10.61524
-3.072858 19.90131 10.62408
-4.821599 20.84341 10.59334
-10.63594 22.94178 9.928759
-15.87967 27.25989 8.435673
-14.08163 29.06979 9.023716
-20.3336 24.36693 8.211847
-24.73076 26.14833 9.036757
4.443685 26.1811 10.82618
6.518945 25.21969 11.12129
1.18638 25.32612 10.62572
7.173703 28.34541 11.13177
-1.34187 27.41847 10.5663
-2.233082 23.52767 10.61073
9.466847 113.9256 9.159575
11.50343 118.4823 7.585522
-22.57335 71.09856 4.95019
-26.54137 27.03729 5.937352
-23.65549 50.78714 5.098554
-21.85062 48.69897 4.779041
7.990553 114.3771 10.02416
18.92174 64.34856 4.285564
18.37779 82.43585 7.663391
16.26789 75.19322 9.81229
15.48968 27.5974 12.85124
18.18604 26.86261 8.508214
18.05329 27.26848 11.4619
14.66847 82.88305 10.05996
15.69413 63.32359 10.71013
14.02989 62.9744 10.85797
15.59734 52.31413 11.44472
17.75995 51.18892 4.900159
22.80307 55.41217 1.381863
20.196 45.89297 1.09915
-13.75867 136.7238 7.333894
-7.996821 140.948 7.578052
-14.24969 134.536 8.641459
-12.55851 127.1669 7.702044
6.042006 139.5593 9.432775
18.51319 91.73904 4.694201
-12.29342 109.6726 8.073091
-11.39672 118.4286 7.757905
-15.90611 98.6537 6.433981
-14.57959 101.4272 7.480348
-13.06246 103.4351 8.578979
-17.83029 34.6168 5.049169
-15.49027 97.36423 7.328836
-15.41772 94.79411 8.091192
-17.12013 89.17297 8.210792
-15.37119 96.65292 7.596013
-13.59195 96.40507 8.783696
-8.467635 99.71986 9.65763
-4.260796 101.3993 11.03494
-7.182717 118.592 10.76709
-6.426708 116.1346 10.8491
-7.169525 117.6816 10.6442
-12.04887 147.13 1.579921
21.1744 27.7206 1.254181
24.76756 29.22408 2.559261
21.58717 29.28521 1.387779
16.60921 41.06715 3.636215
16.54156 35.41547 4.954584
15.16011 24.8531 2.298242
17.52166 26.64416 0.9539305
18.23637 26.0081 0.8562993
-20.9944 80.10987 5.098913
-20.63129 80.98814 5.44172
-18.37581 87.03102 7.171434
-19.98409 44.74952 4.832805
-23.23391 43.10533 5.027092
-22.5063 40.78843 5.000699
13.60547 100.9073 8.153152
-23.50026 27.13465 5.509897
-19.94484 24.79267 6.42816
-16.92415 24.72353 2.660399
-12.94288 18.4815 9.149508
-11.11817 20.16792 9.725959
-9.472964 24.38571 10.22266
-14.30383 27.72667 8.916769
-18.36573 28.41299 8.171235
19.41591 70.69347 5.536818
19.31112 73.28647 6.969884
10.59175 25.02991 12.00157
12.31082 31.27324 12.19508
12.41008 29.22387 12.30746
-5.205027 26.5747 10.61773
-21.8638 71.93671 6.636009
-20.23801 78.03049 6.824031
-18.6118 82.33659 7.527384
-18.17179 74.04654 8.444644
6.155798 61.67042 10.4162
-15.34519 70.98821 9.662539
-13.11595 72.04911 10.22902
19.09359 64.60604 6.833786
15.37106 72.14973 10.25686
15.11391 74.3688 10.19491
13.42801 82.54904 10.20931
18.43601 30.60542 8.717269
15.79785 31.03493 4.373037
17.52003 29.55201 6.861577
17.06327 82.44089 8.914783
13.58347 59.57714 11.02978
13.62354 55.5508 11.22579
8.339475 60.01178 10.58781
12.5042 57.30091 11.06272
11.67946 56.09332 11.02547
12.12719 49.0549 11.35809
14.3117 53.11908 11.39701
13.24476 48.02524 11.57495
9.340053 47.82876 10.964
15.00075 44.71951 11.90945
16.49642 48.07119 11.58094
16.55375 45.26381 11.68959
18.01452 41.63721 6.59646
18.6703 42.81015 8.478742
18.48007 41.98708 10.16484
16.96257 42.06219 4.455648
18.49445 40.14376 7.998314
18.52258 47.43492 7.241937
18.88681 45.27782 1.310924
-4.878924 140.3026 8.733909
1.293242 128.8999 12.76431
-17.2008 29.00607 2.381103
-11.146 113.4485 7.844784
-11.11806 110.9474 8.610503
-8.018559 109.5394 10.5596
-10.82457 107.819 9.607317
-9.050076 101.576 9.768353
-12.33227 102.4323 8.868328
-14.82386 87.29282 9.87881
-9.706983 93.1597 9.559973
-6.087806 97.64444 9.766978
-10.28236 103.7031 9.652165
-7.268829 107.7079 11.04292
-7.463911 97.13789 9.558785
-1.559274 97.35225 10.17214
-5.928123 111.0279 11.31489
-5.496431 109.8314 11.64341
-4.534534 100.8981 10.81957
-2.250901 108.5089 12.2423
-4.300335 109.9066 11.92311
-5.926267 110.474 11.37303
-6.361731 111.325 11.08123
-18.40758 86.80727 7.167931
20.39692 28.12877 1.030048
16.87924 33.21523 5.754675
18.1767 33.77914 7.674605
17.81219 35.07806 6.974606
16.63105 34.48015 5.28367
19.04556 24.13272 0.8198174
-18.10204 80.41387 8.159699
-16.47044 80.58693 9.302698
-17.2028 88.10577 8.346841
-17.58327 90.64966 7.211201
-13.42455 85.70386 10.23614
-17.61749 86.20068 8.248864
-16.5555 92.87178 7.645683
-14.94487 93.2057 8.826793
16.7751 98.80565 4.749401
15.82773 97.95587 6.730389
-16.74163 29.13428 3.741198
-13.30801 30.38237 9.321195
-11.31632 31.29644 9.96183
-8.900578 27.73642 10.40501
-5.827693 29.16147 10.61909
-7.624976 32.12338 10.59357
-2.96274 30.65714 10.56243
-4.509032 30.78211 10.60359
0.1779627 31.4916 10.50548
-16.05712 29.40741 8.46161
-18.65367 26.73476 8.121439
18.51652 68.93491 9.018879
18.07668 71.57126 9.253447
13.27659 75.7907 10.35893
15.16705 28.24731 12.82432
18.30935 28.7074 10.74618
7.495914 31.76481 11.09052
3.209938 27.97117 10.68025
-0.1747135 30.97835 10.51298
5.047716 30.44884 10.78589
18.01742 37.57909 11.17333
-7.08135 23.61218 10.50951
-11.78063 71.34953 10.37003
-19.37272 31.07145 8.327002
-21.22106 29.85389 5.755848
-19.8662 32.8732 5.690275
-24.06011 29.77832 5.331921
12.61332 81.64094 10.23363
12.459 81.37907 10.24019
13.21573 82.84669 10.22792
16.6199 86.71222 9.032523
11.5206 62.84412 10.78455
2.550277 70.21797 10.22739
10.91735 65.1311 10.67508
6.189721 62.9968 10.40223
0.1860125 63.38446 10.22811
2.407683 59.87764 10.27304
8.135011 56.11944 10.64019
10.22708 52.85476 10.94825
9.604055 49.52567 10.95687
16.59155 39.74173 11.98436
16.28738 36.37144 12.2779
18.53839 34.43224 10.0288
-8.524652 114.8352 9.734874
-8.898564 116.7353 9.71385
-9.769995 97.01045 9.327895
-7.961609 93.36873 9.573152
-4.006372 101.0321 10.98102
-5.396403 104.1147 11.33742
-2.471934 103.0603 11.83546
-6.283253 120.9718 11.43779
18.55882 37.91794 8.365551
-14.30475 76.08161 10.04516
-12.98472 72.7324 10.24834
-15.44962 78.69999 9.756188
-25.55219 43.05601 6.650222
-11.99254 33.26409 9.81913
-12.50039 31.86899 9.622291
8.73846 25.96192 11.5087
16.06387 44.9307 11.80259
11.61986 46.56462 11.37532
12.99681 47.21395 11.58302
10.81318 32.09893 11.78249
-23.54599 29.276 5.383482
18.60508 88.11115 6.544823
16.06067 85.94072 9.452011
17.713 91.68658 6.538102
6.238231 65.69929 10.37556
8.819572 51.38437 10.80622
4.88851 48.45205 10.47709
4.421905 51.32945 10.41765
4.341941 52.05323 10.40492
3.372748 49.05262 10.38107
-4.393046 92.79961 9.66097
-2.790995 94.12014 9.639721
-5.381725 90.0275 9.879903
-3.870408 106.5153 12.13725
-2.364265 104.668 12.12927
-3.234128 106.8578 12.27468
-0.71883 122.2349 12.05738
2.011165 124.9369 12.22213
5.561349 122.8365 11.86829
6.323027 122.9138 11.69702
6.914985 108.5341 11.11442
-0.519961 108.2062 12.24433
1.749805 108.5974 12.23131
0.6147099 111.2563 11.9804
2.070093 115.1413 11.80427
-1.527932 114.218 11.82594
-11.33596 75.38386 10.34352
-11.38679 82.57858 10.24268
-14.08013 78.06081 10.10231
-14.89552 81.37239 9.977253
-14.89165 84.94995 9.972771
-9.632817 88.33009 10.05557
-6.447162 91.67036 9.734159
-6.546208 88.77112 9.984955
-9.680248 91.01243 9.795485
-12.39992 79.88573 10.24967
-7.362651 86.86183 10.10967
-10.38927 80.45288 10.2568
-25.22529 44.35831 7.400892
-23.99006 49.61402 5.255057
-23.33466 47.15023 4.972782
16.25244 40.39214 12.01551
12.61606 43.47892 11.68926
8.921033 43.0976 11.02503
9.17987 41.43749 11.11449
13.46509 39.34017 12.04693
10.57477 35.42795 11.59739
12.27186 34.31236 12.05728
15.21442 34.62558 12.45248
17.18674 33.9047 12.12086
12.64262 31.45643 12.2704
-23.06021 29.47235 8.965541
-20.59636 32.04435 5.683603
15.9704 87.7801 9.271182
8.402901 92.45577 9.669369
11.15016 84.18617 10.22718
12.55177 91.63069 9.718548
14.71697 92.58807 9.079633
3.262407 66.95814 10.25707
5.551572 66.43188 10.33615
3.321414 65.88468 10.2644
11.74934 78.39327 10.31048
-0.5330912 74.17892 10.19151
4.148785 61.70545 10.31874
4.614251 59.42126 10.35792
-0.7061481 62.94046 10.22961
3.979571 54.75355 10.36417
5.496703 58.8791 10.40815
-0.2348088 43.36398 10.36412
-0.6317275 44.48492 10.356
-2.473569 41.18697 10.44123
0.612626 41.38853 10.38157
3.474647 38.57729 10.50617
5.495194 32.88165 10.78096
5.116912 32.65207 10.74538
4.39098 46.26746 10.47006
6.553855 49.47747 10.60301
9.270002 112.2357 9.456684
9.457864 105.6098 10.09849
7.803045 103.136 10.37179
5.805209 101.3547 10.61358
14.02273 103.3375 7.846155
4.774615 101.0405 10.80456
7.838006 100.1522 9.894455
9.322151 101.3217 9.675835
3.565104 103.8184 11.8037
4.24114 100.3805 10.73505
13.99463 98.35246 8.135816
0.3328278 105.5237 12.25456
12.63383 97.61996 8.828583
15.50981 102.3068 6.331746
-2.882165 111.7024 11.90177
6.727153 115.9744 10.70043
4.546837 116.9888 11.53319
5.980357 117.4626 11.08832
1.220966 114.2437 11.82032
2.938108 116.888 11.7877
2.252553 116.9776 11.82195
0.3482056 117.1589 11.83228
-1.779703 121.7648 12.02248
-8.148504 73.08151 10.33957
-6.929457 73.98373 10.29046
-8.913301 79.43749 10.25791
-4.618797 79.23241 10.20265
-4.794047 80.47881 10.19562
-5.260003 77.60093 10.22232
-6.191075 82.27258 10.19276
-24.68705 44.59789 7.961756
-22.30228 52.86739 8.31605
-21.984 46.1034 8.689729
-23.67434 47.30294 8.318322
-24.57739 46.6145 7.762215
-15.05414 30.92613 8.753113
-17.19132 34.69038 8.447713
-17.72089 40.82105 8.525081
-21.0718 33.01197 8.648024
-15.43926 37.01186 8.825133
-20.80605 29.98739 8.522085
-23.4985 30.93103 9.014842
-25.8172 27.5555 8.840775
-23.49455 39.4703 5.010932
-17.61238 41.79765 4.104317
-22.0752 32.59205 5.358674
-17.2579 41.02945 3.591958
-22.76186 39.36001 5.008673
-22.5734 35.88602 5.113272
-19.60682 34.08168 5.567648
-22.47526 37.64055 5.046208
-16.98848 35.52525 3.412329
10.20458 80.76495 10.25368
-5.403101 61.98532 10.36994
-0.5382193 60.86796 10.23936
6.690078 37.56333 10.82627
5.386506 40.21249 10.63048
7.034709 45.59293 10.71315
2.857015 37.08817 10.4945
1.038821 97.41985 10.23806
3.199214 95.02577 9.694181
4.22748 99.39852 10.4722
7.212329 107.8194 11.00971
2.168789 110.4362 12.0524
7.791981 108.3532 10.76417
12.21253 97.81155 8.952209
5.989779 94.19746 9.608569
4.396962 94.03917 9.655159
4.487951 105.3001 11.84103
4.728774 119.8386 11.62205
0.7305984 115.9495 11.82664
-10.60796 69.36991 10.43826
-1.828234 67.06603 10.22582
-2.536951 72.59534 10.2101
-23.31383 52.81755 7.985377
-22.17983 53.19776 8.328836
-24.31094 34.01941 8.978824
-24.14049 34.83829 8.950772
-25.19858 31.16118 8.945153
-20.64642 38.20876 8.67024
-19.11568 39.34122 8.500141
-24.97729 40.94354 8.100085
-22.78767 40.3326 8.86422
-23.81156 43.27232 8.546618
-25.7686 36.20922 7.879059
-19.98042 45.23945 8.651955
-26.41525 34.65497 6.72904
-25.61464 39.66302 6.168837
-16.73047 44.18308 8.715373
-20.46974 52.26881 8.586716
-17.98771 38.70493 8.478405
-17.86744 43.521 8.585326
-7.724383 39.00367 10.62245
-17.13207 48.26476 8.733132
-13.73045 37.96214 9.377256
-16.23575 41.84179 8.761292
10.95221 85.45654 10.20414
10.18075 80.03265 10.26621
5.183712 79.67767 10.21037
9.628608 78.17841 10.29841
12.8715 71.98354 10.512
11.38616 75.57201 10.39119
13.08328 70.82356 10.5443
10.31722 74.74267 10.39258
5.873855 74.0712 10.27475
13.46461 69.39673 10.58778
9.109645 71.96735 10.41472
6.925738 69.67183 10.35796
3.115341 71.22784 10.23129
-7.390927 53.91281 10.56286
-0.2829022 52.05919 10.28933
-1.725048 92.44968 9.704952
4.468301 105.1381 11.823
8.964851 94.21519 9.508464
0.01153975 71.59522 10.19951
-0.1771097 74.65157 10.19019
0.7142349 68.28094 10.21164
-2.534017 73.52872 10.20645
-3.322386 81.91223 10.17232
-3.475956 88.08183 10.00654
-2.161177 84.07613 10.13998
-22.32566 53.58345 4.685441
-20.70324 56.79786 4.269769
-20.88849 58.28164 4.267077
-13.24256 34.57461 9.44651
-9.586417 32.34695 10.38669
-8.592519 33.25524 10.54065
-7.547577 38.67437 10.62763
-8.643006 38.57056 10.58133
-1.825585 41.66066 10.41383
-7.71125 37.9971 10.62298
-5.24336 43.30534 10.55793
-11.55624 38.51406 10.06399
-11.33144 43.62679 10.23672
-3.99118 40.75733 10.51636
0.5984215 38.96712 10.40917
-12.0792 40.65553 9.974231
-12.61531 43.67126 9.88317
-2.878114 38.01843 10.49184
6.584644 81.23782 10.20971
9.632215 71.57442 10.44442
1.553303 57.97446 10.26732
0.5560036 57.17429 10.25827
-1.389498 57.12585 10.26967
-3.026797 60.16011 10.28949
-3.805974 58.36551 10.33352
-3.900684 53.10028 10.38592
-3.51717 55.35943 10.34784
-4.790652 55.98163 10.40339
-5.570039 67.66704 10.31559
-6.300859 58.93238 10.44967
-8.773958 59.62603 10.5331
-0.01911434 37.01253 10.4357
0.8766918 34.3377 10.4718
3.681052 91.2449 9.790119
1.691509 95.76364 9.804502
-1.92298 93.07017 9.681118
-3.932574 90.43037 9.843783
-2.956236 86.88178 10.06396
-1.924253 87.69521 10.02154
2.879901 73.7845 10.21628
3.188784 74.82257 10.21549
-1.195273 70.49588 10.20501
-6.130439 70.95578 10.30026
-1.787223 81.75735 10.16576
-0.9770154 34.4633 10.47496
-5.328296 36.32221 10.60474
-6.25457 51.54036 10.53273
-11.61903 45.48845 10.19655
-6.528486 47.70052 10.5834
-4.053394 48.94737 10.43764
-14.85111 50.4038 9.33862
-12.23106 47.98875 10.08781
-15.32325 50.98275 9.208867
-4.470089 54.27359 10.40395
-7.854491 48.5906 10.61846
-10.66145 65.30701 10.46051
8.001879 93.1858 9.610348
12.82787 90.07254 9.926205
8.454417 90.14744 9.890008
6.063251 86.78123 10.0945
8.393821 88.09448 10.05117
3.124858 87.9142 10.01788
4.791965 89.14655 9.949526
5.642748 88.91319 9.972131
1.764262 89.64817 9.902959
4.36779 90.03019 9.883188
1.758464 76.57388 10.19421
-2.76373 82.96133 10.15869
1.044627 80.74152 10.17274
-23.89733 53.02509 7.59171
-24.29402 55.66073 5.666747
-22.70815 58.4685 7.788169
-22.8226 59.1688 7.6099
-22.73387 65.90371 4.835509
-22.73726 58.85525 4.697395
-20.59173 62.24252 8.214981
-23.42711 63.87535 5.627233
-23.29448 57.53759 5.013891
-22.51281 63.73482 4.674175
-10.56777 64.88669 10.46709
-21.12292 64.69907 7.892351
-21.90572 70.66459 6.891558
-14.93424 64.83685 9.655062
-22.06977 69.16007 7.038389
-20.4254 55.46183 8.501935
-19.5547 58.30436 8.498639
-18.71041 53.23283 8.630355
-0.1916028 51.13173 10.29693
-1.098034 52.97815 10.2931
-4.85145 50.00902 10.47175
-2.752826 52.73998 10.34041
-10.92388 51.41553 10.40765
3.046735 78.53848 10.19588
2.271996 78.42329 10.19045
-4.818668 64.19615 10.32096
-9.777136 69.90753 10.42972
-13.94855 69.70184 10.04113
-8.056442 67.17261 10.42063
-11.39326 66.11707 10.41586
-10.769 63.35047 10.47251
-17.93477 66.87496 8.6879
-14.27125 66.41602 9.891218
-14.97078 61.66342 9.571913
-16.52825 64.47054 9.12507
-16.81309 63.35334 9.02573
-11.69383 56.64284 10.33374
-13.07302 51.83422 9.931173
-9.194312 54.39196 10.57289
-14.19883 51.40204 9.568715
-17.80851 52.02826 8.702189
-6.8683 54.28669 10.5344
4.55195 83.40074 10.16413
-1.373347 85.60594 10.10339
-22.21288 70.27023 6.708982
-13.24128 61.07601 10.06564
-10.90409 59.21917 10.47479
-10.74574 57.87775 10.49785
-13.16739 57.26955 10.00916
-10.84418 58.12383 10.48834
1.663468 126.4039 12.2744
3.646927 127.5808 12.35989
15.65011 69.63538 10.36948
-22.57683 57.39486 7.941458
29.19107 21.90944 0.05612056
-14.93623 135.9431 -6.785535
-13.76442 148.6867 -9.933587
27.613 29.41539 -0.08926164
24.78388 48.49704 -0.02926981
15.92144 151.2823 -5.874441
11.51616 10.71984 -16.48321
9.6862 3.879175 -17.06773
25.53962 53.43308 -0.392975
25.16375 12.79607 -10.68023
14.39568 132.1009 -0.3906867
26.02318 11.04794 -9.607661
-14.96608 134.6304 -2.436564
18.85172 92.49712 -0.05128688
-21.35525 20.24004 0.7689269
12.9531 151.5462 -6.673572
18.20378 150.1765 -5.707312
13.5111 126.379 1.351853
14.95933 107.9462 -0.1685321
12.45016 119.7863 2.8162
13.48079 112.4205 2.38844
15.41415 138.2727 -8.062874
26.24262 23.70702 0.6821231
14.42835 132.7286 -3.573705
13.27608 151.4935 -6.744717
13.71097 141.4831 -10.90688
-11.88703 116.1767 0.1979741
11.73435 107.6597 -5.443407
-30.19765 15.2186 -2.949612
8.994309 146.1699 -11.74282
-27.04205 16.24768 0.9697422
-21.75731 18.97401 0.8112889
18.17486 94.12846 -1.876153
-20.21853 59.12331 -0.4404078
-21.20871 42.7093 0.2930517
-20.80023 34.1387 0.5687031
2.131615 141.4709 -12.69089
-15.4746 79.67088 -9.073023
-15.42042 137.7897 -7.813975
-14.40232 132.2548 -1.264475
10.98584 150.5048 -8.944043
-14.86674 151.3445 -6.572475
-16.86464 95.70457 -4.655962
23.20691 35.00465 -4.32078
17.22433 67.6063 -9.893527
9.543392 150.4242 -9.306615
-27.64794 21.62817 -5.450075
-21.43584 18.82626 0.7939352
-21.13801 82.68024 -0.244589
-21.62926 22.85108 0.7225705
-23.07361 17.60724 0.9636068
-11.93849 135.9549 -10.26863
-14.04452 133.4683 -6.42172
-14.61423 143.9877 -10.77308
-12.23755 150.4712 -8.74663
-13.98954 131.2191 -3.13015
28.00839 25.25733 0.04098565
26.36777 19.22327 0.8167078
21.58969 59.14138 -0.4715077
22.81653 13.60809 -11.77353
19.49829 78.58356 -3.887833
17.45323 97.62298 -1.112031
15.21579 135.9555 -3.108432
13.85307 130.3339 -2.31248
14.25617 131.2069 0.273513
-11.42093 119.8059 -0.4778654
12.41347 118.6859 3.315595
13.11439 144.1555 -11.19874
11.90901 145.8883 -11.23115
12.96515 150.6544 -8.458085
-26.18882 39.52428 -0.1226895
-21.15402 28.6773 0.6328084
-29.23648 17.63228 -0.4728605
-23.63728 23.77516 0.9075513
-14.9624 134.9217 -5.087453
-6.647173 142.1923 -12.66951
-13.25394 151.2876 -7.34498
-14.47445 147.721 -10.20364
-14.02852 132.8126 -5.665288
27.14252 29.33021 0.004391714
25.79288 19.72192 1.033623
20.74779 55.59176 -1.213514
26.46479 41.31932 -0.1719343
14.74048 7.667432 -14.77403
19.98654 78.81216 -2.659807
-22.08627 76.90578 -1.514289
18.28825 94.47717 -0.05219916
13.22709 134.9664 -8.781387
12.81934 126.9306 -2.270415
13.30691 128.6859 -2.599086
3.614713 141.6003 -12.68532
-14.76303 108.5747 -0.1596834
11.50226 115.7244 -1.042806
7.283461 143.9402 -12.42474
10.16988 144.8604 -11.84398
-21.51672 43.78822 0.3165676
-20.53685 28.8753 0.641837
-23.01029 37.185 0.6579948
-26.71064 15.34541 -6.271679
-29.51763 15.09375 -4.409988
-24.57655 18.66634 1.095469
-0.3098595 141.6094 -12.68058
-16.89449 148.6144 -9.044497
-15.11225 147.1791 -10.22118
-14.52977 132.9995 -2.590225
-13.33439 125.6246 1.211046
21.64018 22.17054 0.699656
24.44982 29.06815 1.060026
21.65269 26.12054 0.5719408
24.03275 34.10316 0.9288685
26.50182 52.0046 -0.4600278
22.08593 74.44849 -0.6888445
26.26016 43.98186 -0.2298009
21.20563 9.74102 -11.89402
15.17975 6.814935 -14.50675
8.22273 6.656683 -16.07561
-23.99173 53.51398 -0.03672805
-18.16535 94.49198 -1.200475
-20.13668 86.70882 0.1900464
17.14546 99.25236 -0.9263387
19.91479 86.12975 -1.787768
13.81225 127.9765 1.618949
12.77217 124.9414 -0.4458008
-13.38704 112.2156 0.5511432
-15.09856 106.3888 -1.364956
11.65035 118.6443 0.2482942
14.85952 108.6484 0.3860572
-12.39409 122.3109 0.7224374
6.438847 137.9288 -12.56125
-24.66169 40.53778 0.5187134
-20.31778 51.63576 0.06276359
-13.1738 6.62997 -15.35532
-20.46751 37.93782 0.5032062
-30.07688 15.43194 -3.505714
-24.09362 27.16571 0.904568
-30.06562 16.34559 -3.175442
-26.77933 21.63018 0.8808284
-5.96635 140.2026 -12.7641
-11.37316 145.8355 -11.34806
-12.20668 125.5836 -2.570357
-12.67883 127.9935 -3.761605
27.42741 23.72313 0.2247969
24.59544 51.10258 -0.1065736
25.71318 51.03485 -0.3666798
25.0775 36.15629 0.5072321
21.64561 38.08056 0.575855
23.9131 41.60979 0.6689815
17.91721 9.859621 -12.46255
15.44895 11.45955 -13.91957
5.543871 3.718683 -12.72787
-22.13588 63.81434 -0.09803034
21.62851 72.78893 -0.8936767
-17.81372 94.20519 -3.170666
-19.76024 88.57795 -0.4172847
-20.52376 85.17923 -0.7145885
-22.22433 73.45378 -0.5150231
16.71664 98.97043 -2.746595
18.95044 91.7465 -1.068269
10.70306 120.4381 -1.983404
12.90199 122.4562 2.876411
-11.8534 119.3448 0.7358722
12.7723 114.4402 2.662327
14.49225 110.0319 1.583031
12.10251 120.6151 0.9071513
11.87231 141.849 -11.64748
6.115692 140.3843 -12.75916
13.66112 132.3599 -6.01736
6.482523 135.833 -12.02008
-22.2433 42.31791 0.4359707
-11.52078 4.55311 -14.53407
-12.85344 6.237491 -15.21117
-5.782547 3.733582 -10.49966
-25.43949 30.15218 0.798537
-23.498 25.78994 0.8647858
-19.96416 8.648838 -13.74609
-22.65471 14.42036 -8.855509
-21.50625 12.61679 -10.53495
-29.55551 16.45317 -0.8631849
-4.191559 140.0679 -12.73284
-8.385618 138.4911 -12.46268
-9.495568 136.8991 -11.76222
-12.08177 142.6006 -11.57934
-14.18962 130.9029 0.1407713
23.576 31.92054 1.136014
22.73608 24.69066 1.34369
23.99007 14.02375 -5.206221
23.27815 49.79167 0.2988361
25.48285 50.02565 -0.3062203
24.98007 35.28628 0.5739709
22.05266 45.04009 0.4555498
19.54451 13.37797 -12.06886
9.523196 7.382977 -16.83541
14.21332 10.93325 -14.95393
6.388651 4.848701 -14.03038
-21.16409 62.47657 -0.2955576
21.1728 76.05064 -1.127994
-17.67244 95.97897 -1.819273
-15.99406 98.35827 -4.840595
-15.84298 97.97272 -5.386883
-19.22493 87.05412 -3.440379
-17.48648 97.17943 -1.408573
-18.76324 87.1613 -4.357991
-16.44126 102.9533 -0.1952616
-22.02723 75.29443 -2.404955
17.94367 92.39486 -4.132711
17.37026 92.62775 -5.18846
16.86083 95.89983 -4.551778
19.97713 87.37597 -0.338942
11.98517 130.0466 -6.894108
13.9567 110.9913 0.684638
9.394676 140.8437 -12.36197
-5.297991 135.4628 -11.9851
-2.779389 136.0671 -12.14223
-2.895344 139.7841 -12.69879
4.767811 135.2094 -11.93597
-22.35778 52.36803 0.2509956
-14.49416 6.099254 -15.85859
-2.744953 2.992982 -8.77601
-0.5551317 5.407164 -8.48334
-20.371 9.490905 -13.08626
-12.08087 138.1964 -11.04014
-13.95113 131.4419 -3.955873
23.65981 23.02373 1.558382
24.51399 53.40685 -0.1680298
20.83539 57.7422 -0.9160442
23.27879 72.85929 -0.4709507
21.85922 12.7425 -11.88793
10.45655 6.423358 -16.96949
8.032805 5.831557 -15.91281
4.813495 5.098836 -11.68839
-22.89406 70.39455 -1.45028
-23.42304 65.79845 -0.9930328
-21.64664 57.02212 -0.0536717
20.73403 79.84598 -1.314791
-17.04292 91.20489 -6.250336
-19.77284 86.99448 -1.825031
16.59529 102.9166 0.7642502
-11.98432 117.604 1.191405
-1.321077 133.3841 -11.39856
-23.1706 40.52759 0.5842275
-22.55767 50.82272 0.2975872
-14.49358 7.372367 -15.80908
-2.579898 3.91699 -8.77496
2.378659 4.415969 -9.400117
-27.71928 27.23539 -4.649392
-24.16969 33.90752 -7.286097
-20.4356 9.609421 -12.96685
-26.55861 16.48814 -6.324978
-13.79859 134.358 -7.73041
-13.96129 137.8044 -9.647557
21.91507 15.56223 -1.855355
21.24553 62.0493 -0.8254219
17.91717 14.36471 -12.38387
18.6257 14.51255 -12.20807
13.13735 11.51756 -15.7009
9.965693 7.955013 -16.8269
7.77716 7.521297 -15.63935
4.057579 5.892297 -10.75159
4.137335 8.686934 -10.88584
-23.96473 59.07127 -0.4540793
20.36479 76.84415 -1.865623
19.70459 80.52744 -3.38378
-17.95941 92.15835 -4.233653
15.51857 103.0986 -2.893691
-10.6344 118.6718 -1.781181
-12.51656 112.4519 -1.567426
1.233814 136.1135 -12.14034
-4.738043 134.418 -11.71282
-22.83161 51.29616 0.2998343
-13.68826 10.95833 -15.37116
-19.03862 16.1453 -14.10871
-12.13882 135.1534 -9.742687
-9.849034 132.8737 -9.9915
21.60537 56.69215 -0.3972624
16.95089 13.4148 -12.78422
10.06017 13.29435 -16.45604
2.065516 6.868178 -9.271776
3.258387 9.592057 -10.06156
-23.29401 67.99034 -1.886311
-15.73019 93.05646 -7.615622
-17.03946 88.32454 -6.6515
7.242591 135.2582 -11.75826
13.06255 138.1436 -10.45916
9.74629 139.5114 -12.2301
-6.643477 130.0479 -9.867278
-6.255731 7.945761 -10.93519
-21.51656 24.64914 -10.16324
21.15399 54.34066 -5.486507
20.42966 58.66521 -1.758153
19.82101 67.55936 -3.124864
4.58879 8.808954 -11.41076
-22.50444 73.31834 -2.05636
19.11314 76.72693 -5.4889
-13.44288 93.21664 -9.9311
14.93876 101.8415 -4.816852
12.83472 135.1769 -9.29791
-8.587787 114.4144 -4.225306
-2.166434 133.4001 -11.40253
-12.32457 130.7302 -6.948365
-25.10905 54.98629 -1.837773
-23.73422 56.55076 -4.215813
-23.23766 55.57929 -4.917181
-25.22788 50.62135 -3.287463
-23.81971 63.8913 -1.381539
-9.04679 9.591247 -13.00314
20.9156 55.18387 -4.886679
20.74474 53.90843 -3.740903
20.4784 61.05258 -1.570766
17.34195 14.38303 -12.5883
-22.14877 61.50365 -5.134699
19.42264 80.26677 -4.008675
0.3212045 133.7455 -11.51822
-6.968529 131.6415 -10.4948
-5.68143 130.3895 -10.15551
-20.58097 61.32193 -6.787603
-23.56651 61.78954 -3.431987
-22.65939 56.37395 -5.404909
-8.98255 8.966841 -12.95348
20.30212 61.616 -5.152459
14.19593 15.25606 -14.69984
7.720179 10.38398 -15.54302
19.42163 74.9346 -4.342756
19.37862 75.73273 -4.411965
19.68246 82.3409 -3.327852
18.06055 81.61549 -6.835255
16.90316 83.24147 -7.800258
1.754801 133.8519 -11.54816
-23.4853 62.75413 -3.310063
20.6308 58.98988 -5.54619
17.12126 16.07152 -12.64642
18.94129 72.74741 -7.616427
15.6816 84.29413 -8.60596
-22.88932 49.01706 0.4011782
-10.39573 8.735541 -13.8834
18.15054 19.91591 -12.28272
13.06337 83.06219 -10.34551
17.10563 85.73026 -6.975307
-25.54831 48.10196 -3.216635
-9.349686 10.89539 -13.22522
15.73287 85.76532 -8.32264
-25.1688 49.55618 -3.581532
11.91868 82.41203 -10.98053
13.04231 71.08522 -11.39559
10.02996 81.65497 -11.7702
15.01692 148.5881 -9.731658
-10.83572 145.1243 -11.64672
-12.55806 109.6124 -3.647939
21.98895 32.14795 0.8009564
9.950928 124.4154 -5.108466
7.807446 125.621 -7.22259
10.70171 126.0249 -5.450388
10.8812 129.3195 -7.451625
8.013368 127.4336 -8.077138
12.6103 110.9511 -2.707699
13.75375 107.5282 -3.296161
12.29529 108.7248 -4.376616
-22.50698 46.26182 0.4381763
-20.77585 12.41722 -11.98302
-16.37606 17.73663 -15.29677
-17.25913 13.40473 -15.48421
-19.60714 17.06404 -13.41597
-19.25563 12.74124 -14.21091
-19.04996 20.62086 -13.72511
-14.67729 19.1015 -15.14486
-18.94555 14.25037 -14.39522
-13.54976 15.9717 -15.10957
-12.68326 13.21605 -14.94092
-15.37989 19.78761 -15.14589
-10.37735 18.36078 -13.80654
-14.43976 24.22 -14.79982
-18.50429 24.71671 -13.77377
-20.56451 25.24312 -11.54376
-20.28507 23.62852 -12.00099
-26.05599 15.61677 -6.585358
-29.37437 19.77691 -3.753616
-27.29967 17.63669 -5.88654
-25.70279 18.84672 -6.737995
21.62169 34.78658 0.4946063
24.3464 18.17807 -5.768138
25.27479 18.41616 -8.935567
24.16281 20.21106 -10.61707
24.47197 19.53978 -10.3442
-14.31965 102.7241 -5.285765
19.29026 87.94357 -2.936998
-15.46327 102.9896 -3.105099
-4.581491 103.5294 -10.08487
-14.79329 100.5501 -5.742934
-13.9836 95.13123 -9.017106
-14.23848 100.3246 -6.645718
-13.6395 93.54775 -9.715129
-10.21161 100.1522 -10.28755
-8.821164 100.2545 -10.91777
-13.78887 96.11629 -8.906275
-14.72747 99.68539 -6.281726
-10.1713 92.78062 -11.8941
-13.63566 88.9129 -9.73465
-9.649235 94.79158 -12.02125
-9.857137 91.29734 -11.95223
-9.344328 95.58328 -12.00908
-10.01715 90.00766 -11.6904
-17.03228 82.69505 -7.286206
-12.56189 89.97342 -10.56652
-4.71962 92.81871 -12.74742
-24.1747 37.21177 0.7304521
-25.08286 38.42459 0.5197793
-27.57929 35.71833 -1.48686
-26.46308 34.43552 0.1450866
21.06 47.07471 -1.129225
-20.95911 80.20383 -2.458422
-25.60954 40.73264 0.1499815
21.09044 67.88822 -1.00856
20.22478 63.99442 -2.183953
19.78025 67.61419 -4.570238
19.50915 72.19698 -4.843809
19.72562 68.67017 -4.71629
19.48573 70.51596 -6.835281
19.90732 65.8177 -7.304997
19.77447 62.32681 -8.693586
-10.62519 121.2629 -2.409511
-1.53306 8.063995 -8.601789
21.59286 18.25305 -0.8342703
23.34719 17.11763 1.829215
22.60962 20.97375 1.503854
20.49835 64.47923 -1.618241
10.88993 8.433004 -16.78617
7.812011 133.1204 -10.87027
-12.55252 131.0397 -6.880186
-7.741267 130.1211 -9.606912
-8.225601 131.7408 -10.15451
12.33308 136.888 -10.44192
-11.04993 10.8127 -14.26062
-9.999028 12.5383 -13.63544
-8.996702 18.55691 -13.03556
20.58565 52.38084 -1.316845
19.72635 71.9968 -3.343051
11.35234 135.0861 -10.20978
21.4747 51.03878 -5.113618
3.759777 131.0568 -10.53484
2.405878 130.6856 -10.37876
-3.704351 129.8878 -10.02984
5.409963 127.7596 -8.979145
-2.161346 130.8264 -10.4403
-2.053295 128.6712 -9.513297
-5.80312 128.2453 -9.156596
-3.129122 128.8363 -9.580333
-3.926451 125.9642 -8.412541
-8.834695 128.8648 -8.521882
-21.60935 58.69341 -6.141174
-20.2975 67.27304 -6.114863
-17.76465 61.85271 -9.558203
-17.91575 65.39105 -8.890411
-18.94995 59.48362 -8.794649
-17.57797 59.93745 -9.986929
-19.64976 56.15767 -8.634159
-21.29554 52.84452 -7.459434
-19.2593 58.24326 -8.683256
-6.817143 60.38255 -11.755
-23.68048 49.14153 -5.452929
-6.140112 11.52833 -10.90229
-5.64604 9.692462 -10.53243
15.93163 68.33128 -10.33597
19.03522 66.09422 -8.918503
18.48292 61.54571 -9.906272
20.21501 63.11575 -5.413174
19.23482 62.91525 -9.174124
16.18899 62.23236 -10.75053
16.22099 66.14104 -10.41312
14.87724 65.41625 -10.99717
12.06375 70.62212 -11.92294
5.71611 13.54841 -13.06155
14.56481 79.72549 -9.852238
17.96622 81.0387 -7.119213
17.78111 79.0622 -7.866479
18.47219 78.90477 -6.860379
18.38351 78.65525 -7.059952
11.67081 85.47478 -10.80542
8.531472 86.17326 -11.6735
8.7807 85.18182 -11.70174
6.140445 82.40093 -11.97034
6.258365 86.5518 -11.87622
-1.336317 92.09901 -12.67542
3.635981 86.45446 -11.90508
4.556118 91.61216 -12.62925
-12.07667 107.4709 -5.28208
-11.42723 107.3007 -5.883913
-13.15956 105.5785 -5.17766
-9.301019 104.3162 -8.750451
6.489627 126.1019 -7.940153
10.10175 115.602 -2.918717
12.28159 107.5571 -5.038554
5.618013 102.3397 -10.69043
-24.62324 43.93661 0.3288398
-14.59173 20.77552 -15.0305
-11.49372 22.95369 -14.16778
-20.89178 21.77307 -11.11166
-24.19826 22.62273 -7.558313
-28.01237 20.95649 -5.208963
21.57647 34.20349 0.530962
21.6461 34.12118 -0.5660574
21.70866 40.30639 -1.437719
24.88234 19.83592 -6.897843
24.01425 22.10584 -10.53602
-8.424308 102.6914 -9.977929
3.020689 91.76363 -12.63079
3.962848 91.37859 -12.58027
-3.683354 96.57587 -12.54946
-13.58429 87.18081 -9.624954
-15.18736 86.84692 -8.489652
-10.20822 85.29338 -11.11015
-10.46998 75.78116 -11.76838
-14.78179 84.82282 -8.967196
11.45815 113.3481 -2.426624
21.63333 45.70463 0.09154088
21.86506 24.83068 0.9122026
21.66593 28.10824 0.3953214
22.91929 29.15477 -3.414127
19.70634 69.06654 -6.159846
-10.27277 119.0867 -2.274903
-11.82538 125.1554 -2.989157
-11.17279 124.4698 -3.612031
-9.267813 122.1555 -4.374389
-6.828631 124.6465 -7.149891
-2.797738 9.615219 -8.948605
22.17786 17.74204 -2.361416
22.15341 20.5121 -2.249842
0.07452051 12.03273 -8.699885
6.621311 12.92446 -14.33194
7.685541 12.12105 -15.50746
7.611185 15.03207 -15.33144
6.683604 14.47412 -14.39102
10.53629 15.27105 -16.31153
-21.97385 71.56931 -3.507476
21.07025 51.40403 -8.936513
-20.16109 55.18725 -8.266083
14.7998 73.90306 -10.30065
17.216 21.40407 -12.45181
15.85403 75.94682 -9.625617
13.46142 73.91343 -10.94395
13.11097 66.64626 -11.72395
-26.20053 47.40667 -1.81226
-24.44118 48.85239 -4.639036
-24.55809 47.28329 -4.75948
-7.245086 110.4826 -6.018945
13.19482 86.91087 -9.967841
14.16643 86.77245 -9.375296
11.15725 90.14132 -11.30351
12.14721 73.72154 -11.61925
10.20938 74.89061 -12.29906
10.85024 77.39104 -11.8641
10.56537 78.99592 -11.82999
4.602958 78.67796 -11.63624
2.389928 81.5583 -11.4589
7.542014 77.43853 -12.34905
2.23663 87.38316 -11.99613
-0.6701137 85.80918 -11.85002
-0.02589821 88.09511 -12.08054
-6.300252 88.13677 -11.8659
-5.162324 88.93531 -12.08628
-0.350113 88.91777 -12.17936
-7.668191 85.96189 -11.58001
0.8368356 91.16501 -12.54496
3.960906 96.53445 -12.56239
3.279956 93.16105 -12.76469
1.407752 95.80473 -12.66656
0.6203501 90.27486 -12.3968
-0.3403088 91.63101 -12.59707
6.762866 102.4295 -10.54888
-1.456668 93.6869 -12.79128
-0.1343884 99.4179 -11.84056
7.528005 99.13404 -11.68419
6.184866 93.5368 -12.79729
11.37725 107.0844 -6.015707
4.047108 105.1907 -9.13434
5.554587 103.617 -10.02527
6.367573 100.4743 -11.38742
6.547261 105.8712 -8.581387
5.924982 107.2755 -7.720847
9.285891 114.4427 -3.85431
9.410172 112.3541 -4.689385
8.588532 104.3415 -9.036036
10.08381 100.9392 -10.03915
10.77905 119.6494 -1.664236
5.995556 108.821 -6.85907
9.455663 100.2471 -10.66527
6.941942 111.2076 -5.895345
11.4516 95.75663 -10.93613
0.01753759 126.8166 -8.764877
2.030406 124.8396 -8.060634
2.048289 123.9125 -7.727787
12.77475 100.4622 -8.202816
11.16589 101.5787 -9.051959
-14.69616 24.5644 -14.78004
-9.39259 23.87094 -13.23548
-8.85333 23.9018 -12.93524
-27.40639 23.15806 -5.53124
-27.72142 30.70452 -0.481347
-26.79199 25.11178 0.6929625
-28.30304 24.75452 -4.303867
-28.84521 25.40448 -2.565695
-26.57737 26.69727 -5.902251
-28.49447 28.08557 -2.485336
-22.60292 40.72462 -8.209617
-28.44874 28.84187 -2.055063
-27.22965 29.09048 0.1966868
-26.33164 21.03838 -6.359681
22.62193 39.09932 0.8953516
21.84859 40.95275 -1.939726
24.73733 21.10185 -6.649392
17.95378 89.49926 -5.161282
17.4647 88.11785 -6.146142
16.9927 86.36875 -6.949826
-4.164477 99.77267 -11.71794
-16.7031 86.90944 -7.086691
-14.5342 84.34071 -9.203727
-16.50639 79.29021 -8.268755
-14.88516 79.19552 -9.565286
-13.24966 78.0888 -10.65574
-19.63812 82.05917 -4.103061
-19.55703 73.26426 -5.934668
22.58438 33.33039 -2.499153
23.53848 32.64555 -5.021447
21.54454 33.00204 -11.03142
23.44944 36.08308 -7.518688
23.08445 30.87377 -3.688396
22.90714 25.74772 -3.474614
22.23066 26.78398 -2.297527
21.79799 34.2263 -10.74867
21.44043 41.35721 -10.13767
24.41422 26.90823 -8.56315
22.46667 39.05891 -2.79383
24.90152 22.15138 -8.595095
24.05068 24.78865 -10.02337
23.60774 24.66967 -4.626587
24.07331 24.68487 -5.532707
23.87775 20.3224 -5.02585
23.01382 38.34941 -8.128808
22.16494 41.3869 -9.310179
-2.91427 124.2145 -7.822118
3.381657 124.0443 -7.735096
6.129212 122.0676 -6.302716
-4.63558 11.55772 -9.866076
-3.446321 14.31961 -9.301674
-0.5603933 15.89614 -8.669582
2.845454 14.61481 -9.805137
5.487246 17.42724 -12.66897
-1.815319 16.96795 -8.832335
0.05469066 16.80167 -8.765796
2.59599 17.62535 -9.665756
6.7702 17.02489 -14.45131
-11.76379 127.3828 -4.98901
-6.314935 17.92815 -11.13395
-8.343135 18.96995 -12.61017
-7.284233 23.42303 -11.90338
20.87181 50.95818 -3.070932
20.6349 51.09784 -2.019095
21.42172 48.42899 -0.2672941
-16.62063 65.36215 -10.00324
-16.88878 67.85621 -9.46341
-13.50681 66.89624 -11.64373
-11.16276 71.87299 -11.9044
-16.15912 69.8933 -9.771572
-14.95539 70.20907 -10.5868
-18.08777 69.871 -8.056904
-10.44097 72.47514 -11.98292
-11.15575 77.73106 -11.46275
-15.49622 75.44551 -9.584575
-16.71173 76.18053 -8.516359
-15.48555 74.36624 -9.725657
-16.65463 73.43629 -8.925718
-17.40414 73.95322 -8.148742
-13.25615 81.11578 -10.3291
-11.79754 80.61969 -11.02235
-12.91839 64.88599 -12.03288
-22.60125 49.21224 -6.638473
-21.41182 45.26084 -8.762671
-21.09492 43.43967 -9.478557
-20.96654 45.08795 -9.287429
-21.5168 39.47775 -9.801477
18.42288 53.78955 -10.69672
21.29837 50.57416 -8.707151
22.77709 41.24483 -7.578545
16.20619 50.92109 -11.56525
22.15916 40.8577 -9.447255
20.20451 57.57795 -8.995489
18.52408 55.47319 -10.49349
14.79387 63.02673 -11.22142
14.05002 64.0741 -11.46961
-6.740998 116.9721 -4.798286
-8.895295 119.4005 -3.801072
-2.005795 114.4697 -5.653783
-5.822649 117.2486 -5.183109
-1.957322 116.7523 -5.820385
-2.940747 118.5369 -6.071897
-2.883947 122.3668 -7.118824
-7.365744 112.777 -5.311675
6.90622 93.79353 -12.75259
10.50092 93.45643 -11.78466
12.12259 95.14832 -10.61694
12.60134 89.85529 -10.52914
14.29838 89.46096 -9.336668
13.9354 94.86942 -9.136194
14.81437 99.98853 -6.016357
13.72679 94.25639 -9.480052
16.5454 90.06458 -7.113921
9.867187 76.01968 -12.30639
6.064863 74.53146 -12.12907
4.952613 72.85706 -11.66618
-4.405598 76.83453 -11.458
5.187747 70.27881 -11.76078
4.391154 66.44757 -11.33093
2.686841 67.32262 -10.69802
-3.674646 69.5608 -11.02155
-0.3852058 72.01289 -10.72314
-1.637107 72.70884 -10.88248
5.942554 69.61231 -12.15981
5.68901 68.88655 -12.03625
7.075803 73.17687 -12.4957
1.917501 84.46451 -11.729
-1.942087 93.04932 -12.76286
-0.7964804 94.75146 -12.76277
-10.58213 81.77708 -11.27905
-11.36864 82.55551 -10.99008
-2.61989 95.97256 -12.63554
6.877347 105.2539 -8.934321
1.296365 105.1873 -9.141479
5.109876 105.2004 -9.122329
5.844273 113.5884 -5.432274
3.93745 110.3301 -6.495164
8.282801 118.4292 -4.113989
10.14525 120.7797 -2.904216
9.991646 120.1404 -2.861766
6.57029 118.4874 -5.046912
5.113766 114.9513 -5.364394
-15.47497 29.24477 -14.3551
-9.602388 27.32346 -13.30014
-24.02979 23.40944 -7.666996
-21.31351 29.27941 -10.46248
-24.57132 27.02188 -7.278967
-28.81851 25.22041 -1.811638
22.22046 39.94156 -2.45696
22.9999 39.74289 -5.81441
-4.300054 100.9669 -11.30062
22.41364 21.75311 -2.688033
23.89577 29.57038 -9.129519
-11.35994 126.5163 -4.961256
-8.590081 128.1646 -8.258273
2.817986 18.90989 -9.813006
-4.220491 21.53042 -9.839425
1.113143 18.40781 -9.041474
-3.351461 17.96889 -9.318789
1.776561 21.42088 -9.324117
12.98437 26.04803 -14.75276
10.36527 21.60427 -15.97258
15.08865 22.11451 -13.55976
16.67486 20.09924 -12.70623
12.66855 18.1389 -15.54374
-5.40598 20.77306 -10.53497
-5.586266 20.45179 -10.65418
-7.31637 15.02081 -11.82904
20.81368 49.241 -1.637772
-23.65191 42.92309 -6.540318
-23.42999 47.12086 -6.06951
-21.23596 38.81397 -10.23861
-15.83152 32.87071 -13.94875
21.77569 49.58873 -5.540374
21.42184 46.57084 -3.120908
22.07257 43.16625 -3.558433
22.2482 46.38876 -7.266853
14.4334 60.91293 -11.53587
3.662203 72.19088 -11.14103
0.5589459 78.47041 -11.1847
0.9322693 78.8475 -11.20762
-1.717367 81.43783 -11.52001
-4.260931 77.48141 -11.46782
-8.034305 79.87181 -11.74651
-8.826152 83.02513 -11.52024
-0.6615223 83.98138 -11.69712
-3.694543 84.14931 -11.72861
-5.349764 85.51436 -11.74525
6.729681 119.5159 -5.181046
4.25491 117.2306 -5.65486
2.350715 120.3392 -6.52483
1.369141 120.5861 -6.605802
-1.771361 116.0944 -5.727151
2.093437 113.8157 -5.782207
2.971121 114.1832 -5.689824
-3.212528 113.7903 -5.769713
-13.60698 26.48694 -14.55603
-3.872763 23.41534 -9.680552
-9.83285 26.53404 -13.42281
-18.66743 30.38387 -13.16175
-14.90755 33.31026 -14.04731
-15.44896 28.42968 -14.44165
-17.29628 31.25208 -13.70086
-16.82629 33.53814 -13.61891
-22.16028 30.20606 -9.359318
21.85944 30.11728 -11.12608
18.37876 24.18677 -12.17734
15.73051 44.99448 -12.1036
21.37253 46.76347 -9.474329
16.18319 53.74318 -11.3848
19.25092 48.19542 -10.83413
17.42455 50.42157 -11.25451
13.82345 52.32933 -12.4693
21.41906 42.83806 -10.03834
22.35168 41.98556 -8.796935
21.24357 41.78305 -10.32418
20.68312 38.60768 -11.02872
17.56353 41.00663 -11.84846
19.997 38.99963 -11.30013
14.51024 43.23998 -12.7066
12.68597 43.31227 -13.75036
17.14735 41.05006 -11.93884
14.78455 36.704 -12.96186
4.808434 19.13859 -11.71912
-5.674228 23.2033 -10.75731
-2.275459 19.22476 -8.97561
-6.341334 14.76139 -11.10492
-27.38757 37.64305 -1.608673
-26.73187 42.49188 -1.233218
-26.25694 39.84472 -3.95207
-25.27741 40.63824 -5.095172
16.94246 58.80891 -10.77124
7.506445 66.38081 -12.88202
6.392497 66.39073 -12.43307
8.482492 68.67566 -12.97477
9.958547 62.07096 -13.3104
11.40406 69.39439 -12.31548
10.15773 70.313 -12.6728
7.268093 63.06319 -12.94248
3.803872 63.43919 -10.98607
4.913132 60.28578 -11.61586
3.334819 60.81518 -10.71251
3.612884 108.5463 -7.280903
0.2759427 108.0832 -7.575503
-2.212287 109.2903 -6.954119
-5.71736 77.98611 -11.6429
-7.587762 78.66264 -11.78102
-5.718309 72.2777 -11.56691
-8.45413 73.2611 -11.9668
-4.779669 71.82175 -11.35966
-4.096493 71.51954 -11.19938
-3.279182 68.39848 -10.88205
-6.353663 72.45071 -11.68683
-8.521915 76.2878 -11.87388
-6.780226 71.36296 -11.76694
-8.03512 67.93507 -12.03445
-10.027 66.25576 -12.30033
0.5454414 66.27037 -10.30184
1.766456 63.68338 -10.30584
-1.787306 61.68017 -10.24204
1.581944 48.07483 -9.746132
-3.544442 59.10477 -10.53607
-1.926691 62.13253 -10.28494
-0.9002002 54.05893 -9.760447
2.143688 54.42813 -10.08609
3.084461 58.72937 -10.56532
5.742153 56.85491 -12.22919
-0.527958 52.58721 -9.651033
6.574209 59.02725 -12.73092
3.674819 56.05666 -10.82891
-5.09363 38.52757 -10.64329
5.169302 56.69415 -11.82016
4.889422 49.63776 -11.63103
-4.732792 44.04921 -10.58278
-1.867866 52.56893 -9.828832
-2.287942 48.01304 -9.761268
-3.05226 46.88104 -9.95878
-0.5156144 35.03713 -9.132145
-1.151903 38.80614 -9.23165
0.2504266 45.99112 -9.45542
-2.754324 45.30149 -9.81027
-1.684851 43.86718 -9.480606
-6.302502 43.39772 -11.42336
0.7831628 39.84346 -9.397814
-1.88488 23.54231 -8.951688
-8.400905 46.57726 -12.49144
-7.755156 47.24974 -12.20135
-7.379086 49.97842 -12.00487
-4.504574 102.9892 -10.37924
-19.81588 32.49733 -12.06486
-16.03545 37.29097 -13.44053
-16.19636 34.69582 -13.66948
-20.64792 36.30779 -11.05272
-5.34471 40.55286 -10.8302
-15.85284 36.55579 -13.58631
-26.93829 34.00311 -4.349247
-25.51093 39.14169 -5.090753
-24.45688 34.71725 -6.9543
-25.62008 35.0369 -5.781257
-23.04074 31.06544 -8.390019
-25.64294 29.40285 -6.418797
19.68174 35.88464 -11.64426
19.54766 34.22908 -11.77229
20.17011 28.807 -11.8127
23.36882 22.08301 -10.94928
21.74649 20.15237 -11.76881
17.47119 25.28434 -12.30896
15.4923 31.67304 -12.83972
15.00181 25.33941 -13.43781
15.35981 30.305 -12.98351
11.0642 25.73434 -15.60401
15.2644 25.15282 -13.2831
14.07917 24.63328 -14.13101
8.153828 23.12419 -15.3073
8.933953 23.06882 -15.62406
11.6216 25.06172 -15.48821
7.680556 23.29543 -15.04349
9.1996 29.40882 -15.39808
12.93152 51.82085 -12.98137
17.2929 37.52184 -12.13189
-0.8659812 36.91818 -9.180637
-23.88169 39.76576 -6.832025
12.73797 59.90408 -12.44065
-2.692233 110.6128 -6.43031
-4.135382 103.7891 -9.937788
-4.73385 108.1834 -7.334329
-6.891882 69.87746 -11.79535
-4.013918 68.33707 -11.05433
3.194085 45.14467 -10.34485
7.088139 50.29104 -13.38379
7.063936 48.00415 -13.45744
6.37886 45.40763 -13.04757
9.594121 52.90161 -13.92474
11.8542 56.37524 -13.12924
-3.739784 53.03307 -10.41124
-4.193605 53.72989 -10.60517
-6.008385 51.16003 -11.34122
-2.806035 56.69493 -10.24061
-2.331353 55.92108 -10.0695
-2.747628 54.3594 -10.11098
-6.932273 39.03597 -11.74786
-11.67915 39.58447 -13.62437
-6.692135 37.10613 -11.58895
-2.923309 36.5965 -9.609138
-4.206589 36.81878 -10.14009
8.556943 38.54782 -14.63982
-1.161115 34.99209 -9.144192
-3.527895 32.4396 -9.713072
-5.023798 34.96988 -10.54902
1.926868 32.42768 -9.578583
5.999311 32.36076 -13.02665
-5.182944 27.80672 -10.53191
5.494121 27.5246 -12.48608
0.2640799 26.35753 -8.959314
4.558398 31.96333 -11.32465
4.658817 30.81204 -11.41496
4.216288 36.82972 -11.02031
-7.855389 32.67649 -12.28636
6.370485 34.66578 -13.40656
-9.145784 35.70301 -12.96269
-10.02706 29.99025 -13.46152
-11.72225 32.96711 -13.92499
9.868954 33.15035 -15.21976
-8.538713 35.75446 -12.65614
-12.20454 36.17129 -13.86093
3.102521 33.45855 -10.21146
5.44709 34.8193 -12.32798
10.70923 33.91412 -15.15574
