# .PCD v0.7 - Point Cloud Data file format
VERSION 0.7
FIELDS x y z
SIZE 4 4 4
TYPE F F F
COUNT 1 1 1
WIDTH 1668
HEIGHT 1
VIEWPOINT 0 0 0 1 0 0 0
POINTS 1668
DATA ascii
12.21532 141.627 -11.54545
4.161877 142.6025 -12.51846
0.4377417 136.7677 -12.19738
2.763934 135.2835 -11.90948
4.971308 130.7839 -10.43957
2.126165 132.5695 -11.08619
-7.049312 131.2935 -10.37994
-4.345199 141.0167 -12.63721
-6.890057 147.1298 -11.84598
-4.322571 145.4823 -12.10843
5.349785 143.2817 -12.52423
1.822482 144.7373 -12.12004
3.585964 139.276 -12.583
1.013608 144.5085 -12.12859
1.258388 140.2687 -12.53083
0.4050921 139.6549 -12.50388
-1.935004 142.167 -12.45002
-4.084962 145.3872 -12.10573
-3.096633 147.1208 -11.67819
-6.389352 147.8586 -11.61653
-9.530912 151.3649 -3.315754
-13.66985 126.6526 2.521033
-15.19172 136.4421 -1.938587
-14.2175 131.899 -3.084044
-16.11537 143.9962 1.691591
-15.06368 135.6747 -4.413829
-10.99901 151.7715 -5.17596
-13.58179 126.829 1.337122
-5.557201 132.79 13.59015
-10.14319 151.9374 -6.03037
-15.34584 147.4875 0.6606292
-8.801422 152.127 -7.255308
-15.16718 137.2533 2.960359
-9.103558 150.9464 -2.19519
-9.473874 150.9032 -2.293659
-6.446687 135.911 12.8556
-7.06706 153.078 -4.071259
-14.47497 132.5989 -1.509948
-9.440063 129.1391 12.49489
-14.68965 141.7077 3.771533
-14.33547 147.8159 0.6157921
-6.18492 134.4888 13.4201
-5.049855 138.4385 10.53431
-7.688959 137.926 11.23056
-10.60343 135.3188 12.57419
-14.22736 131.3625 -0.9213977
-14.1497 130.9624 8.855892
-11.01032 132.7035 12.97081
-15.60426 141.4203 2.256384
-13.97394 129.1064 1.037104
-6.74449 147.9853 2.400899
-7.396504 133.9708 13.69696
-13.44138 128.9091 7.248664
-7.823464 132.0116 13.8569
-9.598956 136.4902 12.22542
-15.46691 139.3666 2.024467
-14.42683 146.3819 1.479058
-6.444129 145.1197 4.806142
-8.497134 147.7072 1.805566
-6.630528 148.2989 2.251075
-15.17409 136.8484 2.124272
-8.684894 141.86 7.081093
-11.92762 139.7323 7.569582
-14.71587 139.5899 4.483891
-13.00603 133.5049 11.28392
-9.779437 140.2525 8.270056
-14.00866 136.2443 7.84271
-13.06931 131.7283 11.23943
-12.75978 137.3811 8.823059
-11.83109 140.774 6.767138
-14.15345 134.0931 9.078509
-11.72073 141.8872 5.855105
-14.85132 132.7023 7.176809
-13.75864 129.5995 8.451923
-14.78784 133.1815 4.192729
-14.93829 136.3264 4.613988
-11.86949 144.5126 3.571454
-13.31313 146.133 1.939856
-13.56145 144.3102 3.091745
-12.39422 141.6443 5.677948
-13.47568 125.5006 2.846134
1.378482 128.6073 12.46223
-0.3533963 125.031 12.25473
-13.37974 125.6049 4.87005
-8.261463 127.5657 11.34122
-5.208152 132.0105 13.58064
-11.23624 127.4575 9.706733
5.387847 126.6781 11.66462
11.44717 124.3847 8.587916
-13.16272 123.9751 2.47331
-0.8406523 130.6032 13.1087
4.078601 126.4477 12.0439
9.144704 126.8307 10.47668
13.28861 125.9937 5.400513
1.041791 130.69 13.0389
-4.123532 127.6392 11.96624
-7.395859 130.0788 13.30272
7.595308 124.6814 11.20802
-9.108416 128.5252 12.12744
-0.6437454 127.1525 12.13943
-4.097497 125.9561 12.12351
-0.9031346 127.9769 12.25167
4.00154 128.0141 12.15505
3.88802 125.6278 12.16124
-1.213534 126.3051 12.19826
15.93602 151.2382 -6.147236
16.18746 143.5411 -10.35225
15.88496 145.869 -10.34369
20.21072 144.768 -0.03639523
18.86742 140.3487 -9.974627
18.87314 149.3808 -2.627936
21.96477 146.1474 -4.894702
15.25591 145.0795 -10.58718
17.46137 144.3933 1.675302
17.30405 150.6012 -2.900905
17.40893 149.8055 -1.674665
17.54764 147.7224 -9.254697
19.22354 146.1224 0.007838728
15.28359 148.8889 -9.539827
19.51713 148.5233 -2.041053
18.35304 148.2906 -8.416101
17.96923 150.241 -6.187603
21.89936 146.1147 -5.455616
18.9679 149.6291 -5.657236
18.70355 146.7908 -9.012162
20.32345 145.7702 -8.18416
14.12155 130.6088 3.412726
16.74487 143.7781 2.352214
1.674551 138.918 9.730281
9.17089 144.2538 4.551733
4.308825 141.6864 7.573807
15.35373 136.2966 2.848338
15.14919 135.3412 2.046945
14.87982 133.117 5.13867
15.62567 138.2473 4.345742
15.03955 134.8374 -1.635298
14.98783 134.4661 1.804451
14.99149 135.2882 5.599652
14.97567 139.1619 5.607011
0.5953491 137.1231 10.9699
9.379313 147.8975 1.168639
10.04579 151.9332 -5.621335
13.75179 128.9212 4.203343
13.50221 127.6814 4.778313
13.48787 134.937 9.943541
12.6693 139.3568 7.670685
8.003331 139.9604 8.88136
-0.007846683 136.0121 11.60804
8.102563 140.5171 8.2804
7.716103 139.0344 10.00298
8.328893 138.0091 11.07047
9.384613 139.103 9.537416
11.48881 139.3665 8.393943
9.846485 140.7521 7.706716
7.531579 142.4293 6.477532
15.9412 150.9645 -2.483355
10.05725 148.6648 0.3147457
14.44395 131.5014 8.079549
8.081791 128.8519 12.41023
14.69086 132.7121 3.11688
14.98094 134.3985 4.656431
13.82504 136.8957 8.112087
14.35581 130.6344 7.420304
5.147954 133.8351 13.33925
12.38402 143.4324 4.62183
14.8016 151.3301 -2.83463
10.34626 150.9376 -2.722706
14.33918 131.14 4.794291
5.862784 131.0669 13.47274
11.80204 131.9546 12.38949
12.73183 133.7521 11.50975
10.85463 130.0326 12.36729
14.15152 130.5035 5.606776
11.72327 147.1963 1.503305
15.4431 146.5935 1.407547
13.42477 150.5094 -1.537733
9.202343 133.8112 13.53407
11.17002 137.6064 10.26631
13.73292 142.872 4.559204
11.67787 143.4433 4.809401
12.76895 145.4956 2.850212
8.866996 134.119 13.55648
11.59958 147.9084 0.8565036
3.348449 138.7705 9.886098
6.667027 137.344 11.77927
-17.43739 147.6183 0.08144662
-17.71349 147.5209 -9.262636
-14.33636 144.4493 -10.86576
-10.47347 151.6662 -7.118618
-10.27369 147.3421 -11.10782
-19.15416 149.3637 -6.039501
-15.33221 151.4818 -5.946244
-16.03649 148.8117 -0.2399863
-12.77841 143.4243 -11.34493
-19.27584 149.4543 -3.551069
-16.46785 150.4969 -1.9857
-13.67206 151.7627 -4.285084
-10.24506 148.5062 -10.66497
-15.51714 147.5573 -10.08825
-14.21492 151.7285 -4.212078
-14.46476 151.7825 -4.875172
-12.748 148.4505 -10.22821
-15.49944 148.6985 -9.607046
-13.73835 151.1148 -7.713434
-17.25879 150.8448 -5.399292
-18.05574 150.3451 -5.502272
-21.83139 14.17366 -2.051342
-22.98318 26.17045 -3.142073
-22.7694 28.02169 -2.761156
-22.48174 48.20987 -3.454458
-12.80119 12.44146 11.21311
12.2222 11.211 8.524333
12.35938 119.9018 7.786767
-12.97483 10.75941 10.88685
18.37775 93.45528 4.380819
-21.40179 62.74255 -2.175156
-15.30925 108.2712 -0.01982341
-18.85574 90.62321 -2.764304
-18.64607 94.61799 -4.005457
-6.788125 118.1273 12.23958
-14.08763 116.7156 1.253838
12.04198 123.6525 7.835648
-12.52976 120.5335 7.581468
10.67598 122.2783 9.343108
10.743 116.8536 9.608309
3.346931 11.04236 19.122
7.303898 11.896 14.37756
12.90563 12.21648 8.416656
-13.0223 117.5964 0.440614
18.65645 22.2306 4.553718
19.69066 20.17354 3.121434
13.73736 120.1572 4.432968
20.70605 40.77562 1.991512
13.88385 118.7205 4.493729
14.49404 118.783 4.183472
13.29218 117.0707 7.069131
11.47689 120.1126 8.820577
-13.18406 123.0045 3.072305
-4.42663 124.6353 12.25823
20.96171 82.78465 3.059801
20.46151 74.52416 4.019275
18.21601 111.0052 3.320072
8.627267 116.8586 10.59157
20.39858 46.91909 3.123228
-4.298077 121.8177 12.71847
-12.93059 120.5068 0.3593935
7.022362 123.6736 11.62017
-20.9436 13.5105 -0.5738153
-20.0463 22.68098 8.295585
6.566843 17.0225 18.94627
19.867 20.71662 2.920363
-15.68915 107.391 -2.394233
16.75991 100.9145 4.616229
-1.266567 123.5423 12.37615
-12.10962 120.7863 8.098934
-8.47228 120.8003 11.99374
13.6569 117.5546 5.260342
1.211937 122.4473 12.35791
1.178871 121.2334 12.4296
-21.93324 16.89162 -1.813513
-22.646 36.37093 -2.601159
-19.39483 12.71461 8.813546
17.70481 33.80825 6.227269
-9.944002 14.8097 16.58359
11.93591 11.97227 8.57562
19.04335 24.27849 4.153947
17.59527 12.47366 5.645008
-16.94962 103.6069 -3.174186
-20.82899 80.17868 -4.049595
19.7282 102.4046 3.839626
20.44368 85.74294 3.457623
-0.4097213 124.143 12.02385
-3.857279 123.1375 12.46537
-13.63034 113.3265 -0.1457054
-2.633093 123.1729 12.50711
-21.13114 17.67317 -0.05767547
-21.37415 12.45966 4.533687
-21.37074 16.0674 4.544392
-22.6881 34.46071 -2.633919
-15.35739 11.05466 9.427726
20.83501 48.51608 2.586937
-22.46124 47.53493 -3.371303
6.832788 13.31533 13.03049
16.97951 27.29774 6.638749
9.429431 12.13697 8.944676
19.79555 18.19026 2.858491
-15.7438 108.5484 0.5153927
-14.52866 109.5773 -2.178137
-18.23763 95.62737 -4.074214
-20.48805 78.28094 -2.054322
18.87033 106.8583 3.825674
18.98623 102.1888 3.71132
19.60127 73.18382 5.60476
19.36492 88.43775 4.616222
-1.822529 123.5656 12.62757
-3.476298 122.3352 12.52131
-20.99753 15.39964 2.230104
-21.46605 14.19585 5.292748
-22.24028 44.23402 -2.455318
-21.74462 23.19206 -0.8280516
-15.78412 12.59945 9.361459
-7.910022 9.960771 16.51498
19.81348 47.2779 4.10698
-21.85174 65.27383 -3.853515
-21.56224 51.68233 -1.027921
7.180562 10.14429 18.83464
20.28489 33.05167 2.485132
17.14375 14.51426 6.062447
13.93335 16.41986 8.217443
19.13583 20.79226 3.86846
-14.89779 106.5813 -1.836006
-16.88329 105.977 2.509221
-16.17939 102.9866 6.685491
-16.16214 108.1056 3.436819
-16.1301 106.073 4.721281
-16.12919 102.19 -2.108541
-16.09123 102.3727 -2.073843
-18.223 93.67311 -4.027621
-20.3786 79.33852 -2.152944
18.36869 103.4427 3.720521
14.95906 108.8496 6.442495
20.02425 98.60039 3.646277
20.72556 94.90569 3.205608
20.67249 97.66484 3.109799
21.10806 85.85832 2.848732
-14.62736 113.5118 0.896094
13.83631 115.612 5.916948
-21.04161 16.66572 -0.04454606
-21.95819 39.19144 -0.9059845
-21.6222 44.32507 -0.1965807
-21.11773 45.0511 2.359682
-21.86967 35.33019 -0.4123467
-21.66989 39.8968 0.05146037
-22.60483 29.84932 -2.425589
-20.46507 15.69424 8.054919
-10.83733 10.8975 16.24301
-4.444108 9.843193 11.68535
20.62015 51.39182 3.088963
20.18453 40.30322 3.020142
-22.23419 58.43203 -3.806943
-20.93101 70.87947 -1.904698
-21.39129 54.27043 -0.5937312
6.582274 12.37202 19.27092
20.27121 28.49689 2.465754
19.39307 33.83475 3.997675
19.73621 38.84882 3.725597
13.55766 14.55287 8.30166
-16.45219 107.4294 1.130301
-17.89037 98.72845 -0.08200677
-18.84807 92.11318 -1.408924
-21.14529 77.55766 -4.294181
15.43406 106.8075 4.94092
13.7549 109.373 8.614676
17.19634 97.09325 5.117377
18.83316 95.9931 3.736564
20.66362 65.82203 3.579651
19.31277 95.04716 3.671057
19.56231 86.89036 4.798554
19.97438 78.95038 4.941155
19.5302 77.9425 5.845169
-15.09484 114.3028 2.482706
-2.855785 120.0495 12.71072
-21.49393 21.88988 -0.4306352
-21.37673 18.62666 5.195703
-20.9357 51.47591 2.838908
-20.85624 47.90953 4.132877
-20.95648 45.71608 3.652835
-21.86744 33.13177 -0.4615291
-17.65557 15.20704 9.27387
-10.64616 12.64306 16.25516
18.82414 47.42534 5.627264
20.8947 57.06123 2.967754
-21.16233 67.26356 -2.261982
-20.8945 75.08392 -3.32437
0.184351 10.11976 12.07022
7.540832 13.41794 17.92574
0.9664005 11.48926 13.39177
16.68075 31.97387 7.147781
18.91124 25.85123 4.37979
-15.74723 107.8002 4.938602
-19.13585 94.01293 2.244276
-20.32909 83.549 -1.214306
-20.50923 78.04374 -1.961791
-20.81272 76.19035 -3.394314
13.79537 114.3 7.286055
16.9301 95.1887 7.687131
19.72087 88.08155 4.098614
-21.22456 17.74962 3.557073
-21.13632 22.40757 1.218497
-21.25724 48.5567 1.056983
-12.54393 13.02826 12.08215
-12.40517 13.05363 12.78914
-5.011444 13.34922 12.17118
20.06328 46.93293 3.671283
-20.98548 68.28961 -0.5952191
-21.13526 54.19355 0.9783489
5.072861 15.81885 19.42247
3.428995 14.28329 18.96905
3.002684 14.87131 18.61355
17.22789 39.86969 7.055902
17.36642 22.12938 6.040051
-14.4489 109.1232 7.890239
-18.17095 97.55999 0.06829727
-20.07956 87.41158 1.512654
15.30381 104.0806 8.064166
20.24815 71.55173 4.405334
20.31632 63.38092 4.109554
-0.7438564 118.692 11.87566
0.4205032 115.6826 11.9204
-21.20024 21.93489 3.307814
-21.80486 34.32639 -0.2234235
-21.38261 36.20651 1.552087
-13.28141 15.50456 10.56021
-4.713356 14.07198 11.90446
16.62568 47.03732 8.041357
18.40374 42.599 5.892091
-1.060601 10.98201 11.12425
17.81885 38.45888 6.335886
16.20125 24.80065 7.198646
-14.74813 114.362 4.137507
-18.29377 97.72354 2.89441
-19.68691 87.93311 3.681728
13.57665 108.7215 8.88028
19.51565 58.43103 5.190691
5.237832 117.0437 13.38745
1.964474 115.3107 12.60817
-21.34452 19.17991 4.662867
-12.91655 16.22157 11.04198
0.3241825 15.38818 12.30636
19.11361 44.15427 5.003499
-21.29138 56.19651 -0.3419045
1.270284 14.20493 14.06722
14.56834 31.43909 8.475192
17.73797 37.23841 6.367214
-20.12181 87.07142 1.008659
13.16724 109.0702 9.072303
19.77714 70.29549 5.224046
19.5979 66.49249 5.422674
18.50719 90.90145 5.411455
-21.22104 23.33295 5.86491
-21.14303 23.72926 2.613215
-6.941763 15.87749 15.37767
3.970292 16.53753 19.20441
1.011582 15.19627 13.44965
-16.79236 89.80843 8.59419
-15.71658 91.53188 9.14269
-19.72276 86.89478 4.243491
-16.93564 89.3532 8.513318
-20.35249 85.44099 0.7744318
16.47931 48.83514 8.247967
14.6382 88.44709 9.93846
-18.81064 25.67075 8.976706
-5.292742 16.03854 12.48439
18.3824 45.99258 6.126725
-20.3931 72.99876 4.185259
1.588574 20.68035 15.51138
1.57789 19.18499 15.55766
18.78742 54.45673 6.078994
-18.63426 24.41274 9.059502
-21.17433 29.34102 4.446798
18.01286 49.60459 6.810155
-20.92773 69.78642 0.5048786
-20.68831 76.16242 2.475728
2.71893 20.59335 17.92407
-17.13653 92.05984 8.045304
17.72913 64.67878 7.838665
18.41651 60.04521 6.838164
17.51658 58.57842 7.838129
-21.2655 30.22221 1.937757
-20.32778 73.83643 4.39718
-19.82923 67.95345 6.649201
4.601007 17.29198 19.3757
3.926736 22.29031 18.94499
-1.140193 16.35008 11.11008
-15.41052 90.02702 9.407539
14.12678 93.86601 9.895115
-21.1771 30.25255 3.317018
-20.43915 74.23876 3.860418
-11.97791 74.27523 12.17371
2.727157 18.34929 18.09421
-15.42166 88.844 9.499959
15.4729 96.6184 9.060827
12.08427 88.79862 10.12929
7.652093 21.77542 17.14377
-14.27731 89.95861 9.928328
-17.16636 95.31197 7.239594
-12.85376 95.52401 10.18561
-15.47468 92.15676 9.213878
14.458 83.16552 10.13559
13.86121 82.75188 10.22312
15.68552 82.00764 9.728982
-12.33728 120.1942 7.978632
-11.57192 120.6936 8.728727
-11.01468 115.2619 9.789649
8.236444 120.6607 10.97252
-10.13474 116.4879 10.49709
-9.114718 115.0828 11.96472
-5.84355 117.402 12.22499
-11.17879 114.5431 9.72202
-21.66399 22.60791 -0.7281698
-21.58998 25.44255 -0.2110952
16.89939 18.03395 6.362419
16.82676 16.43801 6.387888
16.79618 22.53296 6.590452
12.53724 17.94299 8.635062
8.626904 14.23554 9.244016
9.099986 12.51335 9.041009
-21.13807 62.08174 -0.3141275
16.32961 100.4774 6.222832
16.76117 77.20789 9.053467
14.71579 79.089 10.00583
17.73658 74.5174 8.220787
-2.096325 116.3609 12.66007
-2.690924 112.6706 12.67547
-6.552183 115.278 12.40265
-20.7584 48.55321 4.852952
-20.48287 47.62224 6.353045
-19.828 48.01389 7.599439
-20.73935 53.47143 4.168729
-19.17445 43.53012 8.519241
-20.58035 41.96432 6.362898
-20.11832 42.27813 7.445993
-19.04985 42.24854 8.605323
-20.80308 40.69997 5.628226
-17.88226 37.61415 9.178905
-21.03813 66.21345 -0.3154705
-15.64126 107.7599 5.514949
-14.50931 107.7952 8.126458
-15.75891 106.3906 6.102388
-12.94139 105.6371 9.291742
-16.17268 105.5143 5.005579
-13.67412 100.1543 9.387792
-12.66522 96.57761 10.21662
-12.53401 99.40269 10.04139
-10.7269 102.4003 11.46657
-10.52336 105.6486 11.35613
-17.17067 101.8514 3.759337
-17.7113 100.7783 0.565317
13.1179 115.2876 7.973146
12.84137 112.8931 8.808031
10.94338 113.5249 9.671243
10.49554 107.5398 9.904894
6.61581 116.9583 12.12907
9.917398 108.6584 9.988727
12.07015 106.1347 9.753711
13.78479 96.5168 9.867935
9.951251 103.7647 9.948458
8.741806 103.45 10.33864
-19.32581 51.93646 8.097058
-18.79674 95.25037 2.635192
16.10611 101.5636 6.872718
16.47991 98.24194 7.424706
16.23578 95.3697 8.576056
11.7741 94.79647 10.00759
-19.5806 21.33591 8.626193
-15.93295 22.26067 9.397394
-17.47603 25.09736 9.295854
-16.9281 25.75904 9.344739
-15.10944 24.54711 9.574849
-12.08279 25.90372 14.04774
-14.55381 25.73684 9.786308
-12.1366 26.70111 13.85485
-21.14877 61.30549 -0.2518752
-20.97172 55.37441 1.991272
-20.88577 61.02103 1.954754
-20.94257 61.06872 1.51416
17.53162 41.51777 6.85629
17.399 72.94611 8.475381
4.364447 120.2783 13.33699
6.279625 113.7366 12.72135
6.996031 115.2258 11.84689
-15.5216 20.44629 9.441882
-18.74378 16.26908 9.046237
-20.41475 84.79996 0.5178071
-20.34612 77.68494 3.951752
-20.30044 78.75372 4.038843
-20.00483 78.48843 5.037108
-20.4426 83.99973 2.231985
-19.53528 85.72984 5.322601
-19.48924 82.09653 6.011898
-18.64359 81.54976 7.44414
-19.06131 78.36763 7.134739
-18.29216 79.51838 8.020511
-18.70345 85.55728 7.005229
-15.68366 77.18439 9.762595
-16.31987 81.70276 9.418959
-18.20416 94.4278 4.67736
-18.14465 92.98211 5.832897
-20.54263 28.70838 7.453897
-19.70561 28.97281 8.445655
-19.45773 31.81992 8.551857
-16.33871 29.71977 9.437311
-16.44025 27.66156 9.40053
-16.14767 28.72353 9.442352
-16.9311 30.62733 9.383698
-17.81277 35.52513 9.251351
-20.29942 38.46636 7.298486
-21.11841 36.07584 3.714019
-19.43901 40.61933 8.357037
-20.94157 39.29113 4.789078
18.2816 71.1777 7.50068
13.78966 63.03936 9.796451
14.70385 65.03118 9.735673
13.77155 60.88686 9.732493
16.14257 59.54599 8.998665
-21.13557 34.36715 3.692585
-20.54539 68.54939 3.711852
-3.210831 19.57727 11.045
-4.066046 18.5043 11.44705
-2.217736 26.12866 10.96999
7.862395 84.55254 11.17157
-21.85353 29.88211 -0.5917152
-20.56558 66.81064 3.737683
15.01352 85.91048 9.944082
7.742143 19.29963 15.66128
7.724531 23.98792 15.33443
7.158072 28.41277 17.71843
12.55476 19.40878 8.673429
6.981571 23.90848 11.43555
7.012757 24.85932 12.93851
6.89792 20.05388 11.45469
7.295995 21.7188 10.65088
7.839237 17.90198 9.888396
6.967842 15.88834 13.30195
-17.49695 98.72081 4.469908
19.33157 83.93466 6.135399
17.62375 83.49036 8.454595
-14.24435 116.7205 4.381915
-13.7077 116.5141 6.717559
-7.858796 122.3231 12.03916
-12.95349 114.0023 8.470442
-13.02271 109.3828 8.93868
-12.93179 111.876 8.744508
19.06173 30.57345 4.347224
18.52324 29.83798 5.044178
16.63615 31.61055 7.171172
16.34872 28.64132 7.248598
15.63123 33.31231 8.027611
12.57672 35.96307 9.12483
9.102693 37.57829 9.600533
12.01256 35.12069 9.135651
17.80619 25.50419 5.723773
18.56796 79.76936 7.379944
-9.225462 113.443 12.05554
-5.490899 112.7484 12.30706
-7.119106 109.9612 12.74805
-7.11824 109.3944 12.75885
-3.069736 110.0832 12.63974
-3.559348 110.7849 12.68257
2.774406 114.0315 13.22648
-0.2029387 111.4348 12.04849
2.702207 112.692 13.2917
4.566112 111.1027 14.39265
3.33379 108.0687 14.10597
-2.314399 107.9193 12.48652
3.767965 109.7833 14.27896
3.679728 106.3985 14.45948
-21.24175 49.22128 1.041926
-18.1235 51.02981 8.996097
-17.25217 41.21984 9.352214
-15.90265 40.86071 9.623196
-17.77088 38.69729 9.243052
6.810889 13.43655 11.19995
-12.06782 102.5302 10.07596
-15.98726 95.00848 8.69184
-11.85422 93.64489 11.0894
-11.08007 96.34086 11.6527
-10.2668 107.5455 11.41345
-13.22449 108.9996 8.850265
11.31184 102.8434 9.896749
8.078339 106.0476 10.75598
6.523846 108.5036 12.82194
6.620411 106.0988 12.8176
5.696673 106.6605 14.00211
2.813649 106.0839 13.76527
4.342396 102.8595 14.93366
3.548598 99.19759 14.88622
3.707623 101.9882 14.8047
2.817446 98.10867 14.42217
6.507349 99.07355 13.69196
5.447044 96.24738 15.02497
-18.32335 95.18975 3.810348
12.19156 93.85756 10.07474
10.34292 98.42233 9.931417
12.70736 98.68903 9.920589
8.591276 97.13284 10.36294
8.045497 99.14576 10.86375
9.378738 94.47662 10.11288
9.3445 94.7067 10.11791
6.79845 95.53175 13.39446
7.085734 94.22279 12.7342
-12.60238 20.03049 11.73514
-12.15798 17.41423 13.95677
-11.72942 17.07295 14.96499
-12.59229 19.49368 11.7895
-13.758 18.53372 10.14643
-12.12482 22.19512 13.89396
-20.79606 54.13232 3.571575
6.629429 120.6777 11.86345
-19.62084 19.55069 8.597595
-16.12356 76.08189 9.595726
-13.41843 82.48006 10.72899
-16.77202 81.50787 9.173763
-12.82938 30.1119 11.70787
-12.02391 28.98454 14.05998
-13.30676 33.09761 10.78309
-15.77904 26.88737 9.465133
1.495526 25.13297 14.89116
1.050939 24.87795 13.59628
14.92507 56.77955 9.44374
17.31507 50.87318 7.641318
-18.97934 72.52067 7.740689
-17.64887 72.3053 8.82647
-15.54873 73.88704 9.81455
-17.81567 74.023 8.675478
-16.08114 76.86941 9.59843
-16.92847 80.9914 9.075177
-10.84103 81.71159 12.72666
-11.63256 82.72649 12.05867
-13.48808 81.42941 10.70147
-12.39632 73.7905 11.75213
-20.80914 64.12258 2.273246
-20.14612 65.82882 6.075963
-20.11779 62.1982 6.418423
-19.04193 66.38316 7.937912
-13.87999 65.77251 10.44167
-16.64954 65.67277 9.434293
-14.12121 64.48922 10.35492
-13.64116 62.14529 10.65242
-14.43606 69.2649 10.19813
-14.27678 65.00906 10.26903
-11.11635 68.3172 13.37588
-12.51892 69.15887 11.70657
-15.34201 62.2138 9.867821
-12.68999 70.44966 11.4984
-14.33186 60.63329 10.29025
7.538249 18.05952 14.88536
6.707644 26.11413 18.32655
11.08841 23.24287 8.914816
-12.47358 115.4452 8.64843
14.51255 25.00713 8.277317
19.08313 79.00413 6.628089
-8.857188 105.4048 12.87342
-11.67822 101.4704 10.49965
4.774102 108.4493 14.44748
-3.640393 106.6245 12.52186
-15.32163 47.08113 9.775159
-15.60785 44.4892 9.69521
-14.11421 33.4408 10.07375
-14.3836 35.81742 9.954872
-13.58767 40.43272 10.56518
-12.37463 38.35593 12.73251
-12.35959 30.77143 13.08271
-11.58342 38.307 14.26007
-12.67034 35.22854 12.08501
-11.7626 40.44398 13.89102
-12.3358 46.58923 12.51342
-8.841113 41.36494 15.62805
-0.8793103 102.1782 12.1323
-1.221122 103.7903 12.22025
-2.941311 104.4597 12.44102
-20.61142 52.62146 5.395407
-20.71377 52.283 4.576548
-19.47821 54.51175 7.862873
-20.4245 56.30863 5.881876
-19.80135 55.69219 7.437214
-17.89595 94.56898 5.785133
8.56605 89.78525 10.48952
8.668462 91.03559 10.4156
5.528443 90.84935 15.37312
6.5459 91.94057 14.14769
5.4759 94.63092 15.12073
-10.78873 21.34632 15.87937
-8.611581 20.54995 16.38424
15.44102 40.06289 8.512215
12.69839 43.87696 9.300547
8.500527 38.00301 9.884185
8.280532 38.06461 10.03979
15.28854 42.82896 8.713312
8.642439 39.60447 9.870718
16.56898 47.47012 8.123879
17.27961 48.50022 7.537899
16.63754 51.8303 8.300733
14.93853 54.76889 9.334993
7.915375 48.04372 10.56999
14.51501 47.94338 9.245339
14.99726 72.93581 9.855998
13.78111 65.626 9.851569
10.41198 66.14283 9.696571
11.09089 68.27075 9.739914
14.81742 70.68267 9.848317
13.10671 72.99531 10.01383
14.33499 73.64295 10.00883
7.496585 70.94491 12.01373
-7.992814 71.48367 14.04553
12.28424 74.24403 9.989838
7.654524 71.54901 11.44254
0.1407205 22.5552 12.0632
-10.55975 82.3027 12.87303
-20.66931 59.09066 3.854591
-16.81639 54.46861 9.430455
7.697768 28.05754 15.98436
6.962103 26.80528 17.9861
2.129914 24.84605 16.86524
4.955647 27.31084 18.87691
6.646624 22.14538 18.51402
9.546173 24.31355 9.162373
15.8718 79.98965 9.605572
15.19993 77.84547 9.888698
13.69458 73.05949 10.03021
14.80408 76.67636 9.970608
11.09156 73.82616 9.829535
14.785 27.78472 8.221775
11.36314 30.58728 9.06728
11.48639 29.51185 9.033591
7.39435 29.21401 13.99742
8.457429 26.35905 9.63806
7.957222 30.44916 10.13333
9.560856 34.09309 9.336609
10.17684 25.91779 9.0488
10.69094 30.48773 9.108568
7.071412 30.20459 11.90056
7.572023 31.99394 14.63373
7.050097 31.33564 12.01001
16.27774 26.49309 7.221735
-10.04822 100.0266 12.37732
-7.924683 101.2942 13.133
-10.91835 94.59086 11.9357
-9.004889 95.95864 13.14941
-6.974838 98.42736 13.08385
-5.443307 100.2851 12.47438
-3.657727 97.76839 12.14264
-10.91195 101.4234 11.36054
-5.005832 104.3912 12.2988
-12.2953 44.83998 12.67494
-10.31698 38.75398 15.32123
-9.982556 39.88666 15.50111
-5.762528 38.17548 12.9504
-9.359227 35.60461 15.77697
-8.134001 34.20821 15.71115
-12.16005 34.89575 13.43683
0.2531219 102.6728 12.22574
-3.039299 101.0594 12.2644
-11.11955 26.35193 15.33301
7.473158 41.627 10.86472
13.60536 47.68124 9.369033
12.69296 51.02483 9.484442
14.00147 45.51221 9.227261
9.235274 54.99326 9.696593
9.013701 50.38831 9.772266
7.334816 44.94692 11.98588
7.396801 44.79319 11.29147
-10.61125 24.58145 15.79777
12.50543 59.47053 9.67915
10.42971 58.46836 9.590683
7.641011 54.88291 11.24248
10.84945 74.81979 9.843338
-1.274691 28.0472 11.11755
-0.402394 28.94499 11.66428
-5.418238 32.96008 12.52699
-2.319187 24.11757 10.9913
0.118866 34.99596 12.11669
-0.5777227 31.37776 11.537
2.251109 31.13233 16.68896
-1.675182 25.12154 10.95927
1.448256 31.37239 14.54882
1.439405 36.16208 14.39606
1.772482 33.89668 15.41189
0.6808581 36.80011 12.82511
-0.7429203 36.70167 11.45632
1.370702 40.31865 14.08296
1.454578 38.67842 14.33851
-1.286855 37.9727 11.27746
2.521908 41.20711 16.8394
-6.15239 70.73484 13.154
-9.500905 75.24171 13.88569
-8.436538 75.61115 14.01521
-9.825253 76.02022 13.70415
7.222847 33.6648 13.05749
7.648094 33.01934 15.44904
4.594886 28.89685 18.78255
7.562555 29.42743 14.78093
6.694728 33.79631 17.80498
6.177844 36.69103 18.01352
7.314094 35.08417 17.07529
7.202549 36.74084 12.27637
-7.089867 95.5077 13.17067
-12.15597 46.29481 12.85673
-13.93977 49.77903 10.35884
-7.588588 34.07222 15.34774
-4.217444 33.66085 11.53764
-6.333652 33.1567 13.86509
-4.572948 30.25567 11.75856
-9.744599 30.89067 15.92689
-9.426511 25.58841 16.21173
-7.728015 32.56809 15.52664
-5.449956 35.44886 12.60191
-2.640258 39.87795 11.1327
-0.009895103 99.56178 12.10963
2.682183 95.11063 14.48558
2.926934 93.92757 14.72432
3.589002 90.37468 15.31018
-7.009128 21.08221 15.21227
7.377698 38.55002 13.6269
6.692211 37.89823 17.50691
7.348451 40.03863 13.31103
6.251835 42.76725 17.54356
2.065262 40.78448 16.01566
7.326661 42.93183 12.78894
7.323539 42.31271 12.46068
7.452386 41.63216 16.26134
7.51952 42.21529 10.83704
-12.3555 26.77801 13.05653
9.835546 53.32249 9.53996
7.346046 56.98102 13.9506
9.59739 62.10602 9.746708
7.384238 53.80923 13.81739
-4.629819 27.49103 11.79626
-18.8695 60.30713 8.330272
9.536277 25.89939 9.183537
-3.940575 43.221 11.44817
-3.185751 90.87189 11.90775
-9.100652 21.95146 16.35316
-6.353689 21.76937 14.14729
-2.622857 43.87518 11.13988
-8.152866 26.16953 15.9874
-6.379993 25.58361 14.08597
-6.166409 22.8136 13.77068
-4.802547 21.8023 11.94755
-6.360594 26.38282 14.0321
-6.779894 27.42431 14.68791
-9.367042 25.7464 16.19375
7.348829 50.15519 12.45043
7.399846 51.41811 11.92788
8.734356 64.0984 10.10887
7.258207 66.76854 13.79323
8.718434 59.59554 10.04164
9.594374 58.6038 9.687871
7.440099 68.22922 12.18955
7.316972 59.9049 13.77785
7.357033 64.51222 12.91648
-13.67682 51.06913 10.63594
-17.58051 52.97245 9.202212
-16.07738 53.49393 9.603903
-14.0807 56.0989 10.32138
-14.86378 58.96407 9.989071
-6.963018 58.25115 14.05121
-7.59718 65.08677 14.18486
-10.63139 64.10439 14.00262
-8.560346 63.67525 14.45955
-11.95288 62.0934 12.62723
-18.17961 59.27306 8.812946
-9.192913 42.48043 15.58791
-9.662111 47.43047 15.25963
-7.86549 20.93109 16.12155
2.896522 45.03319 17.04321
2.249438 43.4728 16.31346
-0.2326649 41.58848 11.85371
0.3514284 40.99001 12.38423
-0.1729455 45.52728 11.95012
-4.480571 23.13856 11.65245
7.338428 58.5944 14.00964
7.077727 62.94855 15.19448
6.713146 62.48411 16.10732
-12.32151 48.71611 12.47229
-11.75886 47.48036 13.51547
-12.80338 51.77686 11.62007
-10.95166 49.05274 14.40475
-12.03897 50.83842 12.87265
-13.38574 56.008 10.83391
-12.89807 60.82953 11.3063
-9.638064 54.04424 14.97259
-6.137742 46.19236 13.42134
-10.15539 50.92455 14.93656
-5.385842 51.2929 12.54585
-8.776424 61.92041 14.59109
-8.447079 53.33687 14.91987
-6.552879 60.5748 13.64442
-15.24378 59.68195 9.86182
-5.766381 42.86764 12.92691
-4.987749 46.39527 12.14252
-7.442536 46.561 14.70468
-4.975402 47.43896 12.13017
-2.384745 46.66004 11.13993
-7.886315 49.87034 14.82768
-7.496627 50.22248 14.62939
-5.784708 54.78662 12.98306
-0.608898 93.55389 11.91278
-0.9790329 47.19178 11.53832
5.897962 46.32642 17.64959
5.347876 66.36432 16.72259
-6.989445 55.36749 14.1556
-8.547872 51.55054 14.99703
-7.380669 56.68827 14.37385
6.559956 54.34151 16.61974
6.222657 44.73933 17.5185
4.787069 70.46646 16.59616
-5.092462 57.42687 12.33744
-5.105738 56.23854 12.2857
-0.7977959 47.42566 11.5945
-0.5910011 49.29591 11.69281
3.502256 47.96352 17.41504
3.27381 49.8258 17.23393
1.455897 49.44001 14.24696
6.597237 58.20299 16.53984
5.986104 58.49134 16.99571
7.025489 56.979 15.87774
-4.545723 67.80589 12.05179
-0.7203711 68.48795 11.69381
1.376433 49.16898 14.04753
-0.375962 56.40727 11.81234
4.230353 53.88541 17.45727
1.019027 53.86167 13.24269
2.237441 56.38837 15.7084
2.733608 55.96637 16.40527
0.785044 60.34748 12.83715
3.746158 59.29086 17.03893
-0.6504582 56.6102 11.68163
1.082137 58.51742 13.34899
-4.466919 61.28026 11.92701
-3.920796 60.7141 11.58794
-2.763013 52.9388 11.25401
-2.22761 58.03716 11.29648
0.2120657 61.31346 12.27569
-5.828917 59.01485 13.02052
0.891553 90.4755 12.80523
2.257455 89.36437 14.34602
-2.143711 60.39216 11.28734
3.176879 64.82401 16.43509
-1.254773 59.96855 11.43765
-9.424169 87.69596 13.27636
-12.08111 87.96459 11.38582
-9.162868 89.34023 13.26861
-9.098643 89.80384 13.27558
-11.5728 89.88665 11.6378
-6.89442 86.38293 13.31637
-0.7124152 88.30695 11.83316
0.2478875 86.1609 12.30517
-0.03525423 83.09939 12.08883
2.863752 90.1011 14.92417
4.433036 87.64117 15.59309
2.001604 65.06171 14.97607
-0.8304507 62.91578 11.6362
0.3365937 67.31555 12.33381
-5.21244 91.42556 12.49509
-3.929142 93.89828 12.10506
-5.712667 84.87798 12.73403
2.658687 66.40706 15.86515
5.969497 74.41217 16.12935
-1.70686 71.78857 11.44927
-1.158016 70.49712 11.54579
-1.032455 72.42488 11.6066
-0.8526165 69.18774 11.62102
-6.766813 70.158 13.63632
3.586522 83.90237 15.60661
3.12721 69.46185 16.15575
7.018014 69.64943 14.82872
2.925861 71.24068 15.8357
6.906665 72.56993 14.88778
6.344648 74.46484 15.70791
6.002129 76.69011 15.80752
7.189262 69.74644 14.19949
7.427986 73.64886 12.32907
-2.349634 72.71136 11.42306
-5.491886 72.04728 12.67265
4.910949 85.93912 15.73955
3.399026 81.27149 15.65159
7.113174 69.19466 14.56324
6.497838 77.59614 15.30615
6.910965 78.45752 14.5452
10.31209 84.6003 9.981817
7.081289 86.43515 13.24245
7.459813 80.01815 11.93632
7.510075 80.67073 11.66531
11.01319 77.61707 9.843618
9.61342 79.47161 10.10201
11.59789 78.90314 9.989165
12.9216 84.20891 10.24283
9.336121 82.86261 10.14872
8.057333 89.9845 10.71707
2.050175 73.11425 14.79541
1.370857 82.35462 13.55494
2.72499 74.61168 15.51973
-3.596229 75.41942 11.76165
-7.613901 76.23969 13.81357
-8.565696 79.29216 13.84132
-7.971053 80.0091 13.76663
-9.287919 83.65427 13.46021
-3.328406 79.26131 11.74472
-4.665406 79.39097 12.2358
-8.655111 82.75424 13.70193
-6.277122 85.16822 13.02404
-6.392683 84.9068 13.08873
0.6881689 83.52098 12.70239
-2.981238 86.37571 11.79466
-0.06744306 80.87707 12.09733
2.052725 80.83386 14.46843
2.394206 80.11259 14.86137
7.354243 84.075 12.2118
-5.800972 72.43672 12.87364
0.7953443 78.89009 12.8025
-13.16857 40.73807 11.0899
20.26993 11.78427 1.606472
21.60801 10.97317 -0.5351747
6.228253 6.636626 -15.87229
1.936462 20.207 -9.610774
20.88828 39.77557 1.439119
-15.49461 114.4745 -1.597807
4.037916 6.203679 -13.529
21.8724 47.66622 -2.229703
-13.41187 119.3764 -1.966727
-7.430641 120.7676 -5.856039
21.49046 70.53014 0.7173352
23.18653 11.1791 -4.255589
4.785662 120.2409 -6.816428
-23.14149 37.43631 -5.78684
16.99162 101.3732 0.3689103
17.3632 112.8916 3.262711
20.16859 57.83985 -8.379343
-12.33616 82.31006 -12.08715
3.114923 7.425662 -10.13959
-3.15817 8.897202 -11.99185
-5.567545 7.184169 -13.93029
-23.34327 11.75808 -4.841206
-23.01426 11.63471 -8.031628
15.60256 98.80028 -5.561958
-23.33497 22.79396 -3.91682
-22.44049 55.40229 -4.745391
-22.19777 31.8629 -9.428956
-23.22971 35.28869 -5.172615
-14.59769 115.2482 -1.023406
15.23128 112.7154 2.047882
-5.463295 120.379 -7.039136
-12.65503 122.9187 -0.3442075
13.69448 118.3827 2.137286
18.2902 105.3455 2.167428
2.229254 118.4529 -7.624831
-19.5969 90.54881 -5.901458
-19.82207 68.47251 -6.289634
22.28119 30.62471 -1.728806
21.14586 17.40119 1.086952
21.34037 12.83762 0.1981225
19.23213 10.54144 -12.63543
-15.44637 76.38198 -10.62161
20.58373 63.87796 -2.72687
7.28953 121.1247 -5.735818
12.05544 121.6322 -1.212267
-23.44421 27.98575 -4.844714
-23.55852 23.43716 -4.867822
-21.5926 11.43644 -10.42263
-15.94548 108.4967 -2.069073
-11.25287 121.3259 -2.979747
21.26225 28.38029 0.7334509
21.2132 21.211 0.5418493
23.73779 10.12955 -6.653379
15.10563 7.047069 -12.12371
21.43577 37.58747 -0.005343454
-18.25487 67.57535 -7.178905
21.45884 80.56474 1.851143
21.61184 64.54289 1.019265
-20.87973 85.42884 -4.667964
16.83118 110.8748 2.473608
20.01106 101.316 2.112177
-23.04734 40.29857 -4.846347
-22.63785 26.12179 -8.77599
-23.43901 21.63308 -6.365654
-21.57078 9.999827 -10.43362
-16.63442 89.21754 -7.136505
-16.82709 106.7244 -2.019037
-15.22551 111.163 -1.686358
-13.17926 117.6612 -2.588814
21.28485 38.98538 0.5457565
21.90114 21.92636 -0.6891931
21.86864 15.11176 -0.5343779
23.70654 11.19509 -6.747056
20.05635 8.783107 -12.45035
10.65921 7.604629 -14.19937
22.02613 42.99776 0.1366811
5.396209 6.592408 -15.46142
-21.66397 70.28926 -4.229973
-22.168 44.92701 -7.115458
20.67202 83.73267 0.4344176
21.57238 64.00037 1.529162
21.70505 59.16332 0.2948633
19.45726 94.22595 0.894451
-20.21094 83.74234 -6.15275
7.362771 118.9643 -6.563677
16.45455 110.1437 2.236812
14.16005 113.781 0.5478488
20.16501 100.3755 2.238769
-23.03052 37.78424 -4.54112
-4.485269 7.556068 -13.33196
-23.17816 25.802 -3.603644
-23.06963 12.47447 -7.949925
-23.16819 13.04336 -7.669943
-4.569348 121.0147 -7.004452
-19.35857 98.68035 -4.002185
-18.68236 100.3976 -3.240301
-16.38227 108.5752 -1.938289
-12.47652 117.5607 -2.702837
-13.98011 117.9482 -2.093743
21.99929 27.79576 -0.7784083
22.84185 13.81321 -4.61195
14.2473 9.025178 -12.15248
18.62286 10.43394 -12.70986
21.85213 47.60715 0.998593
4.470523 6.68892 -14.46157
3.733355 7.014737 -12.69441
-19.7895 69.68512 -6.292518
-21.57868 74.84812 -5.538162
-22.24908 56.63282 -5.29819
-22.96725 42.27017 -4.551624
21.23396 73.38791 -0.1153288
21.6278 63.20683 1.021754
20.90074 91.33624 1.626417
-20.50947 87.5544 -4.798429
4.813242 118.1069 -7.466371
13.57965 118.2552 0.07271244
17.49203 104.3111 1.806213
-23.38121 29.18092 -5.954289
-23.14996 36.13768 -6.467204
-3.283812 10.30142 -12.16731
-23.41958 26.30128 -6.307811
-18.67418 13.84445 -12.23022
0.5645747 118.265 -6.926569
-20.21408 89.30513 -4.580132
-13.35475 112.8097 -3.706853
-8.955947 116.5248 -6.426364
-12.75049 114.5895 -3.461991
22.81883 20.68192 -4.085587
22.77311 11.83578 -9.357866
23.63333 13.60837 -6.794384
23.23096 18.91864 -6.876485
22.77549 20.03982 -9.529853
12.63431 7.167426 -12.72127
22.43266 42.61595 -2.954166
22.09924 47.77906 0.3302895
6.759442 11.75744 -15.8152
-21.53318 68.40302 -5.736873
-21.40074 77.67043 -5.608609
-20.53874 74.34825 -6.077223
-17.69774 75.12091 -6.99479
-19.00815 69.08344 -6.56248
-22.39342 58.42544 -4.678055
-19.2785 60.57411 -7.024559
21.41239 74.51982 0.7386925
-15.83831 87.79566 -8.040092
-14.28671 85.49495 -10.41782
9.316262 116.0406 -6.255016
17.82142 105.4326 2.096287
19.21946 98.25043 1.637981
-23.2289 31.04048 -6.914693
-19.23374 35.34449 -11.79562
-6.627363 7.237942 -14.31093
-13.11988 10.25877 -12.74914
-17.57659 13.09418 -12.34563
-17.94126 105.6189 -3.138037
22.5938 15.77418 -9.755755
23.07243 19.57222 -6.425423
18.90198 18.82339 -12.35814
19.96514 12.1293 -12.2707
19.47297 13.16508 -12.45312
22.48448 41.44094 -1.430153
22.61849 41.05314 -2.811865
21.7328 49.87315 -1.885649
5.189195 8.174347 -15.2824
3.24028 9.657101 -10.47417
-14.57181 74.01622 -11.83771
-21.25136 50.42765 -6.906971
-22.21923 46.8012 -6.640331
20.55701 80.75858 -0.837526
21.34807 71.1748 -0.0697448
-20.85124 80.34539 -5.952805
-18.87636 82.01347 -6.336212
11.51504 112.646 -4.976089
13.43194 118.7094 -0.2625797
15.98087 104.8932 -0.0664605
16.49982 102.902 -0.09601657
-22.3006 41.62661 -7.8406
-14.15828 13.038 -12.56321
-10.36155 110.8919 -7.113602
-12.08893 110.545 -5.284588
-11.92811 109.0275 -6.044263
22.35914 17.50681 -1.548851
21.41625 16.04025 -11.15489
20.20806 19.93194 -11.86538
17.5257 12.30342 -12.52337
10.68903 8.973245 -14.15915
-20.32404 47.82765 -8.641419
20.03983 82.53574 -2.583263
19.59021 77.44348 -3.949256
-20.00331 79.41262 -6.209876
3.343048 118.1598 -7.712429
-2.273542 118.017 -7.783888
-4.107954 118.1461 -7.764915
14.33194 107.3507 -4.115609
-4.026471 10.50816 -12.95008
-13.90773 106.9009 -5.028379
-16.21897 108.4819 -3.930989
23.00842 24.15093 -5.453877
23.1131 23.68042 -7.264819
6.160707 10.01266 -15.70025
20.43558 81.60532 -1.36944
19.96907 86.11053 -1.602336
20.80242 75.10135 -1.522804
-15.66615 84.81114 -8.470757
-16.00498 84.13593 -8.073679
6.198295 117.0941 -7.093298
-6.531034 115.5092 -8.077122
-6.538928 117.7141 -7.265305
11.72989 103.3969 -8.14186
-13.53911 11.51176 -12.66694
-17.18414 108.1543 -3.219329
12.57512 13.6932 -12.72417
-20.00952 44.75448 -10.708
-21.96642 41.69607 -8.355237
19.47404 82.52296 -3.875036
-14.98579 82.39174 -10.05164
-16.69883 79.2048 -7.646902
5.926749 113.0073 -8.25541
-8.328073 117.6354 -6.387881
-6.973695 114.0291 -8.22275
-5.708066 9.917251 -14.00137
-14.7514 12.12246 -12.47447
1.680551 9.481644 -8.92511
10.64484 12.61484 -14.12883
-20.39374 43.52242 -10.39083
-17.89701 45.83493 -11.985
19.7982 87.1946 -1.641041
19.28882 82.90839 -4.200585
-15.89401 79.06076 -9.11302
9.756918 112.0561 -7.183894
0.1271676 115.5791 -7.462039
1.949798 113.8989 -8.655813
-11.37015 12.71956 -13.22369
-0.6808689 12.18707 -9.177495
2.799037 14.52145 -10.06525
19.13951 89.48737 -2.616544
6.723631 114.5106 -7.699302
-10.70974 113.8867 -5.866547
-9.865086 109.1622 -7.987716
-4.85891 14.11823 -13.65254
-1.846028 12.18659 -10.18493
0.8630265 13.09524 -8.909189
-14.41092 45.55164 -12.3679
10.17878 114.4921 -5.961251
-9.281199 105.8855 -9.271802
-0.7003119 13.51649 -9.265965
10.88672 92.58176 -11.65401
8.099246 114.3323 -7.557729
18.41486 84.07929 -5.356547
10.73363 114.3736 -5.303368
3.066026 16.51384 -10.60543
18.39576 85.26845 -5.258705
6.340645 106.2397 -10.09605
-21.75229 14.52669 -10.24884
22.0518 31.57102 -1.24312
22.34947 31.12548 -1.902988
23.13417 29.77791 -3.882326
22.41303 15.95591 -2.04571
21.5967 61.88496 -0.06745344
17.63897 96.94406 -1.187732
17.12394 97.63532 -2.63754
-22.27396 15.29358 -9.535625
-22.37783 16.50123 -9.361578
-21.14908 17.12157 -10.93539
-19.65178 13.77128 -11.97812
-17.54092 101.3752 -5.03837
-16.69556 90.25831 -6.954487
-16.47728 102.8297 -5.05064
-14.75911 97.16191 -7.502108
-15.02228 100.1367 -6.280704
-12.35434 102.6735 -7.902424
-10.92155 105.9734 -8.178015
-10.14257 107.101 -8.431026
-11.07059 102.6718 -9.144749
-13.22016 106.7425 -5.465648
-8.269362 104.4138 -10.18816
-11.98254 100.5934 -9.029113
22.55416 33.81374 -2.270098
22.90991 36.19234 -3.364353
23.06178 37.87444 -5.308086
22.78728 39.53333 -3.670482
22.61607 40.17969 -7.353517
22.19517 43.48586 -4.328176
22.14992 43.9135 -3.970401
21.86127 45.30941 -5.247341
21.38466 37.73251 -10.31747
20.53775 42.01775 -10.72466
21.60287 41.77755 -9.540956
21.5025 47.87822 -6.922947
21.9318 44.86496 -7.448751
21.12832 50.61789 -4.234573
8.351133 11.81518 -15.51223
6.53245 13.40619 -15.73248
-19.86245 54.70667 -7.396049
21.36009 56.067 -1.680164
20.09823 58.5847 -4.807338
19.48777 53.56818 -10.64365
20.71693 53.27031 -6.315853
13.41279 115.938 -1.88487
-23.09225 37.05606 -6.590786
-17.0921 95.52357 -5.960599
-18.39133 64.41139 -7.534102
-17.36802 66.4949 -8.950781
-17.77343 68.93597 -7.644019
-15.97391 88.34201 -7.867095
-18.49954 94.75034 -5.66751
-10.24619 89.18367 -12.15618
-17.24554 92.52924 -6.253385
-19.18351 93.72202 -5.704856
-13.53757 89.97408 -10.42735
-10.43223 91.81541 -11.97689
-12.07532 86.95294 -11.83786
-7.770035 85.7011 -12.93193
-5.605904 88.42394 -13.19907
-8.024767 89.86374 -12.71381
-9.097313 93.50095 -12.34565
17.26791 14.44605 -12.4632
13.36491 12.55318 -12.35929
12.98164 10.5499 -12.50041
20.08535 77.35033 -3.186535
19.24437 80.20576 -4.367495
20.28853 69.15996 -3.041885
19.00446 91.28642 -1.551691
19.4381 90.07437 -0.7450923
17.10485 93.58226 -5.365504
13.19322 101.3304 -7.623479
17.49463 95.97572 -2.812788
-10.70598 12.1673 -13.42954
-9.659856 16.80171 -13.78316
22.374 28.68367 -9.810773
23.20055 35.42074 -4.792293
23.06816 28.11079 -6.250089
19.06297 16.2367 -12.42945
13.42509 103.3367 -6.707776
-10.81016 109.096 -7.279434
17.66639 88.52146 -5.876041
-15.6392 42.63622 -12.29919
-16.46686 46.39302 -12.27939
-17.66579 47.72963 -11.99076
-15.29091 46.92224 -12.31275
-14.39458 49.1335 -12.34863
9.688222 113.0926 -6.927471
3.561901 18.03978 -12.32044
3.062902 18.51227 -10.69203
-0.09670964 13.8752 -9.012491
-0.294055 14.81062 -9.165538
2.598126 19.58776 -10.14294
2.481154 22.34452 -10.13832
-1.014459 17.43679 -9.641462
6.062787 17.76859 -15.44559
-9.620066 18.03329 -13.79461
9.05096 15.67587 -15.14123
3.63384 18.85221 -12.64208
6.951288 20.70339 -15.53571
1.30382 111.035 -8.553002
2.368113 108.2843 -9.749425
4.225972 107.3768 -10.42913
23.18484 32.04872 -4.270438
20.70507 62.7193 -2.551042
-20.86295 17.47606 -11.18388
-17.8585 17.0531 -12.28491
-11.48721 15.43909 -13.19918
-11.67105 97.95412 -10.17664
-11.4294 95.88 -10.94944
-6.899608 98.93581 -11.96361
23.11933 35.13691 -4.059309
20.40336 43.68294 -10.72186
12.58514 113.4594 -3.751966
12.83465 114.9937 -3.024485
-21.58654 32.81739 -10.26309
-20.24734 33.03996 -11.31416
-20.10186 32.24398 -11.38869
-23.2011 32.21369 -6.82541
-21.87088 25.9775 -10.01688
-22.08096 20.46811 -9.827694
-19.8133 33.16111 -11.5467
-22.71601 21.35955 -8.68271
-18.77647 25.50274 -12.0216
-23.16492 24.86063 -7.479215
-22.59691 25.25184 -8.906633
8.124947 13.45742 -15.56361
-17.84882 62.50189 -9.088095
-18.32489 58.12767 -9.717239
19.85381 61.61399 -4.616824
20.29432 56.36835 -5.788319
-20.02943 40.39345 -11.22585
-19.12274 53.26549 -9.525633
-20.80094 48.50459 -7.66389
-19.38808 49.01007 -10.6623
-17.92519 60.14051 -10.0173
-17.30877 63.60151 -10.25186
-16.74557 63.09264 -11.34077
-16.74282 59.01144 -11.85661
-18.99052 54.88235 -9.014775
-14.20127 63.83686 -12.31184
-15.42491 62.74119 -12.15338
-15.64999 55.77385 -12.314
-15.78338 60.57083 -12.1525
-14.66486 65.99937 -12.18581
-14.6045 54.08472 -12.37229
-13.12544 55.63569 -12.38275
-12.13663 51.99833 -12.54948
-12.6244 65.93991 -12.36201
-12.94289 51.74118 -12.42277
-12.15505 51.14451 -12.56703
-10.47933 61.00864 -12.74912
-9.420239 54.87745 -13.32588
-9.223374 62.28486 -13.19584
-15.3123 69.5677 -11.78212
-15.51392 68.89787 -11.72993
-16.36266 94.45049 -6.635468
-9.104714 84.45142 -12.5421
-11.6956 79.68774 -12.22059
-14.11248 80.74694 -11.35323
-8.572543 87.31526 -12.63002
-8.838054 83.66661 -12.65275
-12.10404 80.37752 -12.16966
-14.693 78.92496 -11.13256
-14.95101 77.07529 -11.09318
-14.45999 73.49928 -11.93404
-13.6577 70.00374 -12.22829
-14.69821 71.50598 -11.91282
16.25623 95.55161 -5.967941
23.11293 27.77895 -3.730097
22.89624 28.10474 -8.731978
23.2244 33.35221 -4.772421
23.13592 33.1507 -6.738384
22.60291 33.95011 -8.781916
20.06107 33.1081 -11.4717
22.06107 36.21017 -9.597876
22.40045 36.08497 -9.051388
16.55114 42.66964 -11.98408
14.19228 98.98324 -7.453594
16.46265 94.52527 -6.099188
7.746797 17.39222 -15.5763
-19.91269 41.7935 -11.24518
-3.884303 15.93211 -12.85299
-10.19873 47.03773 -13.24916
-9.801688 51.20705 -13.28393
-8.107022 50.76907 -13.90908
-6.854381 51.10401 -14.20209
-7.60365 52.9427 -14.01109
-9.979368 46.48675 -13.34693
3.49352 20.43585 -12.08268
3.426939 27.5264 -12.14698
1.699047 23.58613 -9.621184
3.006748 24.58615 -11.04983
1.410094 27.54482 -9.64581
8.652906 106.8679 -9.282231
-0.00659661 112.8687 -8.041197
-23.38906 18.67863 -6.842919
-19.75352 17.27271 -11.89045
-17.82569 18.39188 -12.27768
-12.68195 94.60973 -10.31946
20.75069 46.48809 -10.1158
17.31811 44.64777 -11.81485
13.79372 44.9818 -12.28298
12.85376 112.2334 -3.980486
-19.58294 38.53716 -11.50341
-15.84297 40.40776 -12.29678
-21.87222 29.42491 -10.01558
-17.00164 18.54667 -12.35073
-18.52567 21.42312 -12.15951
-18.96761 23.23946 -12.00898
-15.77452 24.28229 -12.41577
-13.5676 21.7083 -12.68398
-12.86832 18.54864 -12.82296
-21.45366 37.9615 -10.22073
-11.31352 75.44907 -12.33723
-9.944101 61.86909 -12.92554
-8.204701 60.50554 -13.64094
-13.01578 92.81927 -10.39252
-8.670187 67.95403 -13.24833
-9.467387 76.7489 -12.6529
-5.138524 76.50771 -13.63633
-12.37856 71.33522 -12.31079
-10.31576 72.56195 -12.52493
-4.818187 78.26171 -13.50399
-5.303407 77.46738 -13.58374
17.4073 89.71019 -6.040406
17.54511 88.53997 -6.038619
16.10526 85.85889 -9.047005
20.03135 30.77617 -11.57982
19.34184 32.08154 -11.83657
12.99336 98.20773 -8.969333
10.52356 97.33085 -11.11532
15.2341 94.46858 -7.865459
13.58307 91.70416 -10.09577
11.77104 93.12506 -11.16154
7.813073 17.44001 -15.56514
11.86796 17.53558 -13.16549
15.3327 17.84081 -12.18587
-11.16953 41.34857 -13.10829
-12.23716 40.07863 -12.87016
-11.38796 42.92972 -12.99949
-11.04274 44.96593 -13.0423
-9.145687 42.20363 -13.72929
13.45263 46.30592 -12.31971
13.34222 41.34887 -12.49564
13.72851 40.1214 -12.45304
7.25113 40.71218 -15.00533
16.23764 39.55779 -12.13735
5.682589 41.95121 -14.85841
6.097219 42.78146 -14.94737
7.649822 42.09933 -14.86475
4.193113 40.69088 -13.68804
10.98053 43.0414 -13.34475
8.109285 40.52206 -14.75129
9.320346 40.07532 -14.2916
-5.847507 48.30347 -14.09963
15.51067 37.72127 -12.26863
7.134973 45.51982 -14.90624
12.82452 35.68092 -12.73313
19.34526 34.00342 -11.76987
9.19823 37.51366 -14.42427
18.9543 36.01183 -11.86559
11.62958 34.92148 -13.19641
6.496275 35.02801 -15.18445
4.569561 40.40807 -14.15362
1.672719 33.60672 -10.05311
4.804537 37.63358 -14.38859
-9.906972 57.25077 -13.06462
-0.93604 26.3778 -9.905703
-1.167198 29.17851 -10.20003
-2.728797 23.6127 -11.63097
-3.097514 23.95398 -12.14767
-2.338477 22.52084 -11.09701
10.49428 106.6533 -8.244714
10.51246 104.2842 -9.011903
11.18993 101.1572 -9.466413
12.15647 102.4934 -8.102374
1.524148 105.9715 -9.592391
-1.146334 108.0242 -9.277381
-1.397488 111.8781 -8.796412
-2.292048 108.0897 -9.81376
-3.492826 107.4351 -10.23328
-5.630017 109.5416 -9.802979
-3.983944 112.8008 -9.06606
-2.231084 104.3085 -10.45197
-2.56986 103.3794 -10.79353
-0.0978422 103.6684 -9.720745
-7.988274 106.2566 -9.827877
-8.522906 102.9424 -10.46902
19.46766 63.64472 -7.338276
20.17065 69.02365 -3.247992
19.5282 62.88375 -7.046104
19.4528 63.72976 -8.21287
19.14099 66.35534 -7.79279
18.85043 69.01429 -5.99766
19.68406 73.28397 -3.88979
19.05619 67.17402 -7.443021
17.67474 78.69489 -7.878582
18.71024 70.06816 -7.667759
18.32386 68.45035 -9.922163
18.45435 72.27432 -7.761687
17.66025 78.84036 -7.853887
-16.22572 32.10149 -12.35076
-13.9799 25.09081 -12.62761
-7.073094 64.35773 -13.88032
-9.174936 70.03469 -12.9622
-8.626241 72.34081 -13.10327
-7.351988 57.26741 -14.02264
-6.789487 56.90594 -14.0797
-5.446048 82.88207 -13.42314
-16.9042 70.96325 -8.790121
13.94014 92.94485 -9.581772
