# .PCD v0.7 - Point Cloud Data file format
VERSION 0.7
FIELDS x y z
SIZE 4 4 4
TYPE F F F
COUNT 1 1 1
WIDTH 1663
HEIGHT 1
VIEWPOINT 0 0 0 1 0 0 0
POINTS 1663
DATA ascii
-0.9265013 107.0743 12.33744
6.183014 14.29951 34.71339
-2.348326 10.32224 35.71483
-28.51428 33.01798 18.07334
-14.35304 9.820515 33.07106
23.42228 47.33961 18.36659
12.74172 73.30418 15.41964
-14.04372 62.14169 18.116
-12.56103 71.72666 15.70392
-10.81966 71.95686 16.03298
-2.060612 102.0527 11.64758
-4.184289 100.7245 10.86188
-5.484272 97.54207 9.918577
12.68532 11.99532 34.45979
-1.141546 9.666051 36.02729
-21.34309 52.56501 17.35416
-20.48678 54.49184 17.32341
-17.59266 54.52466 18.9696
22.46635 44.99302 19.86077
-13.96241 62.95243 17.90907
-9.406988 84.40526 12.49216
-8.783626 71.39417 16.57354
6.965341 11.9887 35.34833
-3.702528 12.75217 34.83268
-5.912728 12.03328 34.68674
-19.60167 60.07895 16.11023
-5.838066 77.37182 15.18186
-8.165955 78.03448 14.65566
-0.1907647 97.13351 10.33192
10.04629 17.06569 33.39991
-13.06992 14.94488 32.02015
-7.72828 84.11714 12.84553
-7.527773 85.07836 12.57402
-7.319001 73.4221 16.18848
-3.192561 95.97664 10.17227
-26.51294 36.92522 18.5396
-17.63794 54.87707 18.84426
5.789406 82.95362 13.76244
-0.427112 78.29841 15.36894
-5.316442 90.34167 11.24249
-6.150649 79.38585 14.51893
-14.23923 54.43017 20.29127
10.42484 73.62233 15.94976
-1.745484 81.57998 14.25341
-7.015697 78.1655 14.78265
-7.046614 14.84247 33.63579
-6.912775 82.05943 13.59587
-1.894961 85.67402 12.9361
11.89307 16.76234 33.15449
9.653603 73.91801 16.02629
13.19707 14.90883 33.44329
-8.200236 16.93582 32.77585
-11.68126 14.28322 32.63948
4.993093 73.55653 16.82642
5.159182 75.4643 16.21218
-4.976355 15.22008 33.90621
7.627584 70.54462 17.45186
2.207325 76.40452 16.03376
4.911517 71.59718 17.44977
-1.241317 80.86589 14.51116
0.3282451 82.34918 14.09773
3.624938 74.85535 16.50183
0.4860159 79.10288 15.14557
0.7948316 72.08509 17.37091
-2.490348 86.09481 12.76368
-2.343393 91.15869 11.22759
-2.953773 85.44021 12.94108
-0.5838708 68.92114 18.30418
2.067652 88.45813 12.15043
6.162168 83.59686 13.51629
0.3536333 94.02287 10.59887
-0.1908925 91.48338 11.21914
1.545725 66.6516 19.08288
5.423995 89.47779 11.70565
-0.9674564 67.99879 18.56655
-0.4107245 66.58359 19.03119
-1.12667 70.73861 17.71295
-8.15015 66.60392 18.11949
-4.703597 71.6328 17.10006
-8.032458 70.10993 17.08194
-8.666202 65.34486 18.41047
2.503144 140.8424 9.082019
-36.35455 11.72966 17.81313
-30.73747 9.588288 23.94978
1.311464 140.7697 9.022869
2.795509 136.5066 12.51493
3.87048 136.4709 12.51154
31.46342 23.6683 20.63839
-35.07193 14.24278 18.28857
-32.74602 19.27445 18.90774
-31.45473 16.3058 21.22543
-33.04899 22.37876 17.32843
-31.06477 27.61081 17.44741
-31.09012 30.7901 16.07083
-30.0764 29.61313 17.7505
-27.70819 23.24162 22.14326
-30.70306 18.1752 21.28927
-20.78166 7.472145 31.00528
27.80826 35.30462 19.38062
26.09442 39.61344 19.17801
22.85934 35.58345 22.89614
31.21186 25.89846 19.96682
-2.245348 8.790799 36.1847
26.74809 14.24831 27.97709
24.69962 14.46986 29.12306
32.62757 14.60666 23.30488
9.325549 85.89999 12.32725
-0.8844398 128.4649 12.63074
18.36278 46.74316 21.59513
-21.63202 49.06197 18.30361
-14.67367 66.01133 16.78119
-23.0522 35.99304 21.50766
-19.57441 10.36719 30.76832
-19.13439 14.60078 29.75887
-22.23102 13.62922 28.48809
-16.95182 52.6498 19.7994
-19.33177 49.86216 19.49041
-16.21762 49.57237 20.97891
-12.96712 58.92828 19.35332
-12.62574 61.29396 18.75867
-10.30399 63.05083 18.77211
-5.045222 64.00917 19.38671
-3.937337 62.97065 19.84666
14.82963 14.1702 33.26657
-4.29071 19.64949 32.70103
-5.457524 21.49053 31.97401
1.576838 26.8981 31.04473
-12.7073 18.76232 31.03306
-10.14826 22.69735 30.61308
-1.758634 24.84162 31.46699
-2.462606 22.57155 32.06688
1.58474 24.76363 31.67647
3.851008 94.54231 10.42676
7.570868 88.67609 11.74625
-1.37612 141.7041 8.834366
-32.67593 9.425649 22.3246
-31.02587 7.906415 24.21964
-3.494251 135.9094 12.92134
-29.69084 33.21623 16.70614
-0.2985313 131.7467 13.74924
29.87063 33.21007 18.28946
27.2877 31.73997 21.18452
-31.68471 22.8164 18.68504
-25.8266 33.24524 20.37808
-26.74901 24.42305 22.5013
-22.81403 23.73273 25.26603
-25.47742 28.2334 22.23265
-21.97873 29.31701 24.12971
-26.15868 30.12057 21.14
-27.57294 20.73453 23.03123
-20.46254 30.22064 24.66738
-24.46926 26.1823 23.54478
-29.04991 17.40402 22.91706
-27.28209 12.52989 25.68492
25.39448 32.97822 22.17117
22.0941 35.59043 23.34847
22.79037 37.31218 22.33425
24.69445 9.262439 30.89486
22.56356 15.65499 29.83672
18.44737 62.57462 16.3331
19.67942 60.45774 16.29141
20.51005 51.86266 18.70881
-25.67763 33.03939 20.56459
-24.18764 44.22698 18.00788
-20.62901 44.98198 20.24397
-13.8624 62.19539 18.15854
-13.69204 17.14435 31.18521
-1.568279 17.63582 33.62067
-8.680369 25.036 30.2861
-30.20423 16.20749 22.35032
-0.3410027 133.9231 13.70534
28.56154 26.17705 22.28398
-14.54294 32.81215 26.38851
-24.41798 21.70971 24.89738
-22.65591 24.91468 25.01643
-20.16089 21.2977 27.36808
-17.28925 20.69378 28.8265
-15.57139 23.76544 28.619
-16.53154 29.61598 26.57973
-16.24913 26.16996 27.6721
-27.2575 17.14959 24.34176
-27.00963 18.24215 24.19143
-23.44326 17.31049 26.75289
-21.7334 17.16494 27.75325
-16.78231 17.07674 30.06971
-24.40878 14.93691 26.86006
-27.34632 13.45604 25.36639
20.05643 32.74849 25.37927
19.37773 11.72432 32.52935
21.88111 15.37602 30.2594
20.70937 15.93333 30.60563
18.35051 56.90988 18.25127
3.383952 12.3996 35.39406
-20.56446 44.26712 20.50187
-7.381986 60.56142 20.07356
-1.975633 56.77582 21.91794
-2.497699 58.86973 21.23806
2.613923 64.24574 19.81554
2.09497 61.41021 20.68916
7.137192 62.82429 19.9214
6.062932 56.06007 22.10409
1.932337 59.86145 21.1637
4.695819 58.89491 21.35561
11.27925 63.93308 18.75901
9.199844 64.38345 19.08539
16.41844 44.71131 23.10077
11.38047 56.86039 20.92389
13.27801 57.5745 20.1562
12.06942 64.42133 18.39053
13.5074 65.80117 17.51046
4.336878 56.29172 22.17316
15.4523 66.80302 16.4614
22.3614 53.72625 16.82082
7.551813 65.76676 18.94774
20.2749 51.52108 18.96672
14.77959 65.4533 17.16101
17.28518 55.7621 19.16329
-15.76059 18.01807 30.19972
2.443632 27.59867 30.84419
8.136003 25.34679 31.16345
-1.458244 30.61607 29.77265
4.816716 25.2988 31.47954
7.793269 24.19213 31.5561
-5.901528 29.13237 29.64065
-4.426068 30.41857 29.50062
-6.222827 35.0003 27.85387
-0.7393016 19.41607 33.15987
-1.014571 15.70487 34.23979
2.201725 16.8571 34.05362
3.737067 17.55539 33.84232
6.966187 19.04553 33.20021
6.446656 18.60373 33.38635
3.664908 19.9267 33.13337
-12.57058 24.14321 29.51698
26.7813 24.97581 24.09552
17.55944 32.60042 26.53429
20.1307 34.01013 24.92085
17.39605 36.71964 25.27611
16.602 32.03022 27.07955
16.74359 36.94164 25.46696
17.52677 39.77 24.23823
18.51123 42.21381 23.00594
16.09855 43.45404 23.62581
19.63691 43.22731 22.11443
14.90486 44.62182 23.69094
20.08869 48.89623 19.95704
13.92015 40.80676 25.2032
16.8174 47.4242 22.06867
15.27752 35.18148 26.54568
13.88058 30.04432 28.57368
15.05102 28.41333 28.73902
12.60537 33.47481 27.8438
19.43571 20.78357 29.57988
21.93829 21.20025 28.30405
16.81236 19.19596 31.07782
26.34876 16.50517 27.44193
-23.81783 40.27515 19.61781
-23.29699 44.55055 18.58282
-11.93114 50.56379 22.06234
-9.820626 58.43372 20.24167
-4.277688 57.66174 21.40593
15.65277 54.75081 20.205
13.79984 51.14971 22.00595
14.73136 52.11889 21.38604
19.14432 50.4719 19.96373
0.1619511 26.97069 30.97008
-8.858498 27.5615 29.51102
-10.86486 28.39844 28.76496
-14.27241 27.09916 28.123
-11.53244 25.0962 29.54812
-11.77723 21.88319 30.40715
-2.819619 34.64291 28.44302
-2.721966 35.19207 28.28727
-5.329883 35.68185 27.8034
-8.620401 31.25905 28.48212
7.216935 21.48536 32.43383
10.79932 21.93427 31.78572
10.23406 23.56834 31.39141
5.158133 23.7024 31.94291
23.50466 27.07509 25.45903
16.27826 25.95668 29.11615
20.66442 28.97814 26.34079
14.52267 47.01417 23.06548
12.46444 39.92582 25.88119
11.73814 33.69377 27.98301
8.046849 41.60134 26.23826
8.143809 35.16717 28.17855
6.30724 34.47267 28.6009
12.48499 28.30297 29.47056
12.39305 24.59775 30.63708
17.11897 21.89615 30.11522
17.53823 22.86082 29.65215
14.75074 20.8604 31.18779
-20.50553 37.63294 22.50371
-19.67558 35.92766 23.41717
-18.32561 44.08381 21.69529
-19.03561 44.1989 21.33539
-16.86372 38.66744 23.87526
-13.59349 37.85857 25.24759
-12.84167 32.03491 27.15886
-14.57617 46.5358 22.44468
-13.37631 35.35102 26.03656
-12.63435 33.03583 26.92983
-13.19439 31.39125 27.23908
-13.75155 44.30119 23.35086
-8.654776 48.09166 23.53728
-10.37115 45.97361 23.77896
-8.235772 44.94145 24.54837
-9.209669 50.76471 22.63484
-8.643253 57.23379 20.83312
-5.642713 57.67278 21.21881
0.9700116 52.98979 23.21963
-1.331383 54.5157 22.6409
-6.486381 50.55254 23.20857
0.9770489 51.08606 23.7972
-1.202855 48.14025 24.56777
-1.968791 47.16476 24.79655
0.4765484 43.13893 26.16521
3.808998 37.28202 27.92397
8.918204 30.97295 29.34167
7.975489 40.05136 26.71703
15.8008 20.5786 30.96384
21.96935 26.23797 26.59752
28.36609 23.81548 23.34094
28.81284 25.0685 22.49781
29.80244 22.53821 22.63301
26.87867 18.31171 26.45833
-20.42596 33.34842 23.78282
-10.34813 35.7631 26.76029
-8.509727 37.63164 26.64169
-6.739994 38.28944 26.79661
-6.996729 40.15577 26.19684
9.349277 41.0169 26.22619
-4.972349 44.50451 25.24917
-4.599119 44.71958 25.23452
-5.237378 47.55236 24.2988
-4.983476 50.34269 23.50647
0.8838517 48.11718 24.6886
3.348482 49.29565 24.33438
8.707595 38.18412 27.18517
-11.66648 38.46918 25.63144
-3.252219 41.44419 26.37233
-8.127665 47.77694 23.73372
0.4366338 45.5137 25.45007
0.9864341 43.95587 25.93672
7.382836 37.1317 27.67892
4.925334 41.17377 26.69374
5.262722 44.30582 25.72397
-0.2085313 39.75287 27.14408
2.178349 43.87441 25.98122
-2.297362 41.01538 26.60054
4.983176 48.13738 24.59642
6.743259 48.36156 24.36296
11.178 50.77306 22.8546
12.72368 51.3184 22.27273
9.821033 50.72563 23.16681
12.07255 47.52026 23.63005
8.959925 55.70078 21.80619
-3.866088 141.171 8.914745
19.96852 75.92753 10.56628
9.667882 152.0948 -5.870716
14.09632 93.75903 9.101076
11.60189 128.2514 10.46095
40.01756 16.312 11.79507
29.24418 49.85242 11.26952
15.09979 108.1753 0.6518503
7.298579 145.1899 4.756944
8.943122 130.2522 13.23595
9.555311 141.8614 6.728217
15.58478 102.8755 6.127434
14.84426 108.7187 0.2004123
14.12846 129.8369 5.639036
7.124528 152.5037 -3.419574
42.36417 10.82168 -1.945079
7.165463 115.7816 10.48916
44.36824 4.389472 9.137563
36.37081 35.06007 0.4516489
7.989396 152.3491 -4.11509
12.35134 97.47717 8.968804
15.03374 94.67012 8.440028
21.26103 87.88088 1.311902
16.8369 100.1555 -1.526686
7.047391 152.1821 -2.849282
27.72408 6.157539 -7.140288
27.96183 4.876917 -6.932322
17.89036 96.5694 -2.054073
27.93923 25.79266 -6.372592
21.11004 75.05761 -3.855065
20.0316 69.27372 13.01932
32.02761 39.87247 12.38871
12.8019 122.0188 5.584615
11.5513 136.9701 10.5257
8.641877 137.6435 11.39431
8.031372 148.1836 1.686312
12.47119 140.8556 5.772685
36.5626 31.89524 8.067854
41.47103 6.159671 15.66597
27.2445 11.64143 -6.944831
9.66501 150.8864 -2.227139
19.58295 89.50966 -2.635893
21.63386 75.23534 -3.556694
21.26555 65.88642 13.24667
8.336747 112.2743 9.947967
18.01173 97.27082 0.1314231
22.19886 53.28266 -5.380521
28.13121 43.74535 15.6228
12.66792 120.0758 4.542787
12.41383 119.0561 5.485341
8.024929 122.1988 11.0815
14.46186 131.106 4.475418
9.481863 140.9994 7.588155
11.90681 144.1895 3.386007
31.98073 33.47894 15.73266
41.9233 4.087909 16.09648
36.59301 19.25192 16.51277
43.63953 4.776653 -2.915022
32.79535 9.176071 -8.208987
19.63855 88.44277 -2.8315
20.33926 76.24155 -4.193174
19.45774 71.51292 12.66712
13.99098 111.197 1.709558
7.113042 109.6276 10.98648
13.64369 105.6471 8.02328
16.46379 102.6608 -0.4723502
10.59568 98.84123 9.233527
23.149 47.97582 -5.518481
26.82983 53.66766 12.6492
11.73076 117.491 6.944577
13.12998 123.9916 5.26245
14.19504 130.0884 6.253238
13.56139 127.0363 4.512779
14.47575 135.1652 7.370133
25.08706 26.19444 -6.927889
33.02222 34.14328 13.96211
39.67498 8.647967 17.49399
44.26705 3.604707 10.41981
27.30846 13.89948 -6.364718
39.40782 4.742063 -8.14716
31.14896 5.205667 -7.311892
20.3872 78.19221 -3.924126
16.68366 83.43362 10.63677
24.11929 62.70775 -4.102776
20.00611 77.04182 10.10373
22.94592 70.40642 9.666651
13.15843 112.1803 5.1794
13.79334 106.8305 7.545558
17.27219 99.78519 1.855828
18.6054 95.64143 0.3195734
23.85283 47.77131 -5.299319
23.61051 61.38283 12.85101
28.2565 44.51275 15.15343
13.15145 124.9307 5.870186
12.0479 125.6101 7.87412
13.03948 128.3741 8.520868
14.77369 139.2576 2.081323
32.07221 32.92421 15.88215
41.21986 8.118312 14.88921
36.02303 20.32024 16.79209
27.32966 19.00897 -6.368701
42.81973 4.841963 -4.534785
28.30718 13.61487 -6.564377
34.01009 8.082437 -8.591002
20.99224 86.65276 3.42427
23.39243 68.23969 -3.681298
17.31279 80.23436 11.26512
13.30121 110.62 6.152455
16.04147 104.1239 4.760087
16.65644 102.3991 3.536025
24.66146 49.565 -5.0869
23.17986 46.72184 -5.56203
29.38937 48.93293 11.54002
12.30492 124.4275 7.491382
13.0627 129.0215 9.407026
13.10145 131.4061 11.15785
28.47447 37.5085 -5.929157
34.3765 27.69546 15.33818
41.89767 7.671354 13.70076
36.61658 21.27992 15.33989
31.03982 16.82927 -7.504229
43.11473 4.917627 -3.953235
43.91679 5.36617 -1.696445
32.26613 7.193913 -7.950721
22.96391 69.02816 -3.741981
22.78427 62.14143 -4.486776
27.66681 65.58439 -0.6947239
9.972414 113.7154 8.854084
14.42241 102.7315 7.543372
25.12107 42.20368 -5.491307
28.68518 50.99755 11.49385
27.042 38.17606 -5.795222
39.60968 13.85252 14.45571
38.67288 17.7586 13.80556
43.22831 6.838731 10.73962
30.1824 13.13891 -7.233052
32.84637 19.06388 -7.648752
30.55549 22.62734 -7.154899
21.63455 76.48066 -3.387621
21.13636 87.33887 -1.590991
25.74768 71.04561 -1.322008
25.59527 66.59148 7.789223
15.27297 105.6443 5.783199
16.60717 103.2946 2.38479
26.07233 43.66408 -5.404736
25.38412 56.88821 12.90123
27.16785 33.13233 -5.989874
42.77447 7.03457 11.96814
36.05505 11.21977 -8.243335
35.4912 19.73073 -7.040388
42.58997 12.17042 6.704747
22.84094 76.52008 -2.631314
24.02936 60.90248 -4.295598
15.90423 100.4144 6.070394
17.48364 98.75581 1.632608
26.70548 58.9865 10.19134
30.0121 31.13193 -6.483866
31.1765 45.03213 10.85095
30.59908 24.99885 -6.999484
44.09312 7.773187 3.713295
24.78372 72.60785 -2.019787
25.57001 74.1677 0.792767
21.19068 87.81544 1.655691
25.78814 63.56956 9.17941
29.62381 39.09902 -5.668631
30.62767 51.41665 7.845233
35.00658 15.78134 -7.845682
22.04317 84.48248 2.594251
27.26735 67.10871 -0.6239064
19.42507 86.88409 6.336771
27.66101 66.23753 -0.2866319
26.54638 65.76042 6.606594
30.92905 35.83987 -5.861229
30.00317 53.59661 7.658733
24.44878 78.03164 0.2169898
24.69724 76.87787 1.824272
26.01408 72.59724 0.1247878
27.43823 67.66396 1.648813
28.10515 64.47522 3.607813
28.0358 57.3136 9.06651
29.27912 31.09968 -6.419532
21.31191 83.56023 5.028253
20.29393 83.75539 6.650651
33.13439 39.4455 -3.827229
37.74598 20.18192 -5.281865
22.26948 81.9986 4.148924
30.54777 37.93137 -5.626058
33.9174 22.66295 -7.072466
20.40507 81.88783 7.456658
27.63184 66.64287 2.728247
34.81762 37.55352 -2.284695
21.7732 73.2544 9.765373
27.26132 63.71677 -2.115844
16.65498 85.7843 9.925508
17.79619 90.24194 7.232765
18.084 91.1732 6.245156
15.78535 96.30369 7.30697
20.40449 80.43462 8.173131
25.21397 72.54477 4.655305
33.82681 39.29784 -3.057584
22.97158 75.02087 7.306831
35.57011 38.63024 2.873292
29.74633 59.41169 0.7342423
34.74059 37.9567 -2.221489
34.61842 41.56876 0.515326
29.84207 59.23495 1.392485
34.80127 39.61239 -0.8979838
30.45588 57.02467 1.886518
34.05633 42.26539 -0.9605875
31.89895 51.78815 2.378077
35.1785 39.21452 4.991047
35.93927 33.59525 -2.284212
31.39619 53.62724 1.324875
31.44301 53.3107 0.9182974
28.87942 54.52777 -3.314284
30.86246 53.14884 -1.362522
8.778271 143.8623 5.341682
13.656 95.35667 8.964407
14.47334 132.4186 8.852116
12.03868 119.9051 7.059481
35.33938 31.46247 11.48757
40.88571 11.33949 13.44561
41.25422 11.28514 12.59939
42.54449 11.26044 8.356747
36.92316 23.38298 13.56458
26.05558 59.29965 -3.882805
25.95825 47.81182 -5.115462
30.54803 22.12617 -7.176627
42.74255 7.333137 -3.337554
25.87751 69.2321 5.605616
23.82314 70.91093 8.19677
25.20296 70.64131 6.032643
39.90718 9.679397 -6.481693
40.69687 9.557119 -5.639079
39.08147 14.64166 -5.746995
36.60184 19.7674 -6.389425
31.88037 48.13887 7.294399
31.94952 50.40404 5.011574
33.39819 45.98639 3.939775
33.38334 42.9921 7.52667
33.75389 41.61444 7.7056
26.02134 68.68074 -1.884833
27.06262 55.42501 11.50494
26.11486 63.25867 8.832014
28.14596 59.78999 7.346655
28.52417 61.20218 5.460441
33.95127 23.54691 -6.929014
37.26577 25.28999 -4.031658
40.79802 19.26167 1.225562
36.53911 25.99816 -4.65972
31.6515 30.11438 -6.504604
39.65649 18.47501 -3.320954
39.63904 19.51642 -2.84687
39.1637 18.82111 -3.972701
37.67736 29.9756 -0.08766259
35.00286 27.92471 -5.467067
38.38474 28.31306 2.078053
38.90438 26.05238 0.8193567
37.85865 30.15434 1.927866
38.15746 28.32222 5.816502
40.08974 22.08607 1.839219
39.96736 22.25848 5.125188
39.45089 23.77075 5.822742
39.28972 23.84521 6.636957
40.90823 19.33471 3.247635
37.53721 23.00765 12.5885
38.35496 21.13004 12.13534
38.82847 19.96349 11.9035
39.76015 20.55224 8.669638
40.90399 17.87861 -0.2784818
40.92839 17.37793 -0.73634
36.91465 25.52962 12.18525
41.23127 11.47266 -4.052449
41.32478 16.24576 -0.395449
41.89302 12.09436 -2.249901
42.40553 12.83521 0.3498966
43.08927 11.3242 2.565671
34.11499 35.77357 -4.029832
31.47081 31.42849 -6.362988
30.03082 43.45331 -4.9377
27.72434 58.26071 -3.234106
31.11946 51.46153 -1.782701
13.63369 134.6177 9.886508
14.48483 135.1529 7.350118
31.43372 39.03292 13.69294
34.66977 38.17435 8.065614
40.66227 14.97085 11.12706
23.49565 63.03483 -4.227528
33.33857 46.30215 0.6411432
30.83912 44.3831 -4.356219
33.27784 43.36412 7.503613
43.09042 11.26891 4.76661
43.18689 10.3224 6.273534
42.59354 11.78977 7.358723
32.03514 31.33158 -6.258446
33.83696 29.26172 -5.865469
35.92276 36.11961 5.808682
39.72669 18.13534 11.06185
41.45534 16.92351 5.171549
41.88224 14.81368 6.517852
18.25656 94.89188 3.225572
29.80717 48.4512 -4.091282
34.97875 37.69983 7.565518
32.16609 39.85858 12.16906
33.18053 34.70808 13.40625
32.44278 49.83652 2.472651
32.63547 48.97147 3.3713
31.07594 28.38315 -6.748219
31.75858 37.21669 14.16712
34.98676 33.34517 10.94484
36.08261 32.03949 9.3081
33.3302 39.9402 9.953092
-27.7399 3.43155 -11.88638
-30.92919 40.29587 11.60919
-20.34219 66.1907 -7.29092
-45.46773 4.192045 2.429729
-45.17136 4.872234 3.811436
-39.73229 10.27362 13.88418
-19.1014 90.69521 3.753542
-33.26483 23.13652 -12.70244
-30.34691 7.738009 -14.34305
-11.21347 151.7583 -5.187574
-7.640478 151.8036 -2.80048
-11.21118 135.4443 12.11523
-8.828571 151.0771 -2.338284
-23.5092 77.04643 2.716093
-18.97712 87.7424 -5.151589
-31.65116 35.15597 13.23265
-26.60702 51.73743 12.28219
-23.25864 79.611 -3.996993
-22.39827 67.51342 10.67241
-14.55954 86.82074 10.54809
-25.02502 74.90766 -1.044781
-10.0471 108.6825 9.863055
-25.38466 6.407705 -10.99678
-14.51217 109.1013 -0.483321
-8.215934 151.9009 -3.433665
-8.804684 152.3299 -4.990602
-8.267056 113.7338 9.884925
-36.00271 25.19408 11.57772
-7.809212 144.6942 4.991173
-8.735272 129.1955 12.69023
-17.51183 80.82245 10.77928
-14.99549 134.5968 0.213671
-12.72239 149.3801 -0.5476166
-8.267897 105.3511 10.52597
-13.75093 127.4825 3.232368
-6.565168 145.2051 4.722411
-9.051821 150.302 -0.95579
-25.75598 8.979944 -11.02127
-30.36974 4.216052 -14.24178
-44.24189 7.940191 -1.609939
-44.53965 6.071661 5.794728
-33.76868 30.84866 12.19139
-26.60627 56.01307 10.14076
-21.99922 67.04192 -7.239883
-20.31886 83.1116 -5.364622
-14.96761 136.6145 1.216648
-10.67834 136.9449 11.22376
-7.873852 149.0681 0.9128461
-16.1253 105.0246 3.584324
-11.02858 102.2462 9.309293
-8.490264 121.9336 10.83542
-13.97765 129.1282 3.514472
-8.410141 117.7191 10.14567
-9.065493 139.5873 9.122101
-32.65005 3.342157 -15.4918
-42.65599 4.87135 -9.623819
-37.78331 21.36391 10.62267
-44.29477 4.855325 -5.68887
-40.79948 11.61198 11.33293
-32.12386 38.70518 10.46833
-28.9072 46.99245 11.2716
-19.71851 58.55082 -8.216985
-21.71894 72.56503 -6.615128
-19.09503 76.52786 10.8949
-19.16623 86.98078 -5.221171
-12.35429 94.6655 9.350706
-14.94028 134.1208 3.209918
-14.28317 130.8813 1.920586
-13.15968 133.2338 11.21275
-14.64076 139.2025 2.727349
-11.18623 101.7394 9.221504
-8.769852 107.1015 10.48879
-15.16148 107.7865 0.2439393
-8.188562 118.2537 10.33319
-13.20957 124.2881 4.938387
-8.354588 116.6677 9.987851
-10.17391 144.358 4.108625
-11.49249 144.2541 4.00571
-25.71231 12.85736 -11.18966
-23.27726 18.83031 -11.55516
-44.93708 6.059816 1.935327
-44.95061 5.629682 -1.205011
-40.31869 15.88276 9.160109
-37.26423 18.29885 13.46005
-43.65743 7.378725 7.890218
-31.04106 37.34492 13.02678
-28.75016 43.37741 13.35671
-21.68295 34.653 -10.48019
-24.40368 57.39402 12.61756
-22.36478 69.71477 9.708694
-23.22604 62.89297 11.66411
-21.01378 67.11787 -7.204558
-19.01596 75.75147 11.24425
-19.32968 83.93633 -5.59433
-21.00892 78.3278 -5.896456
-19.0066 93.86684 -1.764035
-14.09173 135.9202 7.622055
-13.90908 97.47363 8.465999
-8.235925 110.629 10.25356
-9.359636 123.4461 10.34606
-14.19051 126.1849 3.889044
-12.37016 112.5286 6.543509
-12.56699 119.9549 5.322517
-12.896 137.5583 7.936015
-22.6459 33.88239 -9.888124
-34.64158 5.739876 -15.61749
-44.9738 4.118073 -3.82689
-44.07247 6.163039 -5.179363
-42.42902 8.017057 10.68081
-42.14104 13.2424 6.237344
-43.29435 10.93634 3.94883
-41.58251 17.09578 2.429276
-32.90548 34.59199 11.5232
-28.50952 44.75648 13.01999
-21.52864 54.25428 -8.403519
-25.36684 38.63512 -10.45548
-27.8252 52.43271 10.06565
-25.69662 60.09615 9.422945
-19.71281 72.75013 11.66205
-23.33006 70.14827 -6.642189
-22.79671 72.94347 7.427607
-20.89508 79.1696 -5.796905
-20.44938 89.70254 -1.59961
-20.25404 89.52564 0.2511303
-18.31856 95.55238 0.6218721
-17.6652 96.87172 2.778425
-14.17878 130.0518 3.99179
-12.02808 130.2553 11.74758
-13.56872 128.5744 6.364365
-14.45908 109.142 4.825207
-10.7597 120.8378 9.029804
-10.44232 114.4944 8.455777
-13.78317 138.6745 4.969377
-25.39384 27.56929 -10.92435
-24.92722 16.71017 -10.932
-40.8265 5.566817 -11.90669
-43.01533 5.639463 -8.484697
-41.93066 15.41715 3.73323
-43.21254 11.90849 0.782558
-34.02065 32.16413 10.96807
-30.12174 49.62096 7.442473
-23.25898 43.79233 -9.394328
-27.26155 59.68365 -7.070135
-23.51321 39.66753 -9.738276
-24.9714 60.99688 10.10566
-22.09374 79.64053 -5.192072
-13.71644 128.3392 4.772286
-15.42995 107.7219 2.248001
-13.90304 110.7598 4.445205
-14.45289 137.2493 4.619215
-26.10789 19.54812 -11.60107
-27.20439 24.94855 -12.01705
-37.37001 7.003728 -14.40745
-44.29588 8.207971 1.705693
-23.684 44.65931 -9.472931
-25.96434 58.9018 9.631159
-23.16418 76.43293 -5.288557
-16.39875 104.2377 2.458114
-17.21339 97.92586 3.885568
-15.56609 105.0799 5.443573
-12.66628 124.6874 6.889971
-14.00293 108.5614 6.352781
-27.14858 28.37809 -11.75645
-26.09049 24.14425 -11.40644
-40.35703 19.4298 5.32926
-26.69648 49.26095 -9.493785
-22.45373 79.05973 -5.110533
-14.44559 103.814 7.440312
-14.31061 108.8853 5.418961
-31.12867 9.689572 -14.71846
-27.81526 23.29022 -12.45211
-43.37261 11.09554 -1.174683
-15.67267 103.3037 5.94342
-11.2244 125.0426 8.761151
-26.6794 8.55176 -11.41154
-30.93851 32.75271 -11.61241
-30.29969 20.92021 -13.44516
-40.09649 19.161 6.621487
-14.16581 110.8535 1.90718
-28.68967 12.55716 -13.37051
-31.87992 13.6983 -14.42051
-27.61104 14.93 -12.65083
-29.3741 16.43909 -13.60379
-40.4122 20.62684 3.097401
-33.63704 16.51373 -13.89838
-40.87252 18.67735 3.98982
-32.51048 17.73649 -13.89432
-34.88528 15.56405 -13.66933
-35.565 18.8837 -12.48748
-8.311131 148.011 1.592046
-41.64606 8.040037 12.17108
-24.57298 64.36789 -7.32149
-25.82213 64.21545 -6.796422
-26.04926 68.81764 -4.911334
-25.73362 63.12321 -7.154455
-26.04483 68.00284 -5.303071
-24.37707 69.43832 -6.376156
-14.88012 134.6901 5.233233
-36.58167 26.00515 9.945057
-21.27606 78.39639 7.19583
-18.67218 83.42091 8.801538
-42.85044 12.50509 -2.191469
-42.37531 13.31541 -3.733074
-42.24705 11.54074 -6.156745
-25.87225 63.65829 7.058136
-26.02964 60.61885 8.573026
-27.07925 60.62987 6.509934
-28.36315 58.96839 4.673842
-18.2014 95.12688 2.31637
-16.33123 96.3279 6.630076
-13.79255 129.4188 7.451339
-26.63063 56.09843 -8.253242
-26.74819 57.92775 -7.7936
-23.27737 53.8573 -8.697491
-28.02037 54.02685 -8.108403
-26.15541 53.17793 -8.900372
-12.8393 128.4064 8.688544
-12.59531 139.5378 6.862582
-24.98906 74.5006 -3.569069
-24.58386 76.00805 -0.2431745
-38.3751 20.32354 10.12895
-27.72192 32.03712 -11.76671
-32.34096 25.93738 -12.50373
-40.44337 19.72794 4.52341
-35.94073 9.181724 -14.6307
-37.21881 14.43844 -12.50991
-39.27791 9.702346 -12.13343
-37.61996 21.86557 10.61166
-38.61731 22.16927 8.100512
-34.60389 32.30703 9.739722
-35.08571 29.19555 10.8033
-32.91011 39.52847 8.363313
-36.47792 29.74013 7.232099
-35.69741 31.54392 7.789309
-36.51385 33.24723 3.221536
-36.69143 30.58249 5.797865
-37.93221 28.23423 3.798191
-25.64777 72.8744 -1.481853
-25.59116 70.62133 -4.705885
-25.02062 72.4503 -4.719419
-28.0694 63.19991 -4.048012
-26.53906 69.52597 -0.4840065
-28.61809 62.34008 -2.342928
-29.04044 59.29751 -4.542192
-30.53195 55.50902 -0.570704
-30.55478 54.94773 -3.454397
-22.19128 75.55439 7.070515
-23.4352 74.07242 5.387088
-23.41015 78.07936 2.037699
-24.31203 72.73332 4.219868
-23.82283 75.47681 3.227911
-25.46328 70.15137 3.226902
-26.24504 69.90949 0.661054
-43.2274 8.511685 -5.755184
-42.69088 7.581271 -7.975524
-39.56489 11.56153 -11.10688
-28.45964 58.15076 5.080688
-28.94369 60.6221 0.6692055
-30.00243 56.53219 1.454766
-29.69466 51.97489 6.736923
-30.22228 54.7187 2.858994
-17.22005 94.74619 5.871775
-17.67255 91.33044 6.840064
-27.08966 35.74047 -11.24617
-36.72483 8.287221 -14.46542
-28.57291 33.41182 -11.75493
-25.92797 38.34615 -10.67184
-31.6707 34.68847 -10.86742
-33.39568 36.75192 -8.76759
-31.59982 41.2306 -9.120059
-32.18279 39.45313 -9.15214
-27.1132 48.02915 -9.641187
-33.28258 22.20162 -12.89822
-35.67603 23.3793 -11.04288
-29.38043 29.63476 -12.28845
-39.18951 22.83009 5.644941
-36.3464 26.68865 9.965684
-35.44678 36.44157 3.664232
-35.63217 37.0521 1.911612
-33.8293 40.4471 5.158947
-38.39309 27.53045 2.463408
-28.85354 60.09876 1.92787
-27.18252 66.61272 0.8241473
-27.95379 61.13714 3.946191
-22.45484 76.78313 5.73306
-22.37504 79.62122 3.78164
-19.20351 81.64151 8.82721
-35.86927 21.82656 -11.35397
-38.17387 20.72766 -9.141091
-39.69685 18.17036 -7.747851
-40.94174 16.18377 -6.030183
-41.06768 13.84721 -7.451163
-30.53379 45.65802 9.181377
-29.80655 55.20301 -5.562573
-28.89584 46.09526 -9.538
-34.48775 35.92857 -7.60741
-33.39314 40.55891 -7.018375
-27.09799 45.1243 -10.08639
-37.97994 29.61999 -0.1035759
-38.64389 21.79119 -7.745019
-38.74252 20.35342 -8.386864
-37.75174 27.76905 -5.559514
-35.35233 35.87027 4.698526
-27.6334 64.07496 2.115846
-22.99579 80.17247 1.23044
-20.85815 85.4317 3.035093
-19.23402 85.17439 7.2018
-21.79863 84.2235 0.9448228
-21.15248 85.00271 2.4469
-41.61318 17.15127 1.820909
-41.38028 16.84055 -3.64044
-40.13841 21.69408 2.699323
-40.21876 22.0569 0.4669415
-38.6157 27.47358 -0.8165115
-39.17429 20.60936 -7.336268
-38.77316 26.70046 -2.130919
-39.20158 25.48188 -0.9520745
-38.77408 26.35918 2.286663
-31.1545 53.36198 -0.8691724
-31.30483 52.25379 1.039075
-30.40395 48.57661 7.551364
-30.69702 46.83507 8.122266
-33.76949 42.15344 3.552291
-34.5863 40.95382 1.057215
-35.71269 37.2721 -2.067193
-34.1953 41.54012 -4.159795
-33.83047 40.25808 -6.4423
-33.55738 34.98766 -9.229359
-35.62025 35.81839 -5.022545
-31.06643 31.20453 -11.8863
-34.96741 23.98662 -11.48466
-35.12431 27.3218 -10.29105
-36.88621 29.08657 -6.892683
-37.71021 30.0372 -2.981801
-36.68548 33.04486 -3.868665
-37.14084 31.91618 -3.18619
-38.00838 29.5536 -1.292256
-34.17847 41.80012 2.130078
-34.1953 42.739 -0.879954
-33.20404 43.83751 3.793589
-33.30253 45.14935 1.516284
-33.17142 46.32721 -1.7974
-31.93181 50.63309 -0.92535
-31.1904 50.72822 -5.478582
-35.58706 37.50401 -2.779913
-32.65298 47.18633 -3.772676
-32.21441 49.11591 -3.240562
-36.26373 35.38985 -2.066257
-13.30646 135.2362 10.01412
-20.87799 70.80723 -13.19732
36.42795 9.348195 -19.17204
-19.13802 62.84132 -8.112271
24.89105 30.84563 -7.92955
27.0528 9.943211 -8.167304
8.532471 111.8356 -5.181857
26.84487 9.578935 -33.54109
27.983 11.45425 -9.224955
20.47407 66.18391 -6.638759
19.73247 73.40325 -6.634347
8.36128 96.35567 -12.84912
35.51078 13.31047 -19.51343
-8.741321 151.6784 -8.071932
13.52255 111.2773 -0.6779581
13.44354 124.9865 2.165664
14.96821 136.1718 1.209744
2.360971 109.3886 -6.915333
-8.346864 122.1514 -5.16823
15.14815 137.372 -1.33537
7.517587 108.7593 -6.686911
-12.08615 114.6852 -0.564038
13.14357 123.8913 0.4099208
-3.943783 121.7014 -8.046354
-8.825666 91.78895 -14.01545
0.322634 11.62647 -40.03307
-15.11866 150.1701 -8.636565
-13.26811 147.422 -10.5894
15.28318 149.6262 -9.060325
-7.6984 112.2399 -5.294312
-17.59687 79.4864 -7.245088
-14.49734 148.1373 -10.1045
-13.74066 128.885 -0.7910378
-24.05465 13.36487 -12.28187
-19.39533 59.73293 -8.191401
-22.99334 22.77022 -11.84911
11.9675 108.9221 -4.626898
-5.717634 106.7033 -8.151743
-6.265967 100.0605 -11.63426
-31.17139 13.07729 -23.42285
-31.64277 11.92837 -21.98415
15.24503 137.352 -2.391574
-9.978267 151.3267 -8.088687
-11.29962 109.2145 -5.053459
-15.87726 102.4987 -2.57429
-7.593762 153.0181 -6.347808
-15.11792 146.9977 -10.44706
-14.17679 140.8965 -10.52652
13.39298 142.9178 -11.1973
18.94475 85.20602 -4.483932
4.689819 95.64524 -13.47729
15.27993 105.9347 -1.314323
14.1742 110.5247 0.4678552
12.05772 112.6152 -2.24271
11.84996 113.4321 -1.924294
11.65649 118.9235 0.1649764
12.56955 142.7905 -11.42724
14.40108 147.5567 -10.55941
8.03302 152.7791 -6.447577
-3.604878 113.9308 -5.709416
6.534266 109.5161 -6.499248
-6.141756 124.7015 -7.463157
-16.31684 9.767382 -38.00788
-7.454197 103.607 -9.837071
-30.7722 9.616704 -17.0274
-8.891315 105.252 -8.393991
-8.92708 110.5497 -5.613782
-9.441503 108.8212 -6.181857
-8.995577 122.7722 -4.998095
-11.91498 116.3938 0.3361012
-14.70156 132.9828 0.3198451
-9.542348 124.8725 -5.801781
-12.60418 142.3974 -11.42971
27.51748 10.93463 -8.919559
32.83845 7.069901 -11.8757
35.19101 9.67395 -24.06044
13.20767 9.134582 -39.35411
6.832401 96.92673 -13.07302
-5.418447 96.04901 -13.6829
9.62167 102.4329 -9.627575
13.98774 128.8775 2.063792
8.094761 112.544 -5.04882
6.881232 115.454 -4.804676
8.796638 121.8648 -4.993092
14.90597 134.4249 -3.070542
4.325959 152.6137 -9.207078
9.93493 150.3594 -9.362295
3.693165 104.5077 -9.608371
2.464741 113.4084 -6.172785
-5.383968 122.2265 -6.870743
4.43875 120.4975 -6.310845
-18.12319 79.22863 -6.541384
-16.95511 88.79739 -6.800814
-22.37905 26.99627 -11.66045
-28.87919 6.167084 -14.83767
-8.791947 104.9005 -8.664548
-11.90184 114.4948 -1.129348
-11.08681 122.7959 -5.774038
-8.730884 115.3972 -3.975647
-7.865652 119.8284 -4.641243
-11.79892 124.9116 -3.103617
-10.63927 121.9991 -2.79504
-14.51209 132.4001 -0.4361948
-3.395492 151.5115 -10.03827
34.99994 7.314503 -14.1012
36.36228 9.341073 -18.26555
33.93328 10.50224 -25.97429
26.12797 36.73135 -8.844991
-18.62033 65.80031 -8.407004
21.21616 69.55654 -7.624137
-2.18234 99.78297 -11.77441
9.058474 103.1417 -9.534999
8.231289 103.5164 -9.659669
14.07951 129.6085 1.508201
13.8327 109.0463 -2.277203
13.40783 122.6187 1.810804
11.18519 121.3303 -3.596594
15.23905 136.6929 -6.93735
4.586017 150.2106 -10.61773
7.361187 146.6699 -11.89503
-1.880623 107.3492 -7.9962
-0.1116443 107.8391 -7.72785
0.67187 109.4635 -6.852011
4.232402 121.7275 -7.749454
-1.734012 121.9192 -6.972199
-3.0107 121.8715 -8.417429
-0.5513893 12.52568 -39.74702
-18.31658 81.12999 -6.200438
-16.85739 91.20021 -6.598329
-8.219419 101.443 -10.69483
-23.38164 22.75261 -12.53146
-32.07298 6.7685 -19.23695
-25.03283 10.62167 -12.82635
-13.19782 105.0002 -5.483531
-13.36781 106.4576 -4.476277
-10.69921 113.8356 -3.050556
-11.02628 120.9972 -1.723616
-14.0717 129.7026 0.9620938
-13.7968 131.7454 -5.196538
0.07504624 148.5161 -11.18658
34.99474 10.0645 -14.53901
26.87844 24.25794 -8.528221
32.01394 10.2262 -28.74932
23.74688 39.85111 -7.859828
27.85837 9.839944 -32.74664
-19.77078 66.91967 -10.2823
18.73608 81.17864 -5.159138
8.479449 97.34093 -12.3029
16.80967 95.03728 -7.043474
4.408732 97.75992 -12.4834
8.086921 104.6417 -9.071667
8.725429 115.7776 -3.900127
14.20916 137.7454 -9.436036
12.08166 136.965 -10.66123
8.996802 146.2021 -11.76109
-2.640669 108.0289 -7.60094
1.992998 114.3941 -5.68628
5.152359 119.9478 -5.962235
-5.526689 10.17408 -40.19064
-20.51058 46.15918 -10.01869
-18.01875 83.96421 -6.076015
-15.0374 99.37346 -6.005787
-16.68763 91.32943 -7.007986
-29.03179 8.462105 -29.96342
-19.0655 10.37738 -36.71933
-23.85914 30.27744 -12.61488
-31.98074 9.279099 -20.1651
-9.893301 108.2954 -6.274092
-11.55962 126.6423 -4.804539
3.667879 148.6801 -11.30062
-5.34487 147.1765 -11.85879
33.78053 8.180879 -12.73716
24.83153 36.14763 -8.237927
26.74393 18.48971 -8.239779
23.19208 40.80859 -6.713381
23.52845 11.62757 -34.76224
16.14997 11.36242 -37.85827
-18.4159 66.94975 -8.557582
17.91481 86.89626 -6.02465
19.67356 73.00775 -5.083752
18.02527 91.77229 -7.744233
18.56255 90.88754 -3.497427
3.324469 94.48527 -13.63719
1.562584 94.09379 -13.60903
3.550661 103.2021 -10.32662
13.91447 139.9127 -10.47982
-2.066385 116.9878 -6.054824
-12.12131 9.22257 -39.392
2.051004 9.808255 -40.56039
-21.88841 33.51024 -11.72322
-17.54267 81.69934 -8.308536
-18.22722 75.04951 -8.873183
-30.52447 9.40299 -27.34136
-21.79866 9.019092 -35.78432
-22.62832 27.87305 -12.00754
-31.12907 8.818472 -17.53437
-13.14688 104.7557 -5.677993
-11.17067 125.8246 -4.74156
-14.15062 131.19 -1.637078
33.74131 11.1811 -12.89103
26.33341 28.15716 -8.699985
27.58334 19.3813 -8.556417
22.68362 44.86295 -6.473613
26.97125 11.62603 -32.70638
19.81281 12.69641 -36.12681
-19.47132 55.35063 -9.592391
-19.85703 52.04422 -9.602653
15.94947 95.34563 -7.836243
0.7901844 100.0962 -11.65584
14.76221 133.8602 -3.564174
-1.295544 107.0595 -8.16929
-11.24011 12.17062 -38.6656
-3.19122 10.17279 -40.37825
7.056745 11.84088 -39.56515
-21.82344 46.40949 -11.70036
-17.22046 85.82098 -8.262449
-24.79621 12.60807 -32.53754
-25.97668 24.44559 -13.69919
-28.3523 14.43582 -14.67752
-12.89802 103.9838 -6.387468
3.272622 145.7772 -11.99379
29.23404 23.48677 -9.70349
25.6639 43.267 -8.820181
29.70105 12.15503 -30.31846
-19.48817 58.19835 -9.815928
20.26293 81.95523 -8.846663
-0.4928211 98.57489 -12.18205
3.667596 103.8901 -9.967739
-17.13535 10.09225 -37.60986
-0.6822714 11.57905 -40.03902
-24.95394 35.86749 -13.29158
-17.94511 84.40637 -11.68284
-28.43096 22.92507 -15.29095
-27.44894 16.91768 -14.21328
-13.55203 105.6904 -4.681337
30.13528 17.35989 -9.967323
29.47024 26.46422 -10.09515
24.84429 47.4482 -8.493487
-22.73804 61.15961 -13.46837
-21.63471 52.74675 -11.39494
-19.80446 68.99132 -10.51806
-0.6492375 96.61491 -12.84265
-2.152441 103.9847 -9.895377
12.24128 130.3829 -6.818048
-3.503356 11.69744 -39.88322
-23.97587 39.28938 -12.79944
-26.25949 38.78912 -14.74379
-15.77217 91.69587 -10.50308
-13.18382 90.36993 -12.39114
-16.11842 84.86121 -13.16471
-30.28412 10.00458 -16.3113
-10.19886 126.069 -6.009947
-2.66139 145.2336 -12.085
32.69205 13.86408 -11.90139
28.97965 10.09746 -9.686047
27.71134 12.2528 -31.93522
-22.27327 56.39083 -11.94578
18.4827 83.42378 -11.60238
11.16911 126.2673 -5.088217
-20.65349 14.62415 -34.52614
13.74401 15.10996 -37.31915
-26.03989 43.89333 -16.30604
-13.84499 94.37138 -10.45087
-10.04504 90.99498 -13.62491
-29.96697 10.00252 -15.9174
-3.286107 142.0263 -12.56605
30.23456 24.53946 -10.41337
27.41635 15.52529 -30.89519
-23.45295 57.5854 -14.174
22.40915 60.82572 -7.637003
-13.53193 84.70936 -14.31274
-18.84694 14.1566 -35.56706
-14.24189 98.13621 -7.894937
-16.60051 60.38346 -21.37114
-28.96766 12.67427 -15.10341
-7.522919 144.6934 -12.31584
30.40082 34.84853 -12.35217
26.59307 40.54036 -9.199719
28.93133 17.9833 -28.633
22.1581 69.59192 -8.48379
9.114166 121.9716 -6.61518
10.9748 139.0865 -11.79135
-13.26804 98.30331 -8.797146
-5.510466 141.7993 -12.69723
30.79089 28.5522 -11.43207
27.21323 40.92663 -9.591774
29.6761 17.22898 -28.2393
-0.1449097 90.37039 -14.83877
9.899519 126.1781 -6.311247
-12.41785 16.10503 -37.13936
3.575842 143.7546 -12.36143
-7.574527 146.7307 -11.84517
14.87121 80.97454 -14.66855
12.43008 77.65296 -17.35273
4.659 142.12 -12.62162
-10.39422 146.6796 -11.3288
25.26239 18.53876 -31.28792
17.22906 75.85377 -15.25412
-10.45787 148.5152 -10.54098
-7.128611 147.1119 -11.78976
20.72691 75.40241 -12.97288
0.07866097 141.6432 -12.55813
-4.697974 148.5128 -11.40558
27.22917 22.2589 -28.42891
22.65563 71.99615 -10.42223
17.13289 93.18815 -8.0706
-2.949871 139.9225 -12.67462
23.64605 22.67728 -30.77695
20.77541 78.36594 -8.545333
22.72004 71.66684 -11.96041
15.29587 72.74639 -17.52178
-2.55508 135.3216 -11.97869
28.76509 20.43707 -27.8001
-2.066622 140.3405 -12.65413
32.56283 15.69188 -25.44995
26.76482 27.14714 -26.90818
16.75847 86.81194 -11.33701
18.81173 88.26784 -7.962859
34.54837 15.21542 -21.84366
33.76152 17.43232 -22.28719
19.82863 83.78542 -9.768439
31.14989 17.3131 -26.60268
34.32787 13.07699 -23.75104
14.99335 83.74591 -13.53732
4.132289 88.62737 -15.8803
29.07053 25.96373 -25.17012
31.88353 22.5662 -22.96808
13.03466 110.3578 -2.636502
13.31283 127.1076 -0.828742
12.28143 105.5601 -6.104429
-8.535556 94.234 -13.30649
-9.902215 99.11985 -10.88237
-10.46015 98.21429 -10.89228
36.18428 10.45608 -19.40984
33.68833 17.59513 -22.35291
14.21023 103.7797 -4.903324
13.14309 100.3173 -7.948429
11.92138 99.03743 -9.596903
12.47043 99.26006 -9.047201
9.754398 117.9315 -2.926979
0.2378802 122.2012 -7.380008
-31.69425 9.572265 -19.06798
-31.61683 12.17511 -21.05551
-29.9548 12.44271 -26.91172
-30.91447 16.27999 -20.29132
-31.13479 14.89139 -21.32775
-29.94352 15.92351 -25.11459
-28.24952 21.53828 -25.44689
-29.30278 11.84932 -28.20861
-26.73128 17.23649 -29.11693
-10.98928 140.5206 -11.91672
-11.49638 143.5151 -11.71268
32.86162 14.59454 -12.14888
34.34077 13.63812 -14.13089
35.45361 12.24864 -16.35665
21.82957 58.36214 -6.875326
21.59597 74.62942 -8.899264
10.3533 96.05865 -11.80707
10.29896 136.2554 -11.27263
7.323689 142.2945 -12.64384
-25.45091 22.4782 -13.49052
-11.70051 129.2895 -6.722801
-13.63342 132.0157 -5.825402
-10.73641 133.7806 -9.993288
-13.73382 138.0475 -9.970261
11.61942 13.11061 -38.43848
9.154345 15.48474 -38.14437
-25.62494 31.57524 -13.53806
24.94276 44.17201 -8.506832
-10.56694 15.88363 -37.6342
-19.32759 77.50476 -10.72848
-19.52396 76.17607 -13.28656
-17.56701 74.89319 -16.02828
-17.73029 78.57367 -14.54748
-21.03732 70.26321 -12.62104
-25.8249 12.47831 -31.73722
-22.82758 12.14034 -34.11541
-27.1012 12.58514 -30.48897
23.77121 59.8285 -8.631108
-21.98511 48.70063 -11.78411
-30.26881 16.51864 -17.38852
0.6914994 90.46345 -14.77985
-0.8670049 91.61372 -14.50959
3.692105 86.16875 -16.60682
-25.3289 38.37626 -13.59363
-17.13511 90.21371 -9.219179
33.06744 20.39356 -13.28233
-29.72731 17.69136 -16.50508
-25.83869 18.52588 -13.63485
-24.15225 53.92869 -15.84463
-24.15601 50.60815 -13.48626
-5.686809 93.61316 -14.62928
-8.530925 90.79987 -14.52581
-12.24489 89.28922 -13.18495
-7.691734 90.4541 -15.04928
-11.39812 87.52678 -14.18007
-3.632923 89.31351 -15.75803
-5.364695 88.33996 -16.22148
-15.38454 16.11093 -36.26918
31.62786 21.1908 -11.35963
30.82472 35.81212 -15.71302
-9.304898 17.09516 -37.50011
-13.61117 101.7984 -6.712664
30.8904 26.56866 -11.21441
32.99411 25.25701 -16.237
30.58034 26.97283 -22.72271
33.0476 24.57347 -15.45138
34.46351 17.63587 -16.17531
11.95226 81.68566 -16.16772
21.77722 73.27795 -8.781349
23.57469 68.37744 -11.77387
24.06355 66.21684 -11.11204
10.93135 132.45 -9.223241
8.375308 131.6786 -10.11354
21.25449 73.13241 -13.44046
20.54603 68.04649 -16.0132
18.08521 76.29591 -14.58375
18.40737 74.85104 -14.91843
14.2277 75.68165 -17.03671
-5.620718 139.5583 -12.76124
25.24424 25.95682 -28.5188
25.43567 26.52864 -28.16674
23.41494 28.35348 -28.85864
25.12163 27.94062 -27.85806
30.54243 20.11176 -26.06932
11.60337 82.40917 -16.12019
12.93497 128.3253 -3.531709
13.11717 123.1317 -0.6845154
11.00018 121.5341 -4.453687
34.54489 17.45003 -19.37252
11.67959 98.30538 -10.05768
-15.23956 136.4527 -6.466347
24.64781 56.11283 -8.961129
25.24385 57.86963 -9.880939
2.906371 139.2569 -12.66164
-0.6497347 135.4344 -12.00713
3.068359 133.5634 -11.49214
8.935178 133.0093 -10.4885
4.028169 130.679 -10.36719
1.208159 125.3431 -8.241404
2.802642 126.4883 -8.697746
3.263732 123.4437 -7.696247
4.496853 124.4338 -7.768396
1.626475 124.289 -7.854896
-0.9395363 124.1147 -7.894245
-0.1576659 125.0708 -8.09613
-6.030702 124.9071 -7.560534
-3.32453 127.8282 -9.179743
-9.468043 128.7334 -8.140792
1.856695 128.9707 -9.786756
-2.514188 130.6356 -10.21677
-9.50827 131.0999 -9.341855
-3.129445 129.7453 -10.15875
-2.716256 129.6132 -10.14456
-8.779695 132.2364 -10.20751
-6.285276 137.465 -12.52129
-6.30434 132.872 -11.15002
-10.7441 138.9884 -11.87894
8.1983 95.2328 -13.4878
-25.92285 36.83495 -14.00952
-2.973263 14.86146 -38.93718
-2.881223 14.61733 -39.01761
-0.6093273 20.34374 -37.32086
-1.847958 18.48109 -37.86291
-17.61345 74.16108 -16.26106
-21.76342 65.63002 -14.77175
-25.02326 17.53503 -30.56831
-24.88171 48.10765 -14.29999
-24.61602 48.01348 -13.67764
4.265529 88.50639 -15.94339
7.225513 86.51771 -16.68043
6.628646 91.88751 -15.1302
-27.05987 24.57081 -14.22941
-30.05324 19.82295 -18.03758
-30.72387 17.36677 -20.31298
-29.97954 19.77367 -22.35495
-22.67478 61.72715 -13.68237
-23.43958 58.03046 -14.73929
22.6244 61.2765 -7.865428
24.27587 65.43999 -12.18988
-25.23594 47.06809 -17.98062
-23.70522 47.17521 -20.69403
31.56655 31.19903 -17.75086
-14.53147 18.43358 -35.79256
33.15732 24.39207 -17.87203
4.89964 84.29066 -17.42068
8.763494 84.30746 -16.92805
3.267042 84.15013 -17.21588
1.806816 81.54266 -17.92126
1.730707 79.94675 -18.48491
10.81891 131.6098 -8.855029
19.0868 70.08066 -16.27151
13.63002 72.38281 -18.57233
24.35721 35.36662 -25.61471
27.03427 31.41335 -24.97298
22.11773 36.28933 -26.79489
23.79839 37.57613 -25.17901
22.58094 32.21719 -27.98106
22.22601 33.44553 -27.75589
16.67181 20.58458 -34.69294
16.60703 24.95645 -33.27605
19.03919 32.7569 -29.68146
13.52256 84.33369 -14.19521
11.24474 80.92168 -16.86841
12.24816 92.10983 -12.04498
11.96077 93.52621 -11.69717
10.84923 88.78543 -14.25566
9.386727 95.1429 -12.78378
32.16044 23.95456 -21.61674
9.28135 125.7295 -6.478696
24.85252 59.70719 -14.98768
25.62459 59.36944 -11.52674
25.33713 58.90436 -14.43446
23.70747 65.68424 -13.75061
26.11229 57.16885 -13.42661
25.86166 55.33996 -15.59182
23.29326 58.17563 -17.5857
5.005322 139.5347 -12.72258
-9.770116 140.2821 -12.29309
16.04941 15.46405 -36.5626
13.00643 14.65062 -37.64575
14.72089 15.74308 -36.8579
15.67676 19.21825 -35.46063
10.32488 16.22139 -37.71152
0.4064004 14.86677 -39.03091
-1.932865 20.4137 -37.26007
1.407382 18.68786 -37.83442
-19.34711 71.24117 -16.00736
-21.02286 68.52341 -14.83149
-22.14015 63.63199 -12.88764
-22.51641 62.87485 -13.81913
21.91348 19.55272 -32.83722
19.65042 20.8241 -33.4568
16.9108 18.54885 -35.28089
18.91114 18.91084 -34.40895
17.98199 22.7682 -33.48579
15.82997 25.54751 -33.3442
18.93716 25.347 -32.23999
13.63734 21.30751 -35.36271
19.56593 27.07492 -31.3805
19.88421 28.41418 -30.77439
8.339221 18.39384 -37.35612
8.641238 90.16936 -15.11989
-27.13927 36.53517 -19.58327
-27.41619 36.27402 -16.78586
-28.09961 30.51688 -16.35057
-28.88028 25.69069 -16.67683
-27.48337 25.0356 -25.01303
-28.40382 25.96915 -22.85793
-12.7824 22.77684 -34.91532
-28.80812 27.96603 -20.08372
-27.86287 29.3477 -22.14685
-23.65639 55.32085 -16.67588
-25.69695 45.2075 -17.81963
34.3461 18.81767 -18.13119
32.48132 25.90747 -19.39875
29.48288 29.1733 -23.20362
30.37459 31.52077 -20.6628
29.1336 33.98617 -21.40093
5.239565 81.53035 -18.30032
4.35429 76.82719 -19.75815
4.45256 76.09478 -19.99318
21.62058 69.18168 -14.70945
11.59377 139.5376 -11.61281
7.36635 141.5265 -12.69845
9.615053 71.01234 -20.81435
8.203454 71.24786 -21.11393
6.892584 76.05802 -19.92138
13.48364 70.50104 -19.31787
8.052216 69.40566 -21.70646
13.44906 69.11985 -19.81223
6.016628 70.53458 -21.68813
4.965605 73.37877 -20.84951
24.2155 38.34147 -24.58164
15.04407 94.86289 -8.923907
26.18578 55.77668 -14.52603
20.9671 61.7814 -18.11008
6.466492 18.19043 -37.66721
4.843642 15.62616 -38.60905
7.976625 17.95845 -37.54214
-17.99966 68.92544 -17.83623
-21.07978 61.12234 -18.15719
-22.26044 60.85794 -16.65693
-15.52597 62.2443 -21.21298
-19.80251 59.47962 -19.89207
7.518584 20.90895 -36.68772
6.589613 20.7233 -36.86058
8.267456 21.14362 -36.5115
6.943082 24.84779 -35.54288
9.874936 28.45979 -33.95049
8.995852 29.68888 -33.72575
3.933146 23.23152 -36.32493
4.195597 36.37074 -32.25501
15.50851 28.7783 -32.39847
11.35458 31.51966 -32.67432
14.83618 34.9249 -30.62205
10.32269 35.96518 -31.50806
12.01218 31.72705 -32.44961
-25.60701 44.11466 -18.90625
-26.19466 33.14609 -23.28158
-26.39088 31.09374 -23.89311
-25.5603 35.43207 -23.22112
-26.63002 37.41579 -20.43226
-15.71117 19.28494 -35.14153
-15.78959 16.75544 -35.92852
-19.80319 16.79582 -34.24607
-20.8894 19.32114 -32.82391
2.862748 80.57895 -18.38695
-1.142359 80.22099 -18.42029
-2.017922 84.3079 -17.13295
-3.408407 88.30794 -16.03497
-3.748249 82.49328 -17.95564
20.88092 66.16837 -16.48241
17.85155 67.0086 -18.18764
8.820052 70.35347 -21.23358
-0.673093 74.78319 -20.25639
2.49064 75.44137 -20.11003
-2.550822 72.82805 -20.97623
9.263112 37.63011 -31.19515
8.320533 36.68103 -31.66069
4.863178 33.40538 -33.11176
7.816023 29.26619 -34.05454
3.691149 33.92184 -33.04224
24.57956 39.03933 -24.02057
30.12638 34.6225 -19.29048
27.45076 39.46125 -21.05807
28.24546 40.19117 -19.60961
30.38739 37.22419 -16.42206
30.12253 39.26674 -14.96985
27.51365 42.09519 -19.7462
28.65566 45.29989 -12.44436
28.84279 43.66171 -16.282
28.9376 44.22335 -15.21852
26.50948 45.17696 -19.61674
26.22368 46.66898 -19.31375
22.7842 56.69307 -18.63532
4.284386 22.19301 -36.62369
-18.24045 63.84189 -19.4149
-22.88638 56.5497 -17.7259
-22.28471 54.78244 -19.3299
-21.18731 48.4528 -22.66865
-14.82944 59.8612 -22.28802
-1.910729 22.95356 -36.4709
-27.16294 26.83412 -24.65016
-27.69766 21.45038 -26.28896
