# .PCD v0.7 - Point Cloud Data file format
VERSION 0.7
FIELDS x y z
SIZE 4 4 4
TYPE F F F
COUNT 1 1 1
WIDTH 1729
HEIGHT 1
VIEWPOINT 0 0 0 1 0 0 0
POINTS 1729
DATA ascii
40.7185 10.64764 45.40251
40.97868 10.09 47.707
41.00737 9.552997 48.22419
39.13042 6.94123 46.91607
41.32106 10.86045 41.59314
34.14832 13.56093 39.18596
32.10361 10.19918 44.44602
48.43763 11.06873 42.85183
47.49744 11.9459 145.993
27.82342 14.55802 114.7442
29.56867 16.16876 105.6031
48.68269 10.9207 64.62416
49.99622 9.85489 76.73112
48.07706 10.90639 76.08395
46.90256 11.62261 87.63811
46.36066 12.1345 86.43473
48.22778 10.50238 85.90535
49.31002 11.11872 128.027
27.07157 12.7505 126.7481
30.46715 15.68565 53.68219
45.12499 10.86405 46.75528
46.59718 11.28738 45.76519
48.2311 9.876192 118.1326
47.4467 9.9168 133.4277
43.74232 12.63652 101.3339
30.43913 15.72078 49.42762
30.75044 10.81636 46.54412
28.60094 14.20929 135.4621
27.69771 12.06088 147.4731
46.39994 11.38131 151.9754
28.97227 16.22743 65.17557
30.20928 15.87322 62.2634
27.81794 15.69793 79.22314
29.42058 14.73821 143.1449
34.83969 8.853117 39.58728
30.25266 15.87616 111.9787
29.39504 15.33549 135.3488
29.43768 14.12433 147.2896
29.83504 12.3772 144.2266
30.56491 12.08739 147.3439
31.38142 10.85109 143.3843
30.54166 13.47048 144.0349
27.1797 13.47911 146.9978
30.55386 13.43475 140.86
30.36007 11.68395 140.8819
30.8217 13.84527 137.2375
31.10601 15.00187 135.634
46.85778 11.59993 94.09008
39.39103 11.54926 46.35569
40.66975 8.000089 47.03907
33.07953 11.01522 44.59275
47.32422 9.965304 137.6604
46.41513 10.79382 142.9338
46.23598 11.24355 145.8718
45.44334 12.3029 139.1414
40.8395 10.62313 135.6752
42.70052 11.04016 135.9384
43.67939 13.17909 134.381
42.18985 9.522736 136.5506
47.20276 10.00907 136.9613
49.74554 9.903816 89.30634
29.75762 16.03002 111.2479
30.4163 12.90199 116.3305
30.25093 12.11125 116.7952
48.21658 11.21549 60.91526
46.73745 11.69099 57.41312
45.11314 12.30686 73.64327
47.3642 11.51939 70.49988
46.57347 11.97002 76.05136
45.8935 12.33047 76.47024
48.4736 9.845815 125.7199
45.66027 12.46331 126.8421
46.85004 10.49111 128.3708
42.39719 12.52723 128.0048
30.30693 15.81296 125.7531
29.55305 16.14341 85.18694
30.58269 13.46669 52.21653
41.75622 8.609756 45.75908
46.15866 12.14992 124.3084
42.63355 12.02511 121.417
42.76149 11.25876 119.2938
45.28371 12.78878 122.8811
43.58107 12.74251 107.4607
43.01877 10.41595 103.5449
42.48072 9.212728 104.1501
43.13062 10.58114 98.78864
42.97273 9.941285 99.59773
30.70417 14.15385 51.68804
27.50886 14.39984 93.91305
29.53526 15.58254 134.7932
46.2919 11.71162 145.6132
30.43609 12.25383 43.61415
30.59441 15.35254 62.88784
29.37815 16.21922 76.97047
48.93138 10.60455 67.84064
28.7452 16.26094 69.71294
29.43411 14.53278 145.4579
30.95527 14.07679 137.8941
47.78677 11.38848 56.37803
50.04612 10.22099 55.80083
48.41683 10.17286 97.20303
49.43612 9.896507 89.3826
27.8117 15.08248 107.6837
37.63963 6.724767 43.19651
48.82409 9.905938 115.691
35.78744 14.18535 40.42198
32.26215 10.25062 49.99356
34.34528 13.84151 43.26511
36.38506 12.03163 42.49525
38.19613 12.26933 45.17934
45.56009 12.28664 141.6458
46.58288 11.3243 135.7372
44.52685 12.39686 135.0609
41.70409 9.377125 137.6942
41.89685 9.357154 133.0438
46.79205 10.45348 133.2421
30.81943 14.61565 107.7289
28.80557 15.75384 117.4645
27.83897 14.59878 116.0793
29.42214 15.97997 122.5627
32.38713 10.44781 117.3567
46.27285 11.8569 60.25268
47.68357 11.39119 63.9263
43.56168 9.795403 63.34614
44.77426 12.6092 86.42381
41.79739 14.65021 42.6328
46.52489 11.41983 125.9799
42.68783 12.74381 125.5269
30.73539 10.58081 126.0407
30.26777 12.70795 127.854
30.10691 12.19862 129.4481
30.5534 10.82501 129.6081
30.43014 11.57312 52.23874
31.16682 10.32752 51.93413
36.71649 6.844483 45.13172
30.59718 14.9131 83.50157
44.10086 10.02878 51.06119
41.62154 8.701902 50.68601
44.48325 10.14966 44.7937
43.01094 8.821141 51.72702
41.28811 10.71945 51.59563
44.81027 12.96192 125.5562
45.70312 12.61611 98.16838
42.80746 9.676261 103.546
30.92205 10.53232 47.69381
45.35794 12.17901 146.2744
29.01871 16.19431 79.38808
47.16167 11.60385 66.47498
46.48812 11.90806 68.08666
30.78374 14.7876 105.1331
31.50662 11.14331 148.2251
45.11027 12.90694 95.96352
45.52459 12.68974 96.94617
47.14597 11.40236 89.4453
43.28139 12.63717 111.1366
36.38997 11.98224 45.62003
39.00003 11.75087 43.80232
42.3747 12.60244 132.5791
42.7104 10.25529 139.2482
41.75121 9.653401 143.5788
42.8339 11.26107 142.9351
41.12503 9.345233 130.1989
42.78359 10.34373 128.0225
41.13889 11.19009 138.9693
40.76312 9.946194 140.718
30.26227 11.47588 117.4379
28.16783 14.92354 120.9092
32.50604 10.60203 114.7513
30.3749 12.64595 107.6673
43.94793 10.25751 59.91081
27.99984 15.83998 90.42582
43.4844 13.19924 123.1875
30.30518 15.57978 134.3732
29.1216 16.2117 85.13613
30.4039 12.65603 58.74726
44.71937 12.52349 83.63252
41.38062 9.442773 43.40976
41.69919 12.3632 49.12925
42.55575 12.07725 122.9673
42.54174 12.19266 123.6501
44.43721 13.15063 115.8897
42.32195 9.257121 113.7835
40.65733 10.46744 110.7764
41.23471 9.216507 115.5744
43.50557 12.22513 99.32686
40.81449 9.480139 101.668
30.66501 13.87435 45.9003
30.42477 11.9451 44.17471
33.26228 11.36305 47.46959
33.2998 11.53309 49.95173
30.88316 14.07685 133.5681
30.60066 15.15855 66.4202
26.9873 13.07619 142.9069
30.20514 15.82897 70.46191
30.56754 13.52691 68.79267
32.20007 10.34998 66.041
30.73785 14.9275 100.0539
30.27932 12.23464 102.7491
30.54327 13.24646 101.4596
30.29113 11.5684 98.74424
31.20302 10.34163 104.798
32.51989 10.67362 100.7279
31.02383 10.38155 105.8849
31.01823 11.81077 144.2846
32.71025 11.79005 141.0018
32.63615 10.73712 145.6458
30.39068 11.42827 137.3198
47.82609 10.65404 92.54124
43.48325 11.89478 92.92884
40.7475 10.4419 47.80152
36.394 6.95231 45.5215
34.6189 14.06453 44.94998
32.8476 10.67511 45.63136
42.19074 9.882905 144.499
39.93228 13.10041 147.3276
42.4217 12.17023 128.1042
41.05717 9.376926 125.7011
32.88435 11.72198 127.2148
40.85441 11.53761 124.9044
41.30438 11.97366 142.0042
41.0776 9.53423 140.3975
39.99821 13.3028 143.5809
40.09706 13.43848 139.5439
28.78734 15.7193 118.7888
43.97473 10.29002 59.09008
29.924 15.97497 91.05392
32.92802 11.99983 126.2456
31.38793 10.15765 125.6457
32.9466 12.91806 130.9376
34.43058 13.64818 134.9077
27.77871 14.03105 131.2126
31.29339 10.28256 53.64948
41.35902 8.977353 80.78896
41.58022 11.9775 46.6358
41.93259 12.94893 44.59062
40.77813 9.647387 112.9247
41.26892 9.17069 109.2254
40.74657 11.24948 112.577
40.77815 11.50141 109.7556
40.8765 12.16472 107.6957
39.38352 15.02307 110.043
39.14774 15.12284 108.2492
41.8648 8.976722 100.8556
46.98288 11.40731 96.42529
43.75383 12.27631 146.2245
43.82851 10.69615 70.13205
30.29194 12.17785 63.91341
29.35179 16.09691 100.5302
32.07976 10.35592 105.8846
30.59011 10.73047 108.3315
32.94815 12.33569 148.1886
30.42157 11.27724 133.9712
30.9006 10.50074 131.6291
31.7732 10.22284 133.2687
33.09403 13.17969 133.5736
42.14984 8.966265 83.5977
38.3845 12.13411 47.10858
33.76273 13.15871 46.9055
39.62707 15.22202 45.97798
39.73262 15.25104 48.58611
41.83984 14.44628 47.27438
40.5795 15.32212 51.81353
43.71749 12.4898 143.1587
41.06738 10.89565 145.5237
39.85724 12.5984 144.7891
40.69842 10.43935 133.7458
38.96856 13.63429 146.2477
37.69694 13.29286 140.9564
30.61426 15.54356 118.4523
32.66839 10.83666 113.7438
32.55012 10.47808 121.0401
45.6517 12.19052 70.48441
43.46835 10.03057 72.16169
30.56241 15.30291 93.24835
30.72505 14.69732 93.56805
30.73096 14.4766 95.49843
35.64352 12.96637 131.3242
35.44783 11.69654 128.4141
40.06681 13.93636 135.371
34.78107 13.81844 126.7413
33.4338 13.45332 126.096
33.15337 13.24421 135.7534
41.25976 9.017241 77.7385
41.37489 12.77846 78.19312
40.96774 9.358905 107.4647
38.76309 15.02662 112.0303
39.2837 11.69924 116.0571
40.92387 12.32656 115.0627
37.78504 13.75081 113.2913
40.95407 13.74112 103.7438
39.66213 15.15946 102.0846
37.98126 13.80313 102.7328
38.1674 14.73144 99.95027
39.13633 15.33543 97.60478
38.35695 12.64097 108.2788
40.70568 11.0771 118.4031
40.59295 10.64151 96.92828
40.82861 9.529862 96.79232
44.07333 11.51673 148.5363
43.22517 9.441426 66.27739
30.39259 12.64293 66.84811
31.75424 10.17414 70.29459
33.03952 11.20225 74.1903
30.69001 14.01789 72.05455
32.06974 10.3514 98.9726
33.06326 11.82689 101.9853
33.41077 13.00523 98.94559
32.9867 11.54948 97.12309
32.87881 12.89946 144.1573
32.29963 10.25875 135.799
31.88074 10.25786 140.421
30.71095 14.33375 84.9159
30.4915 13.16634 88.11421
43.87458 12.05526 88.04221
40.58092 8.110126 52.5176
36.85822 6.869223 50.89364
39.59812 11.47082 54.30123
35.27251 7.775311 46.47058
36.57941 12.69635 47.59755
38.13183 14.17696 43.8872
41.03238 15.25873 44.35587
42.96943 10.98694 146.5585
42.41145 12.25778 147.3547
40.95118 12.50382 120.4366
40.34267 12.88754 137.211
30.75616 13.81293 119.5955
43.51175 10.98023 84.74501
30.43014 15.55626 87.86119
27.91653 15.54014 99.7002
35.39223 11.62113 129.5542
35.45918 13.21317 136.2969
41.31132 14.17631 82.04794
41.68569 8.710659 54.01607
41.63 12.34324 54.31403
41.82802 13.00002 55.08372
40.95985 12.56345 113.7745
38.46814 12.61581 103.7693
37.9867 14.2744 95.55128
39.53481 11.44197 100.278
38.45164 12.67784 98.13716
40.64688 14.70324 94.47276
43.00305 9.618573 87.55544
41.24393 9.209799 120.1104
43.12123 10.35728 94.20557
40.59876 10.14702 96.46629
34.25332 13.82161 54.86792
43.13972 12.5292 149.277
30.46245 11.38591 67.56841
31.33086 10.40402 63.24689
32.62141 10.54501 65.60214
30.70489 14.66774 81.11069
43.75777 10.00466 60.4336
41.5548 8.830218 65.92227
32.36941 10.47939 74.25923
35.99669 13.75052 70.11613
39.78514 11.14945 95.9127
32.90934 10.93241 69.25858
33.0925 11.12485 65.03249
34.82006 14.01075 67.15559
33.1933 12.56019 107.9055
34.06374 13.96164 107.2176
35.06562 13.94123 107.1699
35.90804 13.20999 106.5409
35.25514 10.96147 104.7646
35.89053 13.28149 105.4085
31.7029 10.18436 110.6922
34.20173 12.57436 146.9873
29.95867 15.93708 89.12677
40.73602 10.52505 51.01897
35.01969 8.246365 46.4857
34.11595 13.66432 48.40854
36.52613 13.09849 55.12426
41.45652 14.95871 51.51283
40.20171 15.36246 51.72316
43.00446 13.01148 144.1314
40.87699 13.14655 126.9921
39.76554 14.25612 137.5238
38.78535 14.54871 136.0457
30.17731 12.12691 124.2954
30.32699 15.76465 122.1442
32.88414 11.39742 121.8735
29.46473 16.20068 98.9493
30.2916 11.57478 92.18351
35.65166 12.80067 136.9562
30.89235 10.63971 60.01954
38.85197 15.02418 79.93063
39.93365 14.8112 114.6674
39.64162 11.16798 115.9421
39.71898 9.968893 114.6491
38.85002 12.14051 103.0167
38.2247 13.05473 94.2431
38.39283 14.91713 92.37434
38.19896 14.63745 91.93494
37.99201 13.75492 88.87313
38.32653 12.8603 86.61974
40.59716 10.22997 92.33229
40.61229 10.56227 92.10653
38.47076 12.53349 109.9821
37.94899 14.47851 110.5746
42.80635 10.94373 120.5723
40.98077 12.85385 121.5078
35.86868 13.92897 52.89104
34.07236 13.61606 58.89029
33.74438 13.18625 55.77161
34.9741 9.761859 56.00247
35.37767 10.58012 57.73186
36.30917 13.46562 58.498
36.21497 11.76086 60.67865
34.90502 8.958645 55.66167
35.83175 11.26079 62.3163
35.49651 7.655026 55.28765
36.0564 7.265405 61.15076
34.97116 8.572415 66.865
36.2034 11.85776 66.17403
30.39708 12.68734 77.95559
30.36507 12.66116 70.68634
32.39457 10.47436 78.10809
33.93797 13.37112 65.15475
33.4971 13.30094 104.6069
31.64698 10.24831 95.99707
34.80127 14.08723 92.85013
35.44214 11.68849 142.3984
34.30879 13.50267 138.7578
38.08761 12.46669 52.43962
36.54587 12.59709 46.51704
35.37402 14.10314 49.92458
40.91178 12.75214 133.6699
40.57978 13.41963 130.5236
39.10575 11.55328 140.117
39.27258 11.62027 136.4119
33.3758 13.31481 117.2774
34.10912 13.92765 113.8999
34.0827 13.88367 120.9098
30.27654 11.60081 89.92838
32.29198 10.43626 88.88306
33.21561 12.07483 87.74483
33.10043 11.70726 91.69572
34.89229 14.06991 91.47605
33.10282 11.77598 92.6919
36.19702 12.60366 91.30568
30.51997 10.88713 90.5003
32.55465 10.46659 59.44864
41.11367 9.224144 74.41817
40.96683 11.35239 77.56522
38.55515 14.8555 76.8976
41.09376 10.4142 62.12482
41.71595 12.8318 58.40517
40.52248 14.12787 119.1107
38.02589 14.23662 89.8093
42.9255 9.646876 92.01328
39.54036 11.36111 109.5292
35.55954 14.08304 58.79276
38.00116 12.75966 55.63078
35.65045 11.14279 70.40527
35.27216 7.938854 67.48524
43.33221 9.621137 68.37593
41.02673 9.556046 67.09152
33.63992 13.0647 77.1945
35.34647 14.11298 75.20258
30.50175 13.20314 76.17702
34.77285 10.04635 102.9752
36.00227 12.8085 106.2915
34.82523 10.05686 97.59813
35.07598 8.275208 95.98354
34.74403 9.621364 92.78159
35.80583 7.693645 93.32735
36.60836 7.526187 98.23874
38.05143 7.810708 97.78403
36.28743 7.607892 101.6782
34.82906 10.16631 102.1416
34.82492 11.00635 143.0757
40.72947 9.722346 88.75581
37.76307 13.20505 51.70612
36.54662 12.62507 48.22154
39.95174 15.31682 55.54981
38.20197 11.34095 145.9839
34.0404 13.86647 112.5213
34.65851 13.95854 120.9323
33.68755 13.64948 119.9922
44.53046 12.00974 73.3695
41.00257 11.3076 72.9707
41.38964 13.33669 82.79149
30.42607 11.08153 88.378
31.20665 10.36942 92.60804
34.51182 10.71062 134.7773
41.40178 12.83773 77.30775
38.28686 14.58818 75.7865
38.04755 13.19116 74.70225
41.74506 13.19548 62.10432
37.7703 13.9563 120.7282
39.85316 10.03873 108.703
39.75715 9.622766 106.11
39.65398 8.958436 98.87488
39.06201 11.93902 92.88026
38.49551 12.59634 89.80095
40.11172 10.29605 93.97183
38.89573 8.081076 94.08863
41.06251 12.13249 88.77225
39.53669 15.28768 88.23938
39.82642 10.59617 110.8172
36.00249 13.77322 68.2522
33.56848 12.68564 61.18161
41.6838 12.96093 64.9987
32.94547 11.12014 79.83702
34.05784 13.64135 76.10523
36.31936 12.79839 79.90195
34.66336 8.973829 103.8108
34.92094 10.50149 108.4288
36.00622 7.737321 107.146
38.01624 8.220991 109.1892
35.03754 11.28299 139.966
38.53969 12.06016 52.76176
34.96652 9.553987 50.72762
35.08151 9.944932 53.38748
36.27971 11.73121 52.2601
40.0688 14.25309 128.1481
37.68071 10.59082 146.6293
38.24854 10.21945 140.2265
36.86757 9.49499 145.9822
35.71409 12.04949 122.4729
41.21201 12.45374 84.79539
33.25476 12.15199 85.47298
33.6018 13.2711 89.30705
35.99188 13.58903 81.36283
35.12533 10.5488 91.06795
41.30103 13.71656 85.23543
39.83078 15.29072 80.8929
39.67286 15.29875 76.03889
41.84738 13.56699 58.34135
41.08385 11.25393 66.86013
38.59298 12.41041 118.796
37.50207 8.221161 114.8475
36.93538 7.930968 113.3436
39.79404 9.995398 110.5682
39.3824 8.251069 89.22974
39.94655 9.511646 99.03728
41.2166 9.156771 90.84573
38.61363 6.988303 57.86631
41.04768 10.98658 65.69569
30.53701 13.38415 81.06564
30.40432 11.29607 79.02296
35.79988 11.38012 73.7627
35.961 13.11789 103.0324
38.42757 8.247009 104.7827
34.65643 10.05066 113.1253
30.37819 12.56992 82.14694
31.25127 10.31335 84.59918
32.99455 11.26225 85.44799
38.7126 11.93352 52.15244
37.09478 6.894616 56.66796
34.43607 10.03449 143.249
37.4012 9.80065 135.8012
35.18265 13.85975 114.7392
40.92061 9.911859 71.27058
41.09238 11.68318 75.39956
41.19588 12.33522 83.31158
34.90252 10.04565 86.62548
34.87798 8.835772 88.59526
36.24199 13.04778 88.00569
40.57919 15.05996 85.29794
38.02446 14.00113 83.51532
39.43271 11.53509 86.47905
39.01926 11.93729 76.1329
41.01686 15.09873 60.61319
38.14505 14.68615 122.5502
39.41657 11.45135 125.5743
38.79419 8.670305 109.731
40.1439 9.397433 89.65218
38.22775 6.997543 62.28056
35.26308 7.994361 68.47415
33.51932 12.82216 77.94643
34.95439 10.7033 112.8118
34.80188 8.591483 110.5763
36.58421 7.828358 111.8647
30.59498 10.83786 83.31393
39.25578 11.69897 56.52227
37.94888 13.94903 57.10767
40.63594 10.36343 58.52913
40.06184 15.33003 59.76741
37.76492 13.5704 127.8932
35.20824 9.25695 141.891
37.66325 10.22855 138.9809
40.39072 15.24299 73.05056
39.68681 15.27608 73.61784
39.50528 15.22351 68.16214
41.63517 13.29552 70.92136
37.29781 7.386758 88.54568
39.03596 11.9542 80.47975
40.48014 9.814395 79.6258
34.89275 9.237673 74.9091
39.95853 15.29616 62.73198
41.77511 13.49683 64.74274
39.14042 9.772493 126.4195
37.81737 8.186362 111.2612
40.01472 8.896317 87.71838
40.33426 9.532311 87.21462
37.30008 6.986824 65.26761
34.89226 9.179091 72.02628
37.46987 7.025005 69.02831
35.94484 7.411723 65.87189
34.95919 9.744116 73.68495
38.04838 7.233239 74.68192
39.68114 7.83455 73.31867
39.40895 7.793542 77.49464
40.49834 9.932032 75.97943
35.87461 11.67767 84.19343
35.69383 7.696863 86.25674
36.01603 11.6993 76.57195
35.40046 9.457003 142.923
40.80715 9.350595 57.35831
40.77562 9.961267 60.56081
38.32655 14.49541 57.96286
36.18376 8.513738 139.1125
38.10291 14.36255 71.03307
37.94863 13.26982 67.85784
39.29989 11.65325 65.21396
37.28739 9.366637 133.5907
37.91706 7.352921 82.18237
35.25339 7.991229 76.51821
34.88105 9.740651 80.33541
38.07393 7.321294 77.82409
38.73551 12.19201 75.14661
39.66443 11.3457 71.68591
38.24512 8.001384 101.3081
39.2283 7.398187 67.01559
34.81656 9.470647 82.35326
34.77288 9.83794 144.6357
35.33457 8.511925 134.049
41.28798 12.31487 73.56356
40.71336 9.504594 65.91037
38.2106 12.96037 77.6441
35.16103 8.137119 87.00935
39.22962 7.898689 84.08996
40.02939 10.93157 76.22905
39.48906 11.31224 126.2883
36.82771 8.22313 122.8721
36.55539 7.341546 85.79884
40.57762 8.713119 67.45901
40.36251 10.50755 70.69152
39.76801 7.470147 61.00807
38.85475 12.06942 126.5388
35.98324 8.282946 133.696
37.94714 6.995791 64.93396
40.79426 9.397878 62.18187
34.41595 9.830509 130.2788
36.06599 11.8336 79.20247
35.07838 8.333935 127.9363
39.56954 10.35696 127.1402
36.84001 8.380805 126.7668
36.66044 8.023915 119.246
35.16035 8.206552 120.0424
35.47818 8.049755 122.9574
38.68456 7.288901 71.1892
39.48025 11.53322 63.27189
39.32288 11.49768 130.2501
38.1734 9.740317 132.9069
34.63173 10.58441 125.947
35.30856 13.52576 125.063
35.21572 13.72796 120.4207
35.62324 8.203458 130.7067
35.35238 11.41119 119.3801
34.81443 10.54956 114.7155
34.88756 10.76273 120.0151
35.85583 12.67597 117.2736
39.40349 11.26944 132.729
38.43229 10.15021 137.7537
38.79751 12.09294 135.9885
46.16873 12.27357 108.8898
27.55043 13.85482 127.9499
30.46011 12.68869 48.42899
30.48269 13.09907 60.99357
32.83272 11.11326 129.7583
30.39479 12.74677 81.33253
34.35679 10.54261 145.422
37.89234 13.97179 79.37124
38.66674 12.09798 63.44383
40.4128 10.08444 77.08336
26.83569 10.75134 130.2761
26.96557 12.775 150.123
26.67046 11.65186 146.0818
27.62462 11.89956 91.2289
27.54925 11.37035 97.75519
47.80767 12.98065 145.0547
27.0882 10.81086 142.3117
26.7076 12.25068 149.0635
25.77384 13.38869 149.4581
46.81081 13.30687 152.4398
51.55474 10.41708 81.66215
27.80338 11.62508 104.4481
51.398 11.04537 81.01802
27.06188 11.06512 87.52891
26.5191 12.09113 151.6451
47.06884 12.84308 149.8259
32.56731 17.37344 37.53839
47.64608 12.93668 147.1872
38.90057 15.97646 37.83266
26.93188 10.8183 135.8598
48.07703 13.90384 39.83932
47.77853 13.13791 148.2147
27.08363 13.44438 55.79176
51.88276 10.85081 58.75665
27.2456 13.52156 65.55405
26.71063 10.53172 101.9383
51.08435 11.17801 97.64705
26.78074 10.81723 132.2841
39.18961 19.58502 36.92275
51.99504 9.903076 50.24371
50.13478 11.1704 38.92588
49.69852 12.18345 119.6077
48.58074 12.10637 121.5056
48.58204 13.08235 137.212
47.25326 12.889 150.8331
27.07311 12.11128 59.20002
51.84723 10.29973 66.01691
51.45329 10.72391 84.34365
51.19569 11.03253 97.11919
25.47369 11.37969 122.4078
51.85382 9.805266 57.90858
51.55497 9.505875 46.69495
47.57302 12.56075 142.4423
27.0228 13.16807 50.80325
26.94801 11.74739 57.13071
51.8367 10.1766 65.86307
27.0772 11.62427 68.21394
27.41681 11.70101 85.75836
26.90647 12.5937 147.7381
47.49752 11.34965 39.7747
47.59801 11.73486 120.84
22.51594 12.13382 37.6243
26.80429 10.71321 128.8448
50.81673 11.6707 65.5364
47.31351 12.3777 141.429
46.4425 12.5902 140.3751
26.39358 10.59854 84.2049
27.34578 10.68928 111.3536
51.65825 11.3849 53.24133
49.77714 11.90998 109.133
50.17816 11.75975 76.3682
50.41791 11.62354 96.30714
51.99989 10.34235 57.3064
26.24707 10.76985 54.36773
24.88488 10.41535 84.48785
24.78879 12.082 123.2747
47.533 11.44702 41.73625
25.98816 10.38458 89.92875
49.33659 11.61408 66.77493
25.79978 10.42256 100.6145
25.05791 10.29272 53.43534
46.40411 12.71971 120.8396
46.46377 12.67914 118.1207
46.89235 13.82755 120.1259
25.03218 10.49341 92.44194
46.89191 11.86567 123.0511
23.59525 11.54782 93.7538
24.17983 11.24378 99.40206
25.93957 10.74214 118.4945
26.71234 11.52184 142.7547
26.15497 13.4683 148.3615
46.23669 12.96539 147.8546
26.83172 12.13075 41.01161
26.78646 11.55854 45.97403
25.82124 10.55206 45.96829
27.33745 15.79857 38.50447
50.24603 11.76783 103.3446
34.90627 17.19564 39.10324
51.25668 11.15323 38.33652
50.05463 11.30897 43.36845
47.87789 12.30162 131.7509
24.89467 13.43579 38.25889
34.45218 17.47892 39.42416
27.21311 11.81612 69.9096
25.76799 10.37618 91.19701
24.72587 10.93109 102.3705
25.63311 12.46853 134.69
23.98495 13.44533 134.1323
24.27519 14.01456 138.292
51.23372 11.33984 41.54779
26.78837 11.51984 51.55556
23.75682 12.54567 112.814
38.67675 16.98198 38.75017
38.55687 15.00733 42.075
38.82969 16.27988 43.50037
38.18223 14.62793 42.79153
36.41839 14.68632 47.61522
27.05697 15.66556 42.00712
26.09258 13.85018 43.77879
51.5875 11.41739 52.06041
49.77728 11.63172 62.5731
48.0319 14.65896 139.5482
46.31491 12.93335 146.8995
24.58327 11.4765 111.3085
47.26547 11.75275 108.0877
48.37813 11.67768 99.82701
46.53683 12.30467 107.5419
49.68172 11.78551 76.87334
48.55954 11.62307 79.12908
47.12957 11.91139 82.94665
48.91768 11.69876 89.18884
49.28455 11.75858 97.28732
47.7485 11.67491 95.53542
23.82808 13.24202 123.8821
47.52517 11.7053 117.262
25.04297 10.64677 99.43343
23.6608 11.28916 87.82401
26.77224 10.68183 95.60534
26.31924 10.88263 49.37902
25.22925 10.33965 49.95344
23.1185 10.77397 46.69986
26.65915 10.7569 127.7401
25.42154 14.60947 139.4419
47.69352 14.88727 144.5532
26.40962 10.8332 61.08656
27.05318 11.30375 78.51478
49.21091 11.43473 51.69776
52.26569 10.85137 46.16182
52.29655 10.61286 47.22555
51.13292 11.35227 77.8749
24.20552 13.53171 136.9505
25.03663 14.41195 139.2318
28.32283 15.84212 145.4656
25.33521 10.80007 108.7839
38.18463 18.05153 47.61879
46.87365 13.07759 41.94563
24.64909 13.52303 43.72694
40.13279 19.75394 38.1446
48.68501 11.45961 50.62122
49.74496 11.58678 60.20065
47.37655 13.7136 141.6175
25.39708 11.06127 116.3004
23.34743 13.28428 110.7632
46.12561 15.04153 108.1089
47.71474 15.95107 106.2327
24.01274 11.72979 105.5035
46.70452 12.08296 108.8666
46.63202 13.49336 109.502
48.15773 14.54607 111.1185
47.84422 11.61352 72.02338
47.86341 14.06962 72.89188
47.28093 11.83551 81.39906
46.69088 12.27556 84.40653
46.65223 12.34915 93.02099
49.16659 11.75478 98.99505
47.92599 14.27891 96.74535
45.19719 16.9669 39.503
28.00497 14.84387 129.2824
26.1218 14.77299 126.3493
24.32869 14.75189 126.341
50.53098 11.67779 54.04884
24.02058 10.42647 60.87024
22.93218 12.38374 82.40914
48.19487 15.59929 120.8006
24.18656 10.2918 49.93339
34.07209 17.89398 47.55301
22.75551 12.8477 55.11428
23.04179 11.13497 57.29581
22.7704 11.28504 49.13759
25.15034 14.60369 138.2381
24.97371 13.25798 143.7443
47.64729 14.68688 146.0423
46.75826 14.86926 146.476
23.26383 10.64667 41.70088
24.94038 10.29473 63.02604
25.67596 10.4414 58.99219
35.95876 15.55106 44.86187
34.79195 17.39315 41.96659
32.92864 17.63191 42.10456
29.97161 16.43629 42.59832
27.66135 15.95687 41.06981
24.11602 11.71495 107.6933
23.39347 12.5773 103.5691
25.12331 14.58326 100.7098
27.19092 14.74479 105.189
47.43208 11.68473 102.3325
27.77672 15.00202 146.2813
46.30401 13.20205 131.9734
46.68036 12.21108 129.2677
46.4383 12.85355 123.2655
35.90057 15.71817 42.55884
34.91322 17.45838 46.57501
34.13173 17.75409 45.18196
32.26843 17.19728 45.94502
47.70606 13.84397 42.74589
28.46568 16.07912 38.44183
38.20966 18.68954 45.44413
46.79853 13.64683 112.3246
27.53264 14.93928 109.9945
48.22619 14.61817 111.468
46.28171 15.17923 111.5045
45.67334 14.73668 115.8429
46.63273 15.48596 118.2431
46.49345 12.57082 103.2514
46.59179 12.2908 100.1694
46.61722 16.58665 39.2953
26.34844 10.72283 122.7943
28.02594 16.83409 141.2117
25.07258 15.06555 127.0964
23.23831 13.49161 100.0891
26.23782 15.36581 136.0114
27.87142 14.53639 135.9188
26.33018 14.25879 145.1044
44.82284 16.71645 143.1175
47.3045 15.70325 140.526
34.97126 17.19753 40.83248
29.01457 16.30286 41.80232
26.72689 14.90308 44.49387
23.8279 14.36125 100.3839
24.78357 14.66125 103.1654
48.32971 11.67896 105.0148
28.05075 16.28834 139.9727
48.04283 14.94692 131.6732
44.59555 14.66352 115.3614
35.07736 17.41201 48.71034
22.59842 12.10914 46.58395
46.60508 12.60831 59.64544
46.98744 13.49002 59.8511
26.07855 14.41713 105.6906
26.68512 14.44212 117.3848
29.27083 17.29326 115.2193
27.01179 14.48628 111.4074
27.97288 15.37641 119.8339
48.11783 15.99787 103.7475
46.79387 15.6194 108.9357
46.85393 12.14476 74.65381
47.77732 14.16743 92.42491
23.9054 13.98722 131.1409
25.20953 15.13236 132.0316
24.25099 14.30562 88.4272
47.49469 14.23232 124.3703
47.65126 15.90879 120.6672
24.6405 13.63919 50.05647
25.57204 13.71425 53.48824
24.75058 14.80871 132.9274
28.97848 17.32037 134.9911
27.02633 14.62838 132.2615
25.89715 14.4423 142.5055
28.29139 15.55288 148.2647
45.67051 14.59065 145.5568
48.48002 11.43752 47.72504
46.71659 12.90079 44.52474
27.17012 11.83345 67.51364
26.2128 10.64947 69.7498
23.50371 10.97452 73.83711
50.61769 11.60317 78.73021
28.06271 16.2927 140.72
47.04457 13.76022 135.3016
48.30578 15.08315 126.5546
44.11618 15.20526 124.762
45.0232 16.93651 127.118
45.0603 14.32084 124.4308
49.1401 14.86496 44.89383
40.29976 19.928 45.01527
48.91735 11.42079 54.65508
47.78881 14.0376 138.4208
29.31558 17.22754 106.1002
29.65938 17.0535 108.4295
24.77462 14.85273 119.3532
23.61746 13.55053 121.059
23.77326 12.66145 115.451
28.38307 17.31594 118.099
46.65649 13.61546 115.2715
44.15164 14.95961 120.7793
45.99368 15.0142 101.2819
48.70483 15.4065 95.1368
47.04071 13.66479 76.83537
47.4556 13.91994 69.88549
48.65033 15.90942 72.20924
46.16468 15.52706 71.46702
27.93049 16.57182 130.7525
23.14799 13.57075 91.44171
25.6122 14.31055 86.93641
46.22181 15.11176 121.5572
26.48298 14.2516 45.95209
28.5344 16.33867 49.81824
27.11656 15.76959 49.35973
22.65684 12.07968 58.98631
27.95069 16.83894 136.2581
44.07391 15.33237 146.4274
45.50658 14.52221 140.1092
46.31578 15.8332 141.8511
45.01395 14.19204 136.7817
44.59121 14.23435 137.6492
44.09396 15.10669 137.4121
22.76358 12.73534 67.79827
46.99227 11.82032 45.96494
47.34867 11.62199 47.32558
22.93833 12.27567 79.00615
47.35701 11.76559 80.45129
46.73356 13.33221 90.08546
28.1305 16.68509 143.7021
28.20266 17.21876 143.4794
28.78922 17.24678 139.8125
29.00784 16.82692 140.2089
46.37455 12.5471 134.0037
46.61279 15.58203 126.8812
38.27985 19.0577 48.18086
37.69495 14.37473 49.88523
46.64835 12.47432 56.7331
46.72225 13.14442 54.00397
47.47123 13.88345 137.6213
29.62521 17.03035 104.2101
29.94043 16.77289 109.4336
24.32572 12.30098 120.1611
45.80879 14.92405 101.0601
47.15254 13.8644 102.2718
47.31093 15.8778 100.8236
48.5988 15.71134 96.44616
45.18324 14.58223 111.4794
48.01614 11.57734 68.6562
46.63196 12.5626 67.98831
47.10363 11.94693 77.42032
47.41664 13.95981 77.10822
48.75173 15.74221 73.48346
23.90814 14.12907 83.54414
24.84102 14.35758 87.66115
44.38251 15.98142 121.4809
44.69849 14.5941 119.3353
25.09227 13.57001 45.734
30.17825 16.4335 46.62502
23.27684 13.39321 57.65966
26.71075 14.51862 54.81565
25.7518 13.87224 62.27284
26.28522 14.01725 61.55373
22.87992 13.0377 60.71856
28.35522 15.66034 131.6196
44.31793 15.43195 139.5253
44.0765 14.64771 141.4007
45.12952 16.78426 133.6537
22.81139 11.87947 67.23954
46.65521 12.87031 46.42764
22.76058 12.12037 69.83743
24.47403 14.1055 75.3847
23.64417 13.87641 77.50903
46.67349 12.93221 79.24429
26.75496 14.40983 97.77142
31.24886 16.60424 141.5926
47.28644 15.81194 126.1294
44.83444 17.91964 127.1629
44.37709 18.33995 132.2887
40.14441 20.02549 49.31516
46.68828 13.02727 57.37785
48.04791 14.06534 59.41558
48.35388 14.16598 56.59147
29.49418 17.22381 112.9904
28.18112 15.56285 126.2353
25.3248 14.87792 121.2387
29.31 17.24306 114.334
45.13169 14.68863 106.4889
45.41626 14.64106 109.5879
48.50493 16.0163 77.117
46.86938 15.78034 77.43284
44.78316 15.93713 74.38719
44.90551 16.9796 41.82177
23.997 14.15559 84.85023
22.70169 12.1588 61.58
24.73839 13.73653 56.18034
29.4396 16.95872 133.8369
31.19602 15.62445 131.4162
31.53502 15.91548 136.8133
43.98537 14.80086 143.4043
44.5064 15.65618 133.6352
44.95331 17.06559 136.6769
48.74136 14.379 47.28768
51.10885 11.44847 43.58633
26.20434 14.23284 80.2224
26.3672 14.20927 76.15205
47.23355 13.85236 88.7592
48.45985 15.93446 88.49945
26.13894 14.37492 99.86143
31.99422 17.21597 145.616
45.57015 14.53911 130.1844
44.45649 14.29382 129.876
43.27496 19.30169 123.8405
49.11826 14.79426 46.46776
48.25683 16.34218 49.42527
46.99239 16.24722 50.0979
49.0512 15.6334 59.75844
49.07753 15.7416 50.53803
31.31867 15.66295 101.9133
45.23795 14.77058 103.8251
45.29349 15.05053 93.35345
44.21302 15.83076 113.8981
44.27849 15.99212 107.4999
44.35355 16.10835 117.8722
48.10818 14.13427 68.31296
48.57774 14.4832 78.54642
44.5227 17.96334 76.55466
44.48138 18.32702 76.38775
24.10811 14.3098 90.84144
27.25517 14.97841 88.44618
25.85007 14.32935 89.36543
27.94922 16.40008 57.76494
24.17729 13.78985 61.77458
42.66459 19.71912 75.45886
32.67398 16.29868 133.7627
44.12878 16.70286 141.9693
44.78803 17.6743 131.5357
26.82912 14.62241 67.0804
25.12777 13.97915 68.30902
24.17489 13.94582 69.47037
27.43748 15.56605 85.35031
27.41548 15.64684 78.65861
27.82684 16.49333 75.33515
31.6819 15.90317 85.06939
32.69666 17.19464 84.22316
32.60749 16.89164 88.84058
25.81026 14.18549 80.44955
24.79688 14.01914 70.85275
47.93664 16.08099 84.62644
27.97558 16.70612 100.4066
45.02428 16.7937 128.2836
44.64346 18.25402 128.7085
42.24165 18.12065 122.9083
42.84778 19.02241 121.6309
44.06068 19.23762 126.7767
40.79252 17.48865 122.4796
41.20271 19.91745 52.26886
40.01339 20.03738 51.76903
43.86198 17.99969 45.01163
43.22605 18.85874 47.9902
48.33501 16.19316 61.87192
31.07116 15.68789 113.7508
32.63874 18.24106 113.3075
32.52995 17.77476 118.4154
46.71644 15.49287 99.19241
44.44847 16.802 101.6539
44.74546 17.36547 107.3464
48.79842 15.90178 66.48838
46.88885 13.56267 82.14288
45.24587 15.63324 71.47125
44.44183 17.01014 63.80413
42.97499 19.67456 68.33987
41.52428 19.88857 67.53097
44.46386 17.89524 72.74944
42.96817 18.89648 43.9197
27.05477 14.72047 93.75755
29.50299 16.41308 50.44354
29.46727 17.11477 130.5346
29.76549 16.93225 128.4259
32.46111 15.82384 130.6461
32.39445 18.45031 133.4142
32.3833 18.30401 129.1306
30.40405 16.05789 130.5098
43.63905 16.96875 142.9278
24.82741 13.95015 66.63608
27.8012 16.43167 78.71327
27.39382 15.55728 80.0965
32.9016 17.86385 88.25954
45.72647 15.17092 89.08662
45.58505 15.3126 82.64605
29.51477 17.11166 103.6417
27.28557 15.01563 95.99077
25.6229 14.34988 92.9973
31.94058 16.28323 144.4339
33.25568 17.65053 145.2997
45.85523 14.9215 132.7842
42.01125 17.52847 131.6018
32.64597 18.78213 128.1749
40.61128 17.66259 120.2281
41.49019 19.89214 53.83817
42.88108 19.3109 52.59494
44.5102 16.96937 51.78603
43.27938 19.00548 53.02964
44.08626 17.905 53.35554
46.23071 15.97253 54.49503
46.46695 15.9934 56.90081
45.9374 16.13726 50.69403
46.45443 15.89425 60.00337
44.23611 17.81182 59.97393
30.48568 16.13436 107.1886
32.15939 15.76576 119.1372
30.49104 16.19983 123.7589
32.54144 17.40288 123.5738
33.01366 18.99398 121.8208
33.02095 18.95765 117.5323
33.3176 19.06159 116.2224
44.30027 16.40886 100.6512
44.33702 16.40747 105.6509
44.73214 18.73732 105.4507
44.09384 18.69232 65.92052
45.00879 16.07537 62.69461
45.25639 15.9331 62.70482
44.9723 15.64627 76.39174
42.33379 19.71864 75.21848
40.68141 19.87158 73.5176
28.5607 16.93239 89.28297
27.95246 16.61119 92.72614
30.05359 16.40161 51.52995
29.39836 16.53589 64.22434
32.32383 15.65163 130.4466
28.04961 15.16586 124.6454
32.48571 16.66509 140.7247
27.92784 16.46904 65.31594
30.43346 16.13976 74.90319
31.75388 16.07238 74.25777
27.27299 15.31363 74.392
30.51697 16.18115 70.43829
30.17944 16.28297 72.26386
29.51424 16.65081 81.25091
32.49425 16.85094 76.78243
44.63182 15.71857 84.84433
27.82874 16.59377 96.43405
34.28894 17.0608 137.4972
42.48976 18.61689 117.4587
39.61874 18.55626 124.5857
41.214 19.9562 64.47558
46.90382 16.15237 54.63732
32.01378 15.90685 99.783
32.40897 16.1084 119.105
32.59444 16.53456 119.2626
31.68446 15.51289 116.8199
44.64018 18.90948 102.6156
44.8715 18.44248 98.56133
44.74944 18.70154 106.8461
47.05998 15.69238 96.5821
44.7138 18.81379 112.1212
44.38112 17.28323 62.25115
43.14996 19.66537 79.62227
30.53902 15.95973 92.31593
27.89163 16.28685 53.15112
32.0213 16.53913 61.34673
32.94163 18.99938 131.0882
32.30614 18.36533 139.6813
27.35693 15.83953 65.43808
27.12098 15.27259 68.34537
31.06739 15.85199 82.54644
29.80956 16.60625 90.24404
33.85014 18.75077 87.19304
44.61872 15.75078 87.51387
44.46658 16.81715 89.14929
44.71642 18.24386 89.07339
33.95786 17.83044 144.6649
33.43545 19.08334 132.2263
34.57152 16.41496 137.0449
39.57832 18.40058 127.2987
39.45402 18.68118 127.5563
39.70288 18.54613 120.94
38.65134 16.92876 53.45315
36.62978 14.51964 50.32569
35.34702 17.31639 54.29083
35.69435 16.45142 55.62683
44.17292 17.85759 57.62767
33.29782 18.74186 99.08882
34.91232 18.41048 105.9874
34.09663 19.0532 106.8399
32.38075 15.94129 124.4442
34.66393 16.79169 121.6816
34.88346 18.30333 112.7161
44.43923 16.77773 97.37064
44.55528 19.02737 113.4597
43.42498 19.27907 61.8724
35.7534 16.22 67.30671
44.5374 17.62487 78.80914
44.65262 15.90915 81.10513
31.21953 15.71538 96.88011
32.61626 17.03979 95.98381
34.64868 18.66874 97.75906
31.06978 16.35108 51.06525
30.59978 16.2256 65.959
29.18994 17.43395 124.2136
42.73945 18.81636 138.4766
40.32533 17.25008 133.4555
31.84867 16.23484 69.80147
34.04124 18.50583 72.83978
32.26787 16.63666 68.56955
34.30574 18.51613 71.6531
33.02542 17.76135 66.96901
35.99789 15.36434 67.61952
35.44897 17.45236 83.09044
35.00014 18.26016 76.19794
35.55279 17.02092 76.88936
33.51529 18.61277 89.08734
32.71007 17.4851 92.32163
33.08299 18.35767 93.99081
33.61016 18.93269 135.0577
39.46177 18.56709 129.6157
40.42882 17.40014 128.7733
39.25766 19.26235 120.9257
39.23608 19.33264 124.5967
39.5973 18.92955 116.5655
38.89576 15.91465 53.88654
38.18874 14.70018 53.32345
38.41344 14.96927 56.91967
38.86575 15.93189 59.20842
38.70833 15.48248 60.62036
43.36332 19.10555 56.91541
32.58884 16.63643 107.2989
35.18573 16.72562 109.43
35.28927 16.6598 107.259
38.44447 16.69034 106.1443
34.26735 19.02274 113.0086
33.18652 18.92599 110.546
35.10255 16.71337 111.701
34.046 18.99921 101.8713
33.87028 19.01567 128.6123
35.14149 16.01004 119.151
33.83477 19.19638 117.6267
43.40145 19.51256 104.0141
43.7873 19.48165 108.8241
41.97907 18.3301 110.0759
44.55161 17.22056 92.71155
38.42051 19.79145 71.7524
47.6586 16.11667 79.63433
42.80412 19.61487 80.72961
38.72318 15.96781 72.15089
33.12186 18.48392 95.88614
31.72296 16.63255 51.61753
31.84083 16.52623 56.06422
32.01244 16.70064 55.77214
31.19888 16.22568 59.31773
43.75228 16.83496 145.197
35.2729 17.82203 71.98157
38.69592 15.77526 70.83414
32.39335 16.93942 62.79439
33.56842 18.16713 61.61663
34.76013 18.03174 57.04964
33.92052 18.18303 59.35793
36.78509 14.50837 60.17876
35.88579 15.7492 63.73272
35.49321 17.22375 83.23431
31.28466 15.73608 90.5445
32.58297 16.86625 95.25567
35.5663 16.36151 93.77821
34.22935 17.10945 141.4695
39.466 17.8863 135.6209
38.78093 19.73524 114.6742
39.67991 18.67214 118.7053
37.72147 18.99346 120.2197
37.76574 14.53448 58.08864
39.59538 20.10708 58.19761
38.6391 16.84946 60.40983
41.46177 19.92941 64.18213
37.98178 18.20959 64.13734
38.73582 15.53807 62.47614
31.94891 15.89671 103.9199
34.89981 17.19993 115.8963
38.27875 15.60586 110.5641
37.62023 15.31234 115.0254
32.62053 16.80203 124.7411
35.65387 15.59929 119.3619
44.57523 19.0806 99.33607
38.61731 15.90792 81.65969
30.87335 16.2785 53.26545
31.9343 16.58602 57.09513
42.41498 17.76684 144.6034
35.78066 15.84652 74.01022
34.59792 17.94524 53.46346
37.96999 14.61492 60.1005
37.90195 14.61541 62.3457
38.46832 17.1282 65.73006
37.83397 18.53884 70.17491
35.38375 17.55907 85.82365
31.81211 15.9039 89.90382
44.49968 16.96843 90.0936
41.07463 19.25464 87.34463
38.02427 16.77236 142.6225
38.50587 16.33632 126.6465
40.36721 18.04526 114.2223
37.81911 19.45876 116.2401
38.31524 17.41718 66.22724
38.59627 15.25379 61.98395
34.5633 18.72821 113.6882
34.50574 17.57147 130.4285
34.86695 16.06188 129.9917
34.60647 17.74068 126.3332
36.58287 15.66283 123.1297
37.50292 15.48645 121.8496
44.75282 18.34683 91.34256
39.043 20.0665 80.13504
39.22554 20.07377 73.61805
38.60475 16.33612 77.2499
38.43772 15.1981 78.25914
38.54492 15.45206 75.29367
38.33153 17.02857 83.69182
36.99421 14.60598 83.80659
37.5133 14.60556 80.48422
42.45147 18.21793 145.2184
41.43572 17.85269 140.6416
35.60486 16.86723 71.58684
38.77434 15.65312 65.14307
35.50808 17.08347 84.6603
38.40885 15.49151 82.66879
35.41239 17.39209 90.47339
38.73183 19.99948 88.17004
37.93563 19.54437 90.02623
37.74833 18.77821 86.10014
39.91499 19.82993 83.62128
40.16687 19.64309 85.1415
43.13894 19.57905 84.90434
35.5444 16.83694 142.8369
37.80385 18.84471 129.7297
39.89756 18.60425 112.9062
37.73797 19.31127 116.9864
37.73771 18.45371 112.4473
37.60284 18.57196 108.737
37.74005 19.34655 111.9429
37.67397 18.50937 110.578
36.87978 16.16285 127.33
34.45273 16.96097 127.9249
38.57125 16.43416 117.0468
37.05143 15.30791 117.7629
38.16535 19.6506 74.00143
38.42623 19.89343 79.44596
36.54683 14.71965 72.72649
37.79075 14.64555 71.86988
36.42383 14.91066 85.73516
36.16456 15.22923 93.64058
37.2049 14.69442 94.75904
38.10361 17.3915 95.61056
36.64299 14.93466 97.2547
35.46857 16.55833 96.30582
37.72615 19.08792 88.98901
38.33249 15.59892 91.98049
38.30637 15.36064 90.38902
44.0283 19.44297 84.80762
37.67032 16.54287 141.0832
36.10231 17.84348 141.3396
35.46315 16.98642 144.3013
38.61147 17.00858 125.4952
35.74664 15.62727 104.0956
38.17675 16.43619 135.7601
36.10571 15.91025 125.8009
38.59894 16.69585 73.77229
38.48888 16.97099 69.60055
42.51918 17.59994 141.5382
35.37967 17.45133 93.04919
41.36353 19.09602 89.17559
38.00236 19.70185 91.89194
38.68737 19.9777 96.47149
37.94615 17.76809 87.41859
36.85738 17.16742 136.6355
38.34408 17.71785 135.0145
40.79464 17.59618 139.3067
38.5401 16.46818 121.9656
39.69506 19.33648 103.5262
38.1503 15.40619 106.9531
38.48369 19.60023 135.2996
42.3445 17.47665 142.5832
37.78666 14.78226 88.16516
39.89209 19.41468 95.17693
40.02994 19.10379 99.57299
37.10636 14.68235 89.01469
38.14271 17.88814 142.705
38.03068 19.62221 105.7158
37.81591 19.36397 96.5879
44.62854 18.97989 95.45557
41.73874 18.99853 92.63781
38.47362 17.512 138.2513
38.64584 19.6017 138.1705
38.00155 15.09068 98.50125
42.45853 19.16357 94.8718
37.72798 19.15988 99.50697
38.72327 19.11706 143.5719
37.01756 15.00748 105.1141
38.35116 15.56309 97.20895
38.04897 15.1383 97.38676
37.75406 18.07681 99.74015
38.20429 17.26065 104.0615
47.15259 15.77695 126.6607
45.71318 15.78015 61.41518
32.45879 16.48713 91.65147
39.82723 17.5187 143.2207
33.18039 17.93793 190.8807
29.15674 16.20573 191.5872
42.548 14.1849 195.1098
38.29483 18.36326 190.0572
32.60222 17.71666 192.039
37.77542 18.18974 195.2411
33.09362 17.78576 192.7517
33.19448 16.8748 195.434
32.87122 16.03858 195.9452
36.68039 18.5028 193.021
39.02954 18.33192 192.4951
40.25608 18.00072 192.4603
34.7303 17.91205 194.8639
31.96996 11.71809 182.7588
33.58989 11.50865 184.5517
30.81547 11.8577 186.6627
37.79294 10.9965 176.3072
39.56033 11.50967 180.2271
29.88199 11.98327 189.5943
28.22507 13.08908 191.9828
31.76168 11.79654 183.9901
40.39503 11.71103 181.6437
36.09868 11.2286 180.241
41.77873 11.49675 190.0977
33.637 11.33254 180.9238
41.53963 11.81103 186.2036
38.18246 11.29987 179.1576
41.58171 11.88855 184.6958
24.22571 15.11578 165.637
26.19699 17.67446 179.3835
41.3545 17.58421 151.7213
25.59701 13.31724 161.0633
48.6346 12.9751 164.347
50.08555 16.03586 181.6543
47.34801 14.46904 161.158
27.01698 15.33253 192.4123
51.28998 14.94257 174.0393
25.39938 13.13057 162.3909
24.6517 16.66701 170.0358
27.06026 16.68777 190.5689
37.79514 17.8975 151.0217
48.13718 13.28239 162.2658
50.92766 14.76303 171.7754
27.03615 13.40019 158.764
44.18382 17.96678 152.8774
48.00401 14.51333 162.2958
50.86594 15.11557 179.3028
24.83468 13.74777 164.8262
24.62019 16.98886 176.5941
24.99046 14.98511 170.2633
26.59232 15.18256 191.6684
44.91916 17.50237 155.9594
50.09036 15.69536 184.2724
24.94025 14.61722 171.0087
44.75527 16.5738 155.0536
50.64989 15.13652 177.9976
39.01442 19.31189 154.7477
51.15892 15.10375 186.6878
40.90293 18.56854 153.1995
49.05885 16.39926 182.9657
48.32311 16.2382 188.1217
38.10153 18.08212 156.8929
25.95272 15.03173 185.7329
33.48906 17.14026 153.8663
33.72048 17.61553 153.5302
33.91229 18.39899 152.9243
27.09941 16.67547 183.1705
34.66263 18.8332 152.6772
25.75661 13.8599 161.9227
40.82964 18.70989 152.3091
49.79646 15.60176 171.1706
47.85325 15.3721 175.193
35.95215 17.19525 152.4063
35.61703 18.47692 155.2112
44.62102 18.0527 155.5538
48.66608 16.34969 183.1774
45.06604 16.59336 182.3025
47.07463 13.79259 178.4042
45.49654 16.2584 183.0221
25.28696 15.9332 172.2659
28.52729 15.68659 191.894
40.94791 17.95762 154.669
26.23485 15.60465 188.2913
48.05243 16.11298 186.5057
26.42044 14.85238 164.9769
32.31803 15.91284 155.138
24.65709 16.67143 181.3438
24.85324 14.95984 178.2639
28.57299 15.01181 162.6548
44.44613 18.24822 157.3998
50.5263 15.47383 178.8682
46.50266 14.45832 182.3735
45.95329 14.30463 179.7221
41.79044 17.56475 184.3507
27.30579 16.67161 158.0304
48.4254 15.47463 165.8088
25.1682 14.65925 173.4302
46.35323 13.67455 172.3176
47.2674 14.63484 169.6493
45.24845 14.92401 173.7144
47.87759 15.52028 185.3212
46.10795 15.12251 186.6149
25.45895 14.43637 183.0097
26.82301 14.82814 167.6865
34.60439 19.1352 157.2536
36.2737 16.78343 153.1917
45.08546 16.55507 181.6715
44.85387 16.0816 187.6073
27.93309 17.10779 159.1583
28.20904 15.99961 189.793
24.93196 15.52879 176.5566
47.64335 15.1232 171.4005
45.2213 14.06246 169.7159
28.58305 15.67422 185.4321
27.6401 17.66899 185.701
28.73917 18.59529 183.5821
28.55653 18.08932 188.6252
47.67621 15.12576 186.5989
27.75831 14.42742 164.1196
27.44419 16.43192 164.9336
45.63254 15.163 189.8141
44.43231 16.70231 185.1066
45.1474 15.61153 190.9667
30.14322 17.76835 157.6245
43.93175 16.79711 176.7999
44.65084 14.34758 163.6468
37.98076 17.51739 157.8248
35.65081 17.8024 161.4422
43.98851 16.18336 174.4524
45.27536 16.29259 190.5291
42.09576 17.81765 188.3037
29.41992 18.35911 158.5942
27.25937 16.85895 161.3831
25.03052 14.66302 175.8421
41.08739 17.06806 156.4218
27.46046 18.41163 181.8475
44.46413 16.16383 162.1001
36.40672 16.52286 159.1844
42.3995 17.16964 159.7755
41.76227 18.02361 188.8147
43.63032 18.4753 184.923
40.01117 17.26339 182.5958
39.70151 18.55215 182.1275
27.85956 17.67502 161.6686
32.61187 17.36601 188.5818
29.48841 18.05954 185.3262
25.63847 13.99532 175.9186
27.99394 14.53018 171.7878
27.4718 14.21458 172.8023
44.71965 16.74265 161.9431
39.80031 17.76407 186.5706
40.59706 17.89096 183.2923
33.30925 18.19498 188.9795
31.14595 18.19069 188.2438
44.11339 15.93244 168.6055
27.96973 15.54972 180.5295
30.38363 18.20392 181.5943
44.75615 18.2618 166.7568
40.48301 18.20736 162.8013
25.25521 14.37539 177.5947
27.51746 15.83381 178.3168
28.28358 15.22255 171.9277
44.16895 17.09199 173.5913
43.83045 16.64146 181.0922
40.89454 18.48647 182.9349
41.09151 17.92667 178.8386
42.47251 17.60976 174.8587
39.66553 18.25076 185.1675
40.78549 17.34651 158.7959
41.41762 16.79687 161.9431
39.69793 19.60083 162.9826
39.32401 19.64578 160.6138
32.00134 16.80294 185.0805
43.56905 18.79761 169.9238
28.50522 15.65414 166.6689
42.86811 18.03952 163.4937
42.17318 17.06628 162.6863
43.88961 17.23398 183.9363
39.71511 18.60168 183.4453
39.87576 17.41083 177.3068
32.28592 17.26432 187.647
38.24582 17.6291 164.3584
39.22381 19.76028 168.4382
28.94064 18.80456 180.8911
31.73366 17.28855 186.4746
40.87625 16.91103 170.4951
42.23678 17.54843 174.497
44.21476 17.237 174.1842
27.34958 16.82249 168.0735
28.03805 15.90962 174.8985
41.20596 17.846 177.8621
39.68216 19.53138 178.3989
39.69586 18.86836 178.4381
40.35832 17.17069 170.925
38.80193 17.80664 185.7494
30.98521 17.12975 187.6789
38.90358 19.62564 164.1131
38.95756 19.70933 166.7716
29.80524 17.62872 183.501
32.54235 17.6896 183.8398
41.51068 16.802 167.0761
44.5407 18.34907 176.003
42.37817 17.64204 180.0194
27.29525 16.99954 169.8214
28.01213 16.86451 173.5793
44.43851 15.30036 158.9581
38.96 19.44175 177.6337
39.06174 18.02291 181.1296
36.1189 17.02275 178.8692
35.36784 17.20048 179.1481
38.1073 18.3511 184.5489
40.44814 17.56922 165.6143
35.18057 17.67663 174.7601
28.87731 18.82556 179.151
34.1206 18.97989 184.2805
40.70495 17.00425 167.9297
42.45811 17.62255 177.9592
30.46226 17.60291 163.5681
28.2499 18.8434 177.0822
34.19509 19.54127 180.8704
36.10112 16.81543 174.1816
35.65829 17.87876 162.5804
30.76647 16.87417 165.8449
27.60172 18.61501 175.1451
34.10175 19.21639 183.0724
28.57977 18.61476 168.2962
31.9288 15.94571 165.694
30.03088 18.69146 174.3304
28.5356 16.22326 176.8
38.9621 18.75067 175.0423
37.11617 17.98571 185.7361
36.3182 16.52588 167.1279
36.04932 16.66432 168.1309
31.03631 18.00326 176.9837
33.77448 18.16056 178.8596
35.20253 19.21582 181.0921
35.243 18.85589 179.8368
38.28699 17.45725 171.6019
36.87101 17.09828 173.5845
36.52467 16.67268 169.0904
35.03546 19.44962 173.7333
35.50517 17.3625 167.3347
34.27226 19.59772 177.0544
33.49017 18.12097 162.3026
29.6575 18.67218 170.2794
35.82288 17.30344 182.7681
31.65677 15.93788 167.6286
30.49173 17.99747 169.308
32.30466 16.1938 167.9269
35.41326 18.07558 169.4376
30.89274 16.44774 171.2368
35.11333 19.38009 169.2749
31.10414 16.4067 175.9538
32.97763 16.96033 169.6547
33.81591 19.01546 168.199
30.89017 17.53225 174.0375
34.57373 19.42722 167.0535
26.54688 15.88957 183.0589
32.54356 16.00824 157.747
34.35725 19.08891 157.8624
30.52904 17.49655 188.1976
34.8641 19.24647 164.3531
21.84344 14.6327 175.0847
35.1373 10.9143 155.8951
24.12468 13.7002 191.4567
31.1706 12.10375 182.6244
46.07449 12.29047 188.5204
42.34284 12.09708 184.5192
