# .PCD v0.7 - Point Cloud Data file format
VERSION 0.7
FIELDS x y z
SIZE 4 4 4
TYPE F F F
COUNT 1 1 1
WIDTH 1670
HEIGHT 1
VIEWPOINT 0 0 0 1 0 0 0
POINTS 1670
DATA ascii
10.86273 93.39019 -6.677174
11.05581 94.84493 -6.183537
6.704616 95.95712 -9.539252
8.663323 83.45782 -5.84966
12.77286 88.02053 -3.98115
12.13545 88.36198 -4.888952
11.16713 89.96602 -6.387496
11.42776 88.49956 -5.858412
11.02741 87.65028 -6.270513
-12.2558 100.3317 -2.688986
-6.357879 79.7561 -5.223053
3.833513 81.1441 -5.590754
8.495003 81.75748 -5.473346
7.962813 82.90224 -5.833042
6.208779 79.99034 -5.299736
6.190295 82.35815 -5.833991
-1.889029 79.68888 -5.194704
-4.297641 80.27745 -5.356616
-6.843743 141.7751 -8.764821
14.32642 85.29037 -1.408567
13.85232 82.92325 -1.827613
11.61255 81.45692 -3.9702
10.20965 81.75618 -4.963432
8.735271 81.17062 -5.29562
-11.89248 94.01372 -4.887887
-10.41167 92.38496 -7.319243
-10.94058 95.74714 -6.16603
-12.42844 94.89335 -3.582756
-11.95343 86.27281 -4.87572
-9.885243 88.02128 -7.334235
-11.26004 87.60347 -5.954833
-13.50844 89.07512 -2.950245
-14.07945 89.33928 -2.057931
-13.87858 88.69073 -2.480141
9.958302 97.91457 -7.020336
7.741755 98.4559 -8.679263
10.7518 99.80527 -5.588699
8.343754 97.98489 -8.463374
9.776047 90.81224 -8.015596
10.39538 89.40962 -7.267467
-7.054449 80.49026 -5.403374
6.770157 82.46838 -5.836626
6.325333 83.22141 -6.100935
1.066528 81.76785 -5.765825
-3.640093 81.06759 -5.571616
-3.616737 80.50224 -5.417646
12.04477 85.00211 -4.443558
10.72352 84.83618 -5.502849
-6.88153 118.5274 -3.480775
-10.09294 111.338 -2.226015
-8.189242 114.1257 -2.099728
-9.678245 115.5854 -0.6680858
-8.716235 113.0624 -2.256767
-10.64258 117.1361 0.6111303
-9.420468 112.2309 -2.660012
-10.10253 115.2421 -0.7464872
-8.890239 116.1699 -0.9957703
-10.50614 107.8438 -3.180591
-10.3414 109.3989 -2.44377
-8.595345 120.3805 -2.651861
-11.11163 96.10538 -5.809445
-10.42075 99.40568 -6.104334
-11.37688 98.48849 -4.751896
-10.51815 99.01523 -6.066816
-9.534235 88.95834 -7.93102
-11.18843 88.69942 -6.197822
-10.44096 88.62598 -7.03498
-13.06 87.35219 -3.527271
-12.12443 89.03268 -4.949013
7.412538 95.09309 -9.383224
9.942248 99.51419 -6.694303
7.277125 95.62481 -9.369851
8.919666 97.15315 -8.2037
10.06065 99.18038 -6.633789
8.634418 98.62523 -8.129705
9.393971 97.5386 -7.722202
9.493307 87.22626 -7.274189
-6.476001 80.05902 -5.287997
8.019187 83.3941 -5.983078
-3.662855 81.78094 -5.764604
13.70086 86.28865 -2.603102
10.95082 83.44861 -4.891485
11.6295 82.54356 -4.221697
-10.426 116.166 -0.09261832
-9.717612 109.2254 -3.354495
-6.390288 119.7884 -4.789131
-10.41945 106.8195 -3.860647
-9.47154 87.68447 -7.499659
-11.37493 89.47662 -6.061228
-9.876724 91.81087 -7.917698
-9.081576 88.8787 -8.224385
-12.88452 88.25871 -3.827305
9.546193 93.43955 -8.166792
9.100554 91.49093 -8.590037
8.968258 93.30976 -8.628892
9.900072 89.0399 -7.624513
-9.641656 81.20059 -5.056642
-13.14763 82.92664 -2.751069
-11.66049 81.60205 -3.963748
-12.47399 82.70344 -3.577904
-11.8808 83.7814 -4.263784
-11.80081 84.08128 -4.384222
-10.27115 84.32533 -5.538893
-10.83347 85.39957 -5.642857
-7.546364 84.80341 -6.746873
-8.635112 86.07886 -7.181903
-9.481371 85.14877 -6.349728
-8.347936 86.45084 -7.509686
-7.538176 82.9621 -5.899613
-10.0443 85.52055 -6.173505
4.528886 81.49094 -5.666311
5.887602 84.25423 -6.659529
9.269273 85.24117 -6.508894
10.79699 87.05839 -6.268897
0.9660701 81.26649 -5.623133
-6.246543 83.35014 -6.156118
10.45096 83.51492 -5.214993
-10.19312 103.3183 -5.418694
-8.048891 105.5523 -5.997099
-10.9211 92.24734 -6.67705
5.545795 98.65392 -9.402082
-2.776787 82.83209 -6.107418
2.957091 82.49763 -5.967714
11.38198 84.93429 -4.982336
10.99476 86.50798 -5.832644
11.2367 86.31283 -5.570433
0.8450022 82.18605 -5.894505
1.617093 81.65836 -5.731243
-6.528165 109.4209 -4.646292
-8.86511 108.3264 -4.393354
-9.296189 104.0075 -5.919536
-9.740665 93.06804 -7.997035
-5.95435 89.58333 -9.681776
-8.838042 89.97092 -8.702635
6.469087 89.10458 -9.50346
0.5330355 83.59399 -6.44897
-5.602326 83.95316 -6.48596
-6.868575 110.4226 -4.094992
-8.464441 111.4825 -3.115813
-5.432915 106.7112 -6.072874
-7.665833 108.6782 -4.677192
-9.922603 93.45206 -7.821817
-7.988537 92.79697 -9.264518
2.697717 82.65881 -6.031521
-0.4664203 84.42768 -6.898647
1.648942 84.21024 -6.774272
-0.8150994 84.27901 -6.814328
-6.932561 111.2997 -3.887422
-6.352821 110.8363 -4.635588
-9.541924 94.46887 -8.070172
-2.084831 90.7441 -9.905869
-4.875144 84.51823 -6.842218
3.643708 83.77931 -6.497201
0.954405 85.8335 -7.812303
1.098139 85.50916 -7.59879
-3.660017 112.348 -5.19381
-5.778695 87.55276 -8.827698
-3.736658 84.29104 -6.760577
2.323446 84.61153 -6.997725
2.563475 85.67052 -7.720555
-5.878215 111.3522 -5.417612
-5.300389 113.7998 -4.837169
-4.188193 109.3435 -6.08377
-4.154443 107.8732 -6.251974
-9.250426 95.12865 -8.237881
-5.418802 88.39084 -9.302019
-5.357481 84.73291 -6.953093
-2.935532 86.67007 -8.363164
-1.787105 85.88622 -7.844246
2.515957 86.81943 -8.454011
3.816202 87.53654 -8.897475
2.713158 87.37096 -8.770452
1.868305 87.40422 -8.765466
5.567687 86.3088 -8.210649
6.324646 88.09615 -9.009141
4.873708 89.74546 -9.837213
5.007406 85.3884 -7.522744
4.019327 88.54438 -9.369541
-7.468722 92.61096 -9.483253
-6.438118 86.77106 -8.32413
-5.72402 86.76414 -8.417328
-4.117882 86.06116 -7.997028
-6.059668 84.87827 -6.996638
-2.690172 88.68573 -9.374394
7.35906 88.35806 -8.918507
-2.210689 95.09302 -9.963717
-7.214447 91.4297 -9.584239
-1.216388 87.56944 -8.834835
7.583156 88.05371 -8.669948
9.599395 89.25087 -8.010857
1.825083 90.67155 -9.882638
4.691607 88.35821 -9.337292
-4.516593 89.30422 -9.797853
-0.3184653 88.31044 -9.179075
5.791642 90.88154 -9.909047
1.450552 87.7498 -8.933745
2.992805 89.4085 -9.636342
5.371198 89.93722 -9.815368
5.193607 91.6789 -10.07489
6.273261 91.14882 -9.818402
7.584972 92.02097 -9.513777
2.278971 90.36616 -9.837698
1.955643 91.15047 -9.949482
-0.9434668 90.7858 -9.889597
-0.123413 91.08543 -9.925189
1.524344 89.82047 -9.703006
0.8416296 93.43716 -10.03352
7.127022 92.8474 -9.650784
2.21159 93.65871 -10.04121
-1.868936 91.52161 -9.993801
-1.599703 92.27485 -10.02843
-2.318702 91.32835 -9.987191
3.799034 92.70233 -10.09181
7.156342 94.84251 -9.503059
7.16987 92.23956 -9.660043
3.329726 93.23148 -10.07781
-3.430988 90.9912 -9.991438
-1.367602 94.06927 -10.01731
4.51138 94.55445 -10.0253
-4.732698 90.55524 -9.9708
-5.388654 91.44131 -10.04852
5.759047 94.3808 -10.00221
3.380806 95.50741 -9.944854
7.137633 99.01987 -8.828546
2.795851 96.63863 -9.830976
5.090859 96.17966 -9.86361
0.7636676 96.83255 -9.781971
-1.668889 95.87041 -9.89533
-4.749129 97.62385 -9.674283
0.2433951 97.6211 -9.666149
4.418447 98.28103 -9.591904
3.511363 97.24815 -9.773277
6.332072 98.1555 -9.349428
6.02543 99.89805 -9.015141
-9.858294 139.1247 -8.457333
-8.699241 138.151 -8.763257
-7.734016 136.6238 -8.986194
-10.84315 133.4854 -7.638733
-11.48885 133.1972 -7.149489
-10.00009 133.239 -8.031021
-11.49784 136.7959 -7.927813
-8.957026 135.2841 -8.625235
-9.550139 132.7009 -8.129486
-9.921324 134.7973 -8.284691
-9.254901 137.8344 -8.603621
-9.606568 130.8442 -7.622281
-11.44773 131.9491 -6.698373
-8.528748 131.3372 -8.260166
-11.26774 125.9413 -2.386898
-11.29879 122.7934 -0.4017713
-10.3228 121.2785 -1.901668
-10.66302 121.1511 -1.536175
-9.19126 122.5105 -3.016757
11.35826 108.0526 -1.971472
6.005943 140.7641 -9.189016
5.444518 139.5739 -9.310322
5.268739 140.1472 -9.297425
8.513159 140.665 -8.752506
9.809846 138.0785 -8.450835
9.336973 136.7454 -8.543749
5.419572 133.3892 -9.049068
10.06582 133.4573 -8.020074
8.797324 133.3096 -8.546463
7.234479 131.8262 -8.754425
7.90341 131.9416 -8.62167
9.929645 123.7873 -3.741835
10.85262 124.1769 -2.284022
10.5187 123.7273 -3.248357
9.500998 122.5485 -3.951737
9.326753 121.0879 -2.998678
9.749316 122.5509 -3.87379
10.22115 124.7863 -3.800779
7.861284 124.5266 -5.08131
8.904878 124.4202 -4.374293
10.73816 103.2804 -4.91891
11.32765 106.0119 -3.210177
10.29252 104.7893 -4.795059
10.15353 104.2011 -5.158329
9.758365 104.5624 -5.31127
-6.862843 143.2715 -8.07081
10.07454 130.4356 -7.16834
12.1607 131.0119 -5.349848
-12.63709 131.996 -5.321652
-12.26911 128.8315 -1.785006
-12.76507 130.4454 -3.367981
-12.07544 129.4472 -4.130146
-12.14357 130.601 -5.092713
-10.16461 128.1883 -5.880457
-11.40465 128.1748 -4.238609
-11.49013 129.5414 -5.181627
-11.84508 127.9009 -2.499426
10.21158 116.9811 -0.9256527
10.34148 118.0267 -0.6492335
-5.381885 139.8833 -9.298215
5.609364 136.642 -9.259274
-4.895567 137.3685 -9.280396
-2.969758 136.7145 -9.232088
-6.689446 137.411 -9.234498
10.19963 127.1078 -5.133038
8.590886 126.5402 -5.873282
9.981389 125.7701 -4.55854
8.364998 125.9373 -5.690392
10.05479 128.0642 -5.876448
10.051 129.1479 -6.5043
8.688367 128.5087 -6.910904
10.35509 130.1914 -6.835381
6.173829 130.1246 -8.214609
8.939383 129.7361 -7.49639
5.647096 127.555 -6.803065
7.213121 131.2538 -8.575537
6.962873 128.8967 -7.480093
6.947793 127.7171 -6.813491
3.58283 128.9423 -7.578574
6.558494 131.7954 -8.805469
4.523691 133.4189 -9.045993
7.227777 132.5989 -8.893435
4.449668 131.8844 -8.836658
5.091575 133.8893 -9.087049
-4.610395 82.14186 -5.850638
-3.459555 82.50302 -5.980793
-7.844628 114.5605 -3.281032
-6.670993 99.09937 -9.00156
-8.774321 112.2941 -2.627082
-2.049412 105.6387 -6.97865
-6.77893 104.8035 -6.777089
-7.458457 104.8627 -6.574818
-6.247609 104.1959 -7.275623
-10.62959 105.6991 -4.135689
-10.25943 103.8847 -5.18262
-10.36041 104.7378 -4.729778
-7.99554 104.2878 -6.599811
-9.296481 103.7206 -6.060435
-8.432478 102.9372 -6.927712
-9.704064 102.0948 -6.233378
-6.342805 103.059 -7.832232
-5.875285 103.9067 -7.48873
-5.421073 103.6699 -7.672662
-4.244218 105.0853 -7.032884
-4.54665 102.5005 -8.314636
-7.811467 103.9672 -6.845473
-2.949103 106.6229 -6.663885
-1.09634 99.14165 -9.394211
-10.69037 101.0125 -5.441632
-8.043736 101.7839 -7.551394
-6.759131 101.0304 -8.429422
-6.129522 100.5315 -8.809123
-2.700519 104.1927 -7.522177
-4.823244 101.5777 -8.708035
-4.024254 101.23 -8.90795
-1.034599 103.7443 -7.738986
-6.304512 101.0987 -8.571694
-4.060308 105.295 -6.95177
-5.413033 100.7051 -8.910264
-2.918632 107.8778 -6.397525
-1.692142 97.75402 -9.656937
-1.906255 106.2742 -6.80901
-4.53315 98.13532 -9.609456
-6.816033 99.3653 -8.88219
-8.64266 98.67492 -8.083896
-0.3309944 105.7997 -6.961128
-0.6555688 108.3442 -6.507156
-3.120922 96.60885 -9.842155
-1.65853 104.9831 -7.225576
3.217408 108.4684 -6.089953
-4.278523 96.95068 -9.805565
-4.419497 95.90205 -9.918021
-4.901451 94.44249 -10.03927
-6.836478 94.92117 -9.621181
-6.681319 94.47475 -9.720305
-8.66634 95.63538 -8.619014
-7.675018 97.17529 -8.968198
-5.769672 96.49388 -9.757182
-0.1572904 104.8402 -7.272254
-2.779789 96.95883 -9.788767
-8.376247 97.20146 -8.60128
-0.5108224 108.3765 -6.538655
-6.838989 97.46231 -9.272843
-1.911462 109.7186 -5.950768
-4.004631 110.9753 -5.599045
-7.163581 113.1022 -3.783645
-7.28556 117.5246 -3.692969
-6.221993 116.4942 -3.969633
-5.490697 115.5256 -4.249753
-3.93918 112.8506 -5.071199
3.600602 111.2355 -6.159407
-4.329025 113.8164 -4.797934
8.395355 87.41312 -7.973107
9.34246 88.58389 -7.951235
0.6175339 96.67056 -9.800817
-0.6282241 97.14661 -9.73679
-3.20483 98.88524 -9.485339
1.165462 100.513 -9.037573
-1.735711 101.1306 -8.840799
-1.072027 102.3174 -8.372055
3.527682 98.45962 -9.565681
3.670759 98.86308 -9.491475
0.7017729 101.8131 -8.578219
-1.583272 102.883 -8.130906
2.327727 98.74609 -9.490674
-7.402084 136.1629 -9.081806
-6.683311 133.8064 -9.084024
-7.601112 130.8455 -8.391957
-6.718339 136.0495 -9.217667
-8.779884 130.7011 -7.963994
-7.095679 130.8956 -8.474138
-9.176888 129.501 -7.291977
-7.262735 129.5301 -7.832459
-6.688383 129.5139 -7.90117
-11.38283 128.5975 -4.630276
-3.650941 128.6983 -7.391747
-6.412393 132.0902 -8.891147
-8.469903 128.5192 -7.003246
-4.727473 129.6521 -8.027382
-9.081005 127.4885 -6.304178
-6.631645 132.6296 -8.955313
-3.69174 128.8842 -7.521487
-4.144229 126.8179 -6.520473
-5.016922 127.2789 -6.694083
-4.209839 132.283 -8.935879
-2.560156 132.5566 -8.977103
-3.218982 130.8764 -8.672038
-8.500019 122.3045 -3.762622
-10.19487 126.6841 -5.144609
-10.80008 126.4551 -4.098637
-10.60052 124.2842 -2.447194
-1.4704 137.3755 -9.233435
-11.86295 128.1541 -2.892757
-10.94742 125.4255 -2.547301
-5.471961 134.3168 -9.138995
-4.128292 136.5262 -9.23446
-7.951283 127.1087 -6.424072
-10.82757 123.6817 -1.529976
-2.202753 133.9696 -9.0903
-6.794246 125.2017 -5.722203
-9.882621 124.9553 -4.811461
-8.56883 122.6413 -4.213044
-8.143324 122.4183 -4.927352
-9.604576 124.4015 -4.533139
-5.107356 125.7022 -6.081504
-7.183728 123.9667 -5.825138
-5.887886 122.8939 -6.239318
-5.107739 120.0487 -6.44251
-7.764297 121.643 -4.591687
-3.959324 125.6546 -6.164316
-7.692872 123.8492 -5.807464
-6.647502 121.154 -5.815691
-6.27416 117.1188 -3.781535
-6.087199 118.5635 -4.102918
-6.705203 119.9803 -4.39735
-4.739511 115.6214 -4.471025
-3.667938 115.0444 -5.048131
-11.88998 127.5208 -1.215219
7.513182 138.2198 -9.097142
7.645287 137.8608 -9.056417
7.738496 137.4254 -9.017797
7.993115 133.9264 -8.848047
6.494917 134.0167 -9.086029
2.059858 122.7202 -6.132886
9.457863 101.9812 -6.451934
7.644897 102.0891 -7.676145
8.08676 102.1302 -7.3922
6.834065 101.4158 -8.264568
7.652377 101.1412 -8.008186
8.664126 103.7915 -6.428824
9.135745 103.7556 -6.156116
5.520233 101.5074 -8.62474
5.181078 102.8158 -8.125909
6.103168 101.3867 -8.521929
10.67001 104.9803 -4.39899
7.987003 105.5887 -5.980691
7.141714 108.2364 -5.109241
9.694889 107.7453 -4.004467
7.298622 105.7443 -6.109195
8.766612 108.0953 -4.400837
9.101358 111.8791 -2.283969
8.959682 111.3277 -2.749891
7.592789 107.1802 -5.353647
8.361012 109.0425 -4.212807
8.753881 120.0961 -3.716844
4.88554 111.0112 -4.731611
4.049616 110.2333 -5.519854
5.414001 107.4489 -5.77549
4.378633 108.5944 -5.521513
1.915202 110.2455 -6.811916
1.603595 108.2239 -6.699672
2.164588 111.1257 -6.785262
6.508898 109.5867 -4.852364
-0.6936135 109.8663 -6.437201
4.989096 107.3665 -5.869193
3.298783 111.8 -6.487605
5.407174 112.5433 -4.278197
-0.5116779 110.9239 -6.593328
-0.4235798 111.565 -6.733336
-0.6301513 112.9885 -6.840933
1.695427 112.6121 -6.868454
0.657706 111.0825 -6.947646
-3.412796 115.5934 -5.520157
-2.751273 114.604 -5.756861
-1.815458 113.3527 -6.162564
1.571765 113.9621 -6.832345
9.200818 120.5765 -2.121651
9.54346 120.0411 -1.05618
7.13023 117.202 -4.271574
7.899183 118.9342 -4.321969
8.319245 119.4071 -3.969013
7.805739 120.9341 -4.601816
7.455154 117.1352 -2.865437
6.63243 118.9054 -5.198331
7.89991 117.0643 -2.172572
9.257878 116.175 -1.861096
8.86339 114.6802 -2.685924
7.581077 119.0528 -4.729917
6.700909 117.1823 -4.945958
9.904859 115.7514 -1.551161
9.389483 113.7943 -1.371696
-3.39046 140.1081 -9.150885
7.612017 127.2482 -6.493611
4.993682 125.4906 -6.308372
6.453125 124.2701 -5.593434
6.229947 124.7215 -5.884418
1.516193 125.9396 -6.443123
3.437115 123.4993 -6.102823
3.35026 124.1588 -6.306643
3.478876 125.2626 -6.388442
6.925356 125.2748 -5.91042
2.416109 122.5236 -5.984224
0.896681 121.7411 -5.988036
-0.2068252 122.4904 -6.464272
5.161397 130.2048 -8.291958
-9.792593 104.6214 -5.244569
-7.089954 85.54018 -7.497737
-10.5306 127.9518 -5.352952
-1.152026 136.0246 -9.203873
-2.499211 123.4596 -6.584597
5.774016 136.1474 -9.239227
3.62074 134.499 -9.125482
4.441048 134.6357 -9.138
1.679318 138.1404 -9.219361
2.12922 134.7832 -9.141344
2.454423 138.6063 -9.212132
4.297641 131.3993 -8.742212
3.41421 136.8929 -9.237998
4.530815 131.2455 -8.69706
0.8597484 135.5419 -9.181241
1.261144 132.969 -9.009663
1.566091 135.9512 -9.198035
-3.088847 137.8204 -9.25506
0.364161 137.2421 -9.229681
2.431091 137.2414 -9.234018
-1.929644 139.4933 -9.147177
-0.6199894 140.9487 -8.816757
-2.443892 139.0141 -9.200413
0.1090521 140.3207 -8.973171
0.801676 139.3658 -9.128245
1.657702 139.5461 -9.119475
7.197896 100.0827 -8.530445
4.16884 101.0245 -8.939594
3.962937 100.4124 -9.160583
4.545964 100.0271 -9.224304
3.302833 101.9539 -8.589182
2.89379 101.5872 -8.713435
0.3531998 103.8042 -7.707757
2.501275 99.83865 -9.256541
2.581957 107.4996 -6.377499
2.598764 106.1816 -6.629932
1.891138 104.2189 -7.498777
5.245546 105.0344 -6.944132
4.692572 105.3746 -6.804586
2.374666 104.3586 -7.423244
6.132229 106.9799 -5.817068
6.011625 103.7799 -7.535621
5.175398 104.7133 -7.140245
2.770366 105.0141 -7.096916
4.717352 112.3197 -5.151741
7.305477 111.0598 -4.303984
4.722396 113.7237 -5.792357
3.965444 113.098 -6.230943
2.623275 114.7424 -6.592003
0.5781215 124.366 -6.537844
1.107724 124.1378 -6.509442
-2.351773 123.3866 -6.614518
-4.11074 123.4446 -6.342851
-2.246403 126.9109 -6.532797
-3.097397 126.3664 -6.382758
-3.123991 124.1804 -6.28475
-0.1873239 126.3438 -6.430471
-1.009327 121.9258 -6.441225
-3.140685 130.017 -8.308588
0.2199937 125.7586 -6.427639
0.8513569 126.2295 -6.448351
-2.868937 129.2667 -7.810974
-1.373696 129.9263 -8.291276
-0.6316311 129.8225 -8.2284
-2.452062 128.9005 -7.541223
5.484161 119.1215 -5.323772
5.947901 117.5269 -5.563088
4.205088 127.7001 -6.879529
2.798101 127.1176 -6.63484
2.381587 129.9696 -8.293136
0.2792264 129.2458 -7.820178
0.3995685 129.3197 -7.871836
-0.9953894 131.694 -8.892211
-2.361162 131.2125 -8.784634
0.2519968 131.3156 -8.83556
3.02094 132.1951 -8.912957
-2.435505 136.9938 -9.235678
6.841722 116.1793 -3.506481
0.8470886 127.6195 -6.805014
6.304119 121.8368 -4.496926
5.161325 119.6539 -5.150937
5.639039 120.8396 -4.734591
3.542569 120.9096 -5.078768
0.1373426 121.9101 -6.236386
-0.6656988 121.7367 -6.332901
3.05046 119.5649 -5.361156
4.205219 120.4217 -4.978284
3.349899 119.0452 -5.481597
6.595882 117.3206 -5.113149
4.854639 116.9601 -5.915014
6.331431 115.7199 -4.440246
6.410996 115.3823 -3.802807
4.42112 115.8497 -6.138528
7.156012 113.4188 -3.250897
7.403287 114.1797 -2.919711
7.199684 112.106 -3.856638
8.655398 111.7375 -3.023928
1.092076 119.8769 -5.64217
2.334494 117.2079 -6.216585
2.199095 117.1643 -6.252268
3.113124 115.7027 -6.396459
0.003858252 114.2385 -7.004698
-3.037538 115.3241 -5.799704
1.138091 116.3265 -6.644926
-0.2488067 116.1118 -6.939313
-4.376775 116.4366 -4.872293
-2.830311 114.9551 -5.844274
-0.7055452 117.4119 -6.777417
-2.15724 119.196 -6.624526
-3.345993 116.5559 -6.251197
-4.152155 121.6347 -6.735041
-1.359311 121.4099 -6.354279
-2.058618 121.2456 -6.432566
-5.745776 122.0079 -6.347397
-3.604384 120.1001 -6.81808
-2.410637 120.2539 -6.429732
-5.477104 119.171 -5.665226
-5.385445 118.1718 -4.74291
-5.852833 118.9116 -4.716885
-3.064412 119.4212 -6.779099
-2.821179 118.7292 -6.887475
-1.959203 116.8071 -6.982854
-15.00523 92.14172 1.819825
11.46753 139.0871 6.768894
-15.45596 88.40561 3.706371
12.28317 132.2281 3.963081
-14.04135 97.44691 2.338901
-15.1003 79.65599 3.985045
-15.04324 79.35731 3.292377
-5.239738 138.2581 9.726602
-9.3679 118.6262 9.958144
-15.20327 83.01662 2.312315
-8.100975 81.07092 12.47874
13.63602 99.27149 1.984597
-13.26876 103.4507 1.494579
-10.61246 117.8936 3.598773
-7.481513 135.6513 10.3958
-12.31847 108.755 1.727417
-12.49636 131.3279 2.089641
-11.68442 126.0915 2.311531
-12.45445 108.6864 2.262772
-12.91899 135.0287 4.663764
-12.22991 131.6108 3.851933
-12.78423 133.3696 2.878637
15.19945 80.93368 3.622903
-12.3773 138.2522 6.47647
10.56686 141.4342 6.260304
-7.315444 82.70366 12.45604
12.16805 80.15205 11.15019
13.86278 80.02806 9.197346
8.440422 140.0442 7.707498
15.15065 80.80827 5.232146
15.42902 86.56506 3.026297
15.4321 86.17583 3.831341
15.11917 90.84082 6.149436
13.80089 99.36153 4.568788
14.53966 95.95245 3.761447
12.5457 135.3132 5.476491
12.03925 110.7822 3.492299
8.912455 141.7031 6.636392
11.7954 137.5488 7.015401
-11.96287 138.0792 6.794241
9.037386 138.8953 8.01118
-11.1377 140.5679 6.407447
7.580435 143.8881 5.866847
15.02874 79.50038 5.727041
-12.53894 135.102 5.63514
-9.768226 138.4375 7.891007
-11.69222 136.8131 7.36212
12.71124 132.7564 2.025905
-12.23356 137.3765 6.793177
12.67793 131.861 1.493215
6.324593 144.6161 5.65246
4.053473 142.4266 8.031301
8.683002 139.5608 7.836919
-1.473047 136.8411 10.88735
-12.43346 131.4576 2.63275
-12.2968 130.974 3.097911
-8.567107 142.37 6.428388
12.18604 130.4803 2.404464
-12.09338 135.6402 6.817173
-10.36577 135.2076 8.948396
-11.81351 137.4184 7.139309
11.4517 136.4386 7.508831
10.78685 136.4262 8.141466
12.20922 135.8811 6.467018
-7.421231 139.4955 8.42828
14.04909 87.35481 8.804561
-13.43069 79.0419 9.81281
2.465298 79.36823 12.53343
-6.359553 144.1909 6.19535
14.37309 82.43661 8.523972
15.21138 81.63031 4.999486
5.294034 143.7439 6.948948
7.29738 140.3786 8.034593
10.07956 139.0154 7.543141
-11.70712 125.986 2.675965
11.61036 124.9338 3.056742
-8.311679 141.0074 7.289805
-7.101471 140.4666 8.065676
12.12899 129.7084 1.428579
-12.17696 134.9967 6.481519
-10.94333 136.952 7.896716
-11.5479 132.8575 7.830638
-9.740067 135.1498 9.465558
-11.20161 133.4726 8.660256
-9.381943 137.0188 8.759212
12.89206 135.5189 5.041923
12.42772 133.4 3.820137
10.49569 134.8161 8.951629
12.13875 131.6333 5.36138
12.04 133.178 5.312958
14.29463 97.23207 4.487051
-15.3746 84.16428 4.043665
-15.29819 91.46906 4.546265
-4.595398 79.43056 12.51716
-5.474677 143.1912 7.239586
15.45371 86.89336 3.628546
8.455465 80.36861 12.51282
14.72179 80.21576 7.294828
2.088123 141.9344 8.460447
9.540901 139.2275 7.64115
-11.74017 128.5699 3.009962
-4.84229 141.7284 8.215006
11.82311 128.0932 1.628529
-8.796494 138.6528 8.247255
-5.814895 137.5627 9.923095
-8.472863 139.2138 8.118586
-10.76833 137.5509 7.795894
-10.07989 137.6931 8.091272
-10.83644 133.6149 9.141349
-10.53115 133.0074 9.649261
11.73217 131.0727 6.438205
11.46226 130.5146 6.355105
10.32666 136.3537 8.454872
-15.01068 91.86504 1.649943
15.3094 91.16364 5.230721
12.88118 106.5916 2.066622
-15.28015 83.26365 5.301731
-15.40942 84.91718 3.439434
-3.809344 79.37136 12.5225
10.72809 119.3594 3.111777
5.904091 81.02081 12.47581
14.33082 86.75183 8.364517
13.52031 80.44529 9.747924
15.01344 81.70488 6.576626
14.17033 80.8561 8.774356
14.38795 80.49792 8.282624
12.62296 81.50819 10.81387
13.39816 84.27677 9.837891
13.87503 84.68805 9.221277
13.64125 85.38837 9.468943
13.51901 82.29745 9.765007
15.34396 84.50894 4.758415
15.34679 85.27757 5.118693
15.31476 86.547 5.864778
3.848501 142.9106 7.803174
6.780665 142.5132 7.140641
5.866526 141.1139 8.166739
3.245851 142.0713 8.267642
8.938172 139.1924 7.906503
-11.49318 121.7923 3.958684
-1.95931 141.4542 8.657299
11.60889 125.512 3.043455
-5.940184 138.8209 9.270793
-4.133199 140.883 8.759538
-10.63627 133.2268 9.454515
11.44848 128.5794 3.975232
8.565115 137.9732 8.676473
8.926741 134.277 10.46579
-15.20844 91.30253 2.389891
14.90358 94.16082 3.562586
13.56322 99.93839 2.229804
-15.18 80.89478 4.705592
-15.37947 87.2601 2.514076
-15.41065 85.57726 3.348348
-14.52873 82.03185 8.095547
-6.809148 79.09881 12.54945
-11.93587 113.2182 2.986843
11.24321 110.3795 7.365239
8.900297 79.80949 12.48477
-0.3537992 80.33445 12.48385
15.21993 88.57317 6.069703
12.69306 80.8697 10.7431
14.41191 81.20451 8.389345
13.89033 86.4072 9.011074
4.896986 140.582 8.731572
-11.46703 124.0883 3.702712
-11.83868 121.7228 4.65796
-1.953412 141.9792 8.420403
11.06549 121.1634 4.914922
11.27857 127.7595 4.552767
-6.368781 138.2906 9.398992
-10.82796 129.0315 7.531413
4.971551 138.5732 9.634798
8.021901 138.0682 8.870884
9.941013 133.3473 10.1955
-13.71247 99.65636 3.463818
-14.62092 93.5304 1.426511
-15.29623 90.96317 2.843827
-14.78175 91.32821 6.928276
-12.65854 108.0351 2.76945
15.10875 93.09241 4.444668
14.48262 94.24746 6.667545
14.23195 97.13242 3.43178
13.28181 102.5 2.962296
13.17883 104.4932 2.99804
12.85929 106.9446 2.40556
-14.59876 82.88574 8.005281
-15.25691 82.72214 5.257297
-14.87519 83.6187 7.230674
-14.93509 80.35031 6.575265
-15.09261 81.84613 5.945929
-15.42185 86.93672 4.314193
-15.36192 87.60387 5.427947
-15.37689 86.41772 5.052299
-13.65315 81.85265 9.570122
-14.05349 80.20535 8.828685
-6.169999 80.99015 12.46782
-3.473271 79.53902 12.51227
-10.97408 114.1503 3.719997
10.97046 113.4035 2.314945
12.3315 109.2106 4.355167
10.53313 118.6298 2.856071
6.248227 80.65122 12.48348
6.378454 81.304 12.46986
15.43756 89.00546 4.26543
15.27512 87.30399 6.035261
15.3571 89.95086 2.597047
11.29222 80.67059 11.74014
10.72467 83.21212 11.87309
9.636915 82.11242 12.26839
15.33287 83.02078 3.990045
14.88987 87.47559 7.151967
14.52681 88.88029 8.025193
14.47656 88.30701 8.076795
-11.28959 128.9657 5.289865
-11.6159 124.7942 3.326421
-10.92868 119.5349 4.426504
-11.59451 123.1886 5.17263
-0.6004131 140.2611 9.237931
1.503138 139.7167 9.44263
2.35657 141.0084 8.909725
0.1645824 139.7339 9.423785
3.242723 139.2731 9.582468
11.20199 122.1637 3.914356
11.21232 123.0256 4.942685
10.92766 122.3464 5.903511
-4.008055 139.7249 9.301927
-4.197791 139.5177 9.359244
12.42524 131.8398 3.084658
6.494708 138.6071 9.195447
9.021319 134.6684 10.18577
7.505739 133.5799 11.587
5.424671 138.1196 9.744812
4.405748 138.7197 9.684761
6.144193 137.4746 9.885756
6.144376 136.7335 10.28025
6.517899 134.8158 11.21603
-14.4779 94.52261 1.549829
-14.55756 96.06773 4.832883
-13.95771 98.37926 3.412787
-14.57066 95.80557 3.78754
-13.4927 99.88006 1.777257
-12.94063 106.2107 1.808373
14.76755 95.13773 4.980408
14.96661 93.88609 4.505917
15.33473 91.06268 4.617564
14.131 97.03117 2.545681
13.70768 99.54865 2.77092
13.15064 100.8301 6.088788
12.8462 105.2335 5.252142
13.20586 103.3726 3.692385
12.4257 108.9503 3.995603
-15.35371 85.07852 4.851109
-15.35757 84.32169 4.436829
-13.86413 82.47504 9.287464
-15.42792 89.8162 4.028587
-15.02179 88.54385 6.680979
-11.36276 79.13296 11.52419
-4.813406 81.09049 12.46802
-5.582674 80.71681 12.46939
-4.787663 81.92136 12.47007
-5.976101 83.19534 12.44248
-11.90426 113.6071 3.915201
-10.56785 116.7163 3.933398
-12.31806 110.9704 1.848354
11.38683 112.663 3.42784
12.1915 110.4466 2.632297
11.92522 111.2713 4.150613
11.62659 112.451 5.12523
12.20453 109.5958 2.617321
11.85152 108.0879 7.373988
12.39488 108.8464 2.189247
10.9557 120.6363 2.780206
10.90396 120.5346 4.7246
11.13506 116.969 4.763081
8.872069 81.01845 12.40971
1.048844 80.34949 12.48452
15.27235 91.57648 3.275922
15.10428 91.37308 6.078738
-11.44057 127.7194 4.056743
-11.12204 127.6439 5.468853
-10.67131 129.3405 8.566677
-11.18815 128.8563 5.696906
-11.42239 122.8648 3.516855
-10.50323 117.5538 3.782383
-1.760192 141.2307 8.714465
11.21061 126.8068 4.957125
11.33683 124.097 4.498574
11.53781 126.6092 3.449928
-2.779702 139.8786 9.402134
-11.95888 130.7543 5.388422
-14.09128 97.92479 5.377404
-14.43877 96.51117 4.855008
-13.91549 98.9087 4.478292
-14.23311 96.41599 6.080071
-14.04652 96.15741 6.806304
-14.68378 94.49405 5.913383
-15.27135 90.5358 5.596309
-14.34683 90.50386 8.088762
-14.80727 89.90522 7.173671
-13.86031 89.29703 8.827609
-13.75276 89.97416 8.901502
-15.24582 92.05042 3.840808
-13.26912 102.6143 1.55333
-13.04646 105.6394 3.049561
-12.20476 109.684 2.858404
14.57624 93.16463 6.894105
14.22634 94.3286 7.327087
14.32089 93.86038 7.231013
13.77136 99.44605 3.863183
13.74939 98.41632 6.045424
13.47562 100.4335 5.092238
14.03944 97.97545 5.44442
13.53881 100.6726 3.353061
-13.60845 83.53123 9.676297
-14.41126 82.2576 8.453351
-13.6319 83.71496 9.634991
-15.38995 89.04891 2.461763
-7.451173 81.90392 12.46909
-1.274474 80.20839 12.48475
-1.68275 82.22958 12.47283
-3.478373 80.79369 12.47043
12.06677 109.6031 5.490259
12.0434 108.5497 6.523036
11.08813 109.1303 8.260846
10.59581 109.0348 9.030048
10.43849 110.5844 8.588402
11.35784 109.6099 7.449661
11.51214 115.7336 2.813978
10.68947 115.0156 4.094716
11.45585 117.3188 4.533722
10.99491 117.0894 4.995427
11.25995 119.127 5.848853
10.59715 121.2103 6.845931
8.428807 115.0075 9.417184
10.84033 120.325 6.815026
9.651893 117.9308 7.970917
3.734364 80.32803 12.49078
0.4397765 81.65095 12.46718
2.139554 82.31223 12.47282
14.64262 88.44183 7.741845
13.01863 89.46696 9.727326
-10.67189 126.7608 7.551023
-11.77215 130.5702 5.815149
-11.29167 123.1959 6.497456
-10.62608 118.9726 5.196558
-10.72506 119.501 4.969422
-10.65152 119.4135 5.489356
-8.732609 120.051 9.982179
-10.03787 119.0046 7.576678
-0.88267 138.2176 10.1831
-2.0582 137.0715 10.74025
-1.574173 137.7469 10.41261
-2.645436 136.4947 10.99614
10.95079 126.4469 5.953656
-10.82847 129.6546 8.409863
5.09567 136.1284 10.84795
3.932642 136.8922 10.64604
-13.60159 100.114 3.83466
-13.85822 98.83292 2.950325
-13.84126 91.8429 8.510276
-13.54819 100.1052 2.815786
-13.28448 103.233 1.674715
-12.81608 107.3153 2.890935
-11.92446 110.8666 3.192002
-11.68848 110.9268 5.431632
-11.77853 111.151 4.013007
-11.83083 110.3499 5.484672
-11.39966 111.7668 5.415167
12.02769 93.90174 9.74601
14.2784 95.57716 6.501982
13.02148 96.90062 8.225253
12.84804 100.3846 7.135968
13.49242 99.98545 5.506803
-13.57585 81.21431 9.676999
11.46435 111.1875 5.880799
12.88016 106.6932 3.716815
12.18528 106.7056 6.942078
11.78856 105.1933 8.117182
0.4088754 81.28706 12.46746
2.110874 83.27889 12.45044
12.14089 89.38335 10.43663
-10.62431 116.6025 4.223715
-10.58125 127.99 7.834516
-0.01127606 133.1487 12.35611
-13.65444 99.81255 4.740953
-13.25704 100.3331 6.058819
-11.78169 94.22909 9.920602
-13.75067 85.99985 9.311077
-13.29501 102.211 3.885086
-12.94015 104.4107 4.991542
-12.88152 106.0164 4.531897
13.70666 95.30304 7.689736
13.62408 97.24769 6.964039
12.50126 96.34369 8.94005
12.35267 100.6914 7.852696
-13.41968 81.0853 9.903378
10.08989 108.0492 9.775592
10.87952 121.3046 5.760148
6.045654 82.13728 12.46884
5.524178 82.90807 12.45905
14.51434 90.27497 7.848118
14.58934 92.14508 7.240847
12.704 89.85515 9.890856
3.428787 134.3101 11.94748
3.479114 131.8933 12.73156
-14.69482 92.28996 6.929146
-12.86913 92.46915 9.439783
-12.82747 90.47726 9.838558
-14.62867 85.99854 7.888256
-12.79746 104.2988 5.700303
-12.55776 107.4672 5.298482
-12.62549 106.0638 5.806581
-11.50382 105.3399 8.593194
-12.5118 103.8856 6.802932
11.19509 93.39199 10.30293
13.22779 91.45336 9.223766
11.93113 93.16522 9.998536
13.16109 94.43812 8.720999
12.26225 104.9928 7.287832
11.44038 103.0315 8.863434
10.27522 111.7074 8.148005
9.252652 112.5257 9.079507
9.987731 112.8417 8.041147
10.00433 112.383 8.233516
9.350846 114.1478 8.441182
9.735471 115.2091 8.763362
8.527896 113.3826 9.51275
10.41644 116.933 5.535401
9.941833 116.7817 7.08671
9.335299 117.1101 8.463948
10.55613 112.6871 7.116961
6.441987 114.6991 10.89209
6.759182 115.8878 10.69167
5.505867 114.401 11.50551
5.568786 83.57141 12.41659
9.45224 84.74297 12.11013
4.690959 82.95016 12.46348
2.660846 83.05981 12.46379
8.59253 81.70899 12.46245
-13.90489 95.05918 7.684968
-14.69807 93.22053 6.413478
-13.64554 88.341 9.188651
-14.83076 86.4501 7.382063
-12.87569 103.9146 5.530615
-13.19926 103.6256 3.577552
-12.48024 104.4394 6.837646
10.09437 93.74348 10.64774
9.649314 94.05646 10.68675
9.020105 92.16977 11.02737
8.844543 94.30248 10.79412
5.489259 95.44263 11.14502
6.743927 93.71147 11.09903
10.59636 104.4593 9.7505
12.61032 102.3277 6.91924
10.03988 112.6882 8.019141
11.40673 112.054 5.422049
8.668246 82.45062 12.44783
5.837268 84.36526 12.30261
9.949694 87.8291 11.61049
-12.87498 91.29987 9.608005
-10.79142 90.53725 10.95632
-12.69759 92.03189 9.492135
-10.78538 89.47741 11.12552
-13.7776 95.75191 7.56876
-14.23509 86.28101 8.69294
-11.77116 100.1534 8.801732
-11.23518 101.7915 9.202739
12.77441 95.39867 8.903769
10.86692 89.77957 10.99488
8.680119 91.13616 11.19455
0.396035 95.3222 11.49949
9.256126 116.726 9.312838
8.272988 115.8587 9.648274
-3.579968 106.4536 13.02118
6.76522 112.1534 11.03796
9.716746 109.7129 9.691719
9.290485 107.8883 10.50138
10.13803 107.1783 9.933064
10.21139 106.0124 9.995884
11.17197 105.2194 9.088715
8.786939 100.9127 10.91085
9.652241 103.189 10.59055
9.633149 82.62372 12.24998
6.719529 84.85038 12.23685
13.5411 86.93572 9.512609
12.5975 86.18413 10.55221
13.38766 85.89661 9.745035
10.10814 87.17356 11.68568
7.846606 87.16697 11.9243
-12.06306 93.07321 9.872665
-12.2643 90.75575 10.16644
-9.190268 88.47069 11.61976
-11.2479 106.8403 8.757308
-10.78672 104.9548 9.521669
-10.7673 108.8735 8.910279
-11.69636 106.8766 7.964192
-12.01812 107.5991 7.162082
11.79716 95.36358 9.724872
11.66608 97.50795 9.361465
10.17415 91.31231 10.99883
9.963864 90.23412 11.22661
9.163857 90.28741 11.29311
1.004303 87.47978 11.85342
6.997456 89.72644 11.44457
6.389415 88.19219 11.66244
6.400885 90.49867 11.52042
6.077308 85.27968 12.18053
7.165761 91.70393 11.10162
4.652902 91.00514 11.18942
2.528814 89.22048 11.58577
-3.505798 92.45087 11.19355
7.542416 96.97151 10.88971
5.338818 112.0411 11.83883
6.694057 109.156 11.68227
7.841793 85.8097 12.08797
2.698129 87.8344 11.70571
-12.22087 92.93497 9.792053
-8.489285 90.40817 11.34351
-11.62254 84.10146 11.413
-10.58212 89.31377 11.20516
-9.795966 103.8775 10.43468
-9.355704 103.3235 10.75731
-8.592691 106.137 11.06119
-12.4999 102.6105 7.151431
-11.23537 102.5605 9.13197
12.23511 96.3675 9.173206
5.702569 88.91351 11.54713
4.985096 86.87265 11.99596
4.961631 92.78555 11.15439
6.060382 95.53175 11.09719
10.01848 119.6631 8.187669
7.935616 85.00415 12.21642
6.483143 87.01429 11.96833
3.736647 85.4195 12.158
-5.001565 92.25906 11.06673
-9.822022 103.0137 10.45943
-10.96597 106.9513 9.14822
3.099221 89.16971 11.57445
9.081739 118.2421 8.977964
9.463549 119.1294 8.678972
6.602197 86.0377 12.03465
1.388267 88.90963 11.5363
3.890419 86.24438 12.05366
-13.18616 83.03187 10.26343
-10.42616 95.86801 10.26845
-6.581987 101.9416 11.7302
-8.7619 102.0091 10.99007
-8.163652 103.3774 11.33908
8.7619 97.77212 10.66683
10.16686 120.7059 8.675942
-10.59334 84.30971 11.87934
-7.472359 102.0452 11.48734
-7.016273 103.5093 11.75789
-6.333771 106.5315 12.09796
-4.176973 104.3824 12.71351
-5.963027 104.5358 12.18376
-11.35713 110.7016 6.793443
-9.523851 109.2967 9.961162
-7.511448 109.0148 11.28384
9.235426 96.65116 10.5476
8.693829 125.7473 10.50496
-12.57083 82.10211 10.77743
-9.376745 81.90367 12.33392
-10.31691 83.06915 12.09528
-7.509251 105.7412 11.60132
-7.13945 106.4533 11.74171
-7.076485 106.8485 11.75466
-6.94622 111.064 11.14514
9.413207 97.40568 10.48975
11.00884 98.84586 9.623511
-8.747377 90.25986 11.34213
-7.21828 89.45359 11.62019
-8.236089 91.98027 11.134
-7.190276 90.05115 11.48481
-8.250851 88.00037 11.79581
-12.08885 83.77219 11.12263
-10.28515 83.00606 12.10534
-8.695476 83.92056 12.3539
-8.054385 84.43224 12.34352
-8.69257 85.28964 12.16575
-9.346725 86.51952 11.89796
-6.862687 83.7039 12.42428
-10.27824 86.90265 11.70011
-5.110075 82.99459 12.45403
-1.354197 87.04391 11.96731
-2.296857 83.98749 12.38465
-4.248569 104.3026 12.68311
-7.985271 110.3557 10.71862
8.956423 122.8142 10.25745
-3.92321 89.48885 11.71861
-3.616322 90.52473 11.38916
-6.106836 86.10394 12.1231
-0.4731508 106.1138 13.27704
9.350281 100.3223 10.58873
11.62313 99.71216 8.999714
8.225225 101.4138 11.17816
8.362812 102.4108 11.20035
8.159905 103.3637 11.34641
8.834398 104.2409 11.01866
10.86903 101.5908 9.56808
11.30689 102.3121 9.092788
9.353526 102.3295 10.72274
7.656387 104.8237 11.5571
7.904193 105.7529 11.42272
-7.497577 86.52878 12.05661
-5.274836 103.9957 12.35607
5.719453 105.9392 12.32414
8.804494 106.6104 10.96254
6.378378 104.0599 12.00225
-8.54727 86.76791 11.97703
-5.278217 107.3673 12.4748
6.47315 105.542 12.02908
6.140635 107.7676 12.10951
7.389076 109.1396 11.33332
5.46752 105.593 12.40429
-11.23375 92.97095 10.35201
5.596633 109.0768 12.21042
-6.526504 92.50143 11.10989
-7.935955 92.76311 11.05937
-6.372006 93.94599 10.94983
-10.13545 95.15201 10.39325
-10.17735 88.57323 11.43656
-11.65977 88.48649 10.84676
2.062387 105.3523 13.18681
6.33745 110.8666 11.53593
3.209398 107.5222 13.08693
4.903246 108.8395 12.51048
-5.741605 91.92632 11.00513
-6.219384 98.99404 11.33241
-7.26786 93.69202 10.95267
-9.058556 93.81847 10.8196
2.74439 105.7834 13.12645
5.369241 113.6008 11.59811
2.591525 115.2963 12.69851
3.12747 113.9002 12.56315
4.246094 112.4029 12.25451
4.219497 111.1365 12.47683
-11.11886 93.27515 10.36072
5.952092 103.1731 12.08203
4.822899 103.252 12.37213
4.454098 109.9393 12.55834
-2.791497 93.85539 11.14075
3.622192 111.2479 12.66361
-1.484975 90.98217 11.05883
-2.015253 93.24854 11.27661
4.591686 108.7003 12.64184
-1.080604 94.73114 11.38086
2.259804 106.7015 13.2314
1.056241 106.3973 13.29173
0.7633494 108.3314 13.20551
1.161563 110.8285 13.0067
-2.406299 110.5448 12.98596
3.875483 109.821 12.7702
2.655854 109.1608 13.07249
0.5182394 111.9576 12.93287
3.61592 110.9103 12.7054
-0.94045 110.3344 13.04375
-1.248658 113.1244 12.8598
-0.3073667 114.2187 12.86409
-1.325671 113.4856 12.85323
-0.4028452 107.0414 13.28247
-2.830419 105.3138 13.08372
0.5283127 107.3802 13.26131
-1.761914 105.5865 13.22479
-1.904637 109.8509 13.07351
-4.319211 106.2638 12.81326
-4.480072 107.6638 12.75595
-2.322768 112.9587 12.77155
0.5368496 116.1215 12.92869
2.22606 103.7323 12.9718
0.32545 103.8328 13.10319
3.376884 97.18938 11.44418
-2.160417 103.9863 13.01974
0.9843163 105.6601 13.25377
-7.25636 109.2538 11.38875
-6.181504 108.4847 12.02056
-3.196963 108.6812 13.01415
-4.633364 109.4317 12.55323
-2.92899 113.6486 12.61633
-6.083552 113.474 11.21888
-8.462689 112.6842 9.75128
-1.692553 114.3906 12.83504
2.6534 105.1657 13.09931
-8.138181 112.3871 10.09247
-8.485713 115.5796 9.268836
3.392856 115.1622 12.48878
-0.3947834 116.307 12.93962
-1.353814 114.9431 12.86344
-2.658053 115.0166 12.684
-4.710279 112.6374 12.06054
-11.49099 110.4665 6.624099
3.171127 117.6165 12.71177
2.708001 116.1126 12.70436
2.760576 117.4984 12.80601
2.828282 118.4751 12.88334
-5.276006 112.0797 11.86584
-3.044658 112.5998 12.67181
4.134598 117.3601 12.35136
-1.809392 117.631 12.99166
-5.639266 113.7355 11.4642
0.4880416 118.3225 13.09387
3.742091 122.0604 13.24548
-0.6597658 118.083 13.07111
-2.674366 116.1551 12.72443
3.549247 120.6002 13.00347
0.8212326 120.5919 13.29946
3.366859 121.8997 13.27323
2.136146 122.1214 13.41651
1.49939 123.1501 13.50712
2.824122 123.2296 13.46884
4.03229 121.6273 13.11138
5.112688 122.345 12.96565
5.264251 121.1652 12.65238
1.509379 121.0529 13.34354
4.839782 122.1446 13.0061
5.639764 120.2093 12.31727
6.573615 122.7763 12.35745
6.278708 122.8535 12.53258
7.087492 118.657 11.43025
7.778179 119.4108 10.88032
6.339593 117.6773 11.26363
7.859708 125.433 11.34971
4.582134 117.7832 12.18743
5.204266 116.8593 11.77719
-0.7115077 119.0339 13.15448
8.861783 121.45 10.18451
8.587063 122.2679 10.63795
6.862813 126.0294 12.15658
-0.9089113 119.3249 13.18017
-1.713086 120.3846 13.26005
-0.9634919 122.5069 13.45315
7.489867 122.6539 11.66524
7.431013 126.591 11.85567
5.745756 125.6626 12.69363
5.109005 125.7827 12.91254
5.534524 123.0324 12.90375
-3.493074 120.9885 13.0914
9.488698 122.4538 9.682552
4.891853 123.5065 13.13631
-5.283514 120.8491 12.60136
9.022421 123.7221 10.17016
8.487698 127.7971 11.3691
8.423632 127.6048 11.33158
-1.730797 123.7971 13.53018
-1.335592 122.5781 13.46348
-2.265783 122.9882 13.48952
-3.884982 123.7296 13.3583
9.001417 125.3985 10.07224
5.763669 126.5941 12.70159
9.431026 125.3028 9.437119
7.990157 128.8032 12.24216
10.62206 124.0424 7.057384
11.30463 125.7223 4.596579
11.23542 128.3327 4.829299
11.37869 125.4389 4.245076
11.01435 123.2588 5.753289
2.844141 126.2226 13.32316
5.141373 127.2407 12.90316
4.913063 128.9158 13.02588
3.236492 126.7788 13.22351
6.756603 127.6238 12.44512
6.134686 129.1548 12.92387
6.781909 128.918 12.74973
7.591691 129.361 12.54737
9.460098 124.0277 9.479703
10.2328 122.1223 8.303325
10.4716 123.3084 7.45542
11.22063 129.3335 5.547566
7.477365 131.2803 12.40816
9.579394 129.2731 11.06478
7.250827 133.7018 11.60371
7.143538 131.3948 12.47234
7.653519 130.594 12.50929
2.106489 132.0549 12.67092
2.569095 127.2263 13.22717
1.510649 130.0019 12.99022
1.283649 130.96 12.86803
7.677681 132.8316 11.89494
9.547812 126.6307 9.435749
2.724353 126.766 13.28433
0.9497716 131.8629 12.7001
10.29143 127.7108 8.231775
10.88256 129.6375 8.00689
10.66231 128.0038 7.115798
10.91851 129.8253 8.178571
8.978068 129.3353 11.77114
10.09606 129.4298 10.51564
10.65849 130.0235 9.619568
8.77626 131.481 11.87075
10.08474 131.6813 10.71838
9.082667 129.7098 11.69569
7.480569 130.4017 12.61849
2.183451 133.0332 12.40674
1.718202 138.489 10.03749
1.32146 137.1446 10.72726
-0.3427671 131.5781 12.75751
-2.666283 132.3817 12.60028
-2.951703 130.9096 12.89035
-1.16474 130.5012 12.92558
-1.389778 132.6742 12.5017
-1.05295 135.0821 11.63995
-2.95234 137.3545 10.5158
-3.633982 137.9193 10.16492
9.105728 132.6411 11.27101
11.05406 132.0764 9.060146
11.24168 132.2103 8.661242
11.36588 133.4181 8.16412
3.03846 137.8636 10.25835
0.4177498 137.8511 10.36821
-4.61379 127.1446 12.93573
-4.874509 132.8956 12.4262
-5.724943 135.9171 10.8242
-5.604833 133.4824 12.09705
-1.03584 135.6129 11.42193
1.955602 135.5082 11.47014
-5.939179 136.8671 10.25649
-5.647308 135.1722 11.24372
11.22786 130.761 8.043545
0.2733767 134.5509 11.85038
-5.837523 132.7242 12.38629
-2.746338 129.4745 13.02048
-1.81771 129.6228 13.01059
-4.052383 131.1781 12.87646
-0.8732221 129.4557 13.02773
0.132016 128.2793 13.14565
-3.3256 128.912 13.03902
-3.802838 128.6413 13.03126
0.5993257 127.313 13.25899
-7.220712 128.174 12.35402
-2.249804 125.3784 13.46899
-2.832037 127.9364 13.10129
0.484153 125.879 13.43524
-1.885818 126.3778 13.40231
-6.723142 135.434 10.79714
-7.235434 137.0913 9.706268
-8.887474 134.1604 10.56117
-10.42727 132.3446 10.05917
-8.687538 132.275 11.66216
-10.53499 129.6716 9.538101
-11.05664 125.3144 6.410487
-10.3251 129.118 9.59551
-6.096636 134.0662 11.73093
-10.34688 131.5783 10.38393
-9.868271 129.8989 11.04266
-8.685699 136.1458 9.571859
-7.938473 135.9977 10.00342
-7.486576 143.2119 6.463603
-6.667777 142.4569 7.19823
13.36945 82.72343 9.978622
11.68827 83.24779 11.38642
11.56525 84.8886 11.36232
10.32039 84.10875 12.0157
10.08823 86.12474 11.83028
-11.52735 123.5152 6.331092
-11.16598 115.2672 6.665935
-10.67983 114.9236 4.505399
-10.29364 118.1332 6.572147
-9.977422 118.8866 7.65583
-8.781597 119.5629 10.07426
-9.117313 119.4983 9.277452
-10.60475 115.7969 7.506089
-9.440497 114.9686 8.194847
-10.52709 115.8262 6.093501
-8.756644 117.6622 9.599524
-9.362261 115.5924 8.283385
-9.213141 114.9454 8.495835
-7.15396 115.501 10.39633
-8.148481 119.1698 10.96633
-4.422211 118.6687 12.40443
-7.954532 117.7656 10.09978
-6.810556 117.7252 10.9496
-7.511604 116.829 10.26131
-6.543414 115.739 10.83376
-5.51344 116.3886 11.55526
-5.116376 115.7802 11.73113
-8.464127 121.9508 10.68731
-10.02995 114.4882 7.30815
-9.264119 118.975 9.593153
-7.31372 120.1245 11.73791
-7.653558 127.8702 12.03592
-9.191667 126.903 10.40654
-9.259624 123.679 9.80337
-11.11352 125.0382 6.905115
-9.824497 120.7613 8.491095
-7.057142 120.931 12.10702
-6.960676 122.4429 12.08915
-8.317806 120.0646 11.06388
-10.08503 123.6564 8.435556
-10.99147 124.8118 7.534352
-9.901909 128.9603 10.57767
-10.5265 125.9784 8.528427
-10.03615 127.3523 9.67772
-7.109352 124.2263 12.0327
-7.661221 123.5811 11.59685
-7.358955 125.2955 11.75165
-5.370124 123.1071 12.94432
-6.900247 124.136 12.19465
-12.69648 107.8639 3.295307
12.81984 104.4953 5.533568
-13.47664 101.1619 3.900559
-12.37479 95.84531 9.214849
-13.28075 97.1165 7.823503
2.861673 93.91754 11.16007
4.360815 94.27171 10.9541
1.247163 94.24034 11.31082
1.976981 94.99761 11.36184
-1.491668 95.39909 11.41052
-11.3135 109.5108 7.70729
-9.907555 112.2613 8.43212
-10.73494 110.0234 8.418194
5.418219 91.60974 10.95341
9.492245 96.29541 10.51593
-0.7840209 83.19353 12.46017
-9.103251 96.05942 10.63438
-8.577328 96.69718 10.71935
2.86446 103.1432 12.77987
2.292692 102.8303 12.80177
3.586608 103.2988 12.67803
4.314176 97.137 11.31199
3.730577 102.4161 12.48852
1.665916 96.36108 11.55467
6.712267 100.4441 11.47228
6.134037 100.8565 11.67399
6.062723 100.0075 11.53714
5.328669 96.9767 11.15998
-0.2724109 100.2426 12.37553
5.501762 101.2289 11.88036
4.963813 96.48719 11.12871
3.426494 96.97012 11.38981
4.441717 99.94125 11.81753
3.164113 95.00761 11.26328
3.354817 98.14327 11.62319
1.804568 97.03408 11.63641
1.310155 95.27235 11.45068
0.6141201 97.88427 11.89182
2.96013 95.45068 11.38304
-0.778419 96.93704 11.71168
3.837415 113.7548 12.3481
2.973485 114.3 12.60117
-10.39283 112.1868 7.71292
-10.90877 112.0379 6.795601
-10.62877 113.5054 6.34168
-11.07454 115.1377 6.666917
-10.67361 112.2758 7.171451
8.075224 124.0827 11.20992
-5.88998 123.7116 12.7577
-5.425825 125.322 12.78539
0.4919122 136.9124 10.83469
-6.52569 132.5824 12.31589
-6.986062 131.2168 12.62991
-5.921938 130.5235 12.89981
-6.376522 129.409 12.88483
-7.378489 128.7878 12.53293
-7.98826 130.4787 12.39804
-6.73141 128.256 12.54972
-7.639462 138.4323 8.870402
-10.77795 113.1555 6.182139
-7.719124 113.8413 10.05686
-10.25247 123.9861 8.139778
-10.72912 122.4045 6.831976
-9.633643 127.8927 10.41032
-8.383821 126.2215 10.96155
-9.658211 125.8694 9.373125
-8.23343 126.326 11.12223
-12.19176 99.63046 8.4131
-11.76249 100.9387 8.625014
-12.16783 100.5859 8.165019
-10.81118 100.4905 9.659646
-11.1555 98.77178 9.524778
4.113239 92.63549 11.17925
-0.9812236 92.07472 11.06131
-1.564448 92.46182 11.21949
-1.646823 90.65714 11.2366
-5.005824 89.58309 11.70305
-0.7540594 90.94025 11.05781
-3.564253 88.93816 11.58356
1.262663 89.55684 11.67619
-4.717262 87.61847 11.8054
-5.895311 88.40417 11.61715
-2.806486 86.10081 12.13421
-5.15823 85.61505 12.16838
-2.655499 84.24132 12.35932
-0.9778661 89.4987 11.74412
0.5046754 87.99863 11.64306
-4.363223 88.16031 11.62469
-1.810049 88.48279 11.5146
-2.384114 85.61916 12.16367
-0.9588441 86.98244 11.98139
-2.882195 87.03866 11.97527
-3.110226 87.19018 11.93274
0.3655092 85.10365 12.21007
-3.693352 87.44474 11.84914
-1.471903 88.01514 11.64955
3.587381 91.54531 10.91531
-11.36658 98.13446 9.497535
-12.13725 97.50618 9.018004
-6.636001 97.85701 11.08595
0.931232 99.95679 12.2893
-1.502595 98.99355 12.04432
-1.170066 97.61208 11.78687
-0.9617994 98.16786 11.92971
-2.990697 98.30161 11.70989
-2.355606 98.10448 11.76244
-2.365342 95.26755 11.33486
-2.865291 99.98911 12.09161
-3.533833 99.2885 11.8313
-5.67349 97.03423 11.1843
-3.334992 95.5737 11.24615
-5.717438 101.7232 11.92785
-4.865539 101.3854 12.04255
-6.308101 100.1003 11.50364
-6.272963 95.65221 10.94477
-6.779774 98.98387 11.22551
-6.634321 95.97334 10.99984
-5.684623 98.17637 11.27851
-9.683039 99.30817 10.38731
-9.887733 99.8803 10.28457
-10.91295 98.23212 9.736848
