# .PCD v0.7 - Point Cloud Data file format
VERSION 0.7
FIELDS x y z
SIZE 4 4 4
TYPE F F F
COUNT 1 1 1
WIDTH 1666
HEIGHT 1
VIEWPOINT 0 0 0 1 0 0 0
POINTS 1666
DATA ascii
-6.415984 78.10519 -16.02054
-19.23539 61.45082 -13.43084
-19.42372 79.18169 -6.001411
-25.72658 62.99092 -2.327672
-25.66086 68.63444 3.507421
-25.59754 65.24522 -0.1906273
-5.933295 79.08424 -15.07377
-25.56947 72.1801 4.196139
-22.24855 79.76126 -0.8603233
24.56886 64.66907 4.719055
25.08728 62.14654 -0.604218
21.19774 61.85165 -10.07613
21.62987 63.07082 -10.99376
18.94446 79.17419 -11.24424
22.03717 79.09308 -0.5327796
16.76917 78.62532 -14.38899
14.21327 65.05812 -18.58564
15.84189 61.72962 -19.0486
5.116027 80.07601 -14.20652
10.27114 62.53168 -12.3556
-0.1919036 72.87389 -9.306738
-2.609987 65.4997 -8.903611
21.63366 74.56744 5.069993
-3.35924 71.58273 -10.01993
-5.789093 62.20044 -16.9301
-10.30728 80.32806 -13.4773
-8.699756 61.55003 -17.65483
-15.11691 65.65172 -15.20335
-17.80663 79.16277 -11.49832
-19.75922 79.59764 -6.338425
-26.88562 61.42628 0.4514164
-23.07696 61.08164 -4.036427
-24.31967 70.36197 1.666246
-25.99765 66.80206 3.429469
-5.704446 79.06705 -12.2198
-23.03389 77.58788 1.909259
-22.55726 77.27195 -1.927745
25.8285 66.40774 2.985935
19.64648 79.54868 -5.472768
20.56308 79.621 -8.782092
17.89237 78.40813 -11.7706
19.69871 79.70169 -3.922986
22.00091 78.41155 -0.7314801
21.29795 63.19094 -14.22629
15.53361 80.249 -14.90164
14.21753 75.91081 -16.07182
16.99222 77.06731 -14.92265
12.15216 63.5827 -17.73758
18.10276 61.76956 -18.69814
9.554004 77.45271 -12.46961
5.714546 78.02462 -14.50822
9.969283 64.31236 -12.19863
1.395337 63.64107 -13.04272
8.036885 62.52169 -12.1962
-4.02774 65.38882 -9.341298
-2.948672 72.71941 -10.1311
-5.499357 63.1264 -16.32666
-13.69231 80.11981 -12.90054
-8.444012 65.21292 -17.81244
-7.122509 62.20423 -17.69642
-12.614 61.56144 -13.24043
-16.44609 62.72446 -16.96697
-17.63404 79.00497 -13.583
-17.95547 78.77994 -10.40902
-20.43237 75.94818 -6.561967
-19.80914 80.58765 -9.310603
-22.41558 62.71145 -10.73488
-20.9663 64.77116 -11.96003
-26.38682 62.9786 1.148063
-24.6498 64.75751 -3.234514
-25.75656 71.50486 4.334992
-24.85827 73.76906 3.550162
-22.54149 77.45217 -1.803327
26.01072 66.70688 1.430624
24.18288 68.58761 4.298916
20.18813 79.95586 -3.278044
18.11156 75.03278 -12.86958
11.54401 62.54364 -16.89885
8.668743 64.89306 -11.85517
-5.831165 70.61239 -12.37949
-13.58137 79.15061 -12.80954
-14.9899 61.38313 -15.51846
-13.94782 64.48228 -13.70413
-16.61446 78.43301 -14.34672
-19.7746 77.45867 -3.724121
-23.5897 72.757 -3.276524
23.88661 66.9601 4.846233
19.41641 73.38433 -4.230295
21.07761 75.07378 -10.55747
23.2782 78.16545 0.100999
14.44263 75.40189 -16.3219
18.20872 73.90821 -13.10438
18.65789 73.75161 -12.90255
6.977878 66.52387 -13.06015
-5.479438 65.32821 -10.54777
2.045527 78.273 -13.79543
-13.87067 78.07257 -13.41604
-7.261638 64.96559 -17.76915
-20.15959 64.94109 -12.26663
-21.98865 77.01922 -3.710366
25.7851 68.35644 1.679621
7.502673 68.46709 -12.37872
-5.798313 66.14853 -12.07893
0.6569721 75.52631 -11.84413
-13.86844 76.06945 -13.83336
-16.92428 66.21524 -16.51689
-18.75736 64.87977 -13.08831
-20.17845 66.13544 -11.97798
24.92253 73.00857 1.643549
0.9304421 68.48355 -12.45601
-13.31362 76.34302 -13.15399
-18.36992 67.08591 -13.6859
-17.38907 69.00243 -15.9157
-18.18143 68.45549 -14.3171
19.88624 76.03648 -5.868588
-13.41518 74.42352 -12.96452
-13.3183 67.13168 -13.03932
-16.7798 69.81011 -15.96273
-18.34343 69.25204 -13.21103
-22.0423 66.57352 -8.610922
20.28594 76.97654 -6.225034
10.44493 67.35735 -13.62671
-14.32438 75.30679 -14.41904
-10.57803 64.41921 -14.03381
-19.73649 74.41409 -5.936278
-21.23698 66.95341 -11.39243
21.07926 73.42949 -7.284723
10.89844 65.14735 -15.42838
-10.77913 67.60035 -13.16831
-10.27881 69.35165 -14.79895
-20.70749 72.7926 -6.772643
19.61468 78.17735 -3.971293
10.81065 67.61608 -16.24395
-10.22243 65.6729 -16.10078
-10.31196 67.44064 -15.61362
-8.615829 63.96578 -17.68872
-21.19949 69.19087 -7.261048
10.69715 69.46593 -15.91645
20.44264 77.80671 -3.183544
10.01057 71.09669 -12.95474
21.56682 75.45913 -0.9977087
12.93505 76.49627 -15.89401
10.20771 76.70762 -15.64413
10.2263 75.92571 -15.67527
11.66786 72.79386 -17.01556
13.33206 72.35561 -16.9371
9.517652 75.13867 -12.81949
11.98368 71.99618 -17.22782
12.00389 69.21391 -17.58831
15.32056 70.4561 -17.86812
15.64032 66.72124 -18.47142
14.44736 68.15014 -18.28216
17.68823 72.12786 -16.02073
17.24306 72.23303 -16.76648
18.33754 69.92902 -14.56606
20.70397 70.91992 -12.3737
20.71691 63.73647 -4.202022
22.50358 64.47688 -1.799936
0.5754871 74.964 -11.50556
24.75616 73.36497 1.179565
24.82711 73.43186 1.80865
20.859 65.05975 -8.689137
20.2845 63.26734 -6.436616
22.36198 65.84092 -1.647798
0.83495 65.62296 -11.18955
0.5855155 62.70687 -10.43955
-4.388979 69.57096 -9.791628
-9.63895 76.50369 -16.22295
-10.32246 73.91199 -13.22288
-14.1462 72.15206 -13.60266
-11.38779 76.33004 -12.25711
-15.4992 77.56818 -14.48728
-20.91391 62.89322 -4.69586
-21.50272 63.09571 -7.583029
-24.7047 68.96259 1.895128
-24.41288 69.51595 1.138198
-24.35965 68.91236 -3.138458
-25.4056 65.86007 -0.1177022
-20.53984 66.6221 -4.526507
-24.85404 66.04278 -3.031599
-21.6419 69.64892 -7.940984
-6.341977 77.74245 -13.94089
-24.06725 74.70388 0.272871
-24.35671 73.61267 -0.1545673
-23.65999 73.79319 1.89048
13.25215 78.71317 -15.08306
6.831919 77.54406 -13.39862
5.24161 73.07101 -14.69075
3.703007 73.83517 -14.75722
1.550253 72.22857 -13.8792
0.7109575 74.77264 -12.19647
2.936211 68.32272 -14.56913
2.536042 67.82236 -14.37084
4.253084 68.04883 -14.70926
4.395476 65.92435 -14.65706
5.350733 65.55563 -14.37639
9.870812 72.27385 -12.91949
7.588024 69.64544 -12.27599
9.883297 67.83298 -12.39306
9.029001 66.77546 -11.7485
-9.790789 78.62593 -13.91886
-14.90723 75.83672 -14.61775
-20.75188 75.8894 -10.0468
-19.26154 75.67342 -10.56021
-17.86398 74.3093 -12.04393
-17.71056 74.56734 -13.14593
-15.58815 72.10514 -15.2617
-18.1032 73.29473 -11.62102
-22.93705 74.77144 -3.38343
-22.10293 72.67936 -3.987644
-24.74838 67.44213 -2.840963
-22.67556 69.54096 -3.84802
-22.7033 67.08339 -3.856981
-20.44786 72.208 -6.515441
-23.0095 71.45943 -3.794591
-20.13206 69.26688 -5.923108
-19.95385 71.63597 -4.290868
-19.68371 71.88519 -5.740272
-20.33738 72.54381 -6.44102
-5.792017 70.13435 -12.5937
-5.729664 69.09132 -11.0757
-6.482388 65.91784 -17.38511
-4.284271 72.88847 -10.33558
-5.422902 70.59775 -14.98544
-6.256298 74.71091 -16.80238
20.38983 74.68758 -11.70581
-16.194 71.55919 -15.66912
-17.18868 70.23717 -15.80019
-14.05746 73.41149 -13.72774
22.49356 65.39374 -1.628028
19.92306 68.35383 -4.024244
22.69593 67.9507 -0.9827603
24.96927 70.92385 0.6658404
25.00316 67.80589 0.1413291
25.06894 71.98775 1.149512
23.56522 74.74168 -0.09878307
24.59181 74.99346 2.123098
24.39415 72.69852 3.515487
-13.63226 69.2733 -13.06197
-13.13031 72.94837 -12.43484
-19.59267 67.79367 -11.76243
16.72558 67.51815 -18.19524
14.76531 65.38165 -18.61215
18.3768 67.65128 -15.88188
19.82984 68.12247 -13.72631
18.86567 67.80341 -14.86852
19.14074 70.01111 -13.63961
20.13454 64.81058 -5.065564
-3.231693 77.3544 -11.06332
-1.886759 76.56911 -10.51112
-6.016833 73.19278 -12.76464
-6.264531 75.16513 -16.74999
-6.056821 73.38176 -16.71963
-6.42841 77.53335 -16.33486
-8.20863 75.19836 -17.18032
-6.840882 68.44109 -17.59555
-8.398512 71.96765 -17.55278
-10.16327 70.74352 -14.35989
-10.06223 71.82594 -13.98177
-17.30578 77.53751 -14.31626
6.681766 70.61921 -13.40608
7.310809 75.81368 -12.5633
4.077841 71.98226 -14.93705
6.829162 74.92876 -13.31204
3.639014 65.6667 -14.54272
-17.71317 73.61021 -14.48031
-18.92316 71.46938 -11.3497
-21.39911 68.555 -7.518193
-21.68419 74.06571 -9.206384
-5.724184 65.98313 -12.98296
-8.243074 68.11398 -17.72095
-7.096031 68.36542 -17.6722
20.93109 72.43996 -1.593243
19.76899 71.6324 -3.338087
22.96477 76.08202 -0.3710362
-5.848873 71.41067 -12.69268
-7.269652 70.31799 -17.6008
20.5927 70.18206 -6.974942
20.94578 69.12438 -8.008528
19.97597 70.72156 -5.875899
20.95363 68.55359 -8.161796
21.60669 66.92297 -10.08297
21.72758 68.72186 -11.25858
20.73421 68.89481 -12.88987
20.44814 71.33987 -12.44974
21.10847 68.42051 -12.63796
19.09354 71.57599 -13.2571
19.91475 69.1597 -3.71351
20.42764 71.67198 -2.27496
20.49942 73.08262 -2.262787
-19.57971 83.33182 -3.995576
16.73567 82.98466 -12.77224
21.1962 81.64568 4.376231
-6.218836 83.6854 -14.0023
4.921088 82.57681 -14.22715
-7.668025 82.08002 -16.5911
-21.56689 82.03589 -1.432837
22.36529 81.80688 1.452963
3.840855 81.58022 -14.06444
-7.71775 81.22912 -16.58605
-22.42999 81.66709 0.1403822
-13.70677 83.03893 -12.88681
19.3011 81.29018 -9.839511
7.504216 99.00621 -12.83794
10.59089 97.50359 -11.95762
3.167639 100.0511 -12.07261
-6.601911 83.47804 -15.04298
-5.851797 83.71416 -13.25085
-15.59498 82.56433 -13.21329
-3.118979 80.58947 -11.20079
-20.24958 81.73302 -6.925333
-21.98182 81.03571 -1.091308
-22.69056 82.33308 1.102889
-17.70774 81.47472 -11.43296
-20.25832 86.80145 -1.924758
-12.59779 99.77528 -10.90901
19.79611 85.43619 -6.750268
-21.72491 82.45318 -0.7933643
-19.55852 98.45151 3.397965
15.38843 91.8689 -11.32742
-19.12883 100.4242 3.565733
-16.10447 83.43965 -13.03172
-22.2629 81.44897 -0.4694257
3.771979 83.30257 -14.15962
-10.61613 81.47372 -13.1636
-18.7554 82.28146 -9.559551
16.74293 81.55444 -13.4027
-3.133946 81.12807 -11.20841
-20.25993 82.14983 -8.219974
2.341664 82.35982 -13.62306
-16.29368 84.51665 -12.83304
12.65378 83.81332 -14.79841
-21.19148 83.96539 -0.9511457
-16.9134 84.42676 -11.93216
18.84646 99.26859 0.3539793
-18.8338 100.9616 2.90404
18.54365 94.05093 3.888564
-19.00034 99.39352 0.3674499
20.07409 83.32374 -5.592684
20.73115 82.54321 4.580254
-0.8428707 84.69917 -10.52587
0.5944241 82.92583 -11.94943
-7.32296 85.00044 -16.45284
-14.1767 88.64687 -12.82372
-21.44618 85.21256 -0.1270639
18.3005 96.17375 2.76928
16.21141 96.83524 -6.266411
-7.192478 97.90134 -13.70636
-21.97535 87.35921 1.216304
-23.2126 82.1981 3.730051
-21.03173 85.99454 -0.3903772
20.50448 85.50284 3.385784
4.008011 85.26521 -14.31427
7.110328 87.69349 -13.44378
-5.01637 85.6308 -12.51964
-3.427827 85.20164 -12.0105
-11.14245 83.9789 -12.35159
-18.81276 83.31656 -9.186651
-22.10957 85.51521 0.873608
18.10052 101.0572 0.8460543
17.79869 97.94475 3.884276
-19.32727 99.6849 1.343545
19.88118 88.88375 4.89828
7.890794 97.92716 -12.6408
-17.03649 99.04913 -4.197382
-21.26483 92.6492 1.823726
13.45407 99.33498 -9.097372
-1.829636 86.76241 -10.97182
0.3414187 94.02221 -11.06134
2.078947 84.52168 -13.69868
4.652474 86.87531 -14.40579
2.933288 90.20376 -14.16756
7.351545 89.45322 -13.4093
-21.87812 86.75784 0.973189
18.11081 99.79324 -0.8359783
18.83324 96.53157 2.126629
-20.56434 95.06131 2.267168
17.9233 96.99593 -4.242616
2.688443 98.20579 -12.20925
-3.052806 98.70299 -11.92343
-9.355988 100.6003 -11.09701
-21.35679 90.33015 1.000678
-21.07144 94.37238 4.282541
13.17706 97.89819 -10.24225
19.90889 87.54942 3.310958
17.25133 98.12214 -2.942106
18.76727 92.5755 3.43147
17.54248 98.60347 3.148298
-19.50011 99.20214 1.362091
-17.36325 99.61832 -1.75871
14.8032 96.06562 -9.835785
19.68633 88.73452 3.569269
0.5696015 99.9114 -11.75723
3.918366 98.18525 -13.00006
8.156739 99.23792 -11.98466
-3.407579 95.95918 -13.13973
-2.278166 97.11424 -12.387
-4.45247 94.17712 -12.87285
-6.328841 99.02388 -13.50172
-6.672972 95.65932 -14.95428
-8.702619 94.4359 -14.55674
-11.08122 95.95628 -11.22455
-13.45628 99.06065 -10.6728
-16.67328 100.6432 -6.339859
-15.15077 97.64133 -7.905509
-20.32365 88.5671 -0.540441
-21.13489 86.99345 0.0135088
11.06166 97.21892 -11.98903
13.95847 97.23398 -10.09406
9.09881 97.46105 -12.77898
17.3949 97.37351 -2.513665
-17.85232 97.8909 -0.430733
-0.2898599 98.3681 -11.31578
-5.408335 95.04204 -13.07237
-0.5681306 92.74932 -11.30997
-7.263824 93.96637 -15.30057
-13.68323 98.74733 -10.43645
12.9211 97.32944 -11.1461
10.18195 97.57566 -12.84067
-19.86089 96.5443 0.7795303
-17.60666 96.36476 -3.170432
18.00887 95.06168 -6.254955
3.381561 97.16956 -13.01166
1.289562 96.01828 -12.27048
-14.2216 98.17283 -9.935313
7.995565 97.10887 -12.70662
14.78253 94.30341 -10.84701
-5.543314 94.81904 -13.44277
-5.546447 92.44483 -14.79
-4.244909 91.02412 -12.73032
9.330297 94.9285 -13.77353
15.87964 93.41055 -8.983311
4.264417 97.74945 -13.33158
-1.401114 92.13108 -12.19519
7.793448 91.11981 -13.28043
8.352443 92.83808 -13.71201
6.944089 90.55916 -13.99667
11.66256 90.35474 -13.50739
8.933678 89.71906 -13.66311
15.39272 93.56528 -10.46231
1.583251 94.73304 -13.2861
7.180929 96.47547 -13.52029
8.723567 84.89293 -13.02519
8.681352 87.07104 -13.16115
5.493415 94.94097 -14.04057
4.988749 97.75493 -13.50602
12.18616 84.63078 -14.76182
-1.576707 83.25163 -10.40578
16.30708 87.63279 -11.52088
17.08522 85.48872 -10.53019
16.32009 91.17212 -8.360235
13.19903 86.45562 -14.1075
13.01483 86.95409 -14.05504
14.48956 85.56828 -13.88299
11.87673 88.41222 -14.01028
9.350613 88.7827 -14.0697
8.955368 88.88964 -13.68999
18.24294 89.43968 -7.766349
18.96702 90.04479 -3.245039
19.37813 88.6966 -4.975153
18.94686 89.60462 -4.095994
20.68951 85.12341 -2.075917
22.12078 83.30641 1.120567
21.47044 85.13404 2.18466
19.89161 88.2691 -2.381086
20.54053 92.7921 0.9580058
18.33283 95.14225 -5.836154
18.32307 93.76438 -6.349691
16.47791 93.01621 -7.115911
18.49756 88.04659 -7.899091
18.3103 93.82918 -2.725886
20.2777 89.63109 -1.575175
17.58387 96.77556 -5.913061
20.53465 90.9866 -0.8650225
20.61731 92.70232 0.2663719
16.26274 98.12836 -5.994505
20.4986 93.60537 0.5614867
-2.259605 84.74793 -10.96159
-0.1541378 87.05283 -11.53197
-0.0925492 88.20942 -11.38403
-2.922793 84.80428 -11.84906
-3.719295 87.91083 -12.11379
-2.657775 88.63274 -12.20369
-4.570272 88.21756 -12.43736
-8.80446 84.61908 -15.86538
-0.1387616 85.80657 -11.74318
-15.79142 97.98854 -6.947078
-18.14766 95.4724 -6.688427
-17.95386 96.90321 -5.855008
-13.28201 96.31961 -11.74947
-15.93912 91.85143 -9.856054
-15.91105 91.87235 -10.22468
-9.97345 97.14951 -11.48011
-21.86008 89.9951 2.081861
-20.8005 92.02338 0.6050627
19.58916 96.44936 1.394809
-18.21399 96.25053 -2.354873
-7.635925 90.88194 -15.79592
16.15762 91.2159 -9.606254
3.920719 93.67986 -14.11526
3.894452 92.4058 -14.22584
6.034876 98.16507 -13.46914
16.9328 88.9007 -8.458093
15.4556 90.88206 -11.61765
14.75012 89.36783 -12.96913
16.67158 88.27931 -9.93972
20.11243 88.83814 2.441481
17.59955 97.65095 -3.61017
0.7681706 91.17513 -13.22307
-19.1548 87.01634 -4.0657
-19.62893 85.35936 -6.309341
-15.01747 92.98899 -11.62161
-18.19704 94.62958 -5.034091
-18.83804 91.24657 -3.922029
-14.56699 92.12172 -12.22628
-8.255591 89.23307 -15.94843
-10.26032 92.46801 -11.93173
-10.4636 94.51699 -11.65141
-9.163602 95.37128 -12.32088
-15.54535 89.22176 -12.29134
-12.36888 91.95825 -12.05
-16.08101 90.88159 -10.39277
-8.686945 86.15446 -15.87535
-12.70439 88.06461 -12.42552
-13.03302 90.62765 -12.4205
-10.05999 88.58089 -12.55724
-9.237837 85.16143 -15.19269
-9.228988 90.14228 -14.75071
-13.78438 85.8617 -12.78314
-16.50087 85.70414 -12.31064
-7.42703 84.78035 -16.51554
-8.655951 92.39256 -15.34123
-20.53951 90.16473 0.06464214
12.78866 94.17048 -12.56374
-18.93151 93.80529 -0.4594961
-18.87163 94.6635 -0.366412
-18.58409 93.90746 -0.861603
14.86712 90.65725 -12.40599
-12.71779 94.51561 -11.77299
-17.43882 88.62255 -8.673514
-17.85574 87.39507 -8.722087
-9.204809 84.89445 -15.32885
-19.06668 89.54034 -3.980414
-18.63462 88.45848 -8.176083
-20.43149 83.16573 -3.389187
17.98888 101.5322 0.7895353
16.37452 102.7614 -3.283919
15.89222 101.9474 -5.264116
-16.76842 101.1584 -5.744261
-13.05091 101.8806 -9.10085
-1.279283 100.8526 -11.56316
-16.30727 102.9688 -4.769416
14.04933 115.0432 2.872113
13.27799 117.6497 2.884041
14.98208 109.9725 4.125204
1.250982 105.8403 -10.66308
1.054974 118.534 -6.429552
-3.642774 100.7554 -11.61882
-12.53404 102.3056 -9.733059
7.850191 102.3876 -11.33989
-8.371858 101.433 -11.7454
16.07342 104.5186 -2.055565
16.60074 101.2867 -4.572042
-17.2187 101.0102 -0.7318212
-1.748909 113.8965 -7.404802
-2.637273 118.5631 -6.560746
-5.990956 118.6101 -5.565926
5.763501 102.498 -11.17661
-11.77122 116.5762 -0.6631893
16.17426 103.7016 -2.662894
-12.31138 101.3626 -10.68655
-17.71308 101.3428 0.2970039
8.936925 101.0095 -11.88982
-16.69072 102.3529 -0.8369312
3.031354 104.8634 -9.980204
3.719936 106.7114 -9.120226
1.521473 117.9128 -6.573565
14.38639 110.6491 -3.431596
-14.25867 110.4104 -4.297504
17.39366 101.2948 3.194259
4.434915 100.6337 -11.68206
12.79414 118.2151 1.846676
-5.498825 114.4832 -6.964159
-12.34577 118.4374 0.01311033
-12.35274 119.259 1.414453
1.000243 112.1903 -8.458072
-17.07029 109.2192 3.268195
3.275629 102.3532 -11.19778
11.67231 118.4343 -0.6303136
13.65596 116.6483 3.152592
1.824436 115.1232 -7.213038
-0.647606 111.3225 -8.30345
-14.26899 115.441 2.690607
-10.79974 117.8976 -2.410927
17.344 103.847 1.52429
8.778043 117.078 -4.253433
4.783986 117.3612 -6.012754
1.238358 103.0308 -11.98736
-2.998712 106.9068 -9.692886
-5.703877 101.2394 -13.1037
0.8342195 115.3302 -7.920743
0.07337686 112.0043 -8.1612
-1.967521 114.7023 -7.151985
-1.784561 110.5753 -8.109284
-11.19379 118.3425 -1.209335
-15.07531 112.1848 2.390247
16.34684 108.4954 2.352399
4.867707 118.0509 -5.853982
2.800411 104.0751 -10.39794
-3.760765 103.3786 -10.86455
1.841414 115.9617 -6.877965
-2.378391 110.5324 -8.175858
-4.517897 111.7035 -9.475684
-2.023403 116.389 -7.105913
16.97136 106.568 1.179012
15.20585 109.1825 -0.5569875
9.616851 116.0435 -4.161184
1.692447 106.102 -10.18305
-0.5810925 106.6374 -9.948462
-3.377007 106.9178 -10.09777
1.716452 110.4563 -8.817389
-2.779327 106.5572 -9.510358
15.63702 111.3615 2.738072
-2.685537 104.9648 -9.851624
2.134719 112.8266 -8.269629
16.01037 105.3451 -1.259435
15.14754 113.1654 1.04079
12.79163 114.803 -3.172924
15.85352 105.5923 -1.808892
15.31727 109.1117 -0.4229509
12.13828 114.8625 -3.629085
15.56798 106.0598 -2.997653
14.90659 108.6157 -2.954663
14.96699 107.7452 -4.016406
15.73223 104.0372 -4.590111
13.1868 112.1981 -4.008937
13.59698 104.169 -6.078715
13.44402 113.3372 -2.513316
13.80122 112.2175 -2.451086
12.71789 103.8041 -6.724771
12.70701 100.8608 -9.073987
-16.60192 107.8303 0.6265019
-15.31047 105.3141 -2.735509
-14.5084 111.5435 -0.5256395
5.484588 104.6196 -10.06246
16.95495 105.696 2.095737
13.14529 114.6288 -1.04862
-13.16087 117.1844 0.6060027
-15.89117 110.288 1.772066
3.358509 110.3645 -8.709278
2.303628 103.096 -11.29266
-4.870085 113.403 -7.515007
-13.16751 116.8407 -0.1879217
-12.66666 114.2988 -1.582659
-13.0391 112.5224 -1.349896
-13.89324 109.9976 -2.464419
-15.75451 104.7721 -3.606326
-16.18826 104.0926 -0.7875373
-14.96691 107.5137 -5.143645
-15.06748 107.9693 -4.147306
-11.41229 105.8788 -7.577549
-7.927018 115.5147 -6.962323
-5.213808 107.124 -11.08349
7.8311 114.2991 -8.010283
14.6189 105.5807 -5.213142
10.99307 105.8612 -7.664453
10.73311 105.6544 -9.27354
11.07119 104.9463 -8.897092
8.429615 105.0553 -10.93931
7.723915 108.2378 -9.982292
11.79662 103.1569 -8.563486
7.202828 109.3794 -9.391502
9.433119 109.9385 -8.018023
9.139769 111.0631 -6.97329
9.527549 110.0513 -6.594046
11.81293 106.4933 -5.999494
8.592779 113.6645 -5.975945
10.35251 112.3955 -4.430063
10.86763 108.8835 -5.51642
7.071136 103.2078 -11.01633
2.738246 105.4878 -9.916104
-3.390851 116.2046 -8.342751
-3.398786 110.7061 -9.894393
-4.603496 110.2569 -10.06473
-6.136156 105.9918 -10.53064
-5.300907 109.8375 -9.372184
-6.859281 103.5196 -11.25489
-8.251282 111.2378 -8.496038
-9.352926 104.7323 -10.3686
-11.54869 105.3965 -8.289895
-11.49094 104.7507 -9.316102
-12.16432 103.9175 -8.673577
-14.63423 113.4174 0.07316643
-12.92423 110.3778 -5.081885
-15.14747 104.1178 -6.189265
-8.312688 113.9436 -7.598074
-8.105508 109.3719 -8.852032
-6.741858 111.5068 -7.812936
-8.868058 110.8862 -8.699354
-9.734801 110.5789 -7.66692
-9.878273 111.9218 -5.549154
-11.42644 115.3883 -3.556949
-11.73838 112.8151 -4.702393
5.729008 106.1975 -9.358776
3.179291 110.9568 -8.663741
8.527201 111.5061 -8.866883
6.225442 108.6844 -8.903208
-13.28735 106.2931 -6.348023
-8.448519 109.8407 -8.879262
-11.57114 106.8931 -6.674897
8.281662 112.231 -8.651622
4.769206 113.8229 -7.03318
-12.00696 106.9838 -6.427948
-9.837435 102.4615 15.70982
-8.355544 103.1747 12.76631
-13.47216 103.536 10.42236
11.75134 101.6899 11.06803
9.127428 103.6835 13.91886
-10.74401 105.0477 13.95633
7.956263 103.9062 15.61522
-13.61177 117.9406 3.828427
-12.59019 119.1012 5.808756
-9.435298 118.9967 10.3266
-4.941316 118.9178 11.87024
-1.459147 104.487 13.58982
1.143222 106.9377 14.4366
-8.159969 104.6568 13.33335
8.460944 104.2582 11.31274
-14.48667 101.2573 9.462528
16.85877 102.6795 6.572725
-16.96675 102.4266 4.998596
7.240246 119.1052 12.25067
4.948964 118.9036 12.5983
8.347286 103.6927 15.36931
12.60155 118.8456 4.323354
5.247818 101.9923 15.38047
6.253323 105.7161 15.6264
-15.58233 110.0137 3.832678
14.914 107.7065 8.305696
-9.789426 106.4518 15.16435
15.47238 108.0911 5.600994
15.6198 101.3855 9.273269
14.84756 104.9066 8.991185
-7.222221 104.3807 11.89367
-3.943783 102.7692 12.9521
-1.92898 104.1767 13.15861
8.681529 105.2324 11.92165
10.00763 101.9693 10.39079
-7.030342 105.4598 11.7215
-9.381873 104.1483 15.78999
-14.13471 103.9865 9.159043
-14.30445 116.3494 3.773893
-18.03888 105.2106 3.793561
6.1071 118.4385 12.98316
15.90691 106.2225 8.146437
13.77601 108.3232 9.478376
-5.306606 108.3029 12.5462
0.7845075 106.0013 14.4756
9.059116 106.0026 12.64473
-6.968146 109.0015 12.13505
-13.79095 104.4884 9.412925
-14.48032 112.6271 6.518056
12.59794 115.6311 7.264586
-17.02614 109.6525 3.386445
-0.372064 117.9142 13.16764
3.224877 117.8996 12.0699
16.05473 107.7097 6.448152
13.95112 106.3473 9.420316
7.497578 107.2264 15.47316
-10.90406 103.0322 14.71046
-11.90167 118.0293 7.575862
14.12644 115.7574 6.002548
-16.60437 103.9271 4.774846
-15.71707 109.5581 3.936111
-15.0441 109.5312 4.779253
-13.67684 112.7979 7.572382
-1.945631 118.4258 12.76603
3.207355 119.7372 12.27677
8.289949 120.1289 11.44772
14.75882 110.2338 4.893345
-0.6367655 107.6487 13.1482
9.005252 105.664 14.37984
-13.12036 107.6763 9.950269
13.92645 115.739 5.508147
13.47271 113.8592 7.677084
-13.94526 105.6019 8.99466
-15.07586 105.3558 8.310914
-9.135082 119.6423 10.30755
-3.02724 117.4608 12.20603
1.053055 119.7748 12.46112
4.518233 118.437 12.22873
1.253366 117.2326 12.63464
2.764521 115.0876 12.7412
3.806799 115.6367 12.47936
7.412549 117.621 12.95547
4.823113 115.8736 13.49576
8.921549 118.9796 10.41496
10.5794 115.0006 10.40999
3.146431 105.3151 14.27294
4.169549 104.8255 14.46065
0.2252213 107.6881 13.3583
-12.48022 107.6712 12.10326
-12.77496 110.0854 9.444283
-11.77771 116.8996 7.889617
11.60663 119.3922 8.460568
-15.60935 103.6628 8.047547
-14.46097 112.767 5.294578
3.440146 117.2424 11.84471
-0.9752633 114.8435 13.33417
11.21551 118.0753 9.620324
-11.79607 109.2121 12.17793
-10.7672 107.2636 13.05578
-10.30142 108.7351 13.10966
-9.662077 109.6161 14.09039
-13.12177 109.7908 10.8243
-11.05691 117.6155 9.65159
4.709658 113.1568 13.66076
5.187872 113.9765 14.05176
-0.2824066 110.7328 12.32651
-10.15077 108.7836 13.37702
-12.46042 112.3541 11.26441
7.550141 108.2133 15.3482
-1.279324 110.0896 12.4767
0.2078866 109.3615 12.77808
-12.21984 113.9456 10.52458
-13.57124 115.2364 4.212491
1.40756 113.7334 12.36994
-0.9150517 112.4403 13.13687
-9.398911 112.0979 13.21463
-9.353065 118.0711 10.70677
8.722828 111.8211 13.99681
-9.21669 113.6741 13.13263
6.874541 110.1562 15.32232
-7.669429 116.7828 12.30182
-13.46736 102.1198 11.81183
12.96169 104.2986 10.79168
16.18137 106.9703 6.27805
15.55868 108.6585 7.681362
9.537786 105.1753 10.11412
14.43557 112.1503 7.614797
13.2151 113.8511 9.435617
-3.254626 108.3057 13.56781
-3.915477 113.7391 13.06564
-4.825289 108.5008 13.15969
-7.456406 107.6933 13.55972
-4.961229 111.283 12.37122
-7.303486 108.1646 13.10262
-7.07633 108.4051 12.10661
-2.728835 114.347 13.79269
-4.582453 115.2142 11.60656
-6.279411 113.5599 12.18356
-15.12833 109.2184 5.303604
12.95532 114.6609 7.735483
11.86359 114.6592 10.54767
13.38259 111.4865 9.711887
13.22755 114.2456 7.662334
7.257846 108.5566 15.44333
7.440254 113.2189 14.52051
8.946637 116.4276 12.58404
9.294465 113.8052 11.72217
4.587904 112.2849 13.65857
5.746833 110.4555 14.78727
11.27356 108.0632 10.38851
9.161823 106.8897 10.27831
10.88124 110.9204 10.10026
8.956005 107.4038 12.36361
12.30866 110.4412 10.80941
11.05163 109.5788 10.18863
13.55798 110.2616 9.180224
-4.197786 115.5903 11.76146
-7.708427 111.0917 14.52374
-6.576664 112.4162 13.3144
-7.922612 113.7257 13.60152
-12.70565 113.8349 7.985001
8.984578 84.71292 17.61983
-20.26933 81.32032 6.882682
-2.951684 83.56832 15.04313
-12.32189 82.34361 18.15664
-15.55301 82.63431 10.32477
14.85768 83.81936 10.4431
-2.185106 82.9276 13.28001
-8.855799 83.05344 10.31151
-8.92542 99.35393 16.44346
7.385477 81.28862 10.93132
-21.43102 84.19926 5.3431
-18.63882 81.28715 8.37638
-13.60906 86.70659 11.93305
-6.243575 100.9862 12.50336
-11.55611 85.20194 18.09069
-0.4602517 82.62388 18.06926
3.107221 81.91108 17.1125
-8.895477 83.27563 10.35664
4.006866 86.54745 15.97339
-12.63445 83.20246 17.98126
17.80607 81.94296 10.5042
20.30385 82.19196 8.418259
7.417727 82.02367 10.72395
4.080834 98.6621 14.47647
-16.649 82.48735 10.0898
-8.775509 83.63578 16.35329
18.62348 92.0136 8.151627
11.69563 82.05507 10.89458
9.457982 100.989 10.10389
1.308145 83.45127 17.84525
-2.870454 83.5267 14.70431
8.002665 81.76784 10.62045
-8.833795 82.64413 16.41324
8.825339 83.15114 10.3593
-12.81886 86.39206 17.72955
-1.992516 82.84241 12.63128
-15.17122 83.12415 10.39329
-15.01404 82.30175 15.61128
-14.74161 83.32786 10.56162
16.1695 86.43708 10.21002
-0.5995622 86.70218 17.76039
-18.89567 99.40577 3.982893
17.30731 98.82322 6.254792
-9.525655 94.38783 12.90999
9.724088 99.91859 9.909576
-21.03296 82.26606 6.039674
-6.9712 84.26571 10.53744
5.683156 85.02188 16.35168
9.692462 82.11298 10.37713
18.59376 97.83687 5.260437
-21.71562 84.88094 5.091481
-2.001705 97.2778 11.71001
9.784436 97.48402 13.89155
9.30617 99.11983 15.55324
20.31643 82.05992 8.373317
-9.709846 82.4848 12.64983
-5.284731 82.87369 9.939767
-7.569189 85.58818 10.59494
8.015452 82.54919 17.35535
9.544762 85.40776 17.4222
-16.79618 99.47969 6.38698
18.52969 96.99252 5.506653
17.94802 97.39417 5.875922
-8.116007 99.46275 16.21885
-1.76045 100.4252 13.61477
9.780281 98.27379 9.963729
20.2404 87.86133 6.09081
20.44133 82.21744 7.376858
-2.004691 85.60367 12.04118
-2.183385 85.48328 12.89639
-2.523062 86.3483 10.81756
10.22099 85.74373 16.07516
9.118649 92.65326 16.82713
9.913239 86.85637 15.0329
-18.27575 98.70333 4.585142
-17.10323 99.34927 8.019737
19.69338 91.77877 5.734692
-20.38348 86.61494 5.183732
-8.255636 100.0084 16.33412
-7.558062 99.75837 11.2336
2.082111 100.1579 15.14581
8.572637 101.4451 12.07844
19.73765 88.65345 7.252233
18.75785 91.37428 9.136942
14.1208 91.69087 10.27046
18.63732 86.99388 10.26371
-2.57791 84.42981 16.83199
-6.589514 84.77238 10.664
6.941886 84.54111 11.29733
8.266978 86.19241 13.45636
-16.99873 98.31598 6.792427
15.86923 100.4385 9.500863
-13.38012 98.01176 12.77969
-9.950466 98.85313 16.06662
-11.5437 98.4341 16.09765
-9.653659 95.56596 17.37895
-7.024954 99.96513 11.68609
-8.28096 99.99699 11.42881
1.634649 99.97978 15.90355
6.755285 101.3708 16.11338
9.641764 97.44293 13.52112
9.104423 101.6836 13.55108
13.24712 99.8812 10.19503
-18.74951 91.08846 4.988424
6.376792 87.65895 16.63754
-12.0571 100.2706 14.75927
-9.07265 90.86808 17.43304
-8.17316 94.14181 16.38229
1.779365 100.3276 15.77575
8.257833 100.4442 11.48365
14.98547 95.9292 10.3809
14.3983 97.229 10.30017
13.25212 96.2794 10.36158
16.62622 92.75502 10.469
14.3757 92.94387 10.32638
-9.202256 97.18838 11.53719
-4.664341 94.73456 12.23091
16.62129 98.97309 9.623455
-8.828719 95.86923 14.67708
-11.43838 98.22771 16.21599
4.927265 98.10085 15.30781
-12.93202 92.70222 16.4697
11.69092 91.94975 11.67539
-13.25029 94.32533 14.68421
16.08984 88.33109 10.296
15.3226 85.95328 10.24605
14.22742 88.22321 10.36971
12.89939 83.45726 11.53411
12.6127 90.87585 11.16461
12.94286 87.44501 11.38521
11.03584 90.47318 11.29357
9.046503 87.3804 9.979442
9.675628 84.42353 10.19953
-14.66169 82.07682 13.30172
-14.61269 84.23158 16.03074
-9.409411 85.4181 10.80186
19.87392 85.4838 8.937992
-9.065228 84.3728 14.34767
-7.592651 89.17204 10.86247
-7.430459 87.94634 10.86357
-4.109118 88.38087 10.44009
-7.984357 92.19058 10.77198
-5.105042 96.57101 12.77539
-6.566503 91.73233 11.63553
-3.08668 97.37063 11.0116
-3.026932 96.47717 10.91779
-2.228831 90.99483 11.4593
-5.0303 94.25143 12.34978
-3.888813 88.61427 10.35976
-2.780544 90.43709 14.47378
-2.607593 91.79086 15.26036
-5.489156 97.6183 13.01235
-2.165193 89.38551 12.14036
2.177529 90.91685 16.31021
-1.188788 91.2863 17.05253
2.227576 81.73307 17.60959
2.685652 86.17897 16.49441
3.441901 88.56049 15.75597
5.995804 88.0135 16.36977
6.667089 88.69716 16.84459
5.186143 91.28278 15.61829
2.259254 90.60491 16.25308
5.684992 91.11078 16.04137
7.778797 89.02539 17.4708
10.00298 93.03138 15.39881
4.026256 93.67401 14.94631
9.317549 88.06654 14.38403
9.500841 94.19701 14.18049
10.09644 89.19185 15.52147
7.343908 89.152 12.34015
7.841265 88.98359 13.01698
6.803905 97.40704 16.96564
6.323914 97.15271 16.84324
6.991328 87.92776 11.02901
7.642161 92.49608 10.0668
7.830719 87.64131 10.18719
6.981012 87.39567 11.00744
7.426965 95.42803 17.19063
-19.70412 83.5762 6.613254
-8.588389 97.7457 11.1383
-6.509454 96.98994 12.21104
4.219023 97.35129 14.62031
5.735229 94.6122 16.25086
0.8701048 98.46658 16.71881
17.45971 87.8055 10.35272
-19.03225 91.1209 4.908112
-13.86011 97.04359 12.79337
-14.32329 97.26166 11.59966
-16.42579 95.1806 10.47639
-17.22612 95.62204 6.277296
-14.98485 92.7271 10.76803
-17.2637 94.48915 9.8904
-13.49124 92.29536 11.61488
-12.49196 92.44797 17.30594
-14.15905 91.24683 15.24159
-14.24963 91.03741 14.37576
-14.50692 84.99607 16.22382
-13.38878 85.59686 17.46668
-13.83022 87.00386 11.02272
-16.66312 84.2161 10.22752
-14.85111 85.77715 15.09722
-16.33729 88.65907 10.48977
-18.4745 86.57852 7.635255
-16.78037 87.69189 10.29698
-18.57946 87.57835 6.96137
-6.190166 98.39902 12.65715
7.835332 96.21407 9.951007
7.584999 96.27451 11.14682
9.79804 96.48613 14.15932
-17.1846 98.63557 8.432653
17.31155 97.94564 9.477548
17.70807 96.16878 8.460941
-11.3153 90.5052 17.82006
-11.02855 93.35867 17.62891
9.540639 94.64138 10.16647
9.832671 94.25467 10.32151
11.2374 97.19328 11.59134
18.49981 86.1952 10.24858
-9.213708 88.4474 13.81687
-8.405005 92.38284 15.56931
-8.328876 90.24076 16.12528
-8.468745 88.50005 16.68693
-9.447202 89.38779 13.23985
-9.258171 93.95257 11.27545
-9.524136 91.33069 11.50769
-9.059278 88.98267 14.16506
-9.084748 96.51996 14.32679
-7.008118 97.27099 11.57773
-2.69557 97.20898 10.91717
-2.58321 95.40308 13.43275
-2.250318 96.70633 12.40716
-1.137592 97.34346 16.28096
-2.120531 96.00734 15.34571
-0.9873601 85.96283 17.68443
-0.9173686 88.36705 17.4161
4.295007 90.10244 15.38158
4.616518 97.1886 15.01037
9.811806 95.66141 14.39493
10.32347 89.06031 10.52046
-17.13173 98.36578 5.302092
-3.137814 98.25002 11.19262
-18.25411 92.53725 5.001723
-17.89673 92.24379 8.48807
-17.79056 93.4236 8.700364
-17.56531 92.90644 9.409519
-13.78029 91.63542 13.47175
-14.00434 90.8249 15.79229
-14.05777 87.02478 12.92693
-17.44616 97.21253 8.134282
10.84708 97.23022 11.12622
-10.45944 85.05644 18.06077
-9.863744 84.84862 17.93075
-0.1379425 95.39806 17.00809
2.113917 87.10614 16.76257
-9.744804 90.83902 17.70781
-8.45568 86.95348 16.20815
3.299736 96.29292 14.59423
1.513725 96.21456 16.46964
17.82577 93.79649 10.14225
-10.20852 87.81203 17.90617
20.43231 80.12826 6.731649
-14.937 61.48605 10.1993
-14.80591 62.46439 13.63212
-13.86364 65.7774 13.04183
24.17756 62.4597 7.998086
21.3481 61.31797 11.12182
14.32869 61.93463 11.5482
4.743582 81.44906 16.82965
-5.504996 61.70179 7.88431
-24.74499 76.47313 5.668739
-2.899874 62.9747 15.3523
-25.30572 69.664 5.794624
-16.14322 77.33212 15.78024
-19.82745 77.67792 8.104765
-3.766958 66.51316 16.15333
-9.875081 81.06799 12.51346
7.030496 78.96478 12.92061
-2.062638 66.76874 13.84792
-1.096463 62.00542 20.99599
-1.525329 73.19536 13.11337
1.557217 64.15466 18.32955
7.427708 61.21008 14.53355
-3.683089 70.1974 19.48631
9.723173 61.07023 8.886147
-1.769962 63.19934 12.35576
-2.943443 64.36141 9.364085
-11.49732 80.91997 18.55473
-3.579255 77.01205 14.57988
24.13645 62.88485 7.816772
0.8905833 79.84354 18.84602
-2.445344 81.12035 13.56107
10.46363 79.49489 14.93149
-9.987703 62.05781 13.82457
-11.88603 62.21644 20.20482
13.52137 80.82354 11.30958
-15.37463 80.51907 15.4169
-2.88498 74.10487 14.30432
-20.21666 60.86521 6.503861
-17.64663 77.45689 8.722344
-15.91693 64.33205 13.9718
-10.25437 79.84881 12.8783
-2.133073 66.41895 14.026
-4.324985 63.65062 19.28569
-18.22879 79.68136 8.545853
0.007883304 61.59768 19.86631
-2.016416 81.18574 11.55941
10.16516 76.59773 14.9206
10.28578 77.13028 9.07287
16.84737 66.22326 12.58169
23.43187 61.65056 9.398973
22.78649 67.02753 8.369056
-3.958463 78.26176 15.40769
20.6629 79.83083 8.253989
-24.54093 70.96404 5.986526
-24.0533 63.04181 5.660847
-18.71548 62.11639 7.22764
-16.1769 62.16607 9.449639
-15.0156 77.99065 10.33291
-15.50082 79.99538 14.02141
-8.71416 63.77707 16.86537
-7.172211 80.17761 9.613831
-2.522302 65.9091 14.65495
-2.476963 71.31635 14.21161
-3.327625 61.20166 9.191536
-24.4483 75.56373 6.17545
-3.45817 62.50847 20.84426
3.661086 63.3468 17.54561
8.287251 79.62115 17.78293
7.037593 80.72008 12.2996
10.09878 80.00255 9.788433
16.13169 61.20826 12.77852
20.23417 63.25499 12.10621
1.012979 79.83671 18.86229
3.256351 79.95969 16.94598
19.04577 79.57138 11.42995
-23.65753 67.9516 5.809265
-23.6348 66.60444 5.773705
-14.52191 61.09384 10.66388
-13.3692 79.18415 10.87114
-12.77409 80.38843 18.45369
-14.35627 63.6118 19.82641
-10.33797 61.63547 13.1865
-8.849527 80.85606 16.08143
-2.231486 61.75959 10.50475
-2.310867 73.07892 13.93459
-2.129672 63.6219 21.25143
-3.928956 70.41553 15.99479
-4.162844 72.583 16.2607
2.11646 65.52248 17.86995
3.905642 62.68074 17.65371
11.35634 77.08003 16.7701
5.35621 79.61892 16.81474
6.604012 64.03896 14.068
5.122112 62.75698 12.00095
13.63428 61.04799 11.27054
20.2256 62.43636 12.08346
14.79544 62.34607 11.75526
22.74269 67.26482 8.741231
20.10251 63.94447 12.21774
-4.020104 74.2691 15.7949
20.09391 80.0249 10.76088
-23.52548 73.26354 6.760406
-13.56482 63.05262 11.4031
-14.29881 77.94397 10.27004
-17.55747 79.57477 9.855893
-17.3773 61.73397 15.35853
-15.08924 79.25301 17.13346
-14.82861 63.79012 19.53339
-9.844838 67.49014 19.23077
-9.229461 62.45755 15.18392
-10.49886 78.18107 12.4561
-8.190722 79.83257 9.828615
-5.471616 80.88382 9.595243
-10.24718 65.16649 9.566403
-5.454733 64.48943 7.936039
-8.445144 63.37971 8.073936
-2.93253 67.42413 20.49619
-4.065893 74.89177 17.42441
0.9380991 63.87577 18.85775
7.193927 61.95057 18.78899
8.566863 62.57935 19.31027
11.17861 78.04698 17.02617
11.32219 76.75378 16.41883
11.11684 77.94616 15.63942
4.668666 79.70993 16.9993
5.166736 62.67805 12.34099
7.289995 77.83904 13.9607
12.49787 62.73041 10.82997
10.35288 61.73912 9.38477
11.38225 79.00229 10.39852
17.09208 63.8388 12.92375
16.2846 64.31241 12.47148
22.10253 71.17345 9.570703
21.399 73.93127 8.376476
19.30648 78.75141 11.5453
-19.82807 65.54215 6.514173
-21.7355 67.3277 6.017162
-19.2063 79.75753 8.234188
-16.0423 63.84904 14.03369
-14.95992 64.03937 19.43588
-10.96777 68.84818 19.86036
-8.844196 80.73108 15.21253
-7.853853 77.11584 9.03538
-9.602576 63.60823 8.750546
-4.30715 66.50388 18.60407
3.512834 62.56539 17.63762
11.47254 62.1285 18.2456
3.319841 80.24545 16.85742
9.19915 64.46532 14.93163
8.387222 77.35313 10.41066
8.327109 79.99419 10.88373
14.52713 76.72977 10.89062
-17.0929 62.64619 8.465232
-15.50052 79.61237 13.47683
-18.30717 78.30164 8.365352
-12.4135 79.45481 18.85211
-10.96117 65.98959 19.90653
-9.130312 76.8792 9.361955
-5.268381 78.06763 8.824666
-7.576588 67.1451 7.885104
-2.863745 70.89593 20.14084
0.06722777 67.52831 19.85286
11.22235 76.68297 16.00548
10.72994 64.00352 15.95209
7.233765 73.25665 9.533588
9.461606 76.06099 9.25903
12.36665 70.35733 10.94107
11.54007 75.49876 10.58296
17.00422 65.49205 12.65132
12.37315 78.17801 11.06916
16.2902 66.31424 12.27607
-21.59019 70.20932 6.564514
-16.32793 66.58158 18.22001
-13.48353 64.70644 12.81596
-10.65785 75.62774 10.68729
-8.982882 68.93897 8.394675
-0.4336797 65.72171 20.33926
0.4404807 68.37282 19.50759
11.21182 65.90355 18.23607
8.007681 77.247 10.55188
-20.00147 67.28078 6.43843
-16.18583 75.465 13.94421
-16.70683 67.00359 17.68437
-14.6974 64.21329 19.59829
-17.09226 68.41631 15.60153
-8.596911 77.59581 17.48583
-7.173991 68.63811 7.795242
4.277783 65.91962 17.28539
6.298068 66.41397 18.09063
2.661565 69.7029 17.28532
-1.496295 69.0771 20.71855
1.287648 73.60495 19.22399
10.91633 64.71423 18.70879
6.01386 65.90646 13.68749
8.275721 75.23704 9.681329
9.879824 72.98904 9.198256
8.774823 70.53859 8.589132
11.61325 69.07787 10.9821
-20.1929 69.23081 6.554843
-9.177875 72.47734 13.93976
10.98626 72.16521 17.83748
9.430346 65.66301 15.02841
14.14695 74.01557 10.91803
13.97613 66.60703 11.12995
12.94522 65.40758 11.24371
8.578426 69.10424 8.548089
-16.12869 77.07579 16.76309
-4.21656 65.7204 8.410888
11.12195 73.78683 17.50483
8.819065 65.96792 8.777309
15.43476 69.22767 11.23474
16.14251 69.1293 11.73739
-10.58491 66.69715 10.2064
-8.492399 70.36163 15.7547
6.312176 74.7451 17.60514
19.10213 68.84071 12.60986
-9.869641 68.75874 13.35112
6.74945 76.47461 18.03881
7.264324 64.72424 18.79333
-10.39792 72.16798 12.55459
-10.0261 65.45267 13.45136
20.48173 69.17252 11.92055
19.33253 65.12419 12.68204
20.40933 67.11906 12.02104
-10.45813 73.37353 12.44204
5.952469 79.48643 17.02517
-9.89639 74.80304 12.99443
3.056818 78.64545 17.23975
-7.180043 70.04932 7.867055
-10.79018 72.27421 11.03741
-9.766733 73.26929 13.2121
-8.355676 75.3722 17.27069
-9.175735 67.12632 18.48954
-8.573647 75.37336 14.76188
-8.3412 76.4285 15.48818
-8.618582 70.33851 17.53026
-8.74542 67.24632 15.57329
-14.18341 62.31536 10.83935
-1.640571 72.30151 13.14681
-1.556769 71.83146 12.81525
-21.7602 76.70274 6.533373
-2.13864 77.08857 10.3511
-3.148428 73.76447 9.129716
-5.285388 72.65809 8.028337
-6.226577 73.67905 8.010455
-15.46036 77.33592 10.42022
-13.22291 77.5756 11.17826
-14.05442 71.46613 12.71889
-14.65807 75.03093 12.61985
-14.45779 72.96899 12.78527
-15.08916 79.15512 17.19299
-1.893424 66.43472 13.53125
-1.775596 64.49561 13.19828
-4.241242 70.48866 17.45448
21.04859 76.74118 9.126681
21.21655 74.56873 10.83903
-2.216137 64.94534 10.31871
7.9617 76.21378 14.65915
6.269833 76.38527 13.21713
5.840343 76.9953 11.78406
17.33955 76.48901 10.91372
15.18671 73.54417 10.51301
20.74253 71.31879 11.68548
20.48853 73.07059 11.77087
-0.882033 73.35301 20.30089
-4.200023 73.3185 17.71409
0.5333248 74.66033 19.78376
-1.356173 74.23656 20.18646
-2.661483 78.29872 18.98798
-0.6790962 76.24307 19.9002
-11.06055 70.6244 19.91235
-14.99392 70.16458 19.12772
-15.84526 69.15455 18.53404
-8.885044 64.15808 17.50433
8.058528 73.74248 14.6973
-16.83971 69.68098 14.87944
5.925998 65.58154 9.790112
9.694299 70.38173 9.165985
-1.390296 71.38557 20.49763
5.660863 69.61787 10.4589
6.498928 73.46349 10.04524
-14.60767 67.82142 10.48518
-13.15638 66.13023 11.72003
-17.35612 67.62008 8.83388
-13.3808 68.80937 10.99685
-14.44398 70.62678 12.95728
-13.73364 70.17387 12.4531
-18.92145 71.71071 7.371026
-18.34788 73.15555 7.786424
-17.31268 76.22767 9.169853
-18.22202 70.13157 7.633139
-13.42902 72.0116 11.05353
-17.22973 69.28525 9.133074
-21.79837 75.81487 6.675894
-15.94285 72.59679 10.58474
-20.94312 71.71606 7.205462
-15.34018 70.77574 10.46242
-13.23533 72.69654 11.36589
-6.466249 69.88959 7.812457
-4.700165 70.26161 8.136754
-8.440797 70.66059 8.139824
-9.480818 67.43333 8.780703
-10.27078 71.90479 9.714046
11.39164 73.57388 16.38199
9.20389 72.60431 18.71677
9.65299 73.12594 18.56059
8.584478 70.63488 14.82127
7.478416 68.34948 18.80042
10.36721 70.39423 18.57905
7.12302 69.48804 18.52777
3.844706 69.60828 16.90029
9.555026 69.03656 18.9318
6.763089 75.17918 18.07608
3.47377 75.89829 16.55983
2.918718 78.40105 17.55317
3.85429 79.27155 16.70682
-13.29373 64.82529 12.49855
-1.486643 76.6943 13.01437
-1.449532 77.0161 10.86569
-4.539146 70.76223 8.220314
-1.962716 72.87424 10.23373
-2.39883 70.15491 9.756653
-2.542169 73.80591 9.482478
-16.54684 74.15985 15.77279
-16.92197 70.74091 15.5178
-16.05839 71.00233 13.80665
-11.35917 75.62538 19.69986
-10.56499 73.14158 19.63645
-15.81141 71.25581 18.29218
-9.342757 70.21121 18.77765
-15.30269 77.00671 18.08212
-13.80574 74.95831 19.38436
-2.229153 66.90228 10.19596
1.529568 73.42783 18.98107
-12.09019 72.59953 19.95672
-11.9164 74.78098 19.82886
-14.87908 73.15683 18.91191
-8.699332 67.4456 17.3311
6.076822 65.03635 9.552247
6.17708 74.69849 10.74991
6.468126 69.44186 9.441099
5.238549 67.65446 11.69226
-13.45082 70.56055 11.97276
10.54399 66.81941 15.60372
7.566098 68.31522 14.59617
7.137968 71.37394 14.51709
6.288148 71.78577 17.78555
2.856563 70.51666 17.14822
4.78675 73.47913 16.84502
1.573004 72.8505 18.887
-1.5989 67.79344 12.49693
8.257634 73.1387 14.72451
5.592118 74.33832 12.40976
5.54937 70.21088 12.75732
10.34242 74.68054 15.13241
-4.00003 79.25245 16.29995
11.97752 119.729 0.4815513
4.950819 123.9931 -7.515453
0.8895287 118.7058 -6.465024
12.81703 121.6914 2.524595
11.68378 124.0699 -3.072776
-13.05698 122.5191 1.554343
13.17493 122.651 1.545835
12.54598 119.711 1.280439
-12.69695 122.9043 -0.2395339
-12.43852 121.3178 1.342843
6.976606 124.072 -6.832368
-10.43952 124.1377 -4.767875
-3.300934 119.6083 -7.242795
-0.8157907 120.785 -7.696428
-10.38465 119.439 -2.148658
-12.76694 124.8111 -0.6875857
10.86387 122.5191 -3.922573
6.974941 121.3274 -6.749112
3.493573 118.8773 -6.504776
1.169764 119.6215 -6.852135
0.09892859 120.2191 -6.643775
-6.814974 122.6169 -7.291453
-7.867461 120.0241 -5.879403
-9.461509 119.2275 -3.406023
10.88737 119.6904 -1.755581
10.32437 123.0169 -4.295644
8.41734 122.1496 -5.625103
3.644116 122.9744 -7.587032
5.424438 119.5631 -6.567155
2.248506 121.2094 -7.455387
-2.436203 123.8299 -7.661636
-5.269662 124.0388 -7.551965
-8.585166 122.0592 -6.273393
-10.38454 123.1845 -4.429983
-12.37133 121.9783 -2.146773
11.94541 122.0723 -2.337642
9.257155 123.1271 -5.248603
2.590334 119.7671 -7.458443
-1.79607 122.4643 -7.955723
-7.169122 120.0064 -5.860626
-11.75397 120.7919 -2.281747
12.32235 123.0439 -2.653949
-4.215611 122.4522 12.67551
-11.4154 120.2541 7.982163
-8.764534 121.5282 10.68957
-13.38889 120.9447 7.155174
-13.16236 120.6329 3.25159
-13.4761 122.4359 2.108385
-10.6454 124.2306 9.561992
13.57867 124.2664 2.561019
-1.731972 125.9883 12.33727
-12.65374 124.8973 7.111184
-12.15753 120.0564 7.318157
12.55203 121.4393 6.04341
-13.7051 121.0934 4.460453
-10.99099 120.8114 9.503707
5.765425 126.1011 12.09643
8.161735 125.0256 10.94916
11.3521 121.2141 9.358055
-1.018528 122.9692 12.78506
7.139976 122.9774 12.20739
13.45364 123.4192 6.929885
13.51735 123.9852 3.694124
-13.17981 120.1396 5.096265
-11.61867 124.2419 9.204362
-7.930207 120.9745 11.33486
-6.739413 123.8106 12.8356
-6.670953 123.0215 12.90269
-4.408235 125.1191 12.06816
-0.9834505 121.7097 12.59669
3.526481 124.5643 13.06345
6.798508 124.5305 11.80513
9.472301 121.4466 10.60487
11.5783 121.1057 8.080206
11.95851 120.3827 7.460719
-13.33667 121.7743 7.300301
-10.95337 121.9881 9.664831
-10.2125 122.4961 10.8481
-7.273903 123.9318 11.56793
-7.180862 123.3391 12.02058
-5.457246 123.9296 12.06748
-0.8381593 122.0269 13.01418
2.569705 121.1508 12.85335
8.26685 121.0074 11.47801
12.51093 122.6502 8.349676
12.82615 124.0282 6.92608
-12.90488 122.6996 8.365331
-11.04302 122.8478 10.32438
-4.119219 122.2812 13.20047
0.237405 121.9377 12.53858
2.685327 121.729 12.96132
5.171322 123.1712 12.52929
8.152245 122.6393 11.73322
10.22215 121.9791 10.44061
13.21895 121.3289 7.143133
-13.03235 124.9982 5.64955
0.1254263 125.8179 12.32514
6.27602 125.0142 11.81726
16.17348 131.8931 -2.178995
15.25606 128.1739 -0.5774924
15.6345 132.8993 -1.600791
9.724026 128.7647 -9.570761
11.95969 125.7545 -4.272666
5.948079 152.7562 -8.212177
16.59323 136.035 -6.867977
14.3483 128.2797 -1.640595
10.55899 152.0777 -6.359194
6.136749 152.2107 -8.92987
12.26369 151.7831 -5.122681
-12.344 151.7802 -5.799866
-13.20894 151.3359 -7.133269
-12.26094 125.9133 -2.575549
-12.80597 125.3231 -0.6240356
-16.49984 134.288 -3.875084
-13.12386 151.6172 -4.238564
14.02784 126.7895 -0.4776111
-16.33973 150.4992 -7.107138
-16.3271 130.933 -2.736635
-13.47896 127.3457 -1.282576
15.70669 131.8218 -1.187528
-17.34083 146.7804 -9.575978
-15.85819 134.1977 -2.393161
-13.55189 128.5635 -3.019159
-11.97545 124.899 -2.777388
12.89008 125.8488 -1.390705
16.71284 136.5893 -6.924703
14.72328 133.6961 -5.933389
-7.834291 151.6221 -8.768565
-13.9489 150.8932 -7.745196
13.12175 151.095 -7.829023
-16.51806 148.9033 -8.903456
1.423197 144.3422 -11.60205
-6.274321 143.6896 -12.42671
12.36331 137.2726 -11.54989
-12.59351 127.0019 -4.030932
15.04567 132.6 -5.375674
16.6258 133.436 -4.135109
15.90655 136.5794 -7.730899
14.28784 132.1214 -7.0967
7.829492 152.1704 -8.085467
-15.13242 147.5358 -10.00217
-4.705777 124.9628 -8.520864
11.92501 125.3296 -3.982242
16.56097 137.3123 -7.705828
-8.250151 124.3496 -6.259647
-13.37389 128.5931 -3.850714
-14.09352 130.5887 -3.042811
15.00944 129.3444 -2.593146
14.81313 130.8773 -5.999084
7.637603 151.1948 -9.503459
7.397945 124.5963 -7.123756
-3.022399 126.1369 -9.570181
9.077707 124.783 -6.206096
-15.27358 134.003 -5.200549
-14.06141 131.8754 -4.443635
15.08286 130.9 -3.984531
5.988788 150.685 -10.26523
-14.35425 143.9683 -10.86026
14.41727 141.9495 -11.47064
4.027724 124.7299 -8.457638
-2.385242 124.2726 -8.001498
-5.524388 151.5567 -9.56629
13.45405 127.3653 -4.66383
14.53333 139.7556 -10.48263
1.536769 152.3233 -9.969524
6.064089 151.4148 -9.739554
16.19085 139.8665 -9.293621
7.121482 127.1857 -9.323202
10.00838 126.8194 -7.380908
3.668613 124.7787 -8.430037
1.17465 127.5769 -9.593002
-15.35761 137.8596 -8.524957
12.40627 128.1155 -6.578921
13.68312 150.2249 -8.715544
-9.299553 125.2834 -6.705168
1.283193 152.7398 -9.673249
