# .PCD v0.7 - Point Cloud Data file format
VERSION 0.7
FIELDS x y z
SIZE 4 4 4
TYPE F F F
COUNT 1 1 1
WIDTH 1677
HEIGHT 1
VIEWPOINT 0 0 0 1 0 0 0
POINTS 1677
DATA ascii
-8.652864 132.1431 11.69498
-7.670109 130.2652 12.48814
-9.67834 128.7268 10.72841
-7.971937 128.2235 11.81112
-7.219161 129.7639 12.6316
-11.37548 130.9357 7.677407
-9.594058 133.7525 10.26712
-10.71999 129.9143 9.062147
-10.88199 129.9432 8.437646
-5.118475 127.1004 12.55337
2.025271 124.7554 13.51377
6.463322 130.2491 12.88062
3.386041 125.2832 13.32684
10.07752 135.8517 8.760841
3.553659 136.1814 11.03972
8.335572 135.9422 9.823751
11.66498 135.2627 7.12278
10.76052 134.5491 8.75276
0.01379194 136.1509 11.17274
9.58993 136.8692 8.618228
10.32666 136.1564 8.481648
12.45984 134.4662 4.628417
5.001329 135.9369 10.93925
10.97593 123.1191 5.815298
1.06772 128.6516 13.00623
2.067059 135.9349 11.2642
2.478766 127.0459 13.16925
3.71559 132.5013 12.55381
0.3819622 135.0446 11.63617
4.902369 130.1701 12.99919
10.50204 124.2252 7.297391
2.486645 130.228 12.9287
0.8512822 133.3129 12.29068
2.753404 130.0718 12.94834
2.340166 127.9224 13.06908
4.05263 129.0359 12.94021
2.066525 131.7126 12.71582
7.994692 134.8411 10.58101
6.254416 135.808 10.72418
11.16 125.1652 5.176865
9.50675 123.722 9.385412
1.261913 132.9497 12.41159
1.108746 134.3281 11.92577
0.8323036 131.4903 12.75767
5.102686 132.662 12.47348
6.167757 132.0763 12.52326
8.144916 132.9554 11.6421
4.466209 135.2838 11.36236
9.858446 125.1194 8.685565
9.378922 127.233 9.471011
9.980183 126.9091 8.243622
10.89811 129.4051 7.763203
10.70212 127.1772 6.580987
10.34101 128.5195 8.740969
10.14432 127.8447 8.563951
11.49098 130.5442 6.24098
5.805911 127.4713 12.34081
4.766607 126.2361 12.82397
7.437988 126.8297 11.49341
10.02179 130.6158 10.73123
5.269907 130.0593 12.99543
9.044071 130.8447 11.7728
10.83185 125.9671 6.273058
11.31152 130.3865 7.048334
10.29244 131.9733 10.19032
11.79034 133.3913 6.71069
8.10132 129.8679 12.3279
8.182999 128.092 11.69222
8.047824 128.765 12.12508
9.435312 133.8159 10.33641
10.68512 135.1157 8.55534
11.96648 132.9447 5.431521
10.51986 134.4716 9.037776
-15.35195 49.3913 6.302324
-15.42834 53.24048 5.530138
-15.4362 53.16194 5.833425
-14.79941 60.55143 5.17466
-13.21104 105.0493 7.312824
-11.33746 118.258 4.765997
-4.405291 114.8211 13.40843
-14.19576 48.53949 7.282427
-10.35798 48.94683 10.62574
-15.44896 89.24158 3.362824
-10.51592 115.1565 9.948276
-0.1512272 101.7473 13.46322
-15.00701 48.53859 6.446036
-10.08849 118.993 7.580507
-14.96287 99.82728 5.058208
-14.04856 102.3432 4.04227
-1.349338 121.2105 13.64726
-7.968735 120.9269 11.56055
-11.98107 110.3499 4.386345
-8.905437 121.6935 10.59933
-9.839511 118.3186 10.20202
-0.009345646 124.0781 13.50139
-3.103189 117.2834 13.93569
-4.27738 122.8778 13.32698
-9.930187 121.9955 8.545873
-7.430869 123.0343 11.85418
-10.339 110.4294 10.39216
-11.14203 119.098 6.050535
0.1217679 102.6743 13.3409
-1.725693 52.76875 8.290399
-11.10195 98.94679 11.75206
-12.54732 83.23492 10.8202
-1.885761 61.07475 9.781476
-2.511733 67.63051 13.48481
-12.42247 76.79351 10.87066
-0.9875124 77.64536 12.7916
-3.638621 73.88194 15.44892
-1.475623 87.44611 14.81221
0.04648266 97.03766 13.24386
-15.1543 80.27866 5.605685
-7.758067 120.2289 11.88307
-1.720113 121.9122 13.68527
-3.014921 122.1052 13.64858
-10.08567 51.36712 11.30694
-10.79882 121.7796 6.148098
-1.984343 123.7716 13.58772
-8.499576 121.5402 11.00516
-5.008854 117.9058 13.15439
-3.547689 118.5311 13.72341
-6.140003 114.8941 12.89303
-0.29185 120.2224 13.4763
-3.041943 121.0421 13.70947
-0.3741153 113.2805 13.60826
-15.23067 56.22543 5.293922
-10.14028 112.433 10.16826
-12.59812 104.165 7.442364
-8.875048 106.1035 12.52407
-10.13805 121.054 8.049846
-9.766524 120.8317 8.787054
-1.194248 54.51594 9.206964
-0.46243 114.1763 13.59432
-8.182313 117.4684 12.04962
-9.876639 116.8372 10.2317
-9.413218 117.1029 10.50552
-0.8426116 117.6316 13.72657
-13.0755 48.67112 8.408184
-14.98389 70.33221 6.556403
-2.393235 52.32563 9.474408
-13.9308 71.72151 8.947289
-2.004081 69.16982 14.21505
-1.96619 70.95623 14.44995
-12.79249 99.97018 7.526875
-2.473994 89.1688 15.25876
-13.59234 103.5395 4.025786
-10.07794 113.4867 10.12018
-11.53561 111.5923 5.422412
-11.67043 111.2064 5.496508
-10.37141 116.7884 9.987093
-10.34094 116.911 7.257338
-11.34139 106.0328 11.22266
-2.583594 107.3133 14.46628
-1.485899 53.6902 8.439798
0.5510383 60.16397 8.199492
-9.23904 113.3603 12.16066
-2.983269 113.3652 14.14716
-8.796666 114.7707 12.26842
-1.341093 116.973 13.9562
-10.94457 58.84264 11.35383
-14.89903 67.13727 6.727477
-13.71913 57.63279 6.727548
-7.806415 48.95996 11.99703
-4.417732 51.35303 11.41834
-13.97993 67.35669 8.575621
-1.690182 64.29712 10.85607
-1.743391 66.26743 12.01495
-1.259358 76.47984 13.0695
-0.3793875 90.98919 13.25823
-14.63048 95.09033 5.488325
-0.7086431 98.93508 13.71573
-11.50692 110.6922 9.075473
-14.38592 104.985 5.555364
-12.02129 109.852 5.417798
-11.94957 113.7335 8.282136
-10.29465 118.6576 9.087613
-11.36942 114.8484 8.069139
-9.726546 107.0006 12.52994
-1.481482 101.5417 14.30492
-1.488243 109.6214 14.15826
-10.02136 120.4944 8.088127
-11.00115 115.7653 8.177525
-3.740402 55.70667 12.4172
0.2780238 60.76779 8.466444
-3.091685 114.0916 14.07983
-9.628995 113.561 10.75197
-8.558046 116.8043 11.78432
-9.284937 114.9366 10.95081
-2.134384 121.2501 13.82901
-4.006418 118.5514 13.5534
-13.79893 58.60838 6.535984
-15.01156 64.87116 6.08321
-15.25804 55.86459 5.322372
-8.281437 49.61647 11.96122
-5.406003 50.1849 11.65829
-5.493142 50.53234 11.93238
-15.12011 68.39915 6.095859
-0.5867754 66.74621 10.63013
-0.8534958 70.83222 11.50555
-0.9670709 77.72303 13.47627
-0.4593821 79.11698 12.52319
-1.236161 78.1947 14.57023
-1.13382 83.07584 14.41117
-0.6231251 87.85625 14.02283
-15.06224 93.32569 4.416379
-15.3348 90.86777 4.692948
-0.0865237 94.76797 13.26549
-10.82144 107.1776 9.528172
-11.11207 106.091 9.31655
-14.43639 100.3054 3.7586
-14.59233 103.4763 5.312097
-11.64692 113.4096 7.46306
-11.52627 114.2201 9.341277
-4.672615 108.3405 13.4235
-2.077691 107.9054 14.36591
-3.032691 102.4158 14.76736
-1.224211 99.24226 14.1734
-2.479206 109.3112 14.39745
-10.86373 116.0165 8.099374
-2.061478 52.74391 9.379415
-2.448295 52.87848 10.16473
-1.375056 112.8389 14.01193
-0.8249153 112.4176 13.78095
-8.604804 110.393 12.73213
-1.637418 117.0135 14.00479
-14.35072 53.07869 7.067232
-15.30034 65.86003 5.405867
-13.99681 54.06583 7.111835
-14.3225 61.94944 6.616269
-13.72295 66.93806 8.957549
-11.45194 51.96342 10.56478
-11.74062 52.20381 10.33693
-7.781938 54.83945 12.95122
-7.025956 51.87046 12.7379
-5.817771 51.66978 12.53591
-1.033993 63.61729 9.657825
-15.27602 72.95235 4.51194
-15.06783 76.44903 5.752158
-3.119685 65.94064 13.29158
-1.913118 72.08083 13.99535
-2.656631 72.97041 15.40774
-2.380775 72.3279 15.14561
-1.972835 69.84419 14.45395
-1.5221 69.9228 11.77364
-2.266621 67.396 12.236
-15.30918 80.8574 3.912731
-15.38579 86.59389 4.630044
-0.1946599 82.32464 13.34096
-3.410871 82.78896 15.43139
-1.184574 76.88931 13.68528
-1.270379 76.57957 13.83372
-1.981047 75.96474 15.2426
-1.141479 84.35083 14.76386
-0.4254394 91.88401 13.2703
-1.836326 90.42936 14.87423
-4.524532 92.19408 14.76
-14.97105 96.08788 4.473574
-15.28925 91.51801 4.099756
-15.41126 85.99791 3.881985
-14.94259 86.91335 6.966704
-14.2935 88.34496 8.384246
-1.96466 95.8227 14.79064
-4.148988 93.44481 14.89565
-1.460676 94.42243 14.38551
-12.57661 107.0489 8.006469
-12.55973 101.9026 7.409182
-12.21801 112.4012 8.318821
-2.177899 105.7368 14.52334
-4.866933 106.7844 13.33428
-0.06868614 99.14777 13.33506
-3.679711 97.99056 14.82455
-1.361004 54.28786 8.0368
-2.383847 55.38558 10.12001
-3.515595 111.6889 14.05284
-4.202458 109.5222 13.70977
-4.980145 115.8632 13.13757
-13.86045 53.24699 7.434793
-13.33102 52.81274 8.104322
-12.0593 56.4002 10.41136
-8.399678 56.23995 12.72385
-1.605024 58.73701 8.966831
-1.440437 64.65836 10.22758
-14.62028 71.66944 7.694783
-15.14743 75.58076 5.190806
-1.724726 65.15459 11.9921
-2.258985 62.2826 11.6853
-0.5654325 69.45299 11.65432
-15.27133 82.61816 5.135528
-0.7569835 79.86548 14.17782
-3.86027 76.88812 15.35819
-5.687356 90.7718 13.87569
-14.66935 94.3251 6.052501
-14.88591 92.70061 6.214788
-1.877174 94.59673 14.7043
-1.653528 98.90005 14.51992
-14.0274 104.6845 6.453399
-13.20586 103.7845 7.067239
-11.6525 104.0466 10.95084
-11.33745 104.9676 11.48111
-5.309501 101.7575 13.30766
-4.437802 99.27804 14.27183
-5.599655 109.5009 12.82077
-7.608464 111.1925 12.80945
-7.178831 112.4906 12.86308
-7.75282 107.536 12.55805
-7.590189 104.7716 12.35074
-4.355904 105.1335 13.85143
-3.714596 104.5883 14.38283
-13.14019 55.21576 8.035094
-13.50044 58.5074 7.874094
-8.717471 53.57036 12.33445
-10.26769 55.80286 11.62175
-1.467666 63.00697 9.831285
-14.61754 76.77861 7.802916
-14.15272 75.15159 8.704538
-13.56786 73.6608 9.516568
-1.892667 63.46933 11.33091
-15.01102 84.10224 6.784513
-2.631177 78.7515 15.44877
-5.032364 90.15154 14.51615
-6.129418 87.92189 13.74328
-14.1094 95.16216 7.217837
-14.37756 90.53837 8.061285
-12.98195 103.2771 7.10521
-13.03124 98.39581 8.427161
-12.45206 100.5298 9.195568
-9.537396 104.2524 12.36749
-12.01028 101.6757 10.84715
-9.701639 104.8761 12.40314
-13.09392 55.86167 8.244655
-13.7424 59.40207 7.380163
-13.81413 61.52391 8.186028
-6.567328 55.30146 13.49976
-10.84555 55.6475 11.24819
-1.729585 83.00732 15.2166
-6.68711 88.45107 13.30527
-14.85559 91.61452 6.619999
-14.03524 91.26102 8.645669
-12.99757 96.53965 9.995371
-11.77581 96.48655 11.33926
-9.984397 103.1451 12.22912
-12.28078 59.83976 10.36061
-11.62687 53.58627 10.56603
-14.86519 72.75331 6.963658
-3.852295 89.09386 15.20945
-13.61082 95.78753 8.374505
-13.72002 98.70461 6.022155
-6.39664 56.85866 13.77546
-13.16984 59.08228 9.080255
-11.16551 59.05325 11.22604
-11.26095 62.09894 11.28177
-10.73116 60.5543 11.57475
-10.64727 55.36788 11.36653
-8.564216 77.50191 12.89659
-5.96635 89.70365 13.73087
-5.712751 88.37814 14.04721
-12.37143 93.0072 10.71244
-13.01684 91.81223 10.03796
-13.00297 94.59536 10.08861
-8.512973 96.95768 12.05037
-13.49185 98.49518 6.76106
-10.24035 58.65244 11.79204
-7.81996 56.54494 13.06956
-8.38578 59.97226 12.90185
-7.539327 57.79089 13.29971
-5.52333 62.81139 14.64169
-13.19633 94.05155 9.879502
-8.297245 89.33208 12.39773
-9.172591 93.77554 11.90149
-7.814714 92.85744 12.3475
-12.66657 98.28688 10.2995
-13.40491 98.19196 7.196393
-12.34684 100.8932 9.801146
-8.906971 61.53815 12.6525
-3.730285 59.11852 13.57123
-7.718113 60.43172 13.30814
-7.45962 92.16992 12.56668
-9.873679 94.40113 11.76494
-9.565331 66.74947 12.41209
-5.29499 55.60474 13.69423
-4.309107 54.49575 12.75959
-3.897863 56.85305 12.64427
-4.858516 96.20618 14.14814
-5.835858 95.63297 13.35901
-3.543113 93.97249 15.11002
-6.993372 94.93742 12.60429
-7.143263 59.894 13.64124
-8.602308 95.4736 12.03362
-2.768651 97.07327 15.08301
-5.700881 96.93635 13.38116
-10.26988 96.32685 11.75244
-5.988214 99.85229 12.94223
-7.49994 119.4084 12.484
-12.36472 110.9723 6.861433
-13.03316 51.83685 8.643025
-1.940095 85.47527 15.21599
-6.761159 87.05495 13.35386
-3.939649 84.04649 15.26823
-6.0772 86.84652 13.88471
-12.05558 109.5287 8.675043
-0.6108014 57.07294 9.008457
-10.55882 50.70249 10.90346
-3.02993 58.21545 10.53461
-2.218536 58.83284 9.468262
-3.47519 58.50401 12.57578
-11.58499 107.0219 8.374633
-13.68276 107.5671 6.035457
-5.291493 106.7224 13.03424
-14.80756 80.37239 7.123784
-14.6064 81.41803 7.775761
-12.2759 81.57737 11.03252
-14.18065 81.18444 8.698565
-14.53965 83.40319 7.99436
-14.31056 83.6717 8.468866
-13.83991 87.57283 9.047975
-14.11969 81.97688 8.825539
-13.52166 84.44095 9.703791
-13.10534 85.81158 10.08037
-13.65581 84.08189 9.543727
-9.068235 79.40342 12.65956
-11.68906 80.48492 11.46359
-9.42063 80.8507 12.49218
-9.714396 84.8577 12.19198
-10.56212 83.78908 11.98418
-14.27651 87.66974 8.450153
-6.679846 103.9596 12.46401
-2.846487 60.88346 10.79061
-14.59767 100.078 5.446885
-14.2134 65.15328 7.977829
-14.06531 69.86314 8.617424
-13.68979 70.29053 9.2218
-13.90273 66.03069 8.603681
-11.53669 63.81163 11.18888
-12.62933 62.40012 10.12849
-11.24345 103.5172 11.86192
-9.442451 103.4539 12.34443
-7.094781 104.1677 12.37283
-8.261387 104.747 12.34943
-12.31495 57.70433 10.22633
-7.566862 89.14356 12.75858
-9.93476 89.71317 11.78492
-10.34791 90.21108 11.64679
-12.55836 91.35048 10.44366
-11.01892 86.70969 11.5028
-8.466943 87.42509 12.47823
-8.773963 85.60379 12.49631
-9.008849 99.21986 12.02645
-6.807637 60.70315 13.86972
-4.345596 53.68599 12.49536
-9.278532 97.52169 11.93981
-6.157379 100.3571 12.77763
-5.886496 101.2767 12.93664
-2.486925 61.52175 12.68578
-3.564459 60.41724 13.88041
-4.592624 62.09614 14.82879
-3.574055 63.4225 14.05179
-3.367769 64.6422 13.56298
-2.675487 67.32357 14.05642
-3.438795 64.30507 14.2922
-13.41649 80.09547 9.861683
-11.32872 76.90327 11.68662
-2.453835 61.86399 11.56858
-9.104739 101.1972 12.16379
-8.237473 103.221 12.25478
-12.82393 89.81097 10.17457
-7.83903 84.86157 12.95461
-4.071914 80.83043 15.29564
-7.825501 82.70974 13.08725
-3.570506 81.35647 15.43735
-5.747904 83.62057 14.36878
-3.516991 79.84763 15.43927
-10.60933 80.17976 12.08703
-7.28203 82.15986 13.39025
-9.759331 80.04232 12.39773
-7.632749 79.8623 13.29848
-9.432597 73.69149 12.552
-9.175412 77.88824 12.64038
-11.0258 77.26728 11.87371
-12.80648 75.16245 10.50113
-11.9059 74.96962 11.27765
-3.851903 71.19693 15.47617
-3.967126 69.95181 15.32657
-3.987059 72.33301 15.3941
-5.801123 72.19551 14.52925
-13.51862 79.26498 9.719729
-13.55186 73.12314 9.524174
-13.43278 73.53244 9.702452
-12.627 69.78745 10.50479
-10.54747 69.84409 11.9549
-12.83103 67.64007 10.21578
-12.1836 69.24406 10.88645
-9.292803 69.32424 12.58286
-9.595578 68.05326 12.42009
-11.96134 65.80293 10.93115
-5.699386 79.93028 14.46776
-8.164137 65.63037 13.13731
-6.533511 71.57101 14.0806
-7.881278 70.45857 13.30325
-2.326089 74.67262 15.4023
-5.781465 73.58115 14.53035
-5.879949 77.87742 14.39531
-5.541056 75.04809 14.70823
-8.964193 73.25218 12.75899
-8.265924 76.76853 13.04538
-7.764727 73.69489 13.3125
-9.452073 75.35035 12.5537
-10.14788 63.72753 12.02382
-6.9802 62.04124 13.79737
-7.553324 65.61179 13.49159
-8.922089 63.24155 12.6862
-6.645206 63.73535 14.04161
-7.124417 65.55323 13.74386
-6.912957 68.72713 13.87441
-8.556677 70.21801 12.94877
-6.137997 66.48971 14.33534
-11.30292 99.16062 11.69238
-3.818457 56.41643 12.58793
-11.11913 62.55023 11.40532
-4.920705 66.316 14.99025
1.808493 119.6409 13.70724
3.495477 117.6753 13.71968
2.433167 119.6143 13.75515
15.24681 68.14497 5.17121
0.2702076 69.83886 11.33823
7.09092 120.4686 12.52298
12.72458 108.3887 5.637885
3.251726 51.92788 11.21852
1.383368 59.54885 8.812602
2.14931 57.73014 9.296346
1.650253 85.40403 14.01589
1.356549 85.95788 13.87386
2.762072 55.38253 9.432008
6.217287 66.45481 14.88546
0.6855339 72.30114 11.48901
1.691845 57.55558 10.09335
12.26065 84.1452 10.95051
0.6449102 115.6042 13.51963
0.9469767 89.27478 13.77082
7.217188 123.0327 11.99417
8.395715 120.4118 11.17245
9.485318 117.2093 10.2951
3.12304 121.7466 13.61874
4.909429 122.8047 13.10791
9.198359 122.5422 9.906953
2.60141 107.692 14.13424
11.06288 119.2066 5.757034
10.13636 119.4244 8.509546
1.866052 117.002 13.79295
15.18498 86.76904 6.305632
14.44818 73.07867 8.165906
15.43861 89.0256 3.848109
14.89377 94.10043 2.346723
15.08039 55.59843 4.862064
10.0623 115.3762 9.900162
15.24811 74.58131 5.300002
8.588472 120.9869 10.90141
16.41422 48.8318 4.458908
11.02185 109.5383 10.27902
10.70212 110.5545 10.09509
10.9074 115.9178 9.120682
11.90684 105.9768 9.36146
9.710618 120.6467 9.222457
10.66696 120.5952 6.975052
2.39622 120.6601 13.69739
13.40656 106.0609 4.879158
13.16839 104.6515 3.295206
2.339334 69.12474 12.71999
13.94517 102.1763 3.230978
10.02373 113.564 10.43807
11.19577 115.0133 4.203475
11.38302 112.5224 3.65061
2.636333 99.69381 14.35111
0.4654177 98.25214 13.33289
10.11771 119.6946 7.566853
9.624352 121.3119 9.214609
10.76311 121.0071 6.175012
4.415442 114.86 13.36545
4.840602 121.795 13.06716
5.176501 120.6016 12.97803
8.826564 118.5564 10.86732
8.82397 117.9391 11.0771
1.117543 58.21576 10.68892
1.176807 56.1814 6.232633
2.97007 55.11704 8.381446
3.528772 50.90475 10.86978
14.25773 59.09318 5.7673
1.729526 69.22105 12.44422
15.17743 72.15614 4.451793
15.32517 83.25347 4.373858
14.73782 98.65997 2.72423
1.650486 104.1609 13.7993
9.775981 113.0736 11.33757
12.93023 49.30112 7.958432
15.52971 57.14127 3.955935
15.57993 58.97088 3.78166
14.51971 48.9376 6.24156
10.65689 113.14 9.337158
12.03808 109.9756 4.856925
11.49102 115.0434 7.898458
11.45344 116.3405 4.779179
11.01574 119.0644 4.915315
10.97356 119.3901 4.57804
0.5664276 115.0487 13.4931
9.171601 114.2492 11.95363
0.4890893 116.2947 13.50685
7.811947 115.8199 12.57559
1.012174 59.10191 11.1572
3.16022 52.67134 9.483165
5.212772 54.99705 12.91432
15.39973 70.55472 4.056365
0.7643617 74.40176 12.04035
2.173149 79.94088 13.16096
15.18233 70.88506 4.710405
15.29839 85.17434 5.297297
15.42333 88.5293 3.395437
0.6193171 103.2657 13.37334
1.203261 107.7618 13.65145
1.858617 99.27953 14.04006
1.986405 97.10192 14.05871
1.552631 112.9016 13.75318
10.25138 49.25015 9.975654
14.4143 57.5921 5.407528
10.7853 109.2446 9.300331
10.7791 111.9056 9.136102
13.93371 104.3211 5.67261
13.20796 107.8712 5.865504
10.70044 115.6614 6.965981
10.56443 115.2503 5.813912
10.15334 119.3419 8.883924
10.34867 116.924 7.009511
10.47287 117.7339 8.189625
0.9949533 114.6983 13.58254
2.410434 117.9548 13.83496
6.806138 113.8047 12.38896
7.671383 112.4736 12.35435
5.33503 113.7157 12.84982
1.662755 114.6037 13.7967
5.79511 111.8242 12.60496
5.902076 112.9053 12.5124
4.752559 113.3771 13.25842
1.321491 65.14473 11.88736
0.8611374 59.22131 10.63792
2.987525 54.12267 9.401025
5.291138 52.60855 12.42853
15.16753 62.68584 4.556772
15.56147 66.84263 3.904554
15.24832 69.70535 4.714582
2.624689 70.49947 12.25435
1.397969 79.95714 12.64364
15.37001 71.55528 3.913773
15.38652 78.7617 3.766583
15.33314 83.43746 2.994004
0.1789842 87.23177 12.88036
15.41307 89.90385 3.471321
15.31551 91.10161 3.399027
14.38208 96.6022 3.954618
1.605232 107.0332 13.78145
1.361003 97.13165 13.71323
1.140117 111.7989 13.62567
13.05712 50.75818 8.360422
7.856885 49.39849 11.2656
15.29406 59.61908 4.165497
11.68382 107.1219 8.069387
11.71966 112.1603 6.307802
12.46016 112.3148 7.486159
11.73264 111.0063 5.179255
14.08472 104.6139 5.120488
12.26996 109.8127 5.757618
10.3637 117.0591 6.098591
14.39882 100.5707 4.221118
3.467149 114.3847 13.92237
9.33756 109.1205 12.18402
4.477498 116.8915 13.24166
0.643602 62.47889 9.542877
0.6350387 65.87739 10.97874
0.9066101 60.55233 11.62229
15.36053 64.34301 5.062536
14.43188 64.00377 7.672124
14.89274 66.41882 6.442843
15.06266 69.88953 5.695982
14.99857 71.47694 6.473408
14.88171 69.98544 6.702498
0.478025 66.35394 10.6467
3.798942 68.55403 13.37124
3.231769 70.4842 13.41308
1.189199 73.92334 12.6224
0.8192422 79.45438 12.74006
2.005856 82.14413 13.70145
15.09892 73.35416 6.190908
15.36514 79.08556 3.476995
15.29607 82.98509 4.892579
15.36875 84.58031 3.453715
0.5929148 89.295 13.44191
0.9860304 94.20493 13.37505
15.38169 89.80627 4.705097
15.38802 90.35237 4.076041
15.23059 91.85455 3.226522
14.54101 95.94531 5.63706
14.09024 98.29632 4.426476
14.10953 97.42363 6.235399
1.501725 108.1225 13.73915
3.488038 96.95421 14.56756
9.015199 108.5624 12.10507
2.777129 110.2594 14.11235
12.76185 52.09376 8.930368
8.376034 50.95453 11.42489
14.7991 61.5058 5.124087
13.63721 52.89268 7.484994
11.67367 105.1311 11.16985
13.2651 104.6131 6.608303
12.7027 104.1581 6.865622
13.98233 102.0587 5.347082
5.658683 116.6383 12.67951
3.348954 119.7454 13.68951
1.566094 56.91761 11.10887
12.0883 67.66027 10.81121
2.178533 65.37133 13.10408
3.468723 69.78523 13.16057
1.294647 75.83253 13.51635
2.76145 80.58131 14.01148
2.564622 81.41853 14.09462
2.4254 82.9223 14.34724
15.22442 79.38098 5.479815
15.35478 85.02039 4.457493
3.655387 90.89938 14.80829
15.38005 89.60833 4.915816
15.17132 92.59629 4.897017
2.969383 107.9702 14.24703
2.751004 110.2734 14.10969
6.441927 110.2026 12.23761
14.253 103.5474 5.153837
14.14251 101.2032 4.740122
0.8769883 63.56959 12.10646
0.7687767 65.39607 11.40295
14.66525 67.90634 7.463145
13.77908 68.92693 9.140244
14.73911 68.41916 7.160404
4.201682 67.48257 13.60504
0.8003604 74.75707 13.08116
1.008409 83.60394 12.79641
3.162588 85.4371 14.79558
14.56568 79.56804 7.929014
15.27923 83.22434 5.081263
14.90259 83.27249 7.067327
2.737372 92.26645 14.48476
14.01947 84.20181 9.031925
6.350741 109.8213 12.29854
6.250375 108.8664 12.43919
12.5381 104.8388 7.131969
12.34843 103.3749 7.548017
12.50769 103.9332 9.839558
13.70043 98.69831 6.25503
2.136811 64.36991 13.41084
3.63138 88.04629 14.78402
14.69889 84.92309 7.73672
13.99454 83.99072 9.083999
14.92736 91.87109 6.396704
15.05285 84.9157 6.678361
14.8139 92.80124 6.5606
14.09578 94.09902 8.059774
14.91434 89.54447 6.848079
13.79417 91.46455 8.990067
13.73501 87.83199 9.168016
3.715772 87.97845 14.80184
12.71931 95.33433 10.10701
5.268317 84.19912 14.80249
6.399912 88.95461 14.10545
12.35699 88.38516 10.43355
10.70503 89.18006 11.27416
14.03652 93.14077 8.341825
13.40052 94.61485 9.449877
13.38791 96.09971 9.319567
13.83617 98.88525 7.318077
12.40046 96.61126 10.43524
10.16098 95.2126 10.82672
6.719516 87.15618 13.99834
5.928676 88.32961 14.42298
11.39449 87.94466 11.04888
11.26643 94.37302 10.5401
11.94542 92.41111 10.26185
8.280047 84.11959 13.1981
8.425574 90.18883 12.81553
8.998408 88.17414 12.6168
9.272861 89.7148 12.30856
9.38627 89.88792 12.19536
13.14195 86.58546 10.01079
11.21409 90.85452 10.71615
10.77725 88.67071 11.30916
9.61 85.12578 12.42724
6.229051 93.84554 13.92933
3.128377 94.41178 14.54405
4.491676 94.98944 14.6683
8.55546 87.42376 12.89961
11.95476 82.13216 11.24795
13.3303 81.73321 10.03719
11.52769 83.82207 11.45706
12.02832 83.38569 11.17661
3.906893 123.0582 13.44169
6.459768 119.4638 12.76775
3.179574 98.41093 14.47112
5.226194 100.779 14.05008
13.53442 53.92889 7.988147
13.49038 52.79564 7.941111
11.67171 109.2526 8.34403
2.259132 59.96287 13.1947
2.757947 55.4385 12.33025
2.428756 54.49346 11.30736
3.775159 54.4336 12.54774
3.897563 62.08597 14.01248
1.01315 62.03679 12.5762
3.434562 55.69573 12.75637
2.107609 59.00406 12.84863
5.111595 63.0657 14.60657
7.959486 60.45702 13.34311
3.389487 63.93107 14.02796
7.214915 57.26882 13.11012
5.159619 62.28563 14.46333
11.74081 113.802 7.266594
7.318801 107.7778 11.85753
12.12075 98.07354 10.67252
10.05103 102.1595 11.42788
10.73293 102.0558 11.48438
9.880904 100.8535 11.20765
4.860998 106.9286 13.68059
5.409873 105.2332 13.4932
6.380708 103.9988 12.79369
11.27325 105.284 11.42336
10.57693 107.1832 11.87461
8.783978 103.7884 11.46715
5.232223 101.5906 13.95546
4.751396 100.238 14.28518
5.011626 99.70036 14.2394
4.88004 96.95776 14.45041
8.462573 103.8978 11.50942
13.09914 100.6188 9.440467
4.448083 97.83375 14.50417
8.145491 101.8862 11.58971
13.26638 100.2366 6.491293
13.5702 97.7795 8.771719
8.381854 102.2274 11.40405
12.66046 103.0085 6.782652
3.481902 72.48212 14.737
4.057089 71.03855 15.00634
14.78242 77.13937 7.384188
14.60778 74.86806 7.828348
15.10607 73.54252 6.198502
14.78032 71.1762 7.273654
2.29063 105.1998 14.07349
5.638459 105.9626 13.26892
14.58761 60.08872 5.223871
14.53601 61.1381 6.167368
3.344771 75.64844 14.23671
2.771331 76.78908 13.79727
2.179114 72.67693 13.75469
1.324778 73.65195 13.00158
3.628345 79.99222 14.76773
6.295642 79.13695 14.6313
6.017889 78.45959 14.83846
10.73978 83.23586 11.94917
6.97253 79.09758 14.18046
5.308133 80.06801 15.05153
9.545605 81.45152 12.60366
7.640887 83.03958 13.60089
6.359437 83.87928 14.33264
9.136943 84.62549 12.71132
13.69437 96.88398 8.613993
14.24899 97.37197 7.343445
3.668318 81.34268 14.83118
5.69523 83.32984 14.7113
6.781508 81.81174 14.15953
7.148407 80.57875 13.98767
5.50843 84.9706 14.71286
9.038962 98.31937 11.22581
10.01128 95.68596 10.87285
8.212198 97.42136 11.98437
11.44 98.86266 11.01109
10.13826 94.44982 10.888
9.9792 92.75332 11.22517
10.40164 97.14277 10.8574
6.823024 97.72275 13.17346
5.659369 93.8035 14.27599
7.671261 98.47791 12.32492
5.286753 97.59529 14.27505
6.439598 91.76357 13.93595
9.506461 90.25691 12.03732
6.92328 97.01562 13.18392
14.36009 51.15641 7.010096
2.792651 102.4336 14.29661
8.648634 51.8059 11.47899
6.495181 53.21859 12.45813
4.997069 56.81637 13.27464
7.886156 55.00728 12.45715
6.908976 55.67067 12.89911
5.131153 57.39445 13.43766
4.907807 55.45296 12.98228
6.795426 65.6107 14.50242
3.89002 66.68718 13.40685
7.022027 64.47964 14.32315
8.395497 60.83012 13.06264
7.857717 64.34481 13.67638
9.656461 67.7334 12.47689
7.423986 64.93276 14.03245
5.197075 68.1663 15.03402
9.148609 66.60921 12.7845
9.433318 66.88432 12.59723
6.495546 73.71949 14.72325
8.223524 66.01015 13.43337
11.25117 65.37135 11.32459
11.2554 66.96711 11.4113
10.28596 68.51694 12.09927
9.906061 68.84474 12.34798
12.51925 68.89172 10.53411
13.04557 71.28832 10.14928
14.04619 67.82119 8.73835
11.89847 67.8237 10.97863
4.704615 96.43427 14.55375
8.062004 99.08572 11.88051
3.2375 71.29722 14.37875
12.2017 80.5866 11.07869
12.21163 75.79415 11.04065
11.77162 73.85168 11.29097
13.16395 74.69762 10.14228
10.86886 71.65506 11.82447
12.88917 69.82317 10.23571
11.368 74.81801 11.58802
12.64591 77.67888 10.71169
10.37334 71.26578 12.11841
10.80846 74.07681 11.92595
11.36023 73.99773 11.58146
11.63339 75.62254 11.43119
10.40784 78.45475 12.20365
8.955133 78.0017 12.95537
8.834312 76.17768 13.02754
13.0322 55.89655 9.087817
12.69351 57.47367 9.636819
8.585351 63.1391 13.07265
9.858767 61.53436 12.07414
13.87976 57.50376 7.069896
13.40228 61.17981 9.131074
10.44806 59.17438 11.48212
12.14911 63.51814 10.54503
10.96978 61.32989 11.28266
9.594635 61.88208 12.2786
11.31969 57.97507 10.76713
12.12241 53.92982 9.726704
10.72437 56.78021 11.05538
9.737055 56.19412 11.63671
9.414127 58.94942 12.17975
8.288179 53.49106 11.97906
12.63012 64.4461 10.18602
13.18373 60.45628 9.327506
13.61964 61.3246 8.884849
9.4849 63.97515 12.46871
13.91536 62.11699 8.494574
12.97513 80.61082 10.44341
6.976925 61.15372 13.94289
8.128534 74.86562 13.50161
6.441551 74.9523 14.73028
6.825501 74.20918 14.49872
6.670239 72.88338 14.5928
6.571853 70.79446 14.6238
11.47468 79.07986 11.6258
11.06619 81.13126 11.84485
12.26277 66.1718 10.60696
7.146507 76.41616 14.20702
9.230227 78.30159 12.81094
9.852511 91.80661 -7.91245
12.24104 111.1546 1.135611
15.89805 55.38688 3.829571
15.58025 60.95287 3.435003
14.6982 67.81801 2.507954
12.66626 107.7948 -2.610492
16.32286 49.9186 4.066856
7.900923 115.8885 -1.86864
15.43064 53.38744 3.161707
3.24673 106.5384 -6.261303
15.27666 88.21693 1.713435
15.1713 89.06403 1.064744
10.70793 115.6223 1.856836
14.6562 95.50329 1.0128
4.907744 50.02009 -7.492524
0.5631865 54.28065 -8.445223
3.731847 117.0913 -3.687546
12.35818 115.1619 2.938653
7.343032 117.5228 -2.466834
13.7317 64.20637 1.000512
11.79665 108.8888 -3.161963
9.778066 116.706 -0.1893388
-0.2371381 93.09259 -9.917728
-0.07887539 48.16615 -8.467956
9.829463 119.7134 -0.3263015
9.708917 118.28 0.09285956
7.460854 47.76875 -6.118114
0.080832 118.5322 -3.735274
14.31386 49.98485 0.3073058
1.320591 94.22367 -9.912316
15.69959 49.33457 3.398314
16.13244 51.38157 4.01417
1.868184 119.2015 -4.007623
2.418849 51.62582 -8.004619
7.66021 115.0624 -2.215875
15.10906 52.74258 1.90408
0.9449289 88.97399 -9.834513
15.09529 52.13473 2.395559
8.977324 112.7562 -2.936298
11.79468 49.2926 -3.154998
15.10839 48.44524 2.416104
13.25477 103.5235 2.227928
12.1911 109.7788 3.031825
9.108572 118.246 -1.151687
11.33659 75.74608 -5.189919
-0.3168252 98.73312 -9.11687
10.13399 105.969 -4.791647
9.451245 119.8977 -1.052102
14.61527 52.61046 0.4222199
9.439877 117.951 -0.4140331
0.8931302 115.8811 -3.77565
0.9109753 117.7984 -3.653928
0.9918885 80.07938 -9.440982
14.29431 48.20694 0.6878326
14.87657 51.87756 1.203199
9.396467 65.15997 -6.472661
5.698651 57.36927 -7.794692
13.97631 72.77515 -0.8436636
14.2152 72.67165 1.183764
1.322953 71.56396 -9.099369
1.685008 82.08086 -9.506137
13.30419 101.751 -0.1276205
12.18817 105.2831 -2.930092
12.66972 107.5103 1.597883
13.213 105.3578 1.686831
13.26103 103.1166 1.793996
11.67109 110.2952 -2.048997
10.66537 111.1222 -1.336915
12.61779 113.014 1.367767
10.508 109.0774 -2.878555
11.17486 116.3793 2.476497
10.20893 112.4985 -0.5216424
1.724895 108.0588 -5.477228
12.03458 103.9166 -4.923005
8.441235 47.65469 -5.537256
2.700582 48.16315 -7.658926
1.706479 51.21297 -7.907017
0.6793797 112.5115 -4.120391
5.905482 110.1031 -4.520302
5.845207 117.937 -3.348637
1.609075 112.4097 -4.752789
3.767504 118.9204 -3.905558
15.5905 55.88367 2.863182
14.93884 52.56698 1.135506
13.46945 50.57365 -1.053825
14.02808 65.08428 1.538281
0.4884542 63.44477 -8.753115
14.6069 65.85603 2.298481
14.70969 78.0866 1.144626
1.091443 70.21873 -9.046227
3.316111 84.65626 -9.552703
14.55918 90.5129 -0.5771259
2.418958 87.55454 -9.736522
13.57441 100.7173 1.751202
14.41718 96.40808 0.744989
14.1502 92.73708 -0.951602
13.11083 101.3254 -0.9219805
12.47513 109.6829 -0.3786528
12.74952 108.305 -1.445138
12.62381 107.8047 -1.629545
12.57288 107.0405 0.4479544
12.21132 107.9168 -0.2717462
12.22426 105.5402 -1.859659
12.96886 103.6037 -0.5130169
11.53731 101.5 -4.261847
11.96457 103.9184 -4.355781
12.34118 113.7394 1.151939
12.42259 112.8087 0.3568558
12.51737 113.9225 1.729998
10.38351 117.7748 2.148278
0.3454222 107.5587 -5.611812
-0.4099842 110.0106 -5.668087
8.457207 108.2281 -4.584766
7.813487 48.99581 -6.082217
0.008952629 53.63339 -8.276746
0.4685033 112.1198 -4.538914
0.7889785 109.6718 -5.474027
8.469465 118.9471 -1.761357
8.501183 116.469 -1.334331
7.482116 115.925 -2.5306
10.16154 114.225 0.01581176
13.77419 54.46295 -0.2393039
15.1339 53.21948 1.578346
14.04043 48.54472 0.0734482
11.98329 49.11913 -2.900014
15.34389 57.89986 1.924471
15.14349 63.13861 2.137829
0.06089039 62.39021 -8.722535
-0.04199888 66.43097 -8.874667
1.200953 67.53847 -8.926255
13.85635 68.73222 0.6905565
14.69848 77.76745 1.39601
14.50405 74.37479 1.786482
0.7205943 75.74274 -9.266231
-0.1132787 79.82663 -9.431998
0.8758396 82.85015 -9.550157
14.76182 91.28747 0.2072132
0.04450403 89.33852 -9.849798
0.4300981 95.26862 -9.796034
14.57224 98.23609 1.888077
14.6083 97.07925 1.322819
12.97403 105.2518 0.4365488
11.8555 103.3929 -3.481569
9.739528 105.4529 -5.147047
11.83003 114.156 1.099028
1.734446 105.7141 -6.68362
2.750419 104.206 -7.398729
3.303117 103.3894 -7.87212
9.147367 106.5354 -4.889007
10.82274 48.65925 -4.021022
6.442816 49.91472 -6.88131
0.257785 51.79371 -8.144753
2.28838 57.15063 -8.539813
2.982245 58.19704 -8.458842
4.731207 57.48294 -8.087034
2.865939 112.8759 -4.738894
2.560902 110.1556 -4.667604
1.403701 109.0352 -4.984434
7.234019 112.0491 -3.462851
8.103532 112.7191 -3.335825
7.426464 114.4569 -2.495889
7.139254 116.0422 -3.281971
5.141065 116.6081 -3.417848
15.13323 56.36707 1.341969
13.87411 55.34492 -0.06002418
14.19203 54.37949 0.1128614
13.70099 66.0608 0.6684906
13.45107 65.36253 -0.09091175
14.53704 58.08107 0.7820902
13.32505 63.82351 -0.2782514
0.4691702 58.19757 -8.623928
2.304906 63.9909 -8.736348
3.211844 59.0094 -8.450265
0.5087042 69.36958 -9.007309
3.759018 70.66998 -8.903043
3.948291 68.64962 -8.794851
1.555717 69.79093 -9.011306
12.73381 67.50779 -3.011441
15.35921 69.6655 3.153321
14.44571 71.89944 1.851835
15.19166 78.58163 2.645456
14.50121 75.73549 1.2216
14.58748 74.97404 1.904766
15.26286 71.69005 2.975267
4.213764 72.76737 -8.933261
0.3945607 72.51335 -9.108212
1.607915 79.55163 -9.408027
1.109322 83.8391 -9.58705
15.19374 86.71291 1.110297
15.22324 89.76173 1.693271
0.418862 86.85436 -9.725313
0.2517921 92.67094 -9.943558
2.487187 96.57105 -9.756642
-0.2198781 97.94923 -9.323016
13.13518 96.84141 -1.075329
12.18693 102.1973 -2.77393
12.79572 98.83846 -2.285315
11.60289 100.0971 -4.09351
9.084719 104.9882 -5.655322
8.055478 107.8938 -5.089837
7.670736 106.9853 -5.646183
11.04606 48.97234 -3.898738
3.410979 52.78406 -8.114755
4.055835 55.75401 -8.150841
4.86273 110.3589 -4.364266
3.233762 113.953 -3.808292
3.569913 112.8789 -4.924201
14.9001 58.2091 1.010443
14.08491 66.97478 1.425925
13.63597 66.56331 0.4132522
13.32172 60.73588 0.2540244
4.937897 59.25492 -8.126201
6.11286 62.48549 -7.980201
11.32757 60.05076 -4.468289
5.773528 61.08414 -8.006324
7.401087 63.6842 -7.546414
2.700392 64.39054 -8.728951
14.76946 81.34752 0.1868689
14.37012 70.57048 1.633167
6.836033 77.56199 -8.534192
14.78375 83.85774 0.029033
14.90695 83.56327 0.4903979
3.915878 90.2924 -9.930155
2.36449 91.34084 -9.976682
11.83578 95.04202 -4.908986
11.85319 101.1843 -3.509651
11.34759 98.55975 -4.831604
2.763618 102.1225 -8.396554
11.1362 105.8813 -5.000185
7.372181 104.494 -6.8177
8.962592 104.4981 -5.906583
9.130923 103.0947 -6.445723
8.565956 101.4859 -7.357511
6.515339 105.3036 -6.990366
5.0517 105.8507 -7.022923
5.302465 104.1152 -7.843755
8.171562 105.3148 -5.998994
2.785675 52.65211 -8.180102
4.818051 114.7262 -3.77763
12.11839 52.74102 -2.363606
13.25912 68.96647 -2.164491
12.68702 68.8964 -3.227383
4.9349 64.4633 -8.412957
6.36811 67.3101 -8.15315
13.87972 80.31191 -1.864496
5.87347 73.27174 -8.62992
4.357491 86.49954 -9.570739
4.406929 87.80415 -9.648076
4.199039 92.8329 -10.0255
6.474702 87.57031 -9.264565
11.15075 97.00848 -5.519233
12.4383 96.70753 -3.238095
14.02528 97.03737 0.6697345
2.137707 100.9755 -8.755055
4.306235 102.1903 -8.561442
3.644593 96.70235 -9.825907
3.165766 99.06595 -9.390798
6.17109 105.299 -7.21662
4.664629 107.4424 -5.841838
10.02774 101.5515 -7.2325
10.94086 99.96032 -6.024607
4.67617 108.8379 -5.043915
6.753961 107.7881 -6.240258
7.950806 110.0935 -4.896364
4.506056 112.292 -3.873187
12.84188 53.14921 -1.358315
6.835502 65.75422 -7.912147
7.452806 62.23362 -7.439198
14.59017 79.89513 -0.2760497
3.433696 75.70827 -9.159663
2.806901 82.30455 -9.479305
12.23292 96.39749 -3.91515
4.93436 97.1402 -9.708022
6.539874 98.34536 -9.192492
4.702668 103.6006 -8.07729
4.181964 104.2673 -7.72063
8.33699 100.4493 -7.902811
7.458995 100.9939 -8.107121
12.27269 64.87599 -3.50731
3.916119 83.97228 -9.47326
3.868725 81.3364 -9.363809
4.730019 80.73421 -9.241515
6.583775 82.4354 -8.887897
5.122767 83.16766 -9.288002
3.274977 77.99543 -9.264117
2.506584 79.80277 -9.387989
10.91709 93.47601 -6.555003
9.897845 96.08401 -7.615667
6.552981 99.50437 -8.922
12.50364 65.11758 -3.150255
10.54545 86.17883 -6.575499
8.385968 94.76095 -8.905449
10.3951 98.42319 -7.215937
7.610908 93.84612 -9.404835
8.869412 92.80745 -8.696687
9.122129 95.42294 -8.380892
7.673742 91.15102 -9.355062
8.705303 97.50525 -8.533441
8.106915 72.64388 -7.717139
9.57802 62.21681 -6.162799
10.76569 66.74331 -5.442184
7.454963 60.47296 -7.323211
13.42711 62.90928 0.3235823
12.55888 62.42143 -2.80986
7.27703 84.1599 -8.733746
7.126928 79.01093 -8.507408
9.094708 81.06916 -7.541533
5.502411 79.54752 -9.053649
9.171523 92.96366 -8.459536
11.11433 93.90193 -6.248925
7.668073 90.40572 -9.283842
5.550117 99.70045 -9.132627
8.858867 67.28976 -6.961952
13.18689 62.47978 -0.6593986
13.08973 81.44137 -3.156029
8.945362 91.63969 -8.679271
7.013321 92.18465 -9.682534
13.46534 90.31158 -2.917018
13.34859 93.08939 -2.335958
12.02879 94.00155 -4.602362
12.6019 96.39607 -2.798009
12.97814 94.67332 -2.425688
13.09621 93.6396 -2.613843
13.75761 92.65057 -1.792328
13.88276 70.52811 -0.7574723
12.98887 88.80898 -3.704412
6.552289 52.63491 -7.100171
1.859668 65.77969 -8.829396
14.25823 74.43501 -0.1054077
13.71516 69.89861 -1.151909
13.79033 78.06801 -1.923075
13.25208 78.22528 -2.814108
12.08458 79.16363 -4.452454
13.32191 75.4922 -2.60868
11.05746 78.47735 -5.630535
11.4583 80.74481 -5.270157
10.03676 82.97587 -6.874465
12.62528 81.28569 -3.798364
10.58421 79.04207 -6.16076
10.99412 74.08577 -5.509884
13.27261 83.17786 -2.951255
4.578237 76.06377 -9.043838
10.78543 75.88095 -5.791173
8.471729 79.28265 -7.845095
6.007943 51.28555 -7.204475
5.815259 54.40239 -7.537673
7.425913 51.79181 -6.602982
6.58631 54.68614 -7.263789
6.129442 53.20079 -7.324192
8.334697 58.35449 -6.704182
8.175523 53.38443 -6.377958
9.922525 58.13649 -5.653736
10.37649 55.51453 -5.120879
11.60459 49.76723 -3.411481
11.73537 51.80714 -3.030893
4.029665 73.8428 -9.01128
8.767716 74.36999 -7.4343
7.38132 76.52541 -8.257452
7.689316 73.74476 -7.975077
9.622029 74.10878 -6.800264
6.901989 73.95747 -8.330194
6.674078 72.18975 -8.336327
9.709661 72.37297 -6.62465
6.969618 72.62489 -8.220641
7.359393 68.68623 -7.853234
11.26813 73.68009 -5.208986
13.36312 73.01732 -2.410084
6.998861 69.11041 -8.033412
14.02627 72.99725 -0.7408804
12.28412 68.30777 -3.746962
12.14537 67.2494 -3.865672
12.43561 69.51022 -3.626138
9.370993 68.00941 -6.641507
11.42974 70.01833 -4.880706
11.4639 64.86219 -4.622625
9.657531 67.75331 -6.410557
8.745282 71.81673 -7.301134
7.005429 102.1711 -7.914101
10.77332 64.73623 -5.342066
12.67876 58.5772 -1.429706
12.84796 57.30791 -0.9375522
11.4912 57.5497 -4.12015
12.7184 57.63419 -1.208681
12.22478 57.30715 -2.620269
12.04273 59.85209 -3.438771
13.02935 62.97072 -1.661649
10.72684 54.27273 -4.71209
10.39722 52.53754 -4.857581
12.17739 59.42725 -3.150601
12.1727 60.84875 -3.324526
11.27895 56.60955 -4.295067
10.48568 59.77932 -5.320629
12.08989 63.62239 -3.674256
9.436086 61.47318 -6.218551
5.303331 87.63578 -9.525151
7.820824 87.59332 -8.752541
7.058097 85.07309 -8.874015
6.628082 84.96988 -9.018424
8.692238 89.1584 -8.489228
11.0487 92.09498 -6.491983
12.15821 91.10477 -4.891518
13.64115 90.06111 -2.673028
10.56875 88.72715 -6.951779
11.58006 90.61124 -5.816001
13.99317 91.83447 -1.591257
13.69063 89.02253 -2.719078
12.87159 84.01377 -3.558124
10.86867 85.68116 -6.204624
12.28767 85.76476 -4.452001
14.42809 87.53355 -1.331221
13.713 84.99786 -2.348903
14.22739 84.92365 -1.463617
10.28331 84.02503 -6.683707
9.674419 83.79788 -7.214886
9.104284 82.6988 -7.589447
9.328428 84.80992 -7.574398
4.466887 56.0359 -8.062546
13.596 76.69765 -2.188969
10.48 81.03262 -6.361719
9.621863 78.93552 -7.05012
12.16132 74.53073 -4.200696
11.16942 63.04042 -4.836001
12.83695 84.70912 -3.643631
11.70711 83.81656 -5.087117
10.80439 83.88007 -6.173517
13.45164 64.00391 0.2921762
9.445677 69.30244 -6.665295
-0.917209 69.84343 -8.989805
-1.121079 51.14047 -8.098675
-11.31876 114.0993 1.325014
-14.93993 75.55231 2.720112
-3.464229 90.2995 -9.928358
-14.62099 49.38856 2.59781
-4.385144 48.74051 -7.163013
-15.78863 49.9691 4.904928
-1.363956 58.65475 -8.340494
-2.237204 54.85147 -8.259476
-1.686226 74.03554 -9.15124
-0.567706 59.20738 -8.493283
-7.667743 105.0211 -6.413844
-6.50266 106.813 -7.090099
-10.02028 110.9667 -1.881339
-2.665693 110.3507 -5.695384
-0.635409 113.9934 -3.576425
-9.455896 104.6743 -5.488996
-9.403503 112.2338 -2.27076
-3.175955 98.48685 -9.505884
-1.253339 47.76151 -8.220547
-15.73641 49.77101 4.844746
-2.402985 52.16446 -7.787867
-7.448197 119.3104 -2.699228
-4.333822 119.1894 -4.028235
-4.184595 49.61492 -7.32977
-14.82549 91.57992 0.7189984
-12.75119 105.9602 -3.798144
-14.52432 49.28736 2.111719
-13.61197 78.57464 -2.236163
-12.03426 109.9516 1.788887
-14.95608 95.73086 3.229911
-14.26397 48.07658 0.7664717
-14.86852 50.22355 3.677558
-14.48576 51.147 0.606572
-7.279903 119.1985 -2.75842
-15.33778 86.19363 2.41044
-7.906945 117.1323 -1.849232
-5.044761 47.56326 -6.818891
-10.70077 119.4024 3.642372
-10.63125 47.75979 -3.939281
-0.682394 82.57513 -9.535943
-10.76592 119.6675 3.868114
-2.840891 117.4906 -3.686338
-10.11011 115.2538 -1.115616
-13.27563 104.7616 3.568716
-5.337698 117.5615 -3.400191
-6.864344 117.8572 -2.694248
-10.93459 120.7953 3.127303
-2.600151 116.33 -3.84429
-5.927163 116.2417 -3.135535
-14.51101 96.3139 1.586483
-13.59438 94.87218 -0.9504554
-10.54717 117.594 2.987353
-3.02561 65.36128 -8.620581
-14.95596 64.36586 3.286016
-12.87711 73.09248 -3.143044
-1.811064 51.40976 -7.819822
-3.299049 47.3774 -7.35136
-7.084455 47.51286 -5.935235
-8.941906 48.02658 -5.029759
-14.92983 84.1743 0.4384378
-4.089371 89.44204 -9.801077
-6.031341 106.1797 -7.255891
-9.825315 105.9247 -4.718789
-2.322293 107.1545 -5.857873
-9.359645 116.0071 -1.277768
-3.62081 114.3224 -3.56129
-5.291996 111.8071 -3.993439
-0.3341767 111.7239 -4.616687
-4.312802 113.9153 -3.553002
-7.129781 118.3346 -2.538569
-11.70895 51.07211 -3.542344
-13.60617 62.03407 0.2124459
-14.72311 51.6417 3.48417
-11.98793 110.4102 3.027037
-10.86673 111.6661 -0.4869376
-12.22754 107.0393 -3.651144
-12.36432 107.8174 -3.159606
-9.996704 112.4703 -1.036968
-13.00651 97.70926 -1.865322
-13.35619 101.9153 2.272371
-3.921537 75.71155 -9.024066
-4.245226 79.84819 -9.187253
-14.59433 64.30825 2.95021
-7.034083 57.32142 -7.101892
-2.824785 51.51595 -7.781193
-6.266304 49.9682 -6.669744
-15.1894 82.07988 2.129312
-14.5038 94.51784 0.5748768
-3.555209 86.52985 -9.5866
-15.22319 81.11285 2.361229
-3.158475 101.0899 -8.88907
-1.773164 98.66796 -9.302145
-9.918459 108.8938 -3.041404
-10.58067 106.2782 -4.308025
-1.486225 106.5415 -6.182197
-11.03231 106.0929 -4.513566
-9.148089 113.476 -3.188135
-2.362794 111.0861 -4.709671
-7.280898 115.5297 -2.208521
-9.055046 116.1033 -1.246857
-9.905774 49.10602 -4.624031
-14.29367 50.08991 0.4843824
-14.59466 56.93888 1.504776
-11.71691 111.9456 2.990288
-12.61844 109.6465 0.5145798
-11.28281 108.8377 -2.690226
-11.07094 112.8554 0.4882117
-12.71967 104.7537 -3.981567
-13.3146 104.6679 2.109293
-11.28194 116.5973 3.058208
-11.86739 116.1608 3.535331
-10.10943 115.7096 0.3881352
-13.36488 100.6178 1.3057
-1.527653 65.71655 -8.77711
-3.244604 67.09248 -8.681962
-2.56054 58.54626 -8.241709
-1.415291 74.72638 -9.195149
-14.36355 64.17944 2.4892
-14.95375 74.5732 3.395563
-15.09494 73.73075 3.738857
-15.02617 76.39854 2.484547
-1.378173 59.0013 -8.365522
-3.313099 52.68209 -7.919012
-7.68438 49.10534 -5.884002
-15.30024 80.5908 3.442974
-15.3113 91.52394 3.23033
-15.31374 90.81246 3.013321
-14.63909 95.7625 1.614539
-14.68513 93.55742 1.409889
-13.4635 93.41484 -1.970219
-0.8338665 87.92081 -9.771605
-0.6572422 86.4116 -9.702304
-1.453016 84.63633 -9.601243
-15.30791 79.35179 3.01803
-1.672642 106.6156 -6.155081
-1.215358 93.64463 -9.923889
-8.897538 107.8824 -4.407192
-8.58818 110.3194 -4.676867
-8.272176 112.8466 -3.803906
-7.626399 112.4003 -4.086416
-8.979274 111.3569 -3.255065
-1.783578 112.1646 -4.020158
-3.402475 110.4958 -5.606679
-11.13592 48.65118 -3.715183
-15.17722 58.31736 2.336347
-14.61205 50.40305 2.687785
-14.9146 53.71994 3.006699
-14.67439 52.09709 2.542794
-12.93303 107.3407 -1.762036
-12.89171 106.4167 -2.550883
-13.14845 105.2768 3.549901
-14.75897 95.8046 2.255609
-13.30123 101.8354 0.9238464
-13.73503 99.99218 2.556899
-2.724794 76.86361 -9.205607
-1.279391 60.61544 -8.558868
-1.501374 77.40015 -9.297662
-14.18469 65.99504 2.489361
-14.41788 68.8511 2.75678
-14.78038 73.88943 0.8761
-14.51837 78.58732 -0.3398409
-2.115232 58.73826 -8.30232
-6.126339 51.21947 -6.878327
-9.911327 49.51053 -4.68351
-15.32609 83.44969 3.140321
-14.68396 79.69205 0.04790124
-15.00578 82.0711 1.105299
-14.88835 80.76153 0.7197177
-14.87839 75.88388 0.9146436
-13.92175 78.75011 -1.694238
-14.81974 85.42342 -0.05943931
-15.14096 92.11033 2.397974
-15.38595 88.36819 2.632637
-3.065454 90.05441 -9.905031
-3.159623 88.87926 -9.783545
-6.080954 92.63268 -9.92486
-2.946029 85.62531 -9.579098
-0.8160924 80.01923 -9.427938
-0.6531437 83.725 -9.58516
-3.762506 95.82534 -9.893266
-3.555734 96.78009 -9.789791
-8.127396 106.8459 -5.382835
-6.809507 104.3411 -7.577709
-6.272358 104.2788 -7.894904
-5.837661 106.9186 -6.496656
-5.873261 105.5265 -7.497645
-7.306469 109.4189 -5.29872
-12.36635 49.66599 -2.669134
-15.46511 58.78877 3.117246
-15.01288 54.01551 2.635265
-13.40858 51.50663 -0.9398429
-12.31887 111.2911 1.718045
-12.63175 104.6133 -2.678152
-13.34653 103.9682 3.00106
-14.06842 95.52899 0.1473314
-12.61463 103.9633 -3.649532
-1.939988 70.2897 -8.959648
-0.6431268 73.29779 -9.172851
-1.227569 77.12172 -9.296879
-13.98872 66.35027 -0.06590463
-13.833 63.24627 1.319746
-13.87918 57.6516 0.8299878
-4.858952 50.77259 -7.294092
-8.355235 52.87376 -6.018342
-9.04277 76.20638 -7.256364
-3.049874 88.27071 -9.740176
-5.300797 78.34295 -8.938787
-10.16568 102.2311 -6.210002
-4.216084 106.9475 -6.138125
-3.42746 104.746 -7.180369
-4.439782 101.7441 -8.844046
-5.545281 101.7443 -8.745684
-3.446706 99.44108 -9.351336
-5.67088 108.9125 -5.316709
-14.85552 52.84737 1.650862
-13.82089 56.72079 0.5564098
-13.18016 103.2061 0.01853955
-3.570087 74.775 -9.02128
-13.78289 63.22467 1.196554
-13.87212 66.62092 -0.9495811
-13.38414 56.39598 -0.1866412
-5.387029 52.5911 -7.30024
-6.319434 105.1331 -7.718369
-10.37177 104.1479 -5.29864
-7.466532 101.1887 -8.042674
-6.27663 100.4366 -8.760457
-12.49684 104.0578 -2.072975
-12.38639 108.0938 0.8438309
-4.470592 73.05818 -8.814688
-4.28091 78.2219 -9.096377
-9.405999 78.90168 -7.135442
-8.110594 78.80634 -7.975235
-6.474969 79.61195 -8.71065
-10.30673 79.82989 -6.396078
-13.554 62.26418 -0.3116419
-8.879161 52.06845 -5.638968
-9.235477 51.5785 -5.380862
-9.770155 53.0121 -5.211482
-5.475336 54.10954 -7.394509
-9.290511 103.5074 -6.134917
-11.39578 102.6306 -6.052827
-12.57659 99.93378 -1.843741
-13.256 101.7256 -0.2717757
-12.1291 101.6651 -4.466568
-8.346873 102.7391 -7.019001
-12.21134 99.46286 -3.042783
-12.3558 102.0604 -2.921507
-11.81046 101.1808 -5.541533
-6.241127 98.7818 -9.122475
-7.712025 99.00522 -8.563088
-11.15227 100.5564 -6.45855
-7.168502 100.5837 -8.37684
-10.89145 99.32798 -6.774764
-12.82933 96.62216 -2.45067
-10.64927 101.6234 -6.619029
-10.09525 97.61881 -7.58081
-7.983725 96.21761 -8.958023
-12.16163 98.19638 -3.229925
-12.21574 99.133 -3.001924
-11.5869 95.7971 -5.053615
-12.4746 91.88641 -4.244016
-12.06212 94.82563 -4.449645
-12.27187 92.14735 -4.53847
-11.28685 94.21384 -5.911872
-11.65881 95.21884 -5.019555
-10.04589 92.64348 -7.673955
-11.5738 94.20056 -5.40421
-11.56051 93.4731 -5.564464
-10.8845 94.02523 -6.503898
-10.42241 118.7448 1.580624
-5.041666 109.0887 -5.340716
-4.47297 108.7255 -5.445879
-3.964988 65.07929 -8.477958
-6.50778 68.79166 -8.056745
-4.291546 66.27222 -8.479882
-5.666368 69.56713 -8.378932
-4.579198 73.99962 -8.844481
-2.349121 60.79911 -8.470394
-5.278066 59.04644 -7.837384
-1.920334 60.90203 -8.522552
-3.899194 64.35014 -8.452883
