# .PCD v0.7 - Point Cloud Data file format
VERSION 0.7
FIELDS x y z
SIZE 4 4 4
TYPE F F F
COUNT 1 1 1
WIDTH 1666
HEIGHT 1
VIEWPOINT 0 0 0 1 0 0 0
POINTS 1666
DATA ascii
-8.243835 136.7276 9.355833
-7.247735 139.5026 8.37558
11.78121 133.0981 6.460914
7.732399 138.5154 8.638894
5.821863 140.6472 8.271933
3.875583 140.4731 8.785735
3.420387 139.7067 9.218098
5.595481 138.326 9.453506
2.715083 138.7989 9.726854
9.40009 136.3515 8.89634
11.0834 136.035 7.754601
-6.407663 122.6746 11.96523
9.719244 119.8515 8.212838
10.8191 123.5838 5.531957
7.102359 124.6947 11.55804
5.721342 119.9123 12.07986
-9.858074 128.5163 9.729169
-2.150976 122.3478 13.28906
-6.381368 120.093 11.72368
-6.397654 121.3279 11.85455
-6.611596 122.9162 11.84106
0.5278949 124.0598 13.41141
3.079693 122.8848 13.19452
-8.473552 137.9943 8.628586
11.53779 132.952 7.580677
-7.939387 122.7064 10.80411
-9.498224 121.7629 8.810768
-10.66985 123.0112 6.217274
-10.08364 123.6229 7.7619
9.599247 121.4335 8.604261
-5.542167 121.2361 12.33862
-3.383257 125.783 13.05336
-7.667956 125.3284 11.14128
-5.868541 124.8466 12.29484
-3.753437 126.4963 12.96182
1.134524 124.6329 13.36068
2.307141 125.325 13.23115
8.427243 135.8086 9.693087
7.688265 135.3679 10.34827
11.30226 133.7472 8.164916
-9.888177 124.9413 8.318228
-0.5659829 124.676 13.38911
7.730983 138.1558 8.807879
5.657839 138.8683 9.177456
-8.671144 124.2233 10.10191
-8.133481 127.6811 11.18752
-8.093917 126.9142 11.06542
-11.14377 124.6443 4.454632
-11.32378 126.2785 4.175688
-10.10458 125.5398 7.951116
-10.87812 121.6356 4.480993
-7.632917 127.782 11.59175
5.55616 136.7782 10.27014
5.134474 137.4681 10.00467
4.887632 136.5865 10.51138
-8.907292 126.947 10.30335
-5.325534 126.9431 12.5805
-6.31991 128.2959 12.34332
-4.504325 134.3815 11.59704
-4.469651 130.3235 12.7002
-5.437432 126.3166 12.51741
-10.8873 122.2372 4.874327
-9.742106 127.2951 9.203085
0.6954883 126.3185 13.2586
-5.460415 128.7232 12.57118
-2.137266 131.1823 12.63461
-4.260464 131.3693 12.586
-6.498223 129.8978 12.49818
1.177871 139.6733 9.373354
0.4391393 140.567 8.94048
-1.647228 136.6691 10.78344
1.547406 141.882 8.255274
-0.9627876 138.2055 10.08929
2.7582 142.7098 7.762561
1.966999 144.0406 7.074303
-2.085698 140.4642 8.952825
0.009267816 142.128 8.131851
-2.189329 142.7096 7.824498
-2.402004 143.061 7.610023
-10.99745 122.1621 2.880226
10.87334 121.3736 2.302889
3.939521 143.9005 6.866034
11.37063 124.945 1.705236
11.20498 124.2544 3.398192
11.01583 126.2409 5.45511
10.30873 124.7595 7.293514
10.46596 123.0923 6.769705
10.92189 122.8806 4.641804
-10.92031 135.238 8.75949
-11.14207 132.4395 9.524803
-11.5104 132.3972 7.726929
-8.74957 133.4236 11.07962
-11.54247 134.88 7.900367
-11.36429 134.3851 8.335294
-7.552466 137.594 9.211793
-2.481659 136.1468 10.97913
-6.202721 137.8111 9.554508
-4.724058 139.8485 8.938686
-5.773713 136.6013 10.29281
-4.58125 135.9504 10.85462
-4.856957 138.8169 9.395049
-5.448632 135.6513 10.85845
-3.499472 131.0522 12.6499
-3.134201 133.4696 12.03371
-5.467524 132.1152 12.39043
-2.246519 134.3867 11.73508
-3.445043 136.3208 10.82307
-6.505733 139.1275 8.81522
-1.326493 138.0225 10.16391
-2.020014 139.0795 9.632556
-3.521184 139.1243 9.475767
10.43499 122.6696 6.817301
9.509784 124.9289 8.96265
10.96508 124.8236 5.219306
9.723929 123.6988 8.532094
8.189616 122.5937 10.66219
11.11485 128.8851 6.666813
9.453339 123.9166 9.00264
6.801734 125.0298 11.76241
6.102 127.0531 12.26648
2.278736 123.9314 13.28921
1.472007 126.8554 13.17187
4.980731 124.9977 12.66675
2.92431 124.6478 13.18542
5.657116 125.9992 12.39965
7.61174 123.2958 11.17794
11.46867 127.3187 3.864548
11.21637 128.5838 6.025341
11.42072 132.4304 7.974236
0.4874552 125.2836 13.3602
0.7061942 127.9054 13.07812
7.72374 125.9689 11.11533
5.512424 123.6615 12.47963
6.391353 125.4175 12.01855
11.46045 130.3378 6.212194
10.77424 131.0558 9.68878
10.32285 125.8722 7.550375
4.233766 126.6335 12.83965
-2.196543 127.1526 13.09313
11.65755 132.2894 6.588201
11.22816 131.0811 8.03159
11.21852 134.6366 8.356858
11.45086 133.1377 8.083415
7.877426 133.8037 11.27545
8.342219 126.0299 10.64484
8.412941 134.8044 10.37008
7.062977 127.2446 11.81122
2.86294 127.48 13.01364
9.255239 128.2212 10.37447
9.09944 131.3531 11.98667
6.481323 135.1947 10.85148
10.98394 129.5665 7.734082
10.73509 130.0449 9.057806
5.55083 131.8996 12.45249
9.87457 128.8614 9.857162
8.944255 126.3982 10.08153
9.006159 130.0338 11.45204
9.524791 130.564 11.33007
7.891102 131.8562 12.2504
7.864873 126.3229 11.10268
6.150389 126.0365 12.1682
7.561693 128.2533 11.76181
7.652458 130.1384 12.17605
4.048334 130.1182 12.74942
5.846793 126.9835 12.34719
7.867328 130.7417 12.19528
5.750643 130.0065 12.60306
8.351832 130.2439 11.98319
2.387789 128.7773 12.94654
-10.29304 124.9678 7.465272
-10.54878 124.7186 6.758043
-9.082412 130.4295 11.50507
-7.911609 131.6371 12.20365
-6.335201 129.4885 12.48197
4.865924 134.5801 11.47023
1.024809 139.4861 9.468945
-9.018066 134.7461 10.09397
-10.08508 134.9851 9.344443
-10.30018 133.0713 10.40178
-10.6545 132.2923 10.40135
-8.985037 131.3198 11.63333
-6.855148 133.9905 11.387
-7.21104 133.8757 11.34715
-5.349907 130.9846 12.61216
-5.81879 131.6109 12.47432
-4.154467 141.3491 8.341905
2.05792 131.2591 12.63429
-0.09006586 129.4184 12.90939
-0.4960674 130.5395 12.7508
8.779987 131.8199 11.97019
3.363481 134.4571 11.6804
-1.463516 135.828 11.17466
1.427026 134.8372 11.58195
-2.564295 134.1856 11.80165
-3.032076 132.5528 12.31926
2.456715 137.4014 10.41806
1.417413 135.7637 11.20671
1.091976 137.691 10.3446
-0.566619 135.5082 11.32347
-0.5214594 134.6185 11.67192
0.3051009 134.3752 11.76483
2.590519 133.9787 11.88613
6.200068 133.6911 11.76836
5.90697 133.7568 11.78244
3.540207 131.0435 12.66028
2.743101 130.9885 12.67558
2.007641 138.5471 9.895137
3.436883 132.9093 12.21888
3.241663 134.0226 11.85114
0.9051339 131.1097 12.66005
1.343346 131.7562 12.52447
-12.01304 128.0195 -2.137127
-12.27748 128.8808 -1.019283
-12.31559 130.7048 1.805673
-12.54681 131.8683 1.837557
-12.85281 132.6997 1.777614
-12.4787 133.5307 4.017402
-12.85527 136.2346 6.00184
-13.38782 135.7433 4.418006
-12.46195 136.5789 6.471776
-13.00743 134.5734 3.718646
-12.2867 129.9731 1.186459
-7.495465 143.1417 6.450394
-11.83594 137.9886 6.837296
-8.956151 141.9379 6.563598
-12.59302 130.1527 -0.5342838
-7.939469 143.2384 6.206064
-6.109694 144.5353 5.920271
-9.923598 141.3396 6.620107
-11.68212 140.4515 6.008236
-13.63854 136.5798 5.056804
10.14304 142.3238 5.70085
12.60669 130.3854 -0.6317891
10.53439 140.4182 6.492946
10.79958 140.0251 6.538364
11.93641 138.2964 6.593749
12.14728 127.6045 -3.090064
12.8551 136.5889 5.884912
11.73373 138.5116 6.63774
7.077084 144.57 5.525827
6.288188 145.236 4.692667
5.736907 144.5085 6.120113
12.49704 130.0067 -0.5106975
13.53799 135.4062 3.543874
12.29747 128.5976 -2.902872
12.66924 134.8497 4.718498
13.18367 135.9657 4.728449
12.84627 134.374 3.789614
12.25375 130.883 1.972826
13.0484 134.4109 3.295947
12.62329 139.6839 5.737291
12.60843 131.4469 0.962105
9.683892 119.5027 -0.4191413
10.8645 124.8631 -2.364342
0.4838699 134.9377 -8.249208
8.902164 123.6622 -3.793369
10.30073 123.6511 -2.252367
7.454865 120.4889 -3.163371
1.101642 121.1841 -4.583952
0.5662154 122.4956 -4.977782
2.397972 132.7054 -8.092922
6.152116 121.6687 -4.223085
10.3236 125.3813 -3.562322
9.317538 126.1512 -5.061671
8.567968 125.368 -4.889472
7.481855 124.7023 -5.058684
2.597615 133.3468 -8.270899
7.70107 124.4401 -4.824209
1.648896 129.5546 -7.209054
3.056285 122.2378 -4.874674
2.888076 127.3012 -6.582495
1.956402 133.3087 -8.141223
0.5857434 121.8078 -4.762031
0.7743598 129.7325 -7.214015
10.10189 121.6944 -1.105146
3.846862 119.9504 -4.205175
10.25869 122.4219 -1.425181
0.9375247 134.3491 -8.186794
2.488643 142.3699 -8.377421
-0.06821165 140.119 -8.488293
-0.1023223 119.7336 -4.295465
10.01972 125.022 -3.759684
11.20683 126.7145 -3.136281
1.513367 125.0542 -5.810813
4.210696 142.2933 -8.659583
9.320341 124.2923 -3.871148
1.905526 147.1714 -6.770111
0.07381007 148.028 -6.558298
1.758134 143.1133 -8.076124
4.600346 119.5169 -4.056174
6.384418 119.885 -3.541077
0.31413 135.3424 -8.292633
1.379562 128.4246 -6.872966
2.577443 127.0664 -6.497872
2.242173 139.0069 -8.81904
1.78123 135.1574 -8.430725
1.270527 135.8285 -8.453628
2.926281 138.7724 -8.985271
2.926044 142.112 -8.512532
-0.08376874 142.5887 -8.045996
3.730514 145.6221 -7.30706
4.184643 144.5641 -7.676261
0.9373718 145.2469 -7.520637
3.157375 142.9242 -8.308762
3.78466 121.3454 -4.59774
8.92884 123.9134 -3.907721
5.743491 124.828 -5.613408
1.825077 120.4616 -4.393099
3.768814 120.3804 -4.316813
5.423861 123.6396 -5.180919
0.3387998 127.7686 -6.664153
0.4448506 140.7569 -8.421206
-0.08921508 143.5063 -7.822503
1.33551 146.0485 -7.308105
1.45593 144.7279 -7.602373
6.391118 124.0255 -5.109279
0.3705406 120.1927 -4.312822
0.8828714 120.6112 -4.418272
5.457956 121.2342 -4.285197
6.880486 122.1794 -4.156858
0.8887722 123.1509 -5.187
2.669213 124.8536 -5.746997
4.494797 123.3271 -5.192577
4.215929 126.5335 -6.358534
5.622204 125.4722 -5.881786
5.019786 124.6173 -5.618017
2.453036 131.2207 -7.748278
2.101634 140.9787 -8.634058
11.68515 127.1523 -3.746363
10.95247 127.9775 -4.8068
5.841402 127.4864 -6.735049
5.621715 146.3688 -6.054262
7.782104 127.8104 -6.727648
3.845596 130.4074 -7.759102
9.014793 126.974 -5.87692
5.448849 127.5134 -6.754489
2.897413 132.9797 -8.259892
3.604903 128.1688 -6.912045
3.590312 131.9764 -8.22928
6.091585 140.9479 -9.095747
3.820877 135.593 -8.934885
3.56609 128.5798 -7.058558
4.345528 137.3802 -9.214594
4.412384 141.2907 -9.015386
5.007195 137.5266 -9.291819
6.057022 146.7687 -4.911602
5.517918 144.0322 -7.754693
4.739625 142.2301 -8.665413
5.44699 147.039 -5.239725
4.953243 145.291 -7.151986
5.570385 142.022 -8.713854
4.586961 140.5173 -9.204332
-6.652479 142.21 -8.615045
-5.953183 140.3385 -9.212432
-5.006087 133.7573 -8.898402
-4.252155 135.9776 -9.060503
-7.629741 127.0848 -6.355909
-6.218876 143.9222 -7.731339
-5.196733 146.7787 -5.908993
-6.502085 145.9273 -5.914063
-5.196208 128.8109 -7.329921
-8.234492 127.3939 -6.405698
-5.271808 143.4222 -8.109606
-8.789775 126.753 -5.806561
-5.970957 127.7567 -6.836666
-5.722599 145.8178 -6.531863
-10.90455 128.397 -5.117275
-3.610316 130.9102 -7.914091
-5.273705 135.6903 -9.152349
-4.805747 136.4656 -9.182406
-2.93489 130.4473 -7.615086
-5.947639 128.346 -7.148424
-6.101771 139.11 -9.281719
-4.947918 128.3229 -7.097174
-5.424769 135.2446 -9.119367
-4.617033 140.6389 -9.183585
-1.245712 138.9569 -8.683508
-3.891014 119.0142 -4.018934
-2.60153 133.4285 -8.287962
-0.3701793 119.7308 -4.273531
-10.07713 123.2354 -2.332327
-8.937614 121.4787 -2.482843
-1.289789 128.4629 -6.88715
-3.87183 137.8746 -9.158244
-0.4436963 146.42 -7.042437
-4.783881 121.2915 -4.479672
-0.6872465 147.9474 -6.54326
-2.349585 126.4051 -6.278435
-5.807046 121.6326 -4.307831
-2.533104 147.6859 -6.332527
-8.544288 119.838 -2.062011
-0.5014236 144.7081 -7.712121
-4.834079 146.3703 -6.556464
-8.799012 124.7805 -4.507223
-0.6709979 122.5275 -4.989404
-7.337613 119.0984 -2.684093
-10.48862 125.7675 -3.602195
-9.204735 120.2519 -1.55594
-7.599319 124.0667 -4.689306
-11.11641 125.3102 -2.053426
-2.223213 141.3859 -8.606591
-9.756371 120.4404 -0.7872671
-0.5723704 131.6329 -7.643692
-2.551886 129.1164 -7.164589
-0.3304664 138.1376 -8.514027
-8.794931 123.771 -3.905305
-3.133177 126.3766 -6.291935
-8.085899 121.7361 -3.372068
-3.921833 140.2484 -9.128677
-2.958492 127.9593 -6.818784
-6.549986 125.9095 -5.886145
-9.538305 123.5389 -3.190963
-7.128311 119.3917 -2.946895
-9.414749 119.462 -0.8048038
-1.520336 135.6818 -8.461676
-1.998751 133.5818 -8.176533
-3.379298 135.9224 -8.866938
-3.467693 137.1535 -9.01132
-0.7661139 139.7784 -8.645288
-4.772201 143.5146 -8.103711
-4.128943 139.1458 -9.237537
-0.892161 121.5716 -4.691449
-1.771939 120.6657 -4.416702
-3.476866 120.9328 -4.505192
-2.102248 126.8514 -6.419718
-1.148155 127.1623 -6.495807
-1.535355 130.8947 -7.554931
-0.8012583 146.2133 -7.177231
-0.4304765 142.9949 -8.012043
-4.528137 141.772 -8.856185
-0.1882299 124.2039 -5.532229
-3.728261 124.9752 -5.806504
-4.287285 126.4469 -6.353322
-4.664024 124.6541 -5.69226
-4.386968 124.1558 -5.493774
-1.268146 124.9411 -5.776063
-0.6733928 138.5619 -8.597922
-2.160412 139.6126 -8.781503
-2.675822 120.6903 -4.436978
-0.2807493 127.2898 -6.521139
-2.861264 147.153 -6.570761
-2.544607 144.0828 -7.899908
-3.108777 141.8116 -8.663563
-2.960155 124.6964 -5.692224
-7.375998 123.0992 -4.30521
-4.659323 122.0741 -4.688068
-6.259367 125.4427 -5.719329
-0.6474667 123.2043 -5.206543
-2.231815 123.2816 -5.232533
-5.211349 121.7748 -4.536276
-3.811159 122.9556 -5.115398
8.938335 114.4278 -1.158008
8.035859 114.7112 -1.939503
9.479934 116.9555 0.1181049
4.457786 116.1021 -3.418521
8.648134 118.4732 -1.289096
7.207282 114.592 -2.544704
1.05171 116.2055 -3.61543
1.063091 116.7914 -3.653732
8.467731 116.1943 -1.247525
0.3104417 118.6373 -4.174278
3.60373 117.891 -3.708476
1.686296 116.7497 -3.656857
7.592851 117.5666 -2.120661
5.822615 115.8492 -3.054569
9.440696 115.3854 -0.09388899
5.700159 116.484 -3.030344
0.06595404 116.0693 -3.600241
2.284154 116.472 -3.638259
1.900417 114.9718 -3.573335
3.286304 116.5624 -3.610394
8.005895 115.7994 -1.776191
-10.31649 114.6413 1.488943
-10.26198 115.5945 1.983845
-7.864753 116.2292 9.823766
-6.574097 117.6057 10.96224
-7.864546 119.0768 10.43279
-3.61272 116.8296 12.38752
-1.832857 117.5187 12.88417
-5.721933 115.1621 11.32391
-10.02641 117.9828 1.151492
-10.22703 114.9709 6.457744
-10.43885 118.4256 4.949161
-10.3173 117.3292 5.230582
-9.979129 118.2598 7.038956
9.938015 115.1571 7.146172
-3.471812 119.2381 12.73707
-8.05557 118.4668 10.05475
-1.873289 119.3782 13.06501
10.47903 114.4525 1.786518
9.265595 115.9738 8.209802
8.639511 118.4801 9.483438
6.620318 115.1746 10.74829
5.265601 118.0321 11.81358
10.05937 116.8888 1.571664
9.873119 117.1133 1.080613
8.193922 117.3488 9.656193
2.139741 118.7848 12.95272
5.086378 119.4479 12.22057
-10.19949 117.7943 5.806368
-10.259 116.4487 5.821017
-8.216015 118.1554 9.82627
9.951878 118.2837 0.9858552
-9.626314 118.8822 8.193204
-6.661435 118.7031 11.17712
-9.999192 118.9484 0.6012142
5.437984 117.1388 11.61781
9.251999 119.0952 8.942733
10.09238 115.4952 1.277441
-9.90473 118.5489 7.421605
-3.003725 117.7127 12.66402
-1.059364 118.0316 12.99885
-4.78439 118.8298 12.17593
2.141182 119.2565 13.02693
4.65121 119.5088 12.40851
4.033267 118.7145 12.41889
9.342105 118.2197 8.377295
10.01462 117.8996 6.882996
10.24334 117.9146 5.950336
10.00453 117.8943 1.318299
-2.430063 117.8949 12.81842
2.482511 117.7764 12.79282
10.15732 117.4052 6.27227
9.929369 116.2768 6.826119
-2.214532 116.7616 12.73993
0.7760065 115.7252 12.86413
9.285875 114.7747 8.415265
-10.44287 115.3646 5.269283
-9.301024 114.7405 8.319892
6.252137 115.9983 11.02162
-10.13183 116.7473 1.944538
-10.49488 115.5661 4.545277
-10.45648 119.1268 6.142067
-3.960202 117.5976 12.34095
8.347439 115.028 9.354308
10.23061 116.3464 2.177363
-0.9020479 116.589 12.90061
10.48704 115.8555 3.821752
7.496341 116.3903 10.1432
-10.24771 117.0584 2.496873
-9.938366 116.9832 6.766941
6.384895 117.5536 11.09813
4.87499 115.3089 11.82009
-9.57636 116.0744 7.715803
-6.359115 116.5568 10.97712
-0.9427377 116.9059 -3.663642
-2.505989 117.7069 -3.778865
-5.069838 118.5141 -3.644253
-7.411868 115.3971 -2.253873
-2.213895 118.9249 -4.111701
-6.150429 117.6511 -2.951541
-7.6825 118.1199 -1.987026
-7.553123 118.7628 -2.389075
-9.201297 117.3481 -0.231881
-2.102067 117.847 -3.803915
-8.947763 118.2238 -0.7170234
-5.296442 117.6503 -3.348598
-3.687506 117.1052 -3.632601
-5.848248 117.7316 -3.108353
-0.1561756 115.9482 -3.589936
-7.153512 115.2757 -2.467241
-7.656829 117.7757 -1.963446
-8.985388 115.7951 -0.6256859
-2.259438 115.0279 -3.577283
-6.123308 114.9972 -3.031635
-2.697113 115.256 -3.57862
-3.977041 116.1287 -3.486666
-1.470347 66.37299 -8.90844
-0.5136189 66.21449 -8.795511
-5.294435 66.36009 -9.734629
-5.871372 65.32283 -9.858377
-7.745802 65.63172 -10.33457
-10.3938 108.8483 -2.684178
-10.68727 111.1329 -0.5996511
-4.229333 66.26978 -9.466825
-6.692771 66.26899 -10.08513
-6.593117 65.68985 -10.04808
-9.90034 64.64226 -10.83383
-10.28088 78.7196 -10.98491
-10.98293 69.60853 -11.13156
-10.87401 96.7867 -8.256558
-10.36256 83.60741 -10.91619
-10.80693 79.86908 -11.03806
-10.85994 73.20892 -11.10808
-10.36679 69.19102 -11.00075
-10.5459 72.2604 -11.05058
-11.66413 81.77957 -11.08359
-9.894857 104.3806 -5.279649
-10.28391 102.0589 -5.708806
-9.956 84.67444 -10.85417
-10.71235 103.4019 -4.998121
-10.10201 107.0731 -3.982919
-1.12652 65.47517 -8.843331
-10.9636 90.63637 -10.65515
-10.68959 83.15224 -10.95698
-11.06684 105.1925 -3.856824
-11.0071 64.98949 -11.0924
-11.39189 104.0706 -4.08546
-11.24612 102.499 -4.74421
-11.22575 75.53078 -11.15632
-9.884911 91.55722 -10.53905
-11.23946 92.35851 -10.37699
-10.66901 89.73114 -10.70759
-11.66764 93.14771 -10.1216
-11.65133 95.19951 -9.039208
-10.69786 102.3655 -5.215109
-10.2809 111.7053 -0.9732606
-10.89953 111.3923 -0.00467018
-11.08824 98.02938 -7.142191
-10.72917 83.83978 -10.94283
-10.82801 88.14841 -10.79839
-9.764084 100.0705 -7.085507
-10.54205 106.3007 -3.917938
-11.14746 109.474 -1.184005
-11.07424 108.3876 -2.099275
-9.782296 100.9493 -6.609444
-10.08011 108.3355 -3.327165
-11.2248 108.1801 -1.995729
-1.284849 70.2835 -8.978391
-1.315336 68.44377 -8.926445
-0.7923722 78.02432 -9.114065
-1.328589 73.22643 -9.061067
-2.977272 69.92237 -9.270298
-5.44299 107.4117 -5.600929
-0.7428461 83.76421 -9.244546
-0.4957607 85.31568 -9.243863
-3.292747 86.98978 -9.854761
-5.729348 67.48849 -9.869593
-0.3867943 94.90823 -9.426046
-8.270514 71.53896 -10.57204
-0.5024902 104.0224 -7.578706
-4.457905 78.4261 -9.841374
-2.449454 109.1943 -4.876032
-2.008308 97.53625 -9.576044
-2.963044 91.40018 -9.938513
-1.382517 93.64861 -9.609473
-2.506127 94.81485 -9.831132
-1.833905 88.6916 -9.587396
-7.799684 67.18153 -10.37756
-9.589327 67.3251 -10.80541
-9.465334 76.31518 -10.8678
-2.308969 113.7502 -3.560968
-9.687551 77.15399 -10.91
-7.326429 112.8063 -2.966084
-9.684962 68.09473 -10.8394
-9.510015 87.98528 -10.72003
-2.622947 102.1101 -8.50389
-5.510933 105.9242 -6.356829
-7.008904 88.78928 -10.47343
-8.474939 71.2926 -10.61393
-9.635964 96.28561 -9.478785
-4.57246 101.2433 -8.81863
-8.557295 98.82047 -8.647389
-9.676979 104.9135 -5.212819
-8.700699 95.58768 -9.893624
-6.261898 102.8352 -7.883297
-4.337862 113.9267 -3.548594
-9.799787 114.0019 -0.1643508
-7.574677 102.0304 -7.698594
-6.273972 102.0934 -8.16616
-1.493531 109.2605 -4.786613
-2.648403 112.2863 -3.860045
-7.944952 114.0137 -2.196131
-7.014378 69.33178 -10.22851
-9.025764 71.61982 -10.73898
-7.737964 70.09218 -10.41953
-8.471793 109.2329 -3.984729
-9.221881 112.7056 -1.650803
-1.770469 70.73567 -9.053666
-1.627319 68.88491 -8.979481
-3.557654 69.55463 -9.388579
-3.382 67.9893 -9.307447
-2.755742 77.1194 -9.415142
-2.629672 77.99409 -9.415428
-2.053205 83.08943 -9.446344
-1.500416 79.05371 -9.243967
-7.90799 79.59555 -10.62462
-0.5398387 80.84538 -9.151787
-2.351905 81.95396 -9.477975
-7.941651 82.34175 -10.65115
-0.8173792 89.97649 -9.412462
-0.3837475 87.06773 -9.267543
-1.400078 92.04212 -9.599774
-1.27365 91.14427 -9.547926
-0.9032286 93.7211 -9.504093
-8.982712 99.23431 -8.17896
-0.2731843 102.9618 -8.121738
-1.853063 100.898 -8.965894
-3.456867 102.2473 -8.443445
-9.510901 103.6868 -5.877592
-0.3193482 107.2855 -5.843884
-0.7180412 111.8171 -4.808174
-3.018847 111.7794 -4.841711
-4.028668 111.9644 -4.223969
-3.678398 110.221 -4.521174
-9.188743 67.5434 -10.71467
-9.239389 72.68661 -10.79648
-9.24856 110.4293 -2.8761
-0.3809405 71.10056 -8.892123
-1.589262 73.18841 -9.090535
-5.102651 69.8777 -9.76958
-1.478678 75.05615 -9.137157
-2.564255 79.89308 -9.455623
-8.770679 73.69391 -10.71283
-8.686671 80.08887 -10.74993
-7.850082 81.77991 -10.63487
-7.401205 87.99428 -10.53476
-0.4217754 87.24067 -9.277063
-2.631814 85.90289 -9.665302
-2.301495 91.06123 -9.782126
-1.990996 93.00651 -9.750254
-2.750555 96.71964 -9.728286
-6.692516 97.83772 -9.508925
-0.9848717 97.79156 -9.467823
-1.283133 102.6764 -8.257656
-2.286692 105.7892 -6.645372
-9.447432 107.5539 -4.200417
-2.312768 110.8429 -4.654898
-5.758637 110.6829 -4.175708
-7.350185 109.5342 -4.240783
-6.904207 112.59 -3.221153
-6.234884 69.6205 -10.04402
-2.846617 69.60624 -9.232523
-2.911408 72.37305 -9.319494
-3.930159 72.88225 -9.565862
-3.866956 76.0022 -9.634342
-5.012277 74.8905 -9.881202
-3.823398 77.94258 -9.674062
-8.783116 76.91108 -10.75023
-7.138524 78.39148 -10.44964
-7.71006 80.59853 -10.59781
-7.986592 80.86138 -10.64858
-9.242161 84.27391 -10.79398
-7.142467 92.03104 -10.33647
-8.105464 95.70557 -9.930131
-7.140196 89.35662 -10.46926
-3.306484 90.80198 -9.982489
-7.237334 85.77397 -10.54104
-1.98319 94.56274 -9.735578
-1.334214 94.89014 -9.589155
-2.048282 98.99349 -9.397988
-8.120887 99.05006 -8.72905
-7.157264 97.59247 -9.521907
-9.046133 97.60075 -9.017629
-2.787259 100.6487 -9.041636
-4.342904 98.7629 -9.497119
-7.41329 98.60027 -9.159543
-2.049968 103.124 -8.033834
-5.729113 98.2787 -9.506186
-3.217993 103.7808 -7.696054
-8.649466 102.0668 -7.039947
-7.691875 104.3529 -6.671474
-9.349081 106.5506 -4.777979
-8.133955 108.5837 -4.459389
-7.553985 110.1339 -3.933216
-7.361681 111.9071 -3.35287
-2.911644 72.40704 -9.3205
-6.790583 72.36297 -10.24419
-4.350293 75.0508 -9.724045
-6.816679 76.58707 -10.34919
-2.991166 77.88303 -9.489894
-3.974766 78.97679 -9.73968
-4.957159 81.12132 -10.03962
-6.481428 79.13594 -10.33008
-2.929885 79.84851 -9.52576
-6.730537 69.97428 -10.17303
-6.985775 94.31259 -10.11782
-3.648017 96.53019 -9.833012
-7.361855 101.5567 -7.945985
-2.691886 100.9577 -8.937433
-6.921126 103.1314 -7.550106
-4.466033 105.5842 -6.6747
-5.363525 100.0199 -9.094799
-5.307634 95.81618 -9.91024
-1.19203 108.5418 -5.128706
-7.634667 108.6825 -4.604632
-6.893135 76.86992 -10.36973
-6.696493 78.57647 -10.36128
-6.908372 82.01797 -10.47199
-5.43958 95.8112 -9.908745
-4.408385 94.34454 -10.04395
-6.181818 103.4319 -7.642154
-2.858236 105.135 -6.984073
-2.640643 108.1219 -5.398433
-7.227101 82.72264 -10.53867
-6.463099 104.8494 -6.76429
-6.400597 84.84368 -10.419
-3.083028 82.58402 -9.652708
-6.470104 105.4357 -6.441436
-7.965517 107.4281 -5.037404
-4.514761 107.9994 -5.410701
-5.458011 107.2255 -5.689694
-4.834202 109.5372 -4.687266
-3.369528 107.8985 -5.525716
-5.164661 84.94331 -10.19346
-2.48037 86.92669 -9.66899
-5.21684 85.45492 -10.21961
-4.631593 88.24223 -10.16494
-5.825434 89.86217 -10.32406
-4.942486 89.05986 -10.22955
-3.002668 99.47288 -9.327621
-7.213151 73.65512 -10.37205
-7.651501 93.62877 -10.23024
-5.078521 94.59895 -10.04326
-4.305976 91.71804 -10.13146
-6.71944 91.55626 -10.33328
-4.292969 99.68776 -9.314888
-3.263873 84.3344 -9.745487
-4.680553 105.0068 -6.995679
-3.059209 83.95034 -9.688035
-3.998225 85.43678 -9.955492
-3.82179 87.50904 -9.98918
-3.803483 93.53489 -10.03799
-5.273391 83.36314 -10.17653
-7.443163 85.48586 -10.57223
-5.560715 86.56416 -10.29854
8.109425 70.21349 -10.48777
8.574823 66.7615 -10.54516
9.11367 77.18642 -10.76504
1.760687 82.4072 -9.349012
9.121363 78.80408 -10.77369
6.048572 81.71781 -10.2866
8.314048 84.39136 -10.64276
8.631819 89.35225 -10.56405
8.546596 89.81889 -10.5392
7.159555 114.3511 -2.606384
6.465885 99.71581 -8.988311
9.524302 112.9803 -1.14888
9.099289 102.9748 -6.42393
8.319258 101.7883 -7.400846
0.09114967 67.42379 -8.82915
7.317729 113.4124 -2.704964
8.935599 68.56046 -10.65171
6.033371 68.23552 -9.965547
8.809503 112.2419 -2.334331
8.929688 91.1105 -10.50623
4.472642 67.96738 -9.58312
1.140159 107.4114 -5.76694
-0.1617094 71.39043 -8.887403
1.701533 90.54939 -9.642991
1.85436 98.23218 -9.480107
6.167019 98.34735 -9.439064
3.379523 79.56827 -9.627031
0.962234 98.43179 -9.43596
-0.1657776 91.53718 -9.354984
0.9911335 100.9566 -8.950014
2.680987 89.21179 -9.809315
1.938766 87.41766 -9.556285
0.1757252 96.73434 -9.425134
2.462727 100.1266 -9.184202
-0.1169162 69.82476 -8.876022
0.1852826 105.3943 -6.853539
0.531822 80.7009 -9.152401
3.36744 102.4925 -8.36347
8.67421 74.97824 -10.66755
6.65143 76.50813 -10.28505
5.297805 76.81952 -9.989356
2.938741 88.63992 -9.843709
6.019419 70.19322 -10.00196
6.237165 111.79 -3.758014
1.3259 112.1889 -4.63378
1.441918 112.3758 -4.351235
5.829921 113.1478 -3.489216
6.828416 70.83463 -10.20637
6.750253 67.53378 -10.12481
7.431032 69.11536 -10.31386
2.914543 67.56699 -9.224783
1.894123 69.4091 -9.074322
6.012872 76.83875 -10.1532
7.102794 78.04688 -10.40154
8.695373 76.70816 -10.6854
8.282981 78.72086 -10.63038
1.288374 78.95035 -9.196869
7.453065 79.23786 -10.49124
6.907057 82.22134 -10.44036
1.437117 82.44753 -9.294798
7.667533 90.19938 -10.45777
2.945727 89.9335 -9.901526
7.955619 90.89248 -10.44769
1.635392 90.04625 -9.603719
0.1440605 99.44441 -9.316812
7.224164 96.85222 -9.760353
7.815614 98.7263 -9.080639
8.232778 98.04662 -9.271755
8.044496 104.5332 -6.414355
5.893772 104.366 -7.221283
8.34693 103.9419 -6.522477
-0.1962466 106.807 -6.104353
9.363026 107.4433 -4.331865
7.892336 109.1347 -4.267139
8.537853 112.2746 -2.550233
6.315558 112.0771 -3.810267
5.689341 111.5283 -3.844716
0.7460501 109.287 -4.719816
8.271775 71.96589 -10.5511
7.861961 73.89648 -10.4915
0.7081568 70.30027 -8.937651
2.479116 68.30898 -9.150455
1.791125 67.80788 -9.01867
2.115797 73.19609 -9.208007
6.571345 74.26549 -10.21793
3.419532 75.4762 -9.524027
1.788131 79.09921 -9.277143
8.597533 79.72038 -10.68816
8.393275 87.42056 -10.59853
7.067386 85.08505 -10.48598
1.501532 90.58015 -9.597814
0.5106161 97.71462 -9.443877
3.268163 100.0319 -9.225617
8.979477 98.8894 -8.672207
8.540839 92.99772 -10.35305
7.670566 98.906 -9.041075
8.769878 101.2948 -7.384481
2.098176 105.8425 -6.624639
0.15833 108.0875 -5.390642
9.067012 106.7116 -4.86235
7.090339 111.096 -3.692802
2.31512 109.7809 -4.628181
3.802671 112.9327 -4.000625
6.591465 69.90424 -10.13258
4.536485 73.19412 -9.723754
5.971296 73.70596 -10.07026
3.278592 74.30042 -9.465463
3.834928 73.90342 -9.578819
5.663925 76.31561 -10.06262
3.64882 66.79955 -9.368379
1.103506 71.68002 -8.978529
0.1494417 78.44543 -9.086399
2.004678 74.86591 -9.23308
4.148335 74.74152 -9.670741
1.739158 79.98863 -9.287246
1.430101 80.62215 -9.253675
1.304317 83.22259 -9.302896
2.763073 89.53747 -9.843792
1.120494 89.92269 -9.503369
0.3239426 87.18099 -9.300385
0.3985632 93.44801 -9.448047
1.609241 95.85391 -9.582303
0.4617563 100.4287 -9.096975
1.896702 99.02785 -9.395972
4.837201 95.11108 -9.981692
7.441965 101.0659 -8.145822
5.87153 101.0044 -8.717458
1.827244 99.27543 -9.351572
5.325035 98.66111 -9.450018
4.130208 98.49195 -9.551371
6.248305 92.85797 -10.21741
1.750434 103.079 -8.071225
0.05803476 105.6998 -6.690674
0.2451568 108.2019 -5.322199
4.182153 110.1829 -4.484668
3.136244 111.2322 -4.21306
4.409684 70.7483 -9.630208
4.177388 69.86621 -9.556463
7.228172 76.23911 -10.39714
4.426221 79.77274 -9.878599
4.925056 78.91441 -9.965197
4.676239 80.51505 -9.959775
2.775218 79.37087 -9.48885
5.808933 79.95838 -10.19228
3.956691 70.02744 -9.509395
4.207616 71.89117 -9.611993
6.354365 90.42754 -10.34188
1.75816 101.0427 -8.914319
2.425264 97.62051 -9.599801
3.554698 98.27747 -9.595615
5.020629 103.4934 -7.78329
6.648871 103.6068 -7.433024
5.87425 102.686 -8.042379
5.218547 104.6341 -7.159964
6.712101 94.53445 -10.1066
1.623479 107.8017 -5.545996
3.947072 107.7335 -5.569878
6.792249 80.80072 -10.40006
1.938959 79.8171 -9.323662
5.0895 80.96519 -10.06782
3.101914 94.27536 -9.944935
6.922755 92.71426 -10.27116
4.327235 101.5791 -8.730495
3.817618 103.5807 -7.798227
4.16146 105.435 -6.789095
7.855529 94.39664 -10.17595
7.876055 106.1898 -5.696561
8.018582 106.8151 -5.334768
2.787345 79.59931 -9.497122
4.105228 82.23957 -9.881167
2.237978 91.4231 -9.80922
2.756132 103.7266 -7.732398
3.722933 107.1188 -5.886395
7.62103 106.2309 -5.75807
6.612613 105.8587 -6.187674
4.852265 82.8258 -10.06908
4.217431 84.59293 -9.984232
7.377787 86.3981 -10.51428
4.509933 91.68381 -10.1479
4.138556 92.29474 -10.0993
5.326459 87.86968 -10.27005
6.497986 87.80405 -10.40467
5.742193 89.07722 -10.3122
6.825171 90.88573 -10.36374
4.752447 88.19462 -10.18973
5.837497 110.3492 -4.228695
5.853043 109.7557 -4.488321
4.132584 108.5049 -5.178502
4.660341 108.2173 -5.29212
2.666858 92.59261 -9.921052
4.963671 81.401 -10.05281
5.900725 82.19737 -10.26825
2.500701 86.4771 -9.654748
5.361911 87.5806 -10.27207
5.727084 92.14462 -10.23345
3.491395 82.9864 -9.767037
2.099728 85.38808 -9.518328
3.427362 86.65984 -9.879167
11.10229 108.2715 -2.113299
10.19537 75.75449 -10.94691
10.82867 104.4465 -4.380135
10.9036 78.47419 -11.03479
10.48771 80.01969 -10.95845
10.91977 67.26099 -11.07876
10.63437 64.61286 -10.98953
10.30491 67.92426 -10.9495
10.07125 71.56278 -10.92049
11.03471 75.19128 -11.09081
10.86342 84.84538 -10.88369
10.37391 101.1073 -6.280358
10.83973 100.4196 -6.33504
11.13087 109.9919 -0.8064364
11.24644 106.8965 -2.86918
11.1191 105.5558 -3.601518
10.98248 91.08863 -10.63862
9.637216 98.81883 -8.379496
10.80908 102.2395 -5.295192
10.16771 107.5794 -3.6336
10.40649 111.702 -0.688163
11.22525 92.09701 -10.56368
10.63855 85.56892 -10.84347
9.980941 75.79242 -10.90955
7.507641 66.29439 -10.2854
9.207642 77.55933 -10.7831
10.17287 78.50706 -10.9311
9.426486 82.8307 -10.78731
10.14659 84.23801 -10.83641
9.171673 76.24279 -10.77142
1.505832 64.78755 -8.919111
0.1293502 65.44696 -8.784448
4.806633 66.17041 -9.629664
0.9142503 66.36803 -8.861888
0.4366427 65.89482 -8.813554
2.6502 65.25596 -9.132436
9.998619 81.79664 -10.86978
9.834134 91.41322 -10.55192
10.12813 94.60834 -10.14216
9.969769 95.86906 -9.772711
10.8533 68.05865 -11.06889
10.35026 96.53225 -9.423415
10.06486 102.5944 -5.806403
10.3567 103.9488 -5.06741
9.282623 85.24199 -10.73556
10.50861 106.3425 -3.896987
10.42841 112.0464 -0.4165555
10.70861 90.03268 -10.67876
10.20312 106.8552 -3.965519
5.997413 65.49393 -9.906634
7.903615 66.12972 -10.37726
-14.44553 65.57391 11.70385
-13.32112 86.27829 9.905795
-12.19319 71.75115 12.30607
-15.2206 76.15141 9.643863
-14.93704 77.49189 9.685005
-9.565331 111.7517 8.976293
-14.85805 71.84763 10.64189
12.17819 87.92854 10.62061
-11.22004 106.466 8.807751
-14.8252 74.59524 10.26767
14.01143 75.14183 10.82712
-5.451221 67.55176 13.30033
14.38762 84.10508 8.990433
-4.418909 114.6607 12.03696
-10.31933 113.7546 0.7184156
15.386 68.01778 10.5882
-5.877172 113.5241 11.31262
15.52143 66.29645 10.68332
10.41082 113.9196 1.085166
10.93405 112.6157 1.595389
11.17199 112.4628 2.499611
12.02393 109.9733 2.202559
-11.27856 112.5848 4.058084
-10.34879 114.3779 1.416429
-10.90162 113.4637 4.964473
-2.955342 66.79026 13.16994
-12.57814 81.65119 11.1003
14.42862 86.21019 8.598956
-2.911539 111.6564 12.76294
11.83676 77.66534 11.8799
-12.21075 93.86965 9.74194
11.81303 66.41069 12.8831
5.213273 85.14037 12.24548
-10.43252 70.07384 12.98068
-14.24744 68.72292 11.47428
-9.740431 65.9071 13.41123
14.34736 74.81252 10.58716
14.73941 81.45609 9.030229
-11.55568 79.88624 11.85949
15.22315 75.12531 9.729262
11.88902 110.6721 3.867579
14.35882 93.2813 7.386944
11.47634 111.9931 4.124938
14.53234 94.0439 6.637605
0.5583109 114.041 12.8238
9.904081 70.48979 13.03502
13.86519 94.22144 7.933156
9.518338 113.0889 8.53041
-10.70011 114.3739 3.075441
-7.228521 113.9463 10.36291
13.62838 94.5203 8.216265
13.14867 104.0154 4.653489
12.91422 105.5489 4.672533
-4.428811 67.7028 13.21656
-12.45394 108.6857 3.821604
-10.71562 113.5644 1.699979
11.6208 111.2963 2.491564
14.90616 66.26501 11.15551
4.833858 66.69897 13.24756
-2.037514 111.1677 12.80662
-12.9056 103.9626 5.633414
-9.479014 113.7158 8.427885
-11.49437 111.8542 2.947915
-11.40541 112.0201 4.646803
-12.26816 108.587 5.64139
0.3278269 70.94988 12.86503
14.00238 73.77016 10.98668
13.99364 66.33334 11.78834
15.46318 69.90137 10.2795
15.64258 68.19643 10.34806
12.85555 106.3304 4.183015
9.372421 114.2958 8.390638
11.81739 110.852 4.15045
11.82506 110.8465 2.951673
10.04217 113.9593 7.244962
-14.6303 73.47579 10.60118
-14.22131 74.77223 10.75244
-13.38122 72.11673 11.65368
-13.43972 67.86137 12.0647
-11.92084 67.52448 12.75566
-12.9073 68.46128 12.27068
-6.32957 66.53288 13.42367
-7.097535 68.04787 13.35739
-0.6783927 67.76802 13.02466
-3.868221 66.31477 13.25577
-14.41224 85.01304 8.849717
14.04521 83.09387 9.540617
10.56969 83.14655 11.98749
-0.5389134 111.0361 12.88317
-13.83336 94.32662 8.017124
13.91232 94.5902 7.809786
-7.206498 113.7138 10.40822
-12.798 106.6886 4.331927
-12.12651 109.7249 4.646554
-12.60626 106.3881 5.646919
-10.18659 113.532 7.296989
-8.489038 114.0519 9.357265
10.1931 67.38895 13.19268
6.525417 66.76815 13.35306
-1.332445 69.18832 12.96446
14.9853 78.21777 9.389552
15.16744 76.2017 9.598322
13.57896 65.96701 12.08091
10.2024 66.31766 13.28309
14.08263 70.69082 11.26771
12.51464 108.3971 3.560917
12.68644 102.8555 6.639703
10.00968 113.5771 7.543826
4.557552 114.5643 11.98207
9.76636 114.0065 7.794609
-13.50327 79.74854 10.64646
-14.34256 73.29068 10.87125
-14.7697 76.59534 10.00924
-15.29193 70.75314 10.43616
-11.77202 66.20845 12.90859
-10.13844 69.99025 13.04612
-11.75837 73.35174 12.3281
-10.93542 69.10326 12.93023
-8.859321 67.71001 13.36623
-5.746561 67.84756 13.30234
-9.641652 66.45181 13.3907
-2.901302 66.35002 13.19022
-1.686116 66.85191 13.10099
-13.35906 89.72582 9.381021
-13.16009 86.83475 9.999161
12.5139 84.953 10.70367
14.2628 91.57499 7.938029
-0.2755479 113.7188 12.8224
-12.84011 100.6765 7.393528
14.28694 95.7773 6.45419
13.09138 95.89839 8.456818
13.15275 95.26003 8.551067
-6.837093 114.328 10.62408
-6.244609 111.965 11.33299
-6.607995 111.4414 11.25184
-6.07316 114.4829 11.11747
-12.12567 105.5331 7.349271
-11.47148 107.9235 8.099067
-11.89709 109.1898 6.370793
-11.91788 110.5055 3.4136
-12.80851 102.2059 6.775601
-11.47381 106.7407 8.350255
-9.313706 111.2567 9.430856
-10.21844 110.6489 8.684954
-11.35467 111.3666 6.020491
-7.416271 110.8385 10.9089
1.759809 66.63937 13.09891
15.01853 77.36272 9.532461
15.55315 72.26217 9.864302
12.9263 66.83694 12.35843
12.39615 68.63373 12.44851
12.60052 73.32231 11.9216
12.7493 106.9397 4.515042
12.89506 103.7615 5.70054
13.24526 102.2544 5.555793
7.924282 114.3765 9.808578
6.706383 112.1113 11.04526
2.558808 115.0111 12.67549
10.85876 112.8468 6.158752
-13.4485 78.98199 10.79837
-12.82072 76.77338 11.51897
-9.428591 78.63407 12.55422
-10.25269 72.0851 12.86532
-14.59298 92.1754 7.35013
-13.25675 97.17969 7.944248
-12.6118 95.22536 9.161827
-13.56571 90.63631 9.030713
-12.75587 85.35749 10.55487
14.75421 85.06839 8.356072
14.87192 82.57224 8.666175
14.17037 82.31053 9.538294
14.7424 90.95043 7.23872
14.45693 79.02596 9.828112
1.464282 112.0176 12.79066
-11.95216 96.93906 9.420204
-12.34219 101.5162 7.879814
13.98103 98.49736 5.832183
-6.642073 113.5198 10.82918
-4.120388 114.8659 12.15437
-12.9 100.9693 7.149011
-12.20793 104.7028 7.344871
-11.35995 105.7505 8.728723
-8.623045 112.3274 9.680206
-10.88637 110.0551 8.001446
-10.08113 109.2619 9.447914
-8.909262 109.9036 10.25009
-8.946877 104.9122 10.93442
3.702667 69.66791 13.02484
3.538334 67.69722 13.11855
13.51886 79.61469 10.61747
11.98989 70.51089 12.47285
12.18874 108.064 6.326824
13.6419 100.5821 5.519954
5.499992 110.4958 12.00242
1.685578 115.0896 12.84546
11.43099 111.6366 5.452932
11.11282 112.4041 5.588473
10.39218 111.5675 8.014715
10.96979 110.9216 7.359576
11.3856 111.841 5.352719
-13.92665 80.99459 10.08738
-1.874568 70.0443 12.9365
-9.800236 77.1963 12.60395
-12.5562 72.03249 12.09636
-10.30779 73.49621 12.73785
-14.43513 90.40336 7.967833
-13.20868 96.67747 8.161784
-14.1384 90.10816 8.452887
-13.37719 83.47991 10.22723
-13.59874 84.1586 9.901198
-12.34258 85.30727 10.83387
13.70981 86.6571 9.443464
13.44794 83.73554 10.04999
12.44315 83.13549 10.95441
13.52438 80.07288 10.54873
12.57584 81.37122 11.09384
10.27233 79.0309 12.33668
11.42792 82.14774 11.66202
13.00445 75.45786 11.48307
11.88849 80.26743 11.62608
11.53325 93.56297 10.15474
-1.268645 112.8341 12.86094
4.248511 111.2802 12.41856
-12.14958 100.5455 8.403529
-12.34929 97.92892 8.838615
12.41628 94.87621 9.370933
-11.27693 106.8699 8.621852
-10.61987 104.4432 9.706409
-11.91664 107.3613 7.455546
-10.09093 106.6706 9.996891
-9.038569 109.907 10.14345
-8.536854 108.6381 10.76899
1.885881 69.23798 12.97626
3.603928 67.09174 13.15224
-0.7322204 67.07679 13.05974
12.39652 108.7864 4.403088
11.93758 106.6412 7.531477
12.27188 105.3194 7.080833
10.89591 104.1133 9.463796
12.13021 101.3503 8.122639
13.14981 98.74459 7.487943
12.43243 99.42246 8.297459
12.40881 101.1755 7.77571
6.509173 113.2504 10.98414
5.011744 112.8372 11.85593
2.925995 112.3982 12.6793
5.853659 111.7828 11.58987
-10.10282 81.83759 12.19813
-10.5051 74.71455 12.62255
-1.613655 68.72814 12.99836
-5.706218 69.17648 13.21694
-3.835937 68.83717 13.10496
-12.3305 89.17345 10.35318
-10.74912 89.29733 11.19148
-13.28536 92.97364 8.902074
-13.16888 91.38654 9.298848
-13.00799 97.44205 8.224179
-13.63174 88.67471 9.257667
-13.17478 85.32156 10.17738
-11.2961 87.58034 11.20178
-11.37494 89.47676 10.89024
-11.78068 83.94907 11.33027
12.19455 75.15954 11.94521
13.76518 74.22961 11.11522
12.9334 76.51907 11.40782
13.29115 87.52377 9.764708
1.779608 111.0767 12.82889
1.663971 110.2317 13.00679
-11.43589 103.8322 8.836097
-7.125211 102.6872 11.64189
-8.68376 106.7846 10.9775
-5.54145 110.2573 12.04061
-4.530106 110.4157 12.43454
5.281827 69.71191 13.11727
9.050701 107.038 10.74525
11.27401 109.9461 7.557382
10.28846 106.8731 9.802207
12.47304 107.2713 5.754845
11.47895 103.6046 8.767476
13.20211 97.66759 7.786844
-11.16827 81.59536 11.84783
-10.45235 83.31953 11.99011
-6.292046 78.46269 12.67493
-10.68161 79.18685 12.23489
-10.75011 75.19587 12.50988
-11.94065 79.96156 11.66351
-2.614698 69.66682 12.98783
-11.37999 74.01286 12.41584
1.642034 68.84782 12.98785
-6.078986 73.7185 12.94918
-11.91416 94.84103 9.809825
-11.85893 95.84448 9.670989
-12.38267 86.77881 10.63
-12.25396 89.6151 10.33641
12.95389 89.45406 9.851842
11.44069 86.07442 11.27264
-10.39172 103.263 9.95042
-7.642448 107.1883 11.44651
-4.307421 108.6467 12.73047
-3.657447 106.7074 12.97232
-5.157992 107.7267 12.49738
-3.786351 108.4884 12.88644
-2.115932 110.6803 12.84727
-1.010882 108.7868 13.12492
-0.8338016 109.3949 13.04821
2.167905 108.4523 13.15806
-3.300896 112.6426 12.57923
-4.045338 113.1331 12.30288
4.989846 68.34462 13.17411
12.10312 107.0967 7.014186
12.06423 105.3596 7.544826
11.51609 97.47855 9.611072
10.42926 93.32175 10.70323
-9.390527 73.28473 12.92011
1.561397 73.61926 12.76737
-8.98311 73.5826 12.96824
-5.756175 74.8583 12.86631
-9.865597 72.80126 12.8778
-8.024201 72.11206 13.102
-8.886768 77.35796 12.71583
2.515315 69.01686 13.00692
0.2873618 69.88208 12.91468
-10.34925 91.35868 11.09405
-11.79537 93.01985 10.15259
-6.662035 85.48154 12.18513
-9.776209 87.79095 11.68344
-8.482316 91.6629 11.52207
-9.976071 93.94057 10.92676
-11.03932 95.55309 10.27251
-11.30337 100.3268 9.361073
13.16108 92.19731 9.178983
13.6386 91.99304 8.75139
10.67307 91.21546 10.86171
12.22625 88.57893 10.5063
-10.75801 102.3518 9.607709
-9.167252 100.6247 10.68953
-10.40172 96.53902 10.50301
-9.125373 99.96821 10.66862
-9.587552 104.0628 10.53909
-5.27803 105.0677 12.41933
-6.376688 103.4013 11.93242
1.094407 100.6405 12.41019
-0.6944236 105.4796 13.23094
4.372683 109.0282 12.66903
-1.04525 111.5757 12.86537
-1.140543 111.8187 12.89073
6.533108 69.13497 13.22133
11.02918 107.1627 8.978518
11.2995 103.3604 9.000907
10.70656 103.9379 9.648702
12.68983 96.10153 8.858094
13.33683 94.05833 8.658638
2.291726 70.10577 12.94614
-9.241043 86.22441 11.97994
10.0861 93.91282 10.77526
9.541585 94.81947 10.90317
-4.8535 102.8896 12.3037
-7.269541 105.8554 11.68094
5.008427 106.2864 12.56004
1.974797 110.3035 12.99734
10.77352 108.7123 8.921677
11.20195 108.0123 8.45231
-8.547523 84.19802 12.28724
-8.661359 85.13816 12.17801
8.734855 99.28731 10.79679
8.306548 89.65128 11.70939
-7.285432 105.4984 11.68532
8.005506 106.9088 11.31084
4.914997 107.2077 12.59732
4.027339 73.21027 12.85433
11.51558 107.8616 7.943822
-9.589914 82.51237 12.25571
-9.232781 85.56106 12.05566
8.900302 94.51998 11.12181
8.221096 95.93929 11.17814
6.38826 93.91033 11.7302
10.86828 92.57609 10.60201
3.00857 108.8962 13.01216
5.724977 109.429 12.08079
5.212615 107.8251 12.44748
7.312936 110.0237 11.1675
2.587719 106.8999 13.17982
7.887469 106.2129 11.3962
3.641701 71.41496 12.93208
9.820255 109.2398 9.708331
-7.676814 83.14037 12.42101
-7.257626 84.19679 12.32816
-5.092917 85.87502 12.14495
7.324429 94.69584 11.49889
7.69277 92.73545 11.59435
-5.306334 91.17156 11.85975
6.431126 111.4469 11.34682
8.236301 107.9557 11.06674
6.914593 107.4393 11.77403
7.972195 110.5439 10.65833
6.248173 93.12607 11.81634
-6.905531 91.96073 11.66921
9.092555 107.6375 10.62179
8.791497 109.4149 10.45659
-6.203285 69.38639 13.22816
10.32694 69.70305 13.0103
9.907904 67.44493 13.24066
11.89782 70.16006 12.54029
11.46092 72.31116 12.50018
8.514277 67.23194 13.3602
10.4147 68.74509 13.06945
11.76202 73.40186 12.30357
11.64837 75.65085 12.15542
10.50831 75.25617 12.58644
10.82578 74.36504 12.55874
11.18642 69.39437 12.85374
12.03502 73.31487 12.19108
7.601341 72.85512 12.99865
8.029806 73.17506 12.97821
10.91777 73.03347 12.63549
8.579693 72.45795 13.00384
7.330365 75.18361 12.85911
9.348052 70.0415 13.11117
5.084954 72.50299 12.9412
6.070275 77.64595 12.70397
1.785202 71.24446 12.87697
4.711889 73.50588 12.86776
3.64575 74.39019 12.78324
4.232764 77.23005 12.66703
8.468469 78.17001 12.65628
5.265535 77.94235 12.6623
1.722732 83.09295 12.30986
7.856458 77.26773 12.74057
7.508527 75.36267 12.84819
4.608994 77.31377 12.67371
7.835609 76.44309 12.78431
11.06685 79.02251 12.10236
9.312713 78.38448 12.57393
7.160988 77.94151 12.70667
2.915538 80.08464 12.50285
9.985726 77.15035 12.55622
8.419249 79.42598 12.58104
7.443927 80.89265 12.53167
6.118562 79.78413 12.58174
6.6133 82.41694 12.43675
7.313908 78.17101 12.69351
5.891012 81.45648 12.48063
7.046944 85.44891 12.20734
6.176826 86.07854 12.18342
6.359762 84.6266 12.2738
6.226583 85.25736 12.22654
8.201915 87.54189 11.93701
8.326269 85.7914 12.1085
10.58152 80.96171 12.11609
8.800481 81.45683 12.4536
7.916363 87.99821 11.93324
-13.38791 76.91547 11.11498
11.6785 83.09786 11.46039
10.47778 82.52158 12.04515
9.292118 82.33154 12.33055
9.030246 103.5508 10.91029
-11.60413 86.60247 11.1572
-11.94735 75.69755 12.03896
-11.75296 76.96024 12.00596
-2.055099 69.81782 12.95595
-8.989335 104.2823 10.91773
-8.672238 102.7438 11.05919
-6.809084 102.3655 11.70876
-6.118026 102.0602 11.86539
-10.7207 103.7065 9.63961
-1.01038 101.3664 12.58393
-4.954714 105.1147 12.52244
-10.40118 100.7142 9.969625
-5.91422 102.966 12.04157
-7.562681 73.89825 12.98623
-4.871625 72.28821 12.96463
-6.54802 71.80584 13.08853
-4.072316 71.57643 12.95831
-4.90054 72.97095 12.92651
-3.91194 70.40681 13.01583
-1.766536 73.27008 12.78575
-4.572408 74.332 12.83311
-1.778469 80.61816 12.46445
-4.410033 76.77459 12.69877
-8.303981 70.7357 13.17681
3.124976 94.02026 12.08523
-10.2957 96.19719 10.5726
-9.725899 96.24225 10.75166
-9.289559 95.34798 10.96876
-7.968215 94.6017 11.31934
-5.086533 99.24689 11.62869
-9.442978 95.77654 10.88114
-0.3908182 106.6765 13.2753
0.0142148 106.7505 13.27652
-3.238822 108.0111 13.02818
-4.0964 105.9928 12.78053
-1.655731 105.104 13.19201
-10.4947 85.23073 11.83708
10.89642 95.67704 10.19204
2.885315 104.1747 12.93504
3.455007 104.8801 12.90722
4.341459 103.9758 12.59079
1.990676 103.4131 12.93039
2.571185 101.4135 12.4485
-4.274505 101.4622 12.16044
2.127558 101.8588 12.5999
-0.3414789 103.5341 13.03667
-1.218626 103.8012 13.02506
0.421802 100.113 12.32912
-2.167279 100.4443 12.27293
3.280959 97.85329 11.87712
-2.550216 99.81248 12.09283
2.004175 98.4824 12.01651
-3.600875 102.2944 12.47377
-4.946749 99.51111 11.68447
1.016537 98.0029 12.04792
-4.008722 100.086 11.91241
-1.972932 99.63158 12.13233
-1.576939 97.63175 12.03769
-3.3874 94.58111 11.97851
-0.8690988 96.22091 12.09997
3.163979 99.57343 11.97936
-5.147249 98.72905 11.60558
-0.3911669 95.21262 12.14241
2.610951 101.622 12.49101
4.556545 102.4277 12.26565
-5.866082 96.12047 11.54401
-5.914077 97.57768 11.45484
-5.115565 100.821 11.8577
0.05088441 94.94078 12.14948
3.112748 96.35505 11.96411
3.986381 97.81159 11.79511
4.305134 99.5171 11.79989
5.407111 100.7541 11.7968
-4.468041 99.79968 11.80561
-7.670106 97.10088 11.09366
-8.128746 97.40122 10.97378
-2.78975 93.49973 12.06272
1.466041 96.91646 12.05607
3.93001 96.25107 11.87941
6.569402 95.94969 11.51631
6.995286 98.57765 11.23598
7.662906 97.74206 11.14939
7.396554 94.16483 11.53435
3.37251 97.84947 11.86695
-0.6192896 94.27538 12.1587
10.7842 101.4753 9.65518
10.03648 99.91313 10.24971
7.70946 100.9911 11.27416
4.529263 94.25571 11.94417
10.62147 103.2034 9.736822
7.431921 95.58139 11.39555
5.472867 96.24209 11.66707
2.489708 94.76424 12.08835
11.0506 100.6655 9.476004
9.673428 104.5463 10.46121
6.848618 100.5559 11.44723
3.020195 95.03754 12.04661
8.408861 106.1776 11.16187
5.402034 103.3298 12.18206
6.20759 106.2074 12.11816
4.545481 96.10619 11.81217
1.568744 93.89635 12.16162
9.287324 102.9613 10.70905
5.601483 101.9501 11.97908
1.43857 92.57527 12.19489
6.487149 103.621 11.91251
5.159489 102.9519 12.17893
4.800597 93.45922 11.96497
4.140794 94.65183 11.96004
5.871948 94.22439 11.79357
7.183793 93.0491 11.66171
7.714753 93.47069 11.53401
8.435809 92.38036 11.44179
4.177614 85.64242 12.22654
7.754889 90.12148 11.76781
3.139776 92.22659 12.14154
5.097667 87.65025 12.15928
6.446652 87.63342 12.09218
-0.5366774 80.53564 12.45887
6.204008 90.23728 12.00361
3.835139 91.1727 12.14239
5.445179 85.9272 12.20532
2.720281 86.90646 12.19534
4.711792 83.35656 12.33539
0.869553 92.26051 12.20875
2.28536 91.11461 12.19953
0.1753886 88.86114 12.19465
2.574846 90.37358 12.19719
-5.438011 83.64111 12.32667
0.1863945 84.96532 12.20976
-5.071855 88.18499 11.99653
-5.279671 81.97919 12.44273
-6.896392 90.05028 11.77921
-3.6262 83.56008 12.2982
-4.062548 81.11533 12.47077
-1.70618 83.57432 12.27652
-6.24324 88.0922 11.96415
-4.879986 89.78299 11.94071
-9.392599 90.56136 11.46275
-6.895775 89.18763 11.84545
-4.045091 90.06496 12.00043
-6.513311 86.93713 12.05513
-1.238143 86.74064 12.15525
1.207558 89.37596 12.20785
-2.616779 88.10437 12.10187
