# .PCD v0.7 - Point Cloud Data file format
VERSION 0.7
FIELDS x y z
SIZE 4 4 4
TYPE F F F
COUNT 1 1 1
WIDTH 1664
HEIGHT 1
VIEWPOINT 0 0 0 1 0 0 0
POINTS 1664
DATA ascii
-13.41942 65.74476 10.66466
-15.41137 62.87367 5.565092
-15.35424 85.46729 2.599488
-15.31903 84.17764 5.010652
-15.10504 86.45462 6.573509
-14.85426 72.50053 4.542706
-14.871 73.80718 6.791908
-14.89695 72.11166 4.971801
-15.03849 76.44471 3.687251
-14.78414 74.6945 6.997834
-7.281662 56.60575 13.33506
-4.932955 57.56794 13.2475
13.71764 97.49727 1.090588
13.31494 102.6857 2.399899
14.48431 78.44171 0.3955585
12.463 107.9473 0.614341
12.12615 109.5929 1.633341
-13.14666 104.6563 1.980731
-14.28727 94.80169 1.119902
-16.72718 140.7989 4.158317
-14.57366 139.5883 5.778687
-2.438031 140.8646 8.913591
-12.53971 129.2961 6.442896
-8.376377 121.7921 11.3388
-11.30145 125.2287 5.62439
8.482375 58.52491 13.35396
14.87277 55.0403 5.203747
16.59238 60.83103 1.642159
16.29965 61.5014 3.185298
16.55929 60.1065 1.425104
14.61127 60.06776 7.368575
15.30365 66.57112 2.458658
16.47329 60.10053 0.3602124
10.11424 132.6356 10.46679
9.925344 129.2124 10.79257
8.8491 127.3543 11.35676
10.41889 126.3297 9.908575
6.793328 129.9019 12.84218
3.52067 130.5863 12.91457
6.453867 130.7337 12.71555
8.452336 126.533 11.18715
6.154495 127.8185 12.82325
3.601508 130.9554 12.88136
4.4561 128.429 13.03882
13.37717 126.3376 2.393647
-15.33579 90.84671 3.111717
-14.93167 76.93575 2.60103
-5.86094 59.17117 13.15758
13.17898 104.521 2.986531
13.06067 104.2069 4.327377
12.59527 107.2275 5.341307
12.06437 109.2899 1.008279
11.50129 118.3377 5.618731
12.25782 108.6395 6.042605
12.69514 107.3192 4.73375
-14.31304 96.72957 3.053966
-10.26656 141.7605 6.018595
-8.873102 141.5656 6.722822
-7.210108 143.8819 6.040618
-9.643896 125.1464 10.20271
-11.24155 125.3876 5.873094
-10.64913 126.6931 8.116975
16.65663 57.58753 -1.067838
16.40914 57.42725 0.2933764
16.09769 66.95798 0.2986117
14.58272 72.52409 8.221006
10.72902 126.6377 8.626256
10.5362 127.4365 7.697206
10.38262 128.4017 8.571686
-2.344558 133.4652 12.26395
7.80826 124.2933 12.04671
8.312632 123.3694 11.42398
7.152095 123.7455 12.36994
6.092625 122.4674 12.60208
3.437809 128.4214 13.06428
6.980167 126.5661 12.47737
11.25592 117.2502 0.9978889
12.25495 118.1332 3.328922
13.22676 125.8444 2.631916
12.58911 128.0596 5.094135
12.11708 123.5501 2.318721
11.23755 122.1898 2.941048
-15.09598 91.48785 2.074556
13.04592 105.7904 1.600571
11.35861 112.7686 2.807181
10.92722 112.8007 7.815439
-13.86164 98.28227 2.183107
-10.77285 126.9625 7.864528
16.66426 60.96013 0.6201886
10.87902 125.0428 9.244829
8.674897 124.2399 10.5884
8.656003 122.7232 10.88875
9.226759 122.3433 9.733683
-0.5791493 123.0591 13.44827
5.521705 125.1726 12.87849
3.688927 121.4879 13.38085
-3.181377 110.2842 13.12485
11.7604 115.4803 0.4176182
11.05778 126.0056 5.721806
-14.68102 91.77771 0.3777024
11.65795 111.87 1.193043
12.0175 120.2481 4.736116
12.29274 118.9373 4.094832
10.28789 116.7207 9.38365
11.02332 114.1588 3.829403
10.33018 116.6133 7.929592
2.052739 141.0988 9.302959
-10.15599 127.9475 10.14841
15.69132 61.09447 5.243887
12.62441 60.59815 10.57943
15.17552 66.25387 3.76421
14.90333 67.95278 3.06292
14.80548 67.97296 4.284548
14.69052 68.7702 5.361245
15.21132 65.88969 6.328148
15.07737 65.40337 7.227837
15.00959 67.18999 6.285742
11.2151 122.1252 4.839503
10.18558 117.6354 7.63545
-1.216417 128.4011 13.14041
10.99832 114.7224 6.314914
11.91665 121.9393 6.476506
11.59415 126.4441 5.064659
-4.975931 141.1367 8.358082
-1.647524 139.9844 9.400187
1.027678 138.6246 10.23161
3.691083 139.7717 9.301244
5.181554 142.7151 7.552584
-8.36876 130.7691 12.16629
-11.04639 125.2814 6.34342
-10.88786 125.4874 7.764437
15.27206 58.97598 5.617238
14.30816 61.14877 8.08341
14.77883 68.42813 5.907494
14.79379 74.63933 1.306138
16.2734 60.42622 3.120441
13.11346 68.44884 10.27235
13.62632 62.44149 9.294264
10.73585 119.1282 6.662728
13.89896 136.1377 6.549149
12.39875 136.1755 7.967863
10.5756 136.0311 9.106318
2.272739 127.9896 13.1573
3.40363 126.5187 13.22289
-10.64391 113.1716 8.101196
10.53969 121.7184 8.316793
9.185743 119.891 10.87762
9.597727 119.6827 8.794415
-1.792316 137.2177 10.6728
4.008816 138.6792 9.744831
6.600388 143.1767 6.81618
-9.877243 131.6584 10.89232
-9.570512 126.7184 10.87681
10.56353 61.89735 12.38524
14.54381 70.17247 3.884862
11.65614 119.7139 6.336184
9.961464 137.4195 8.612647
8.966257 119.0686 10.91673
7.79955 117.5329 10.68193
10.2331 116.8986 6.72384
-10.93737 140.4112 6.515025
-3.613621 138.0635 10.07325
-0.4896366 136.8742 10.84637
1.441592 138.1422 10.39779
5.149957 138.2811 9.744046
5.396544 137.8323 9.907007
10.85368 137.7238 8.173828
-11.26897 133.2099 9.618519
-9.263027 131.5033 11.53312
-8.462048 133.6509 11.22386
-6.034306 137.567 9.82847
-6.315268 132.3625 12.40568
-7.137218 134.8763 10.96411
-7.718668 132.3611 12.10213
-4.241445 132.9548 12.43181
-0.5709708 133.0384 12.36485
-5.237728 133.5823 12.08146
0.2447751 130.0686 12.94428
-1.17299 135.7323 11.36366
-10.46043 127.2452 8.972974
10.11757 61.47513 12.62947
11.67737 59.63003 11.58099
11.43407 58.85129 11.78366
13.02036 135.9153 7.462042
6.601355 135.8724 10.59498
6.049595 118.6214 11.89804
9.057961 112.2925 9.822389
-2.134598 135.7666 11.35665
1.171816 134.0138 12.04635
6.984228 138.1236 9.270871
6.606714 140.9657 7.979529
11.03817 138.4826 7.703865
11.77777 140.3133 6.455129
-4.023757 134.9646 11.61313
3.957369 120.642 13.32338
8.729142 116.9072 10.27553
10.58702 117.9648 6.152102
11.58545 113.8944 6.875247
11.27059 105.9709 8.845057
-0.5693175 134.4193 11.89085
5.32164 117.0285 12.62473
8.841389 113.1009 9.677171
2.200004 133.8115 12.13256
10.32836 115.3891 9.027375
9.695877 112.1008 8.791463
6.556836 112.9045 11.99973
7.681167 113.8693 10.97677
6.270716 115.3077 12.09223
5.521835 112.178 12.07347
8.606118 112.3217 10.53291
6.839418 112.3302 11.83113
8.188049 111.9097 10.97089
13.3913 122.6703 -0.5813744
13.44745 127.4518 2.545691
12.48987 124.8787 2.941538
13.28374 125.2814 2.132339
-11.71987 121.6666 2.739762
-4.534705 117.7284 13.21699
-11.70947 121.3902 6.967859
-11.76521 122.2182 6.132511
-16.63122 57.05371 5.341293
-16.75365 60.25087 1.407639
-14.74851 57.56216 8.933283
-11.24207 59.75039 12.16264
-15.46566 59.1362 8.127594
-12.75956 117.3348 2.471659
-12.48018 113.943 2.47741
-11.68894 111.3097 1.825329
-12.05802 113.5216 2.354699
-10.36172 119.7376 7.377673
-10.59354 118.0979 6.307868
-11.25383 112.734 3.835612
-11.34339 116.4883 4.83603
-10.78316 113.0251 6.950765
-10.00073 114.6426 8.134245
-12.09731 110.034 2.876261
-11.93098 110.488 4.567105
-11.27493 107.6364 8.49321
-11.25508 106.3869 8.80347
-11.54563 110.9925 7.157078
-11.91747 109.8179 6.404075
15.15146 140.8164 4.667392
13.71656 142.296 4.648407
16.32247 140.7232 4.077251
6.416765 143.5956 6.633859
7.41729 144.2108 5.779873
7.873601 144.3936 5.396949
10.97698 145.4695 2.786011
9.19527 143.3691 5.517091
13.21171 141.6028 5.213591
10.62487 141.5919 5.906273
9.729992 141.986 6.092907
5.309221 144.5876 6.162884
-15.53782 140.0992 5.05663
-10.04601 138.5495 7.912401
-12.87034 138.4108 7.136262
-13.39987 139.5663 6.322301
-14.40683 70.12125 8.867189
-15.11485 79.96998 4.298053
-15.11977 80.17789 4.816981
-14.91037 79.41659 6.220403
-15.25971 83.25853 5.356299
-13.07633 74.17693 10.31649
-14.47835 78.02178 7.706425
14.1463 95.70251 1.315068
14.66219 80.87776 0.6929423
-14.56877 69.90736 3.936032
-14.83211 67.93118 6.195399
14.21721 96.41553 2.309651
14.39081 95.12481 1.707601
15.15158 90.46077 1.685391
15.42134 86.93237 4.226204
13.21142 102.6291 1.020109
13.79687 98.41284 2.058519
14.06649 97.85278 3.117018
13.25937 99.85012 6.454372
13.39252 100.2095 5.606561
12.81424 104.7677 5.360732
13.00713 103.6299 4.899899
13.29917 101.2902 4.940178
13.93264 95.93989 7.248022
13.50606 91.92086 8.858892
14.02007 95.39398 7.318051
12.39799 105.8014 6.690071
12.29603 105.2251 7.136049
13.40241 94.70266 8.364511
13.08675 100.7774 6.307919
12.12271 95.25516 9.529378
14.93884 93.18383 5.015885
9.176297 97.5421 10.54212
13.02018 86.40897 10.17848
-13.26386 102.3658 4.152659
-16.92127 143.3061 2.6905
10.50178 132.092 10.08978
-16.61645 57.69572 5.613251
-14.8951 63.64589 6.720105
-15.26912 82.6578 4.938161
-15.32765 85.16528 5.350394
-14.64494 82.80248 7.833225
-14.28088 82.32779 8.702579
-13.93844 84.70359 9.089581
-15.18184 87.51051 6.23117
-14.67451 91.05353 7.202478
-14.76966 75.48206 6.893535
1.722855 131.0842 12.82106
-14.41287 95.91644 5.796209
-15.25231 91.88235 3.745183
-15.1424 92.78222 3.910693
-15.11532 88.61607 6.409045
-15.26251 91.84032 4.533567
-15.0055 88.80381 6.732277
-15.39703 88.79998 5.108738
-14.42779 92.23 7.632834
-13.14015 92.76727 9.10065
-14.17318 92.42344 7.986148
-11.75485 125.1923 4.764302
-0.1958337 124.5712 13.42632
1.72551 122.4616 13.45339
2.622017 123.7965 13.51485
2.133372 125.0728 13.48521
-0.3018634 119.9337 13.3544
2.03623 124.6171 13.51472
1.699185 116.3339 12.98617
6.000217 115.8709 12.24842
1.769485 119.821 13.22724
3.112398 120.7618 13.36023
0.4414675 126.2823 13.36649
4.005879 119.0154 13.17621
4.183277 114.3539 12.52471
2.30069 110.3739 13.1123
4.153406 116.0939 12.80702
-1.291539 119.9736 13.47418
-2.048853 126.7421 13.30743
2.791351 115.6853 12.77925
-1.0219 117.2035 13.49982
1.464869 114.2962 13.09501
0.4926623 106.9252 13.26882
-1.211854 120.8986 13.45715
-4.055303 116.6048 13.26839
-2.920687 124.5207 13.49607
-4.103962 131.905 12.73402
-0.9424132 131.3157 12.78259
-3.80109 131.1028 12.86047
3.115141 107.6325 13.08946
-2.191942 116.6274 13.55135
-2.792365 118.3195 13.51571
0.7727951 117.1085 13.15417
-0.2420596 113.2814 13.46089
-0.1996026 112.986 13.4542
0.9140997 107.7443 13.27029
1.676609 109.665 13.19545
-1.62698 112.2934 13.38364
-1.338776 109.1613 13.23959
-0.1307636 128.8557 13.09336
-2.756155 132.0676 12.65515
-2.212232 118.752 13.57377
-5.844489 115.2654 12.57454
-2.587674 121.4456 13.5327
-3.193962 127.8679 13.20248
-6.074943 124.2807 12.99713
-7.40656 129.4002 12.61679
-5.827674 121.8271 13.02188
-5.577366 122.2536 13.10957
-9.387983 126.7373 10.98786
1.261041 133.3995 12.26601
-1.683716 131.5062 12.75084
-9.760648 116.9633 7.518587
-2.743843 114.536 13.37577
-7.466856 126.7872 12.30027
-8.094779 126.6974 11.61119
-8.902665 129.1358 11.63009
-7.477358 130.5602 12.56662
-6.564613 115.6676 12.31478
-6.966259 126.5239 12.68594
-10.00767 123.6563 9.304068
-7.705744 127.8595 12.22469
-3.500386 115.9073 13.33706
-2.078391 113.8055 13.41554
-3.105915 113.852 13.3056
-0.9639103 110.431 13.31607
-4.848858 110.3815 12.46907
-3.134262 109.3274 13.04066
-4.200962 106.4966 12.82898
-7.001651 112.396 11.34765
-6.74353 107.6692 11.82978
-3.476659 111.5639 13.1492
-9.297611 107.3191 10.60822
-5.760101 111.9688 12.00906
-7.200818 115.377 11.95426
-7.633702 113.9963 11.41394
-10.39571 109.581 9.31632
-8.293036 114.6003 11.19653
-8.688553 115.5781 11.05891
-10.10139 113.6555 9.524512
-9.917067 108.1523 9.922185
-4.220397 107.6669 12.83593
-8.703319 105.5301 11.06361
-5.712666 104.847 12.27203
11.11784 126.6883 6.126119
16.02194 63.34435 3.592931
13.67526 67.5256 9.633314
14.66326 71.50877 6.053868
14.7694 72.52291 6.148486
11.68293 70.4745 11.50651
13.25283 69.93795 10.10689
14.14428 70.52408 9.058149
14.66545 69.68842 7.679184
-10.63408 124.2393 9.262742
-11.44893 120.8661 7.112058
15.08321 77.9226 3.793094
15.0482 74.99259 2.325802
11.0506 66.60439 12.01978
10.20953 117.0695 6.637645
12.80121 134.1437 7.546433
-8.264202 142.389 6.552306
-8.744876 137.1166 9.138059
-7.894509 138.5822 8.665904
7.757529 62.9227 13.23985
7.166823 135.1414 10.81629
9.504593 109.0243 10.14496
9.351244 112.0961 9.339299
-10.66854 116.6483 5.365332
-14.82336 61.46069 9.245538
-12.75528 59.26039 11.14389
-11.59292 111.2443 6.163745
-10.11824 103.7651 10.20388
-10.09064 108.8883 9.647211
-12.49922 104.5533 6.703703
-11.61716 109.8529 7.238191
-12.1153 109.5532 5.79819
-11.99423 109.1974 6.44956
-12.72908 103.6093 6.159955
-12.36584 105.7725 6.788592
-12.77969 106.5091 4.622369
-13.19137 101.3597 5.467953
-12.48814 95.02805 9.225008
-13.1697 93.87783 8.835848
-9.966678 97.3499 10.30299
-14.24503 94.95174 6.906529
-13.37664 97.93262 7.376582
-11.5462 96.48711 9.523885
-13.82594 99.26879 4.858052
-11.68749 99.26944 8.858758
-13.36839 101.7539 3.834598
-14.24247 97.11111 5.040267
-12.84129 101.7178 6.566862
-12.98054 103.0421 5.423649
-12.7073 107.5841 3.330922
-14.80193 66.0463 7.200087
-14.67192 63.70362 8.52464
-13.29552 63.65761 10.79307
-14.72268 63.49258 7.970715
-14.22481 73.93078 8.793085
15.33096 84.08273 4.752823
15.30735 84.11095 2.574578
15.26332 82.46561 3.155425
14.94089 81.07701 1.658402
15.08351 79.53838 3.516854
15.11865 77.35861 4.170844
14.75898 82.05312 7.400226
15.05381 79.13027 4.924164
15.05921 77.12977 5.311575
15.14638 76.31762 3.728796
15.0143 75.73234 5.882859
14.99493 78.20967 5.923182
15.09084 80.30479 5.801035
14.75784 81.86162 7.379553
14.7692 73.40945 6.586231
13.10821 75.82917 10.19002
13.33528 79.41458 9.964022
13.96707 76.88076 8.870102
13.51875 78.6217 9.640136
13.93765 77.52034 8.877259
-12.16114 88.14697 10.61429
13.18158 82.14648 10.23092
12.35989 80.0521 11.0129
9.061934 72.06863 12.46966
14.89762 91.58293 0.9321811
15.12122 92.06609 2.96318
15.3096 90.53156 3.01759
13.67089 99.03685 1.960854
13.96947 96.88757 6.51829
13.03375 97.23387 8.092692
14.98065 88.84595 6.803197
-15.28131 82.34357 4.06216
-13.86106 78.91295 9.031437
-13.79954 82.13918 9.363568
-14.62369 72.09161 7.989228
-14.52488 89.0702 7.923718
1.543523 127.8388 13.20281
0.6999359 114.1771 13.31567
-2.810094 102.4473 12.66434
-8.836681 123.8208 10.41893
-8.403649 121.2346 11.14287
-9.469192 120.3228 9.011222
-9.481598 122.3974 9.378699
-8.55344 121.5159 10.82343
-11.39956 120.1185 6.751573
11.05903 67.34413 11.98872
10.15919 68.16955 12.38407
11.74543 65.13535 11.54387
10.11704 70.00545 12.32419
12.43359 70.28642 10.96446
10.42203 67.05251 12.32541
9.380936 63.14816 12.8599
7.688753 60.3119 13.4252
12.29143 62.4778 11.04125
11.91869 64.429 11.40645
11.34064 68.38908 11.77777
11.18728 62.43479 11.99335
12.55739 67.00769 10.82619
7.655849 65.44878 13.07689
4.881748 64.4386 13.06554
6.369958 63.22063 13.24915
6.098489 66.41316 13.01779
4.694957 70.24913 12.72272
5.177588 70.07406 12.74894
7.75768 70.10593 12.75009
5.819944 69.32243 12.81434
-0.3095003 71.52927 12.60239
3.19455 70.3389 12.67836
1.1171 69.86766 12.65505
-2.981135 64.93879 12.79237
1.919704 67.80859 12.73364
-10.41065 140.4502 6.676092
-9.345567 140.4516 7.10039
5.703819 136.5727 10.4664
5.163808 135.3386 11.2523
11.65682 109.2245 7.110878
-11.19577 118.3799 5.83253
-9.148988 119.0402 9.198447
-8.722175 116.284 11.10353
-7.855337 117.426 11.93445
-9.371778 117.3518 8.374142
-6.100358 117.4246 12.72236
-12.10361 108.4482 6.385525
-11.18353 105.0533 9.080996
-9.942309 101.9438 10.36492
-14.8434 71.68774 7.316338
-14.63832 69.5898 8.257036
-14.52097 68.38881 8.744563
-14.14299 67.77763 9.623298
-13.84033 65.26934 10.29907
-12.8122 62.03838 11.12769
-12.78628 63.92686 11.1468
-12.27484 59.7271 11.50496
-10.94928 58.64724 12.32522
-10.33912 60.49794 12.55893
-9.216174 62.31964 12.81188
-10.62918 61.4906 12.40662
-6.617999 65.07865 12.87655
-10.04385 61.35314 12.61264
-10.61612 67.88566 12.14849
-9.452932 68.8341 12.4823
-10.38815 69.17452 12.18879
-11.24586 69.72527 11.80302
-13.59722 68.93575 10.28355
-8.617169 67.24759 12.68871
-10.81963 70.2875 11.99469
-14.11823 72.33096 9.271418
-11.43726 72.72446 11.62275
-11.9985 71.14035 11.37855
-7.753361 69.88212 12.61161
-9.243534 72.99358 12.35204
0.4614423 69.90115 12.64756
-5.146065 70.05116 12.64238
-7.858337 73.87108 12.44102
-14.29116 71.1422 9.027925
-8.810947 64.17372 12.77783
-9.356582 62.89381 12.74315
-7.671492 62.93866 12.96958
-6.040219 60.44674 13.08485
-5.129292 66.65054 12.77391
-6.790724 70.54229 12.60962
-5.883611 62.26053 12.98994
-1.063554 60.75978 12.95533
-4.594356 64.48029 12.84715
0.6320676 66.84618 12.73684
15.3415 90.66154 5.059116
15.18158 87.99117 6.228287
15.41845 88.57071 4.599261
15.26377 87.68304 5.932592
15.44532 86.36526 3.6122
14.43251 88.24261 8.126753
13.16967 85.1749 10.08263
14.2854 81.69619 8.597396
14.67434 83.29088 7.787878
12.96566 83.34335 10.34922
15.32249 84.78928 5.204762
8.560619 83.04769 12.36876
12.17937 83.49081 11.03501
7.218204 100.5512 11.3511
11.03597 101.8162 9.419525
10.8097 104.7731 9.421574
9.363352 102.7883 10.59867
12.6802 99.50939 7.573285
8.645391 103.5149 11.07639
8.391549 107.0742 11.08346
11.12196 100.2547 9.405473
8.48344 101.9071 11.08528
10.8632 107.0601 9.186033
7.081903 108.1071 11.63656
7.4959 108.8949 11.2938
11.24943 107.8585 8.51405
9.467793 110.0349 10.0942
7.103766 110.1959 11.47215
1.543355 104.9725 13.19389
6.372797 107.2448 12.03735
6.496891 103.7991 11.9373
6.493364 101.8155 11.74605
5.536954 101.579 11.93583
4.572787 102.932 12.38035
4.72322 103.6532 12.45513
1.659229 103.6972 13.02321
6.935118 100.6203 11.4319
-1.573404 104.5133 13.13286
3.327993 102.2085 12.51308
5.973825 99.74923 11.50625
-0.3278725 104.893 13.23359
0.5749939 96.23726 11.61553
7.499621 99.66898 11.15273
11.81615 98.56104 9.02414
8.387683 99.6837 10.92628
0.7215021 102.3504 12.81705
3.40966 97.46747 11.48977
1.108187 100.8204 12.46834
1.107754 99.12873 12.10633
-0.9134194 98.8407 12.05783
5.944245 95.81393 10.9872
6.767155 97.43121 11.0423
3.486895 93.92738 11.06659
0.4400286 94.66637 11.38164
-0.2505165 94.93848 11.44213
0.03922925 97.3503 11.8199
4.58615 90.93049 11.12173
3.231703 91.9194 11.0486
5.132483 92.50907 11.0236
5.984712 93.11842 10.97441
3.379719 86.33413 12.01377
3.502845 90.37193 11.10279
5.050095 87.53651 12.01119
-13.92939 75.01151 9.223122
-12.6396 75.5097 10.68418
-12.83222 79.28224 10.53133
-12.56248 73.40028 10.88273
-8.876541 76.58794 12.34464
-1.715685 76.29094 12.51338
-11.71532 77.85188 11.39569
-10.85163 77.1988 11.89016
-7.571568 73.63154 12.45894
-10.21897 76.02388 12.07934
-8.333709 78.57155 12.49252
-8.832752 78.60067 12.47445
-7.675052 77.29431 12.45376
-7.051443 80.45486 12.54109
-4.100543 75.29918 12.50411
-8.60209 75.91086 12.33908
-7.013163 84.44656 12.28648
-9.48504 81.79335 12.31653
-11.50266 82.01672 11.52561
-13.17184 85.79715 10.03309
-7.697611 80.98585 12.53191
-12.43274 84.55035 10.83586
-14.5909 73.37823 7.956587
-11.87666 89.76102 10.51516
0.2307473 106.4485 13.26911
-7.25772 105.4083 11.71732
11.24844 71.22694 11.75922
12.42196 71.50591 10.96838
12.39358 77.20854 10.87142
10.48702 72.96625 12.0843
13.04177 74.88926 10.27444
8.053926 72.44949 12.57164
9.407872 77.29673 12.33502
9.233277 74.46502 12.34865
11.97738 71.64857 11.28338
7.929442 75.74415 12.475
8.36234 74.58201 12.45337
5.721091 76.06206 12.51592
11.83932 71.85673 11.37767
3.816669 60.47578 13.22979
5.663154 65.931 13.02983
12.40684 106.9097 6.189118
-9.258299 104.6121 10.80777
13.99487 89.5388 8.415195
11.81572 91.82478 10.21098
12.66093 92.40357 9.485016
11.47249 87.27074 11.10457
9.561308 107.8217 10.24472
9.746184 98.67084 10.34281
0.2509017 102.3484 12.82749
-2.491924 102.3612 12.68871
-1.070037 106.6233 13.2829
-1.771799 105.4397 13.21972
7.42922 95.78652 10.8035
11.71119 93.98182 9.887288
11.90434 96.06129 9.511666
10.21017 95.02096 10.41814
8.09449 91.38476 11.1818
11.93774 92.9284 9.875833
9.907191 96.1917 10.45174
-4.29248 96.32069 11.24124
-0.9271925 93.20217 11.18288
-9.956976 96.04453 10.40651
-9.209771 96.53154 10.60211
-11.11717 96.20325 9.796526
-5.665535 97.50885 11.18073
-4.616693 96.77815 11.24356
-5.049304 99.34199 11.59188
-9.774179 94.36098 10.37049
-9.464211 100.0333 10.53214
-8.002928 97.87397 10.88444
-9.852848 99.83582 10.29067
-6.764707 101.1 11.5603
-6.186322 100.1326 11.52759
-5.756071 99.96712 11.58698
-8.674163 103.2924 11.08643
-2.71279 98.69914 11.82489
-6.57767 104.4316 11.95838
-5.03791 102.9557 12.27393
7.397057 91.44392 11.17064
-3.690895 70.40517 12.61984
-4.239016 71.72884 12.58035
-3.763909 67.82594 12.70409
-2.412151 67.7744 12.69194
-0.4726331 69.65405 12.64597
-3.52867 68.89307 12.66578
2.69609 71.48082 12.63092
-11.21534 89.5806 10.86853
-12.2023 84.83265 10.9552
-5.422996 81.39188 12.54436
-6.363761 84.51437 12.27245
-4.023338 84.63789 12.23951
-2.803763 83.52677 12.44399
-5.930487 86.43398 11.98388
11.1356 77.72492 11.78677
9.372748 79.31966 12.37679
8.979625 80.64079 12.43586
6.680722 83.89862 12.36308
9.164986 82.54333 12.34071
5.799781 81.00372 12.54054
7.507294 78.342 12.51725
7.975315 83.60983 12.36571
10.9596 84.25418 11.76173
4.799973 84.18805 12.31361
4.63181 82.19447 12.50159
6.373723 81.06255 12.53257
4.397367 83.93096 12.33818
0.02116581 82.95618 12.48519
7.879331 85.35342 12.15688
1.825136 86.80069 11.9987
2.963952 87.39838 12.01777
1.124165 85.28201 12.07609
1.818702 83.9409 12.36376
4.287069 87.96877 12.04887
2.720193 89.27955 11.34817
2.735586 90.82679 11.04175
2.835296 77.24485 12.52289
1.423023 73.28906 12.57228
2.52734 77.72826 12.52564
4.625189 73.67152 12.57589
2.942564 70.53088 12.66608
3.833856 77.37999 12.52311
1.939899 72.96394 12.58266
1.790123 73.93506 12.55983
-1.094979 72.6427 12.57258
-3.596458 75.04057 12.51156
1.413855 81.44598 12.55996
2.501534 76.13358 12.52634
0.535313 77.3263 12.51998
1.653443 79.66499 12.55243
-1.002112 77.96288 12.52248
0.8911842 82.9222 12.48235
-4.154252 76.97859 12.49623
-4.732648 77.30132 12.49576
-3.96956 79.75495 12.54488
-1.647922 83.53488 12.43652
-3.119618 82.6203 12.52907
4.31543 63.93756 13.04589
3.884148 60.10482 13.2636
-2.214408 58.61684 13.08833
0.4249022 57.94352 13.16298
1.130505 59.62874 13.08935
-0.5220126 62.16284 12.89362
2.174126 61.07483 13.05834
-0.8434122 61.09222 12.94039
2.617648 66.0267 12.8266
-1.946607 64.47353 12.79704
1.796025 67.2048 12.75139
-1.750038 66.9644 12.71459
-2.421088 65.56477 12.76162
1.751831 63.7719 12.89219
0.7909356 63.97532 12.84854
12.48998 86.52203 10.61137
10.36135 90.40099 11.03532
9.775686 88.76357 11.49018
8.554032 88.16332 11.72968
7.423706 85.13702 12.19645
8.033876 88.34603 11.70738
4.963 89.80479 11.23569
5.696163 86.77993 11.97508
-4.443526 95.4517 11.13834
-8.847535 95.24116 10.72914
-7.713379 91.24236 11.21011
-9.58665 91.67495 11.03568
-11.33943 92.01235 10.4527
-7.481525 89.46463 11.53196
-2.737017 92.36441 11.07993
-9.406636 88.32877 11.61672
-6.20657 88.04485 11.82982
-9.728133 90.01508 11.28539
-9.917018 89.72739 11.31698
-9.04519 86.66331 11.91748
-12.70467 88.43383 10.15767
-10.93825 86.93336 11.47763
-5.21787 92.27248 11.06384
-0.9695201 90.39021 10.96755
-4.227311 91.17514 11.03236
-5.350629 93.865 11.03945
-3.596629 90.91937 11.01258
1.825726 93.28691 11.12253
-0.9646355 89.95711 11.10828
-4.591833 72.28492 12.56231
-3.442455 84.5278 12.27064
0.2931581 85.60558 11.98348
-1.83717 74.48273 12.53257
-3.166136 77.72238 12.51313
-1.940102 79.17461 12.53822
-10.46046 88.72177 11.314
-3.066491 85.84431 11.9267
-2.605425 88.10043 11.9553
-1.124699 86.90293 12.06636
-1.185992 88.23002 11.95968
-2.516618 89.70444 11.34664
-17.53077 56.52038 0.9488965
14.95627 92.11378 6.043707
-12.85645 66.69308 11.04298
-5.511683 81.68628 12.54343
15.80412 55.10952 -7.230564
15.75668 59.68925 -5.879241
13.95731 55.7038 -7.891792
14.43984 124.5391 -3.667883
-10.82593 92.48193 -6.765519
-20.61581 143.136 -5.53357
15.24942 73.84293 -3.1667
12.25188 103.3957 -2.607334
14.29507 80.45922 -1.8101
-16.81357 56.52489 -6.280035
-16.76015 127.9861 -3.580602
1.06545 55.87296 -7.786196
4.487581 63.11416 -7.920215
13.7036 91.86652 -2.197286
11.35169 58.30643 -5.120937
3.738458 56.24112 -8.293597
13.35222 91.41048 -2.93481
11.59711 96.98876 -4.714906
15.74498 128.0621 -1.327276
15.40824 127.4745 -2.688862
15.74636 128.1314 -4.089271
16.05045 130.1141 -5.717324
21.10152 142.621 -5.831199
19.2018 141.0705 -6.620197
-16.96188 61.08293 -5.148356
15.72227 138.871 -7.265254
3.48977 141.7637 -8.847854
6.453217 146.0001 -5.986823
0.8420824 142.0552 -8.771416
12.55067 104.4306 -1.617451
9.201605 144.6939 -6.194469
16.35329 131.9418 -6.257087
19.96675 139.8116 -6.929871
-15.30582 126.5064 -1.29803
13.16142 87.20854 -3.393483
13.13134 58.91991 -6.242904
12.9964 57.33828 -6.8892
-11.79244 57.63052 -4.988261
1.204038 58.15614 -8.042104
-12.95516 87.14516 -3.646069
-13.02347 97.37859 -1.151784
13.19228 56.08008 -7.489773
14.35036 125.5157 -1.990701
13.36179 144.9109 -4.281246
11.01505 144.1173 -6.226341
10.02829 145.4573 -4.557505
-17.36086 62.76039 -2.63715
15.29876 66.68665 -4.657737
-5.787661 144.4214 -7.699088
-14.67285 80.36295 -0.5458022
-14.45076 121.297 -1.313265
-18.13216 58.66611 -3.85264
-11.35018 105.9342 -5.050945
-4.192431 144.004 -9.271149
-12.93863 110.2367 -1.828461
-7.934879 145.6311 -5.449028
-11.77328 144.9919 -4.848939
-10.95398 145.0643 -5.033332
-17.51627 134.4865 -6.622672
-18.47146 136.2367 -6.610976
-16.22637 125.9511 -3.889821
-15.96678 127.4382 -2.687923
1.118793 97.25835 -9.741209
-19.97468 138.762 -6.839247
-16.39076 144.9152 -3.738708
-10.43355 138.1501 -8.298281
-20.9377 144.5756 -4.055453
-16.40483 126.7697 -4.38999
15.69637 72.28123 -3.062808
8.384535 104.9712 -7.750878
-13.59158 117.0955 -2.259104
14.26834 86.06133 -1.744349
15.55189 128.6198 -5.812177
14.72542 128.0875 -6.90295
14.37893 131.7753 -7.483789
1.434779 140.1958 -9.08579
16.26651 136.8888 -7.126884
15.17208 144.1513 -5.111513
16.3526 144.4724 -4.675922
13.90106 144.5091 -4.896326
7.344203 144.9245 -6.663673
10.12821 144.8324 -5.666397
-7.172511 56.81921 -5.292778
-15.20633 74.67248 0.197507
-13.58494 57.68791 -5.052238
-17.03934 65.35296 -3.108612
-17.32208 58.94607 -2.707547
-3.877787 142.2719 -10.39918
-9.809835 144.8221 -5.780588
-8.090665 143.8183 -7.305973
-14.667 121.2955 -5.279531
-15.41012 126.1143 -6.556086
-18.04973 137.845 -6.91057
-16.28267 143.6054 -5.359267
-19.6902 142.5993 -5.896867
15.44223 57.81482 -5.953319
11.7497 60.99538 -4.32027
11.40963 56.77967 -5.670745
7.374619 56.19022 -4.102136
13.13005 75.63192 -3.588312
14.05648 72.21614 -3.863445
5.498073 57.23315 -6.405942
12.09027 101.4693 -3.005059
-9.648761 102.7507 -6.284572
-12.95372 116.8183 -0.9503967
-13.50082 84.03719 -2.502898
14.26702 124.0446 -3.856081
13.70237 122.7612 -2.837137
-0.5208758 142.072 -9.717841
16.88045 133.0217 -6.154735
16.94465 134.6723 -6.627001
12.31667 144.8289 -4.919662
17.31133 140.8904 -6.774353
11.27945 144.902 -5.191855
7.396373 141.2319 -8.79357
5.811831 141.2695 -9.06575
4.239806 142.1929 -8.72062
-6.843569 58.52774 -5.554006
-16.58201 70.02356 -1.383463
-14.23201 81.57235 -1.043274
-7.319317 57.21148 -5.358731
-17.153 67.05978 -1.30342
-14.45448 57.81954 -5.338001
-14.16408 56.94293 -5.41597
-16.47771 130.5751 -6.498589
-9.003727 143.4095 -7.452522
-8.869741 144.6476 -6.340846
-10.97087 142.3404 -7.563231
-14.8111 121.5547 -2.98016
-15.05887 124.8444 -6.594597
-17.62302 135.8628 -6.78958
-17.95125 141.7531 -6.39574
-20.3328 139.9192 -6.857493
14.67737 63.35557 -5.696022
12.37073 58.80072 -5.704374
12.52046 85.78809 -4.098007
15.37453 74.61784 -2.796753
14.90591 73.69365 -3.419725
5.327445 56.57827 -6.384881
3.403901 57.07915 -8.430678
11.51533 110.8999 -2.641771
11.99068 108.9031 -2.618429
12.5684 97.90656 -2.250591
10.53134 92.3506 -7.171889
-12.44129 97.70938 -2.610402
-13.05433 98.68616 -0.6327488
-13.7196 118.1999 -1.824277
-14.82246 83.66375 0.2836412
12.9138 87.72936 -3.758587
14.20581 129.8944 -7.549559
12.54178 131.8314 -7.806486
13.87828 133.9529 -7.601749
13.41241 122.9213 -1.768249
0.8809962 143.2166 -8.478631
3.152282 143.923 -8.038016
16.16193 133.4528 -6.778308
16.02732 143.0336 -5.945992
2.790651 140.4102 -9.158315
-2.994653 57.10617 -5.697909
-2.302711 59.36785 -6.010297
-16.5954 68.3182 -2.28982
-16.16907 72.36348 -0.9322726
-15.27242 75.82005 -0.04973809
-12.89558 58.86222 -4.655496
-10.25686 56.09313 -5.18729
-17.31365 63.04174 -2.477657
-17.16029 65.21072 -2.20701
-14.89409 61.06893 -4.732746
-14.90316 60.5249 -4.846048
-3.971971 142.7317 -10.04944
-14.90542 134.0611 -7.380958
-16.40601 129.6693 -6.36441
-12.87821 129.1255 -7.763382
-14.58745 130.5189 -7.448773
-14.02384 129.5751 -7.598094
-11.7073 128.4326 -7.803595
-5.595232 141.7934 -8.878674
-6.511539 142.0495 -8.697744
-14.51931 120.208 -3.734845
-14.73709 121.0479 -3.686725
-15.68874 124.3343 -4.269626
-15.29881 123.1887 -2.969162
-14.60756 143.7968 -5.508891
-18.44467 142.2178 -6.139851
14.26924 63.98062 -5.354786
14.94629 67.94482 -4.475919
9.882715 57.48239 -4.149165
9.446282 59.6366 -3.398592
6.702983 57.94109 -4.872133
6.267419 59.27631 -5.889856
13.36606 84.52396 -2.808502
13.34947 83.31152 -2.75131
9.37688 75.49527 -4.828351
13.02557 71.53886 -3.834587
13.63558 70.83747 -4.013456
12.39775 69.53331 -3.795572
11.37085 69.15001 -3.496403
2.568225 58.73561 -8.427473
-2.700959 60.96143 -5.816201
9.0228 128.3022 -8.330379
11.31165 102.0836 -4.356223
13.1534 93.13572 -2.759948
-12.71981 107.3813 -2.164165
-13.65775 92.08302 -2.155557
-13.09111 113.1573 -2.364227
-14.73303 85.15202 -0.3281732
-13.48711 94.53842 -1.300644
12.59057 83.83134 -3.628004
4.7311 137.7944 -9.517398
12.3628 133.5494 -7.829499
13.69511 136.0121 -7.635093
17.59076 137.3851 -6.91233
1.746121 140.7795 -8.943488
-6.145323 56.1686 -5.182011
-1.780987 60.91105 -6.288459
-4.699278 60.07282 -5.475028
-6.462835 59.28861 -5.611939
-16.21041 70.33043 -2.032343
-15.54073 71.91567 -2.31855
-15.46265 73.8951 -1.795494
-12.70335 73.35338 -2.855878
-16.08212 67.51016 -3.516441
-16.78581 66.97321 -2.743894
-14.38949 64.58624 -4.009222
-13.95236 79.26632 -1.890139
-13.1205 59.80722 -4.523829
-13.43993 61.52341 -4.312503
-2.673541 143.2771 -10.83622
-18.03711 133.315 -6.017553
-13.03747 131.265 -7.735957
-8.950401 138.9557 -8.754035
-13.37942 118.5327 -1.197467
-16.29408 138.3703 -7.141795
10.18443 60.65631 -3.550138
14.26738 59.29096 -6.869577
13.87001 85.2404 -2.258884
13.48978 80.81367 -3.050228
10.25566 71.6422 -3.734014
8.784002 75.30251 -5.400489
11.83723 79.09747 -3.691689
4.92203 58.58055 -7.450835
-1.027326 57.89494 -6.670229
10.13779 105.1573 -5.740856
12.57764 118.5224 -2.729979
12.46667 97.71444 -2.558833
11.4698 103.6142 -3.922962
12.94182 94.01855 -2.815499
-12.01581 107.0903 -3.954346
-12.05853 97.91868 -3.447385
-13.135 111.0111 -0.9921152
-12.88323 113.8922 -0.5057872
-13.07381 88.98627 -3.592684
-12.37415 86.08111 -4.308882
-14.1326 91.67101 -1.26698
9.479605 135.9532 -8.529447
13.85569 139.2251 -7.612818
2.289266 138.6298 -9.602345
2.343107 139.518 -9.347978
-0.6427106 58.52715 -6.928924
-9.04197 60.89315 -5.686448
-4.295745 60.78415 -5.547331
-7.186468 62.28288 -5.984592
-13.68162 71.16377 -3.099493
-15.90748 64.83639 -4.309377
-14.31325 80.05772 -1.369546
-10.41957 58.53263 -5.403954
-11.95453 61.35972 -4.415208
-12.47141 135.8575 -7.834938
-14.3974 136.1815 -7.493698
-14.00105 134.1788 -7.570915
-12.90708 132.557 -7.746979
-6.491982 140.8622 -9.085824
-8.549829 142.468 -8.138752
-13.89143 117.8826 -2.755759
-17.16953 139.4626 -7.00702
12.55904 68.58548 -3.943943
12.02294 86.25436 -4.771939
9.869938 71.75401 -3.945283
12.43394 76.75144 -3.553068
5.370153 60.61635 -7.2615
0.7726035 71.07749 -7.413085
0.1041934 61.94977 -7.418222
12.60972 118.3028 -3.277797
12.31417 117.0036 -3.485979
11.87856 115.7625 -2.760315
12.06739 120.3215 -7.667809
11.22617 129.9661 -7.921317
11.07967 127.1629 -7.969264
13.39677 128.3151 -7.73942
14.4823 126.9439 -6.870025
12.05099 97.28351 -3.713452
11.10184 97.98464 -5.398248
11.02781 102.9271 -4.653964
12.94425 95.42255 -2.228737
11.57809 97.85426 -4.539064
11.2772 96.63033 -5.428275
-12.31751 100.4293 -2.504258
-13.23034 115.6252 -1.657027
-12.96461 95.34514 -2.204778
12.29804 94.45094 -3.979077
11.96691 136.6355 -7.95883
15.27587 139.4753 -7.34377
15.24641 136.4958 -7.336475
16.08295 137.5921 -7.197505
-7.338276 61.40888 -5.909417
-12.58507 68.31116 -3.450788
-11.81464 58.69044 -4.852378
-12.48497 139.1838 -7.870547
-11.89484 136.7297 -7.950521
-5.814484 139.5 -9.320822
-8.981522 139.7688 -8.740412
-16.33607 137.6904 -7.135297
12.63578 83.01014 -3.531969
11.25691 111.8107 -2.954485
11.75029 116.2456 -1.982328
11.93566 122.1878 -8.089579
13.3713 122.2891 -6.342642
10.58736 100.8514 -5.60432
6.56697 98.64568 -9.064769
-11.90645 107.8673 -4.580052
-12.37594 110.1479 -4.359387
-12.77881 106.2862 -1.726879
-11.30279 103.0423 -4.381597
-10.58323 92.26179 -7.102012
12.8814 90.60158 -3.829339
12.47555 89.06779 -4.449561
10.9979 138.4794 -8.176842
9.134574 142.7314 -7.885717
8.235604 141.5742 -8.527828
5.839614 140.7075 -9.248098
-9.286628 61.84243 -5.577544
-6.910989 136.345 -9.794553
-13.9026 117.7968 -4.610599
-13.93959 118.2676 -5.134611
12.51782 85.53728 -4.062801
-2.962392 63.57736 -5.804095
-2.064325 65.16202 -6.145116
11.02175 107.4005 -3.893178
10.10452 113.6251 -7.96181
11.65185 113.4734 -4.720467
11.98833 118.8054 -7.189119
10.96497 121.0848 -8.269085
11.82836 123.9009 -8.131829
9.239751 132.647 -8.501477
7.672955 133.4704 -9.002623
10.27225 98.58143 -6.528502
-11.88761 109.73 -5.461718
12.3865 87.72852 -4.482978
12.3554 140.9943 -7.714073
12.87668 142.0607 -7.199335
7.815251 137.7399 -9.005677
-6.576878 64.27068 -6.045349
-9.265453 64.53576 -5.414492
-4.182389 137.7943 -9.622602
12.71989 84.34791 -3.616141
12.16958 116.568 -4.889391
8.340495 117.2201 -8.388467
11.06563 119.7437 -8.247879
11.9566 120.6009 -7.826944
10.06146 135.2271 -8.355043
8.671328 97.56256 -8.306573
-11.37097 104.8258 -4.635186
9.96301 141.7842 -8.085739
11.66746 142.5535 -7.357144
12.02497 141.7402 -7.570897
-8.693418 65.79817 -5.708854
-4.335687 64.07272 -5.696586
-9.409508 126.6481 -8.051143
11.23614 84.56573 -4.993176
9.703681 88.49806 -7.746862
9.555637 87.99698 -7.626743
10.50356 109.0054 -6.173937
10.04402 110.5627 -7.189395
8.093177 118.2351 -8.293219
9.283244 114.4338 -8.509209
13.31552 124.5652 -7.478354
11.27149 125.6298 -8.039082
8.596858 131.588 -8.673305
8.904562 136.7568 -8.696957
-10.40779 108.2031 -6.788708
-12.99302 113.368 -4.329285
-10.82632 111.9111 -7.287805
-9.957375 63.23029 -5.115662
11.35583 87.70311 -5.856979
10.86379 107.1454 -4.154902
10.64202 108.3108 -5.773602
14.28577 124.3357 -5.184463
13.04375 125.5175 -7.744026
5.596282 135.5235 -9.158731
6.343811 135.9796 -9.239331
-9.589178 105.4842 -6.953373
-12.904 117.4319 -6.802911
-5.836957 136.3333 -9.856975
7.897166 78.01432 -6.111922
10.1803 76.13943 -4.172964
9.742313 107.7233 -6.952962
8.975505 127.6634 -8.297275
6.716725 123.3712 -8.764271
9.126651 120.1487 -8.240122
13.76825 127.1289 -7.534459
-11.02066 104.2157 -5.033303
-10.59233 96.04047 -6.632697
-8.882752 107.6433 -7.781433
-7.661422 107.3727 -8.38945
-9.44253 113.2053 -8.419875
-8.843508 105.0974 -7.333829
-8.39913 136.6766 -9.05247
9.189322 79.6241 -5.547854
10.17217 105.0505 -5.632496
9.484681 106.4239 -7.058728
9.390183 103.7542 -6.682363
2.470111 111.5579 -8.95945
8.135274 125.291 -8.408002
10.56954 127.7714 -7.967281
-9.568713 111.426 -8.10772
-9.133357 104.7365 -7.152798
-9.641741 103.1412 -6.306868
-12.42156 115.0908 -6.589499
-10.35251 112.4644 -7.803604
7.402281 76.41503 -6.334328
8.242432 104.0633 -7.759005
6.723279 127.7049 -9.104196
9.164658 125.6338 -8.12347
-8.255343 102.438 -7.388487
10.07294 81.5516 -5.134386
5.350282 76.01063 -7.016336
8.904758 75.49715 -5.313816
7.002236 126.9184 -8.970227
8.891033 130.5944 -8.520411
9.180493 78.05318 -5.406145
6.173133 100.0917 -8.87109
4.574852 127.5474 -8.868623
6.18572 78.97971 -6.57877
5.681576 76.70603 -6.88667
5.730125 76.31892 -6.897494
4.462556 73.96317 -7.340715
7.387748 102.3893 -8.118207
4.891255 100.9574 -8.966354
4.269406 99.16479 -9.414125
3.093201 74.68298 -7.443605
5.320511 98.65424 -9.431227
9.426497 99.51345 -7.209489
5.598534 97.65739 -9.577812
5.537072 72.28276 -7.192037
9.25928 98.52026 -7.608453
4.209992 101.1115 -9.035587
4.57843 71.97047 -7.454456
4.768638 74.79839 -7.227971
5.979529 72.45589 -7.025971
3.087124 63.38403 -8.153356
2.686988 71.70411 -7.726086
1.898159 99.94366 -9.308261
4.692305 68.75874 -7.598635
-10.30408 93.69144 -7.33654
-1.148545 97.71007 -9.685132
2.387186 96.45618 -9.838564
-13.95148 77.76791 -2.016489
-11.55069 128.1208 -7.798418
-10.99883 129.7251 -7.877469
-13.60733 126.5391 -7.628269
-12.49578 131.7 -7.788525
-9.715698 136.6544 -8.434566
-4.430439 127.3788 -10.1973
-7.441922 134.6261 -9.623517
-7.762918 129.3289 -8.936584
-8.099919 135.0682 -9.225615
-6.63586 129.5852 -9.672705
-14.39472 120.6376 -5.608205
-18.78977 140.9779 -6.639457
-13.51937 116.2425 -4.826679
-13.97705 120.0537 -6.264101
-13.36893 119.5639 -6.916562
-13.28183 91.14487 -3.095793
-13.26476 77.24256 -2.31111
7.060846 61.77969 -5.365786
9.797137 63.58607 -3.421303
5.864086 60.62488 -6.724799
8.739817 61.41853 -3.58212
7.153905 59.34889 -4.704108
-11.16527 101.8783 -4.631993
-10.57548 100.9557 -5.596838
-10.65354 100.4975 -5.574813
-13.67389 84.62542 -2.388807
-12.6066 88.48978 -4.235799
-12.1397 82.21484 -3.718085
-13.03686 81.3476 -2.611628
-12.21612 80.47427 -3.309631
-13.28368 83.03709 -2.592399
-12.31281 87.00787 -4.471132
-12.64014 80.16898 -2.865425
0.3393206 138.5789 -9.904262
-0.9672946 139.157 -11.16327
-1.378851 137.3008 -11.51741
-0.2672096 138.3613 -10.68325
-2.922341 136.936 -10.73033
-3.270329 139.4871 -10.19545
-15.11008 63.09386 -4.401867
13.63127 66.6211 -4.649136
11.87774 69.04477 -3.634177
10.02592 66.94872 -3.455718
8.731607 66.09795 -4.099222
10.37652 69.06172 -3.460711
8.653853 70.0901 -4.780075
3.599548 64.14018 -8.098786
0.2160925 61.37967 -7.491681
-0.8252532 65.28653 -6.845487
0.4990311 65.04531 -7.593605
4.530594 63.54381 -7.897646
3.796938 64.63543 -8.042988
1.445976 64.57026 -7.915693
4.386469 64.71492 -7.907525
4.887656 62.26455 -7.723366
6.967415 63.0624 -5.763176
7.172804 64.2745 -5.694129
7.493593 64.07251 -5.214807
7.679305 60.91438 -4.370819
8.715659 68.73502 -4.491928
5.662422 68.8407 -7.254522
8.155799 69.846 -5.285438
11.15873 112.7548 -5.946226
-11.6243 95.59682 -5.031183
-11.73329 67.18179 -3.741176
-11.19764 70.25169 -3.690209
-9.513639 69.03546 -5.015548
-10.31684 63.71039 -4.83889
-10.24818 71.99642 -4.427705
-11.97248 77.65217 -3.186473
-11.99816 79.05344 -3.315547
-13.85687 73.69325 -2.722404
-12.97372 75.3151 -2.517313
-10.71268 76.71535 -4.321948
-10.93558 66.00369 -4.223278
-11.50897 79.14114 -3.817069
-10.64943 81.65566 -4.649933
-9.845513 62.82597 -5.215425
-12.57527 66.07368 -3.677203
-9.694743 72.36843 -4.902555
-10.15203 73.28706 -4.584611
-5.807695 72.46738 -6.289711
-9.52856 69.68575 -4.997759
-4.985178 65.29861 -5.863962
-7.498003 70.65467 -6.087731
-6.021574 70.13365 -6.257306
-7.334608 72.77635 -6.111558
-4.889784 73.10265 -6.236335
0.3667043 68.08733 -7.404323
-2.236814 67.04489 -6.099808
-1.338554 69.53548 -6.561976
0.2849653 69.4608 -7.325357
-3.272887 66.20908 -5.852799
-3.052086 69.98597 -6.004508
-6.271792 68.63769 -6.211735
-0.8479358 60.49079 -6.832466
11.35269 113.4337 -5.703598
11.30698 93.13773 -6.061946
11.06076 90.35437 -6.540731
9.933954 92.41392 -7.863532
8.077591 88.23968 -8.517343
8.744843 90.96796 -8.771732
10.35225 82.77122 -5.16438
9.722782 85.93737 -6.548049
2.290955 90.68664 -9.982301
7.199909 82.81862 -6.216308
9.221363 93.69571 -8.396721
8.499513 95.64721 -8.789183
8.914562 94.88127 -8.540892
11.55728 94.09217 -5.495711
8.992965 84.00551 -6.033748
7.278218 93.81785 -9.550826
3.779806 95.06184 -9.983383
11.4349 94.19067 -5.688026
8.978145 92.8958 -8.637938
-0.4153283 96.75866 -9.805425
1.408054 93.44689 -10.08473
4.52951 94.42905 -10.03118
-3.871418 95.77345 -9.931149
-0.5098485 96.78525 -9.802095
-2.460969 94.60519 -10.02361
12.74562 143.2935 -6.481646
10.94235 142.7551 -7.426069
12.83272 143.4214 -6.372607
15.40678 143.5156 -5.720926
-5.390363 136.8386 -9.728898
-6.647905 136.3841 -9.806814
-7.194795 133.9474 -9.773959
-5.502669 131.8033 -10.48173
14.64968 138.515 -7.482451
-7.584969 66.47318 -6.090342
6.039307 138.4376 -9.316748
5.062737 138.0683 -9.410493
1.592304 136.0587 -10.29039
3.643741 136.3373 -9.982419
-9.882623 133.5991 -8.266986
-9.468144 134.4412 -8.45633
4.057061 110.7459 -8.559937
-9.977985 113.9215 -8.284807
-5.863468 95.91194 -9.731768
7.875771 126.7075 -8.628113
4.793691 127.663 -8.919922
6.146897 125.0568 -9.122972
5.778139 126.6457 -9.13059
8.700412 119.0359 -8.286905
4.868153 121.4484 -9.169405
3.030426 120.2112 -9.011724
5.102603 130.6515 -8.892729
4.622579 130.2242 -8.787827
2.054659 130.0361 -9.373269
3.377231 130.0362 -8.778267
3.174423 132.8502 -9.408323
1.828452 133.3132 -10.59626
-2.049509 135.4713 -11.54813
-3.063017 136.1428 -10.75433
-3.174138 132.2837 -11.26605
-3.043829 135.2733 -11.03763
1.133285 131.8079 -10.57276
2.992544 133.16 -9.688797
-6.103051 133.1993 -10.23913
7.673595 71.07008 -5.950115
-0.9390812 76.57122 -6.763998
3.626277 78.62521 -7.024604
1.264057 80.52705 -6.894302
0.9217133 74.14662 -7.312424
1.917233 77.92782 -7.174274
2.203521 76.49394 -7.313495
5.610343 83.66775 -6.689604
1.631128 82.72803 -6.820992
6.331294 85.11502 -7.310865
7.176305 84.25102 -6.71092
-13.46381 126.0684 -7.6598
-7.900419 129.1727 -8.832498
-6.426836 111.2086 -8.900857
-6.906846 110.1191 -8.91545
-8.801886 113.9368 -8.552589
-11.53923 116.1015 -7.766359
-8.284893 115.1375 -8.420625
10.68937 65.04552 -3.455302
11.9197 63.54749 -3.993689
13.10692 61.53248 -5.187406
-9.465317 99.06423 -7.288417
-12.19353 90.72893 -4.863794
-11.23595 89.26746 -6.214427
2.166274 81.8736 -6.790145
-9.387896 78.52424 -5.133383
-8.264165 79.5293 -5.550158
-10.64989 83.84742 -5.135827
-8.939076 82.4164 -5.508689
-9.636325 79.43472 -4.996136
-0.2134405 137.2342 -10.84348
0.5828081 136.3465 -10.26955
1.092367 134.511 -10.58978
9.135812 72.79524 -4.636124
2.552786 67.46693 -7.93228
10.92175 113.2483 -6.634372
6.900841 113.2269 -8.651419
10.14544 112.8995 -7.769579
7.3067 114.3163 -8.572085
5.439446 108.29 -8.941594
8.631516 116.8654 -8.464195
11.20341 115.8961 -7.267239
4.426482 115.414 -8.727536
6.217429 113.8088 -8.475885
4.133402 112.3246 -8.560328
4.047863 112.9161 -8.605935
5.97961 107.0393 -9.01557
2.612424 100.963 -9.166284
3.12326 108.3579 -8.671305
5.642666 109.9023 -8.836798
4.794257 106.3117 -9.066409
2.179835 112.5002 -9.098424
7.332172 108.2602 -8.785326
-0.9166056 112.6549 -9.050023
0.3892938 113.1928 -9.166947
-0.08564283 108.271 -9.151258
4.69781 117.0123 -8.823976
3.721847 116.2575 -9.062257
-11.14155 93.12256 -6.301896
-1.693415 73.12119 -6.453866
-0.1802211 75.92318 -6.981815
-1.465609 73.8082 -6.555244
-1.886325 71.74519 -6.34209
-6.332998 82.01154 -6.118751
-6.321142 79.7487 -6.145314
-5.041024 74.2796 -6.295082
-1.94432 70.56351 -6.286073
-6.960017 75.25826 -6.137205
1.121812 72.62631 -7.417426
2.105341 80.76745 -6.8599
-6.773307 78.54468 -6.100035
-4.958171 76.38715 -6.341874
-1.407697 70.89188 -6.543627
0.9462334 79.39482 -6.989883
-1.522973 79.78328 -6.632454
-8.220106 76.65792 -5.672991
-4.025727 76.06915 -6.230173
-2.622753 79.15794 -6.416228
-4.158299 83.89149 -6.806117
-6.723929 77.86653 -6.136942
2.163451 69.95084 -7.783167
2.13358 69.21152 -7.812393
5.017169 68.32586 -7.516886
-10.78379 95.13757 -6.523454
-11.4574 94.37404 -5.571908
-8.573791 95.42765 -8.72543
-10.4986 92.80724 -7.176538
-9.060686 92.73088 -8.560707
-9.644493 90.81565 -8.105241
-8.191041 90.10326 -9.028662
-9.987634 89.65018 -7.72506
-8.402023 99.22689 -8.149472
-9.482537 95.92602 -7.928941
-9.895621 95.68148 -7.54112
-10.40891 91.45193 -7.356783
-0.6003906 83.03204 -6.81445
-7.911567 87.63142 -8.280062
-7.951577 86.41701 -7.706037
-7.182174 94.60357 -9.517291
-4.970996 89.20882 -9.682946
-8.098046 94.93315 -9.095333
-8.141394 96.99269 -8.677042
-8.923995 99.42827 -7.648492
-6.88704 90.68652 -9.595999
-3.39734 94.61539 -10.02248
-3.104603 80.50754 -6.456299
-4.618419 92.82258 -10.12675
-5.52383 97.04668 -9.663084
-6.99969 99.9053 -8.657433
-4.356658 101.5973 -8.872966
1.521564 103.9915 -8.959181
2.180344 103.5216 -9.029392
-3.322022 102.6234 -9.015141
-1.717349 94.90275 -10.00049
-3.486749 95.26495 -9.973572
-4.86485 86.06304 -8.040037
-4.056575 103.4333 -9.021369
-1.625041 101.3433 -9.11765
-1.260085 84.09428 -7.03035
-5.936937 81.66423 -6.202973
-6.113974 84.33157 -6.818504
-3.638881 80.97729 -6.455782
-2.545506 83.3432 -6.761971
-2.006296 81.28135 -6.59957
-7.940916 100.2877 -8.116698
2.24157 101.2885 -9.135504
-0.7180674 91.76629 -10.07538
0.3584791 88.19408 -9.278291
-3.433635 104.6015 -9.09577
-7.115865 102.6377 -8.111564
-2.141568 91.54233 -10.0624
-3.350766 89.73454 -9.820227
1.457248 92.07847 -10.084
1.744515 90.39197 -9.927656
5.052883 91.57841 -10.00755
5.493899 89.81531 -9.775234
-4.178409 92.45133 -10.12049
3.355344 82.6247 -6.752319
-3.366085 106.3946 -9.152047
-5.71934 89.29952 -9.629138
6.360897 92.3455 -9.868518
7.713377 92.13932 -9.42003
7.628347 93.14921 -9.464105
6.454377 89.45837 -9.531432
-1.913033 86.76118 -8.468045
1.043936 84.26042 -7.108603
-5.406291 106.7265 -9.016374
-4.979629 105.8457 -9.046136
-3.768813 88.7671 -9.515832
-1.483389 85.80878 -7.871689
1.831095 86.97035 -8.607522
1.270224 88.62143 -9.45339
-3.629653 107.2464 -9.171856
-3.341949 112.1109 -8.672735
-3.813488 111.1886 -8.836247
-4.546744 105.8062 -9.078417
4.021568 85.51929 -7.692461
4.746351 86.23004 -8.141157
2.916979 86.1857 -8.116179
-5.023376 87.21725 -8.711474
-4.690953 107.993 -9.136474
-1.244367 108.8826 -9.257337
-2.393047 109.8722 -9.153714
-2.693954 87.96796 -9.147793
-1.700127 109.9305 -9.221095
1.193014 107.5727 -8.924669
-0.3967457 109.1941 -9.236239
8.842303 84.39319 -6.306752
5.437448 117.8509 -8.650475
5.168581 118.6646 -8.863984
3.238808 129.035 -8.656351
4.914023 126.0271 -9.038404
4.544276 123.0676 -9.108057
0.8929635 129.0275 -9.816392
2.743966 122.7259 -8.690443
1.161931 125.5813 -8.714548
-1.351488 127.9772 -10.46211
0.3330923 129.2472 -10.2331
0.9195376 130.1667 -10.17038
-0.8244898 127.1217 -10.13331
1.846277 128.9874 -9.175995
3.570011 125.9296 -8.718693
-2.93891 119.3579 -8.735771
2.565327 119.9025 -8.92361
-1.554221 124.0178 -9.578754
-2.932308 125.7465 -10.10798
0.008214371 121.5693 -8.401734
5.401108 84.20879 -6.91443
-10.33383 117.6735 -8.201133
-2.407329 114.9949 -8.227513
-4.977305 115.3881 -7.998131
-2.806035 113.0624 -8.541227
-0.1008316 112.2044 -9.2304
0.5969237 114.6436 -9.086328
-3.25739 117.3153 -8.26454
0.5318857 113.1853 -9.187732
-12.02437 90.9642 -5.113857
-11.5396 90.24871 -5.866297
5.928267 117.1089 -8.414095
7.969466 106.2198 -8.216803
4.692288 103.527 -9.03832
4.762496 102.7758 -8.972405
2.417575 105.8572 -8.820806
-0.2720893 101.2168 -9.161721
0.3048807 101.8201 -9.118352
2.686698 116.8936 -9.220202
-7.437274 73.60864 -6.071641
-8.902303 77.3801 -5.373628
-4.381889 86.3861 -8.2682
