# .PCD v0.7 - Point Cloud Data file format
VERSION 0.7
FIELDS x y z
SIZE 4 4 4
TYPE F F F
COUNT 1 1 1
WIDTH 1663
HEIGHT 1
VIEWPOINT 0 0 0 1 0 0 0
POINTS 1663
DATA ascii
13.34702 132.4645 -4.136989
-6.614316 65.60563 -7.621923
-12.47918 145.6235 -2.355839
10.95617 143.1582 -7.195152
-12.08035 131.9691 -6.156434
8.104291 9.145509 -7.416522
11.56579 106.7552 -2.501626
11.95342 54.55321 -5.116539
-10.48248 115.1589 -1.240731
10.45271 109.905 -1.994441
-12.17687 97.85814 -3.292782
10.98675 102.1228 -4.792914
9.026859 130.4233 -7.809843
16.67688 8.683988 -3.147887
-14.43571 58.8714 -1.174174
-10.70231 66.40866 -5.121222
-13.0881 61.92536 -2.913589
-13.58927 64.71696 -1.839188
10.71675 117.6214 -1.727481
-15.99299 30.4771 -2.16583
10.33452 114.6532 -1.219485
-12.31537 136.9494 -7.755223
-3.183975 135.2876 -8.876042
9.769497 111.615 -2.066256
12.73103 32.62162 -6.190077
-10.07648 111.6981 -1.710965
-10.83803 118.73 -2.073422
-9.010322 21.56534 -7.143074
-10.93113 109.3086 -1.76387
16.64915 18.46014 -1.323075
-10.84111 123.4864 -3.845572
-10.97466 145.5174 -3.74142
-12.10188 96.72576 -3.738802
9.296755 100.4031 -7.126638
-13.47915 81.58116 -2.036534
-10.98629 82.97749 -4.794163
-13.71429 140.3513 -7.546656
-14.14622 135.4166 -6.254516
12.84361 142.776 -6.846059
-13.09645 81.33954 -2.490046
10.90855 131.7024 -7.040418
11.34396 145.6439 -2.97952
13.63328 144.3759 -5.002052
14.58286 138.4571 -7.489364
-7.581088 13.0339 -7.388501
-16.70899 16.40958 -1.055914
-4.47903 148.3251 -4.92851
-9.106713 145.9476 -3.58205
-12.66708 145.3862 -3.147954
-16.35099 20.13101 -2.663959
-10.67587 127.2813 -5.428481
10.48094 106.6563 -3.775906
-10.31171 117.2462 -2.403841
-10.51099 109.2491 -2.369847
9.484077 114.4599 -1.846543
16.6785 17.70497 -1.063243
10.57443 8.955555 -7.264843
-15.21135 46.8688 -1.96958
14.88755 48.40305 -2.37257
-12.76346 68.04065 -2.731755
12.28666 79.97543 -3.132896
-11.84809 80.21618 -3.589301
11.26613 82.10264 -4.412087
13.32565 134.4057 -6.281548
7.382928 146.4951 -3.358205
13.99417 140.2868 -7.555478
13.94043 137.8874 -7.516391
11.38684 100.6144 -4.470347
-14.48558 11.71067 -5.832888
-15.61141 19.64976 -4.417795
-16.81525 14.3302 -1.211392
-16.62607 12.47858 -2.733141
-3.935289 147.69 -5.963624
-6.98916 146.854 -2.925657
-14.95502 143.8969 -5.301637
15.97488 30.52903 -2.353019
16.0272 31.61903 -1.458985
0.9510969 10.83751 -7.373877
-15.65083 40.37074 -1.883869
-11.80517 126.0432 -2.82959
11.24259 107.657 -2.398
10.48672 108.1484 -3.049518
11.25971 123.1934 -2.675918
-7.546089 117.5394 -3.620393
-8.779942 110.6889 -3.207825
6.189738 113.7229 -4.229599
7.276739 117.8501 -3.764642
5.964975 116.8201 -4.274695
16.42464 22.79244 -1.465374
16.59962 19.45743 -1.391039
15.5271 10.7288 -4.936999
-14.45837 52.49405 -2.282892
14.60258 49.87119 -2.651016
-13.23131 64.91658 -2.374008
-12.62909 70.55515 -2.718095
12.65821 74.37063 -2.554525
12.4682 74.80465 -2.791101
13.54062 66.23198 -1.890959
13.53106 64.70309 -2.095127
12.94135 59.71473 -3.513201
-11.64742 88.16002 -5.545733
13.1859 88.46804 -3.49208
10.94704 129.7355 -6.109604
-11.29054 127.2927 -4.490936
5.957805 147.3739 -3.378616
7.983609 145.8866 -4.516566
12.40176 142.1788 -7.316682
-11.03663 97.65279 -5.562222
11.92653 97.77067 -3.861976
-11.87131 8.426325 -7.116082
-16.3087 23.48578 -2.055132
-15.82415 10.67359 -4.507847
-13.72452 13.02795 -6.310555
-16.6774 13.5107 -2.457432
-2.215475 148.0381 -6.141902
-10.30278 145.6786 -3.755339
-13.32592 143.8723 -5.76651
16.28715 25.89304 -1.630835
-16.03222 31.53236 -0.9750368
-15.85931 36.93741 -1.067253
-9.908329 120.4235 -4.017015
-12.08613 102.9973 -2.96572
11.59696 101.7795 -3.958071
10.71388 124.0518 -4.129745
-8.85191 107.759 -4.532921
5.393341 115.0291 -4.767167
8.420552 110.8284 -3.350323
16.67795 13.65163 -2.721179
16.35458 24.61004 -1.324785
16.16496 22.40008 -3.164767
8.660168 9.238612 -7.398011
6.869607 9.730876 -7.419068
-14.07917 50.44747 -3.220998
14.38358 54.49991 -2.22047
-13.2991 69.12408 -1.83807
-12.16639 70.14497 -3.324216
-11.57897 77.21806 -3.670685
12.53901 71.56091 -2.906389
12.65255 78.32767 -2.527139
-13.22349 85.55862 -3.169311
-13.28251 89.60819 -3.322738
13.10922 86.00932 -3.402375
11.34976 129.1545 -5.309243
13.19826 136.6415 -7.34683
12.96822 139.3111 -7.829083
-12.84707 133.4892 -6.209409
-9.761473 100.7974 -6.577446
-10.98729 92.04443 -6.597349
10.09136 102.2216 -5.827104
-9.957371 9.898602 -7.396299
-2.360426 8.597919 -7.402363
-16.19787 19.9019 -3.157276
-16.40728 18.94206 -2.599397
-16.37931 16.87931 -3.000436
2.618906 146.7749 -6.775667
5.537711 146.9009 -5.465375
-13.75753 135.3119 -6.524047
-5.466997 146.9292 -5.555826
15.97627 33.20916 -1.748435
15.62165 37.52746 -2.55526
-1.369694 12.20235 -7.368088
-16.10592 28.92781 -1.179373
-15.79459 27.19772 -3.499713
-15.0339 38.99692 -3.669988
-15.71573 40.01751 -1.620177
-10.65142 105.6808 -4.107779
-9.481358 104.1906 -5.702896
-8.467957 107.7275 -4.751119
-6.744543 105.8369 -6.238811
6.524031 118.5077 -4.176028
2.617309 109.3676 -6.818699
5.747334 110.0467 -4.939431
6.108615 111.635 -4.47782
16.7519 14.71551 -2.080858
-15.60244 42.37962 -1.713743
-14.90292 50.2585 -1.894026
14.11728 56.35326 -2.343795
13.94946 46.89859 -4.07872
14.37811 53.3149 -2.416442
15.62468 42.5633 -1.426663
-11.42875 69.41602 -4.225473
-11.41872 69.9795 -4.20017
-12.85808 72.72118 -2.265037
-13.09577 78.20232 -1.827666
-13.28153 57.64614 -3.18462
10.8509 80.23186 -4.487026
10.99578 82.259 -4.642352
-12.25982 82.47234 -3.712882
-12.12388 80.18629 -3.327749
-11.75783 84.94987 -4.711218
10.79298 87.43618 -6.527888
10.91023 128.2771 -5.438538
13.01744 135.2514 -6.974509
11.54909 139.2474 -8.089241
-6.126344 128.9005 -7.764153
-12.48106 135.6383 -7.381857
9.966614 144.9957 -5.487925
-8.517372 102.3049 -7.072571
-10.49734 99.67174 -5.952924
-9.300011 103.1718 -6.232143
-11.47036 94.62783 -5.562959
-10.12861 88.83356 -7.444059
-7.049016 10.53023 -7.437119
-5.227703 9.955412 -7.42326
-14.29079 14.28963 -5.878983
-3.640275 146.5921 -6.72571
-10.40556 135.2788 -8.164312
-9.948952 136.4895 -8.376852
13.35183 28.80855 -6.054032
15.52671 36.54324 -3.079194
3.388579 15.80716 -7.345663
-15.87714 29.90442 -2.850139
-15.13031 34.13561 -4.252513
-14.3824 34.94482 -5.10545
-15.24793 37.63057 -3.466792
-8.557755 105.9118 -5.581341
5.749641 117.8602 -4.481399
2.722434 117.9977 -6.843698
5.09128 116.6153 -4.939579
2.994951 110.9797 -6.638321
15.35105 26.98441 -4.361679
15.25377 23.00779 -4.801064
14.63469 27.98718 -5.196257
11.28763 27.7468 -6.695388
9.034888 24.33342 -7.058975
8.435882 22.59115 -7.13846
13.84068 33.02487 -5.649519
15.81241 15.12542 -4.383167
-13.90784 49.50027 -3.591828
14.09909 52.96339 -2.91945
-12.63108 65.62294 -3.125648
-11.31278 78.63845 -3.939232
11.27067 81.05428 -4.242706
11.04773 79.17875 -4.275387
10.63341 83.07812 -5.067519
7.467768 87.75437 -8.594173
10.9046 88.77129 -6.598851
-10.22966 83.24574 -5.367311
-8.775706 86.61417 -7.393566
11.61009 91.96271 -5.754388
10.70967 134.0339 -7.828017
8.574315 137.5189 -8.798716
9.376533 139.6681 -8.580384
-10.11577 127.2271 -6.099294
-10.11687 96.8673 -7.144225
-10.0865 94.27232 -7.563648
-11.51237 93.73594 -5.553186
-0.9869607 96.13366 -9.855925
-10.02203 86.00496 -6.455106
-2.386647 11.56358 -7.375458
-12.74885 13.98967 -6.736851
-6.675478 136.3411 -9.241837
14.73267 33.49642 -4.818316
-12.0776 40.40435 -6.069711
-14.77419 35.83911 -4.559022
2.486146 110.7075 -6.918006
1.989523 109.0949 -7.117757
4.403201 106.1497 -6.424352
7.63787 107.8886 -4.996333
6.715327 105.1392 -6.619473
9.328012 105.3667 -5.29829
13.26046 14.80729 -6.426422
15.62822 16.15355 -4.583613
10.21682 11.30676 -7.25439
15.22785 28.18088 -4.498166
14.39485 30.2282 -5.277034
16.68422 16.03061 -2.145743
-15.18555 43.62017 -2.643025
-13.06151 42.64379 -5.314115
8.993184 78.61882 -5.844046
9.058279 76.18045 -5.901967
10.47355 82.19536 -5.004532
-9.522849 85.56597 -6.546327
-9.265399 84.27768 -6.226235
9.754333 140.5954 -8.40689
-11.59039 95.70822 -5.119709
11.56008 96.77213 -4.887397
8.555452 145.2654 -5.687351
-7.545146 136.6479 -9.086689
-13.19154 39.41593 -5.567576
9.433035 121.3183 -4.652026
0.5620288 107.5602 -7.312612
2.429616 104.4273 -7.33388
6.759297 99.04808 -8.986301
3.007514 104.5167 -7.307501
14.9622 14.57288 -5.390083
-13.34215 42.00056 -5.178423
8.938906 75.05779 -6.023933
11.71295 87.5584 -5.421548
-7.639193 86.29041 -7.804265
5.663195 138.604 -9.344602
-10.75247 130.1203 -6.458465
-14.27607 15.0225 -5.870273
-8.497404 136.6613 -8.811237
-14.54811 32.31167 -5.06044
2.649019 111.9802 -6.847569
9.724284 100.5717 -6.656628
9.862183 101.4422 -6.294213
9.326699 98.62331 -7.561762
3.530052 105.7496 -6.682024
-10.89724 42.0983 -6.454834
-10.40007 35.38863 -6.664661
10.11405 75.86909 -5.153805
5.899753 79.02567 -7.454976
-8.121253 88.13017 -8.448913
9.088852 141.892 -8.291413
-9.203198 125.1181 -6.248771
-7.174307 91.76311 -9.629482
-10.32872 138.2494 -8.335665
-14.39687 29.12272 -5.359854
7.685013 100.4606 -8.218603
1.87963 108.1174 -7.091099
-9.372327 44.13879 -6.917475
6.96548 76.3483 -7.067858
8.515404 141.5175 -8.508784
-8.087598 132.8666 -8.740665
-7.175695 133.7 -9.030063
-14.16954 22.46112 -5.795437
-14.72504 16.03163 -5.504584
-15.24113 15.80271 -5.041139
6.329226 97.15726 -9.509091
-7.151304 39.35293 -7.296883
4.775813 80.58724 -7.843675
8.836105 84.59518 -6.585323
7.881823 86.01988 -7.591824
8.092355 142.4898 -8.267191
-8.949858 137.9602 -8.705326
-6.090646 132.868 -8.950641
-12.17791 26.00601 -6.55221
-12.75865 31.85826 -6.204798
5.04956 99.49388 -9.304677
-10.50815 44.31584 -6.527847
-13.17278 48.96113 -4.499458
-6.979093 48.58624 -7.580396
-12.0161 49.09807 -5.432936
-11.59734 50.83428 -5.573788
-10.12365 42.86097 -6.69674
-9.100258 45.13987 -7.004083
6.409022 77.46413 -7.278327
-2.895144 144.061 -7.923632
-2.694204 137.9765 -9.022662
-2.949521 135.7739 -8.89852
-11.20873 29.28571 -6.656811
-15.23915 32.20213 -4.147573
-10.53597 19.82875 -7.057017
4.573595 97.49437 -9.722813
5.454947 92.40456 -10.04452
-12.02297 51.50558 -5.21418
-9.398111 40.26003 -6.895952
4.758244 75.13936 -7.970687
3.88972 83.65914 -8.189545
4.201858 80.07932 -8.003643
-7.660075 72.8064 -6.883539
1.578433 83.57899 -8.508534
0.6639773 82.68427 -8.530905
-0.8485757 82.68963 -8.527811
0.4015222 84.6324 -8.647118
2.299444 86.497 -8.870076
6.51022 85.86202 -7.981909
-5.763162 88.20199 -9.186193
-0.7891966 86.12271 -8.853773
-6.13673 137.9058 -9.318943
-1.749227 136.3829 -8.884494
-12.11542 35.97058 -6.288213
-14.29939 20.02663 -5.772587
-7.010817 52.17866 -7.61627
1.724512 74.77691 -8.574605
4.930378 80.97995 -7.791954
0.8979885 87.34663 -9.124704
-2.924917 132.6691 -8.496015
-2.305346 129.8783 -8.236116
-13.46564 31.23354 -5.899141
-12.69332 30.60513 -6.250127
-11.98011 13.76596 -6.961011
-10.26436 24.09819 -6.955793
5.126688 95.22099 -9.949092
3.988214 89.24093 -9.740332
-10.00554 16.1101 -7.223975
-11.61696 23.05836 -6.775994
1.831738 132.9859 -8.574341
-1.151615 133.2671 -8.764509
-8.724299 16.13728 -7.299086
-10.67378 11.49922 -7.276255
-1.410321 91.04634 -9.955997
-9.506672 21.78125 -7.104221
7.020817 135.9117 -9.190327
6.983356 130.6957 -8.444323
8.799861 134.8494 -8.680076
8.222512 91.6973 -9.172769
7.045072 92.43697 -9.703573
6.472375 91.6588 -9.831588
5.530794 137.4411 -9.323348
3.258703 94.01837 -10.05724
7.016664 91.11604 -9.609742
8.827819 88.41305 -8.23668
3.466727 139.5673 -9.141665
10.17259 88.00232 -7.181008
10.04875 90.12885 -7.748362
-11.74144 145.4694 -3.376873
-12.45589 144.1224 -5.665923
-6.878001 107.4289 -5.402715
-3.777597 104.2684 -7.40597
0.04251871 110.3952 -7.535989
-5.890442 110.8449 -4.750368
-8.069176 110.155 -3.859007
-2.845314 103.1517 -7.993906
-4.345552 108.7066 -5.826994
-3.039171 111.8192 -6.65817
-0.08983758 106.1209 -7.145946
-5.095064 112.2608 -5.210081
-2.383065 110.0313 -6.947533
1.535733 104.0728 -7.498465
3.564879 99.09149 -9.474244
1.776055 103.5217 -7.793084
-2.608022 102.0197 -8.524366
-3.073275 101.7177 -8.66758
-4.737471 102.3211 -8.436379
-2.09938 98.65994 -9.49155
-5.886464 96.88135 -9.653893
-0.920404 97.65325 -9.653384
0.6757786 96.80822 -9.774644
2.093761 95.97264 -9.868673
3.371259 96.18832 -9.846128
-8.06589 97.59612 -8.722958
-3.90615 98.41241 -9.563021
-0.6383306 91.23914 -9.96353
-7.238103 97.59832 -9.106651
-2.413027 93.65644 -10.06009
-7.381851 92.40618 -9.598858
-4.692177 93.14253 -10.12933
-10.28831 143.6341 -6.942042
-12.8257 140.5452 -7.707204
-10.0517 140.5225 -8.36468
-8.559942 142.2864 -8.256275
-12.04788 139.2825 -7.979711
-7.378368 144.0452 -7.439148
-7.651291 145.3824 -6.023489
-4.8546 147.0849 -5.873346
9.901994 122.4331 -4.729236
9.477811 125.0517 -5.96468
12.73645 69.14796 -2.821262
12.83974 62.61758 -3.330076
12.64734 61.58477 -3.708873
11.9665 58.5387 -4.743204
11.11229 60.94725 -5.282809
10.04539 60.30436 -6.105103
12.74779 54.70285 -4.362813
12.41393 51.53075 -5.018954
9.452608 63.16385 -6.344123
13.07854 53.04744 -4.207941
13.90722 48.57864 -3.854991
10.46656 52.20909 -6.293972
13.33935 47.00552 -4.708537
8.1208 53.4245 -7.272462
9.070588 57.19798 -6.806104
10.923 48.64095 -6.236604
9.470788 55.60647 -6.665079
8.64581 49.43268 -7.13221
6.482199 46.48044 -7.617667
8.323479 47.7708 -7.233079
9.909098 47.82857 -6.703071
7.740144 112.9106 -3.208299
13.70979 22.5021 -6.016012
13.70758 21.24537 -6.065921
13.49536 21.51559 -6.159946
15.14782 18.46653 -5.075455
13.48605 17.52469 -6.281796
12.8029 21.92447 -6.458092
8.164325 18.69698 -7.22627
10.96074 24.96193 -6.832372
9.293233 17.94662 -7.180883
8.134784 13.20445 -7.342665
13.17407 13.81585 -6.488927
8.892683 15.46166 -7.272029
14.20891 42.87775 -4.355977
14.51506 46.18059 -3.354172
13.55168 42.59711 -5.020907
13.76726 41.60682 -4.944383
14.13342 38.96652 -4.921153
12.03061 39.56983 -6.149592
13.53057 37.26584 -5.566839
14.70884 37.17824 -4.507926
12.8779 33.7178 -6.107252
-14.05271 61.10457 -1.509564
-10.38349 76.14233 -4.842518
-11.09307 75.49043 -4.227434
-12.0345 52.92673 -5.05008
0.6174064 146.3205 -6.974313
1.893708 144.3188 -7.788855
-1.616786 138.4317 -8.919629
-0.6241283 138.933 -8.854187
5.193306 143.1332 -8.323814
-0.8711503 143.8258 -7.919173
7.356353 142.9752 -8.144415
-5.400733 144.2746 -7.651423
-9.010365 119.7155 -4.106256
-5.567786 106.1072 -6.303396
-9.981468 67.72385 -5.650119
-11.83535 63.58486 -4.251855
-5.861489 65.02578 -7.895393
-9.865345 63.25536 -5.979877
-7.251685 68.81371 -7.243559
-7.866554 68.90713 -6.93911
-6.805311 72.72561 -7.308378
-6.753622 65.15369 -7.574842
-9.570914 79.3559 -5.39865
-6.487902 75.35689 -7.338745
-6.325548 73.37912 -7.490568
8.220674 124.2848 -6.172579
10.64399 126.0214 -4.936589
3.34904 118.3051 -6.356263
0.6497138 117.7683 -7.864314
1.199221 117.7639 -7.731651
-10.40163 126.5729 -5.545326
-8.604198 121.2121 -4.851516
-4.333254 20.75602 -7.30286
-3.197553 15.98179 -7.34793
-4.060403 17.42988 -7.330779
-4.151966 18.19143 -7.324872
-3.05584 15.45804 -7.351791
-0.8751838 18.34495 -7.357297
-8.724756 14.60431 -7.337893
-3.598405 20.49806 -7.322711
4.03862 113.6054 -5.885599
-12.49382 45.45374 -5.433297
-10.53405 82.41689 -4.98964
8.350932 129.0231 -7.783294
0.2279062 131.5746 -8.78377
7.080017 123.0082 -5.6373
7.42675 127.3029 -7.347664
5.512735 124.4869 -6.086684
8.059912 130.6599 -8.255772
1.32886 133.0057 -8.651833
3.357455 135.1963 -8.880599
4.354589 131.2006 -8.221158
2.382983 126.5551 -7.595585
2.742202 129.5173 -7.856085
2.763655 123.9653 -7.057356
7.390509 124.7543 -6.363679
1.315089 123.0388 -7.968358
2.225163 130.1375 -8.15458
2.217304 124.4353 -7.480304
11.25479 73.65775 -4.267552
-6.790345 86.40099 -8.136325
-6.28838 91.0356 -9.822047
-3.282788 88.79092 -9.564908
-2.946108 86.68597 -8.860324
-1.715436 89.38702 -9.684106
-1.989257 86.74254 -8.928071
-3.15878 83.21646 -8.303855
0.3620154 80.29146 -8.530981
-4.697691 84.74676 -8.155287
-3.634125 84.65723 -8.365563
10.62014 34.97283 -6.638817
9.405342 36.47907 -6.856129
8.281187 33.82649 -7.008601
-3.314028 130.1524 -7.997879
-8.41955 130.0454 -8.041952
-2.679465 129.2339 -7.988064
-4.780879 128.1786 -7.36289
-4.695601 126.6612 -6.893656
-7.493039 124.1854 -6.136954
-6.746933 123.7603 -5.926833
-8.792467 124.1587 -5.966537
-14.66635 17.21877 -5.522044
-5.152558 40.612 -7.606656
-2.925814 39.26623 -7.7541
-7.111638 42.20368 -7.396582
-4.966762 40.2528 -7.616591
2.602308 46.00855 -8.052496
-6.779086 47.32599 -7.601491
-8.564582 49.19524 -7.14347
-4.535574 49.7103 -8.02847
-2.954315 45.34346 -8.009197
-4.387252 41.58922 -7.73039
-2.501256 41.82582 -7.889384
5.708766 39.10909 -7.482933
4.407999 46.29546 -7.904253
-6.793653 50.48287 -7.647804
-0.5334996 44.55594 -8.07484
-6.05824 141.8009 -8.854543
-3.875261 140.0773 -9.232413
-5.052449 139.5476 -9.326903
-3.215578 141.3126 -8.869059
-11.71217 34.63588 -6.416065
6.723734 101.7689 -8.207615
-8.917608 36.65965 -6.936297
1.610211 138.2178 -8.92567
0.2317336 138.0101 -8.873114
4.288759 138.9391 -9.279102
4.57705 141.9742 -8.857064
-7.964177 21.51699 -7.190384
6.742564 141.4068 -8.954615
7.875866 88.65128 -8.828621
9.895333 94.08341 -7.833267
11.21767 93.39193 -6.240515
-5.109426 113.1715 -5.18253
-6.134737 111.8557 -4.486949
-6.554158 115.3963 -3.983127
-2.100285 117.1336 -7.398546
-4.977969 116.1824 -5.226491
-4.03789 116.6093 -5.998619
-3.866907 118.4823 -6.162179
2.619724 116.6513 -6.914127
3.46615 114.2611 -6.322454
-3.494994 119.53 -6.510317
-1.528967 118.8184 -7.705479
-3.291278 123.8695 -6.934148
-0.7552415 124.3605 -8.335436
-0.5733675 122.4533 -8.17804
-0.7662786 121.5042 -8.082921
2.729714 127.9588 -7.581679
-2.323662 121.1974 -7.499805
-1.346209 122.3786 -8.046411
2.702318 127.2921 -7.467606
-1.740139 124.5138 -8.036625
3.495105 98.40848 -9.614114
1.191064 97.45956 -9.690672
-8.955171 101.7956 -6.934237
-7.057525 99.65485 -8.716458
-9.352618 97.11687 -7.855644
11.92858 67.96207 -3.940711
12.0936 65.54276 -3.947554
9.709313 59.34057 -6.373241
7.01494 49.89456 -7.580592
10.81971 46.64683 -6.360808
10.08206 16.87012 -7.147903
13.89958 24.25755 -5.864362
7.031181 14.86119 -7.326297
6.356102 12.47399 -7.372365
6.405831 13.07878 -7.361845
9.477543 43.18502 -6.898867
10.63416 97.00501 -6.406255
10.02073 95.06049 -7.481563
-12.3768 64.6785 -3.530507
-2.064087 71.22106 -8.59798
-6.14204 62.36529 -7.845319
-8.42656 79.30318 -6.168657
-7.012097 81.31904 -6.978456
-7.980291 78.03345 -6.475514
-7.020594 82.1031 -7.004439
-4.752348 82.18153 -7.87208
-4.065892 80.92621 -8.034851
-2.712811 77.96662 -8.393451
-0.5920526 77.29409 -8.601233
-11.75245 61.01785 -4.567772
-9.520756 61.74126 -6.307863
4.838238 12.86795 -7.366974
5.599826 14.97148 -7.338549
0.6091639 12.60561 -7.364463
5.484595 18.95825 -7.297773
5.447469 19.29026 -7.295539
0.7826803 19.83668 -7.364228
5.787535 20.98285 -7.268278
0.5361904 15.27074 -7.357518
1.406069 17.27592 -7.354232
-2.659141 13.10223 -7.366489
7.581962 28.12293 -7.094417
4.240301 21.80643 -7.307479
4.90878 25.92921 -7.280853
2.18304 18.55841 -7.349442
3.803099 24.82686 -7.326333
1.952843 27.42109 -7.427908
3.682314 23.96104 -7.327047
-1.580886 21.08733 -7.360972
-0.3608243 24.84783 -7.410275
-1.333518 26.17392 -7.419074
-1.742525 24.29414 -7.384424
-0.4433005 21.60619 -7.3739
-1.294505 20.91336 -7.36254
-0.3916868 24.83584 -7.409857
-2.745681 22.37453 -7.345152
8.742685 132.9087 -8.501457
4.01367 133.1365 -8.631153
-0.41131 130.7248 -8.78737
-3.166766 89.77654 -9.817002
-0.5187771 73.72988 -8.667306
-1.940839 73.63168 -8.583369
-1.359881 74.73919 -8.617811
-2.703835 84.06399 -8.433101
-2.395731 78.85026 -8.415505
5.263198 36.64179 -7.453912
-0.912225 46.59699 -8.153421
-5.327652 47.91578 -7.863951
-3.557928 142.7782 -8.469357
-3.812944 39.51476 -7.698201
-6.758192 34.81516 -7.215063
-7.850445 36.99599 -7.119681
-5.570803 36.79204 -7.421344
-7.789184 34.18432 -7.065014
-3.961318 35.88303 -7.545379
-5.270821 32.40366 -7.320415
-4.396389 33.90471 -7.444812
-4.511657 31.23469 -7.360708
-0.8581253 37.24217 -7.759221
0.1368673 34.62349 -7.670757
-10.42509 33.08874 -6.676805
7.051952 134.0277 -9.086906
-2.09739 115.3816 -7.319895
-8.995755 100.0199 -7.460201
-5.532786 99.45909 -9.24173
10.19267 68.74074 -5.506828
8.452494 72.90873 -6.440719
10.17439 72.25548 -5.313865
8.975782 69.09608 -6.332355
6.870296 57.11804 -7.640496
8.976844 59.75016 -6.755583
3.629197 59.69491 -8.371334
6.28228 61.3581 -7.789698
5.869866 61.12698 -7.915435
7.84865 66.38631 -7.05886
10.31364 66.87072 -5.518713
7.695893 37.47795 -7.154904
8.605526 41.93394 -7.097378
-11.41531 53.53662 -5.486726
-8.251631 50.84121 -7.231669
-9.134853 59.8079 -6.610417
-6.448472 60.66817 -7.75331
-6.105806 60.23471 -7.869487
-7.304037 59.91837 -7.465383
-6.587232 62.64922 -7.692095
-8.434805 52.89756 -7.150317
-5.162699 63.3824 -8.108784
-5.692965 59.89078 -7.980019
-8.403414 54.72095 -7.120673
-6.792561 56.62757 -7.6826
-5.326699 55.68872 -8.041926
-2.487997 52.14143 -8.303385
-4.388783 55.01162 -8.188691
-0.06320876 55.36146 -8.494891
-1.388412 61.15167 -8.602204
-10.60906 54.76766 -5.992601
-2.16957 53.19522 -8.359532
-1.114996 58.06249 -8.554558
-1.717589 56.99747 -8.504068
-5.633667 66.44035 -7.943599
-1.275801 72.41152 -8.653169
-2.507374 70.72137 -8.548806
1.799363 73.2849 -8.589118
3.95699 71.27749 -8.291927
0.9588796 70.85789 -8.671195
-0.003552234 68.67531 -8.714901
0.3398545 72.08063 -8.685803
1.640248 71.99622 -8.616264
8.452681 29.9495 -7.001828
6.877787 30.62163 -7.150029
9.604494 27.86102 -6.920012
-7.315274 26.85633 -7.114318
-7.322154 25.37239 -7.137415
-5.469575 22.80836 -7.254685
-7.821987 21.70421 -7.190816
-7.038629 27.68562 -7.127903
-8.059037 26.11739 -7.07761
-3.009516 32.32061 -7.497438
-8.824979 26.0359 -7.024985
-4.919351 29.10215 -7.291861
-3.696979 19.01783 -7.327415
10.10649 34.93182 -6.732322
8.51968 31.35027 -6.978451
4.804473 37.94517 -7.544745
3.077717 40.12015 -7.7752
4.889621 40.23963 -7.620546
4.310265 37.87469 -7.589236
3.166621 40.52717 -7.78477
4.573185 35.20557 -7.469904
3.722743 28.73651 -7.37696
3.158522 29.65416 -7.424967
2.365819 37.30849 -7.709847
2.535779 32.29761 -7.523122
1.096909 34.69354 -7.659649
1.859596 30.60476 -7.505484
0.4088801 33.87914 -7.640815
-1.086791 31.26963 -7.545796
2.769819 26.11503 -7.377254
5.708215 48.39066 -7.798164
3.610271 46.84562 -8.008183
3.058218 45.01342 -7.980289
3.890147 43.73817 -7.859175
-0.5252777 46.58128 -8.162948
-0.46279 49.23167 -8.277178
3.887908 49.09398 -8.066332
-7.638373 32.44253 -7.065988
-1.344079 113.748 -7.530727
1.074537 113.2621 -7.548952
9.489373 67.19302 -6.113277
6.795326 64.94775 -7.549005
8.316192 69.57458 -6.689292
5.720083 70.2937 -7.806184
5.505192 68.64828 -7.929197
4.938069 70.87354 -8.038337
4.261255 68.12513 -8.267426
5.748709 65.47787 -7.906233
5.854816 57.09529 -7.90964
7.858017 56.38848 -7.32393
6.013398 56.07789 -7.874237
7.200754 45.91655 -7.464573
7.48737 41.95344 -7.3117
8.682555 44.36317 -7.114607
6.460472 44.23278 -7.552433
-9.092458 56.14914 -6.777995
-3.314893 65.51627 -8.465615
-0.6770926 64.11463 -8.677432
0.08961134 64.20725 -8.683118
-1.11104 59.22903 -8.580392
2.605811 58.53043 -8.472944
1.265488 58.96292 -8.568009
2.298577 68.11775 -8.577555
3.699143 64.0163 -8.395338
2.767339 49.19624 -8.170855
2.555038 60.71711 -8.512474
1.01207 52.2926 -8.381656
2.6224 52.67696 -8.30573
2.730678 52.80576 -8.299218
4.37029 52.73516 -8.119654
0.1602816 52.96331 -8.42109
4.741966 51.13145 -8.026616
2.455102 51.85937 -8.294209
-9.695107 54.96357 -6.531181
9.110959 33.15359 -6.897782
-6.772036 18.9018 -7.278446
-8.972791 16.55328 -7.278558
-7.876309 16.28319 -7.318811
-7.853034 29.03453 -7.046315
2.103444 36.74725 -7.703541
3.202264 50.14981 -8.172164
3.559204 69.30991 -8.389256
5.172797 63.4484 -8.091043
-0.9797249 66.69519 -8.68415
-12.07931 39.78007 -6.094167
-4.178033 74.51454 -8.151688
-12.92661 25.49988 10.13181
-14.02103 18.49338 8.336279
7.077402 145.2243 4.336089
-14.10956 30.17824 6.691588
-13.90483 38.96584 6.926064
12.45991 13.99775 11.59124
-11.32804 123.0305 4.767244
-2.678962 119.7464 13.05972
-14.4929 13.30579 7.873584
-6.754947 8.98795 13.45246
-6.283419 11.84528 13.21501
-7.598714 134.2997 11.18438
13.47655 83.12782 9.85776
-15.05812 79.47237 5.378082
-14.01956 11.79859 9.360408
-11.69696 24.9058 12.19321
-8.465558 132.2121 11.7968
13.60485 22.13475 8.374016
-12.03658 105.0787 7.702688
-11.77659 125.9332 4.008566
-15.42218 89.52399 4.918808
-12.95932 9.326266 11.69761
14.44942 16.93834 6.609573
6.790827 146.8946 -0.9512101
-11.05743 124.1403 6.12968
-7.211627 135.3017 10.80241
-9.017404 104.3871 10.94352
-4.167941 126.4951 13.35482
-9.719935 77.93186 12.30227
-6.77795 146.9699 0.04087159
-13.15041 131.5525 3.234187
-6.575812 146.9175 0.6648462
-6.076416 138.3085 9.573168
-14.1079 9.594203 9.447617
9.399394 10.18596 14.8694
-11.33704 87.70501 11.1646
-10.3574 100.5966 10.0024
-14.48845 56.58862 6.773699
14.92155 90.58572 6.765034
14.55943 73.77336 6.870711
15.01777 78.43172 5.158287
6.645096 52.3798 13.79373
10.83209 145.9267 -0.5218521
-14.37369 17.48392 7.506183
-13.99323 13.06116 9.258514
-13.47014 8.838039 10.90513
11.7084 41.70298 11.0537
14.93751 57.77395 5.806906
14.05989 140.1687 4.984738
0.7620694 117.7685 13.05696
15.44312 89.06886 4.500959
3.936934 124.6181 13.41103
-9.536773 9.081246 14.09521
6.22281 133.7658 11.89077
6.324574 139.6674 8.832128
6.867927 145.973 2.451703
11.25203 145.8309 -1.53247
7.942767 146.294 0.1547886
4.048125 113.0012 12.32449
-8.293631 128.7178 12.07985
7.05367 146.5684 0.07337648
-6.671865 145.6925 3.474242
13.21374 131.5745 2.643079
14.91197 144.694 2.576439
14.58006 11.31389 6.856219
13.93999 145.4232 1.93505
-5.050109 125.679 13.19141
-6.62407 143.3457 6.754885
-13.69802 145.464 2.011176
-14.13626 144.9809 2.698758
-6.177378 146.0881 2.880495
-0.574644 15.62146 9.97884
13.06769 11.18171 10.67167
13.76345 11.60007 8.940648
11.50528 127.1609 5.925189
11.5762 106.8636 8.206942
8.713513 131.3384 11.93767
6.223234 138.6924 9.381345
7.025135 145.1282 4.574092
14.94244 143.4499 3.611282
-14.4262 19.87557 6.977712
-11.59375 9.633716 13.09604
-13.74227 20.6651 8.78207
0.9801104 14.44877 10.38384
12.30766 25.79475 10.95374
-13.02753 35.97799 9.024251
-8.81107 71.28763 12.14431
14.19956 73.71293 7.946867
13.89244 99.03874 4.182101
-6.081307 126.4492 12.97979
-12.59941 130.505 4.48644
-4.064405 125.531 13.37759
-12.55518 107.669 5.230816
-6.616254 139.4049 8.827708
-7.782664 141.0471 7.546697
-12.89365 131.2684 4.146861
-15.02263 145.5821 0.7652628
-1.87421 120.4776 13.26787
-11.26855 114.8698 3.130551
13.45486 17.57279 9.157111
1.671393 11.89153 10.78107
14.32958 19.29111 6.711523
12.10355 9.111691 12.5899
11.98848 12.99373 12.48773
11.80515 12.90768 12.75268
14.18154 15.70414 7.443266
11.86805 124.9332 2.941136
4.718773 124.9583 13.2588
2.30974 118.8667 13.04938
11.9537 126.3509 3.481962
9.207475 133.2346 10.84538
6.971303 135.2103 10.9808
13.87621 134.1162 3.82788
7.07895 141.4529 7.600735
11.42689 145.4667 2.487482
11.84941 145.6296 1.843717
13.84814 145.0197 2.513444
12.13298 145.0984 3.053607
-11.88938 19.01232 12.37665
-13.18467 14.06807 10.88947
-13.84883 30.32618 7.401151
-13.25941 28.03195 9.081583
-0.3099539 9.68722 9.78639
2.158237 9.499167 11.20456
13.64161 41.82441 7.672978
13.72411 53.11832 8.089878
-12.50277 48.41043 9.739192
-13.55935 41.69553 7.728352
13.72531 55.85606 8.244963
-14.79762 67.75806 6.182849
-14.62638 75.26954 6.733864
-15.13835 80.79556 5.779435
14.30428 69.52122 7.587414
15.12739 85.24559 6.561794
14.59861 88.59824 7.735877
-13.21969 102.6815 4.322949
-6.423828 130.5309 12.85161
-12.55711 129.1938 2.708161
-11.41379 126.521 5.861209
-11.4548 111.024 6.157123
-7.986765 136.2394 10.02616
-11.28917 130.9933 8.474081
-9.231318 142.0361 6.32652
-11.41121 140.1695 6.275404
-8.003308 139.8029 8.135724
-11.97605 137.6242 6.981136
-9.926206 137.0569 8.448139
-12.05667 136.791 7.115834
-13.34954 145.3791 2.241835
-1.543007 117.4183 13.02245
-7.536158 144.8589 5.053319
14.01212 19.8215 7.516367
14.09198 30.12049 6.618989
9.272132 13.00912 14.75523
13.84707 18.86591 8.030083
11.39493 112.6378 3.817834
10.87883 116.3576 5.292051
11.3068 113.3252 3.296272
11.06196 126.2664 6.89712
5.663177 130.2663 13.03657
6.43908 127.4673 12.8852
14.80672 136.2256 3.505901
14.43975 136.5891 4.417264
10.54398 135.9563 8.630244
11.62634 138.472 6.779456
6.403577 140.4218 8.401232
12.15289 144.8073 3.365616
7.352658 143.9473 6.019848
12.80736 103.8865 5.859724
-13.26488 15.86741 10.55058
-13.74727 19.98309 8.864677
-9.627589 21.52114 13.82855
-10.86103 18.4176 13.27737
-11.87807 16.38781 12.5286
-12.75914 27.19774 10.32261
-1.282403 9.686432 9.802669
2.615845 11.01759 11.75843
14.48893 46.1792 6.115957
14.45202 52.58701 6.693827
-14.35396 46.03869 6.174698
-14.65457 52.93738 6.121926
-14.17164 60.11292 7.623957
-14.0609 37.92428 6.532805
-13.37958 33.35374 8.380325
14.61058 54.44541 6.471693
14.45067 56.04914 6.930018
-14.55197 74.15454 6.941159
-14.87022 77.00405 5.900193
-15.39082 86.52711 4.974944
15.18852 81.09872 4.996421
14.91911 88.33118 7.021816
14.35 96.38895 5.786509
14.32072 95.9101 6.224998
-7.747059 127.9671 12.3136
-4.390399 125.7326 13.3203
-10.68509 130.2433 9.797941
-11.90744 108.8943 6.704314
-11.01789 112.2485 6.323484
-12.72393 104.6658 5.916838
-12.00791 105.453 7.704515
-13.0041 131.5429 4.017066
-5.873437 121.8599 12.58238
-10.96727 118.7078 5.270624
-10.77089 122.492 6.603141
-10.99548 120.453 5.433468
-12.34028 144.4601 3.702653
-13.46922 144.7157 3.211561
13.44205 25.73727 8.489452
14.04488 30.5246 6.735042
3.041793 10.85604 12.27398
13.1421 20.74226 9.602702
12.84064 20.24363 10.3321
12.6838 14.90366 11.12314
10.88508 114.0974 5.433075
10.93498 116.9844 5.193361
11.65836 111.6661 3.425697
12.14081 109.5592 5.089694
11.33416 124.7603 5.352815
7.69644 134.9021 10.86251
12.43363 132.8512 6.646345
12.52415 132.421 6.263583
13.40011 141.9368 4.78135
10.21095 143.4371 5.021243
12.6985 105.6529 5.707044
11.75607 102.8629 8.458075
-13.55936 20.12861 9.31178
-10.56849 16.50052 13.52275
-14.05405 32.12685 6.714447
2.985077 11.95202 12.20565
14.25303 49.25849 6.867526
13.31548 34.85818 8.399536
-13.15293 46.84604 8.608258
-12.7516 49.52216 9.345531
-14.09688 51.95273 7.172683
-13.30666 51.49589 8.501516
-13.70832 57.76811 8.241273
-13.81922 58.63336 8.122803
-14.03937 40.19058 6.614111
14.19552 68.95353 7.85942
-12.9941 66.5807 9.715712
-12.33755 69.97124 10.46439
-14.04646 69.99901 8.175459
-15.2745 85.55643 5.91846
-14.94484 94.1985 4.642938
15.10185 81.62808 5.759723
14.62634 77.31389 7.163398
14.89526 89.31553 7.03492
12.48379 101.4395 7.606677
-13.86961 94.7515 7.841411
-8.889686 130.8083 11.93405
-12.98784 134.3736 6.17441
-12.50952 108.3065 4.921329
-12.64849 103.0766 6.639845
-12.11964 136.171 7.223402
-8.595235 145.7767 2.524916
-11.4214 144.699 3.684241
-11.62612 141.4126 5.620236
12.79365 23.90917 10.11731
7.158616 11.01609 15.16078
11.0641 113.9386 4.693383
12.64317 129.9938 3.500025
9.915451 131.2389 10.83465
11.01097 131.5969 9.356721
-12.7059 22.67764 10.8449
-10.69001 12.091 13.62652
0.6494335 12.89143 10.20073
13.57819 33.18086 7.825441
13.03679 37.8475 8.912952
-12.45883 49.79591 9.797632
-13.86481 42.36213 7.068152
-14.78625 64.26949 6.417176
13.78064 52.6061 7.962121
12.54296 53.00683 9.770443
14.19677 58.31377 7.587922
12.48005 71.61354 10.38597
-14.49716 66.67073 7.132256
-13.59011 74.27468 9.234853
-14.25405 70.23251 7.734128
-14.57092 94.75974 6.165854
14.77612 82.34196 7.44886
15.1289 87.50549 6.502804
13.9324 97.47013 6.268903
12.79992 93.24636 9.379895
12.22442 88.8018 10.42023
-13.61393 98.09966 6.781084
-8.610065 126.0001 11.32844
-9.267799 125.0461 10.32972
-13.5975 134.2742 4.91855
-12.84032 133.629 6.186941
-11.10584 109.8935 7.805445
-10.35387 111.846 7.985881
-9.312616 116.6897 8.442208
12.76687 26.00666 10.01713
12.92823 26.90167 9.601963
12.39432 27.61168 10.63594
12.00216 25.46943 11.47381
8.662087 11.40429 15.06884
8.611021 12.48615 15.0647
11.48469 128.9332 6.984408
8.426166 126.8463 11.69438
11.04587 137.0797 7.660795
11.39456 128.187 6.846664
-12.42606 21.70314 11.44407
12.29682 36.25792 10.34403
12.41148 33.31313 10.26979
12.37361 31.89452 10.41485
11.01854 28.28745 12.68467
-12.50753 42.45398 9.813741
-12.61806 55.14721 9.639204
-14.38364 61.66352 7.313487
2.623036 59.21082 12.63311
12.50452 51.93226 9.789915
13.72668 65.92028 8.693829
-14.82504 87.00881 7.411572
-15.31632 91.45972 4.557869
14.11873 73.05838 8.128179
15.15831 88.8702 6.362715
-13.51145 137.3364 5.779011
-10.31528 105.9445 9.919861
-15.06208 140.5663 4.60845
10.95151 13.7581 13.71552
11.33224 111.6946 5.892766
10.68519 126.4927 8.004943
13.70159 136.9154 5.453056
10.62088 127.2618 8.477017
11.18057 29.30404 12.40691
-12.15817 39.01484 10.57862
-12.24013 43.84067 10.2215
-13.11001 61.65268 9.308595
13.79212 50.97163 7.83463
13.64183 45.55758 7.815386
-14.95901 81.36008 6.761674
-14.65152 79.89676 7.52947
-12.09216 78.47628 11.16752
-14.46333 90.94183 7.799663
13.18852 71.93213 9.645907
-11.72106 108.0275 7.643405
11.15579 27.08724 12.60469
0.7062272 115.389 12.92131
9.887596 115.4119 7.481007
11.26321 122.1711 4.781305
12.434 139.2324 6.043557
9.783243 142.1487 5.984815
-11.27069 41.13384 11.7843
-12.19852 45.90631 10.24746
-14.32429 60.78939 7.408804
12.77999 46.00527 9.310451
-13.27388 89.38019 9.536174
10.90751 80.36568 11.97087
12.78342 94.94258 9.025985
10.19731 115.9203 6.912339
10.16703 108.1163 9.76391
-12.4147 53.20625 9.863687
-11.01788 52.15006 11.59335
-12.44095 60.13544 10.02669
-13.29392 66.94817 9.358116
13.37469 46.02261 8.314064
-12.7949 88.77911 10.08687
-11.13352 86.53385 11.37188
-13.46186 92.07198 8.911265
8.613997 70.56564 12.15711
10.33123 95.24712 10.43509
9.539998 110.4189 9.607336
11.20212 134.8631 8.285583
-10.12426 54.77338 12.25859
-8.466617 56.8442 12.97665
-13.0655 64.89807 9.528806
-14.19003 95.11739 7.016191
13.27962 65.53896 9.326073
12.1671 94.88679 9.560429
10.45865 93.11852 10.6921
12.10957 108.1013 6.689565
9.750793 135.6779 9.404147
8.007513 134.118 11.12919
-11.33414 60.62316 11.09782
-13.72799 81.4754 9.499624
-13.36741 85.31881 9.901011
10.65946 93.89602 10.48905
6.003639 112.4142 11.45252
11.68827 103.4721 8.526295
8.302007 133.0221 11.57165
-12.15096 81.97571 11.12918
-6.469046 94.55135 11.0714
12.42585 66.39622 10.27029
8.80778 109.4668 10.47757
-10.44148 83.96825 12.01831
-12.63482 92.17802 9.734175
7.368743 110.7913 10.99804
12.01436 97.88588 9.066937
-11.23143 84.30258 11.6238
11.01299 99.85664 9.56035
12.18045 98.8533 8.668124
12.55166 100.1951 7.705865
12.50937 15.78949 11.37264
8.473185 20.26828 14.8113
12.5993 17.12543 11.1153
4.914886 118.5176 12.21501
8.340828 141.4247 7.076983
-2.844849 11.83718 10.37498
-3.924681 12.55077 11.1721
-3.325095 13.85448 10.75201
1.520286 13.46495 10.71774
-2.625262 14.21223 10.35348
-0.07795541 15.76789 10.08219
2.418327 15.5809 11.55567
3.752565 11.52571 13.14011
2.642057 12.94559 11.79747
-10.08145 122.6928 8.402493
-10.36852 130.482 10.48755
-9.399678 124.8957 10.06466
-10.64682 124.2945 7.411966
-8.893668 128.1508 11.49327
-10.77941 131.7847 9.834927
-9.721869 126.7209 10.10912
-10.63628 131.2245 10.15502
-12.06695 130.6272 6.385202
-12.1469 132.6107 7.204756
-12.48314 16.75615 11.81073
-11.23746 16.07314 13.13885
-11.01517 14.01989 13.35988
-13.22236 34.25273 8.686579
-12.09635 29.84915 11.2978
-13.1472 27.68003 9.388459
-12.29046 35.7774 10.51922
-11.84254 31.81344 11.52497
-11.3537 33.02112 12.08884
13.56576 80.68359 9.704762
12.88776 84.38362 10.46606
11.98555 82.48075 11.23843
13.65749 79.49593 9.525563
12.05663 80.71316 11.23969
11.19734 77.57803 11.69778
14.64297 81.01385 7.700562
10.4125 81.48116 12.11701
13.95675 78.08897 8.940492
-11.10925 114.4931 4.40093
-6.631971 125.5011 12.64354
-7.968411 121.2734 11.02777
-9.941731 122.5196 8.667585
-8.63626 121.447 10.38153
-9.327667 120.4104 9.255091
-9.408728 115.3976 8.234439
-9.122861 114.9979 8.644755
-8.920605 112.9472 9.274996
-7.643003 114.4714 10.08638
-5.297675 113.9974 11.64497
-4.126569 116.2342 12.28494
-2.656598 110.3873 12.97074
-2.374571 117.3294 12.89465
-3.673738 113.8554 12.45164
7.379865 12.56176 15.19341
7.281934 15.40046 15.10098
4.223089 18.85131 13.52091
5.087323 18.93108 14.28163
8.254976 20.03671 14.88558
8.886362 18.95669 14.70549
10.63492 23.3999 13.4512
6.394673 22.0006 14.88606
9.826366 15.47563 14.3969
5.828637 122.8299 12.76647
13.60607 142.6207 4.475512
12.91663 41.36475 9.081956
-12.4852 97.90023 8.566833
-12.80224 101.613 6.824645
-11.68979 98.3804 9.268855
-11.61614 101.7774 8.711335
-8.36524 12.2828 14.07051
15.01911 87.38963 6.825171
12.88408 85.46176 10.2552
8.590694 125.7715 11.31314
9.986655 30.15188 13.63383
11.28362 35.96645 11.89569
11.47273 39.39174 11.48977
9.218118 39.94678 13.66212
12.77201 43.37171 9.323958
9.084021 40.7882 13.70526
11.24046 42.80588 11.62035
13.4865 62.51954 8.933037
12.35354 63.87057 10.28869
10.41734 62.75782 11.72092
5.328408 20.66055 14.40394
8.021646 35.2539 14.40539
8.429431 38.53906 14.08307
6.717096 38.56005 14.4616
5.323927 38.29814 14.17365
7.22125 36.37129 14.51478
6.48617 34.31775 14.5385
8.992911 32.77308 14.14212
9.128343 30.8149 14.15357
7.636296 27.33005 14.74727
5.907511 26.82369 14.59573
6.237415 32.54844 14.55224
8.349475 22.61605 14.76541
10.73648 16.22693 13.74062
10.8594 120.9607 6.020715
-12.38099 35.4964 10.3592
-10.27914 36.62719 12.96787
-11.32821 36.75127 11.92175
-9.258025 37.23756 13.54497
-11.2171 30.75941 12.41895
-11.08831 39.62531 12.08532
-9.462643 38.83955 13.35648
-6.803988 45.918 13.59706
-5.981887 42.36487 13.38427
-9.326798 38.58162 13.43348
-7.674127 38.04263 13.79275
-6.504749 38.52983 13.56719
11.12367 50.53759 11.46877
-13.55183 75.66132 9.401074
-10.91183 45.95343 11.96116
-8.448742 50.62956 13.26714
-7.304546 48.87462 13.52942
-9.221019 52.06004 12.90132
-9.477 49.56387 12.88586
-6.602764 44.69868 13.57924
-7.353718 43.0577 13.68938
-4.624092 46.93372 12.75837
-4.443936 41.12152 12.4789
-5.008063 42.46257 12.88763
-4.697725 43.80557 12.71582
9.538644 53.49087 12.70051
-4.112963 49.9954 12.52627
-1.858004 58.77113 11.79626
-4.268022 51.3487 12.64313
13.63695 74.92074 9.201565
12.78643 75.2197 10.39244
-8.199813 55.84566 13.10852
-10.05483 60.27002 12.0404
-7.554004 64.89106 12.68683
7.892594 70.03337 12.27456
7.21202 114.384 10.41339
-9.754248 92.6252 10.90039
-11.37037 92.75953 10.34226
-9.112414 92.34299 11.01971
7.854474 114.9763 9.905169
7.929492 118.671 10.34426
9.267496 99.90742 10.62572
-14.1302 79.44027 8.589785
-12.45829 80.39794 10.94444
-9.950058 77.63015 12.22384
-10.67437 76.00089 11.95186
-9.445845 74.21872 12.19313
-8.434108 78.90726 12.50824
6.241146 122.6366 12.54038
-13.71817 25.10334 8.263915
-11.71723 20.95644 12.4496
-10.71028 21.79633 13.27639
-10.22916 25.30272 13.45344
-9.537158 22.58178 13.81628
-12.16512 28.09394 11.31622
-9.744706 30.58558 13.52755
-3.883621 16.00579 11.24437
-8.826106 15.11676 14.03304
-8.303816 15.14265 14.06046
-7.288018 19.41448 13.81142
0.2665591 19.51898 10.26358
-5.199146 16.45608 12.4737
-7.932193 12.98766 14.0224
4.239412 17.0489 13.58206
-9.538435 89.47653 11.41429
11.1824 83.55596 11.73427
12.08752 86.82412 10.84066
7.416551 80.49516 12.54508
-4.536377 102.0471 12.25923
-8.952366 91.12354 11.20722
8.702392 84.81333 12.23578
7.797846 85.28349 12.24684
-4.788931 86.2141 12.07371
-7.120815 88.9438 11.64354
6.909871 86.03987 12.10219
4.507728 83.77199 12.35638
5.670434 80.30157 12.51512
5.11185 83.67108 12.37053
5.579633 81.0626 12.49293
3.113152 79.41153 12.51707
-7.200775 91.2702 11.28853
10.02478 77.17529 12.20759
-5.234141 112.3026 11.86575
3.825638 14.75689 13.17524
11.51674 24.3071 12.32715
9.906485 25.51818 13.86742
10.83305 24.17078 13.193
8.733333 26.62234 14.4682
10.40148 123.2529 7.758434
10.67655 125.6059 7.711474
10.38514 125.3815 8.339688
9.085616 125.4669 10.66336
9.83438 121.0976 8.594964
10.05599 58.89513 12.04414
-10.85832 100.9703 9.633677
-4.800336 99.49772 11.69234
-7.778567 103.8633 11.5216
13.35406 40.53916 8.236563
12.38603 38.06463 10.09797
7.71359 91.16333 11.27164
11.60596 90.57311 10.56097
10.2385 44.11756 12.65553
9.833351 44.50894 12.96384
10.0354 44.35377 12.81282
11.1539 47.34931 11.54856
8.913514 46.85603 13.47583
1.982977 50.89668 12.13738
-2.05075 42.60175 11.19468
6.156721 21.71322 14.82072
3.098492 18.2496 12.28533
4.497317 20.55961 13.77053
2.241843 21.76497 11.51254
0.8827751 20.5688 10.55554
2.975828 22.90536 12.25889
-0.07122499 18.97913 10.15034
0.234161 20.82792 10.32624
5.035385 24.38143 14.18533
1.835407 22.96154 11.23168
-2.685538 20.10829 10.59027
-0.9344425 20.48603 10.19713
-4.474682 19.66062 11.87161
1.381591 26.3045 10.96278
-3.798386 21.80371 11.35667
9.741971 117.944 7.996711
-9.304681 32.14326 13.64872
10.4416 52.0673 12.06309
11.53578 45.31776 11.15094
-10.55816 48.17245 12.20287
-8.429549 53.82393 13.1206
-7.936552 51.20251 13.38818
-2.308172 61.52474 12.03559
-7.162625 56.69756 13.23152
-7.091994 52.81186 13.40749
-8.714559 61.36048 12.62584
-5.848783 61.62117 13.02902
-7.60162 63.73691 12.7703
-5.875083 61.21998 13.0431
-4.052122 61.09094 12.63644
-4.371628 63.24588 12.70144
-7.689213 68.95004 12.37402
-0.6841039 61.79258 11.82893
-8.447074 67.58004 12.31245
-9.8349 64.41865 12.00407
-11.85055 66.46307 10.76278
-5.136714 60.21466 12.95044
-6.497222 58.52978 13.19614
-1.588276 63.48287 12.01823
-9.353555 71.05523 12.02002
-7.087953 69.92305 12.40457
-6.850156 71.14812 12.37927
-10.46682 68.69009 11.60406
-11.8713 71.74596 10.89663
-11.88293 72.08833 10.9245
-11.25501 68.16814 11.17297
-5.247967 57.32743 13.07857
-0.2676452 67.61916 12.26389
-12.25007 73.62313 10.78918
-3.127695 57.71166 12.20556
1.353555 55.55005 11.95014
0.2748906 59.41067 11.75183
-4.343177 70.33422 12.45287
-12.96405 74.85735 10.16272
-1.475641 49.62041 11.35088
-3.449653 54.89301 12.26791
0.6107697 58.10704 11.79548
-2.242736 54.04694 11.71364
2.473011 54.66185 12.50834
5.34128 49.59862 13.88302
5.217155 54.51999 13.64171
3.978338 57.55988 13.20672
4.344651 76.0619 12.49081
4.220795 53.44024 13.42498
6.64895 78.12563 12.5389
5.633717 76.88428 12.51196
6.318807 73.50285 12.41261
3.827489 50.79252 13.24886
1.071633 51.27708 11.68055
6.301137 48.9273 14.00868
6.185805 73.97305 12.42499
8.654235 77.52351 12.50874
3.187675 49.87745 12.8697
1.083752 74.92818 12.47378
0.4540785 76.52366 12.49502
-0.2299576 71.38312 12.42643
10.60726 74.6716 11.89203
9.305387 56.02493 12.6904
7.621228 74.53407 12.39521
6.78977 47.01297 14.08255
5.474104 50.52332 13.89157
7.27769 52.63645 13.67853
9.507082 55.49308 12.59899
-0.5591834 74.24741 12.4633
7.432003 49.8786 13.8236
13.89334 76.4457 8.945474
11.28427 69.43674 11.21067
-10.0773 80.34791 12.25249
9.058446 117.9721 8.955881
3.501966 115.5135 12.45391
5.400156 113.039 11.71095
8.438171 106.7006 11.13745
10.52483 102.3999 9.867724
4.594719 106.2833 12.73238
6.00933 101.6527 11.85337
7.167041 101.0556 11.46613
9.436683 106.9909 10.50642
4.649045 106.6953 12.72839
4.027457 105.1917 12.8246
2.803989 106.0275 13.14685
3.47234 108.5087 12.98562
-0.8500895 102.8473 12.93396
-12.67791 74.48206 10.51977
-9.017312 73.52502 12.25263
-7.7899 75.05505 12.42453
-1.328609 70.92935 12.41364
-3.934588 75.29117 12.46961
-1.126961 70.76622 12.41066
-0.5261468 68.90054 12.34522
-2.196939 68.78072 12.37105
0.1860242 65.43144 12.12866
4.538043 71.5233 12.46021
9.580591 65.78114 12.03102
0.6667677 68.86314 12.37745
4.602813 72.52747 12.44507
3.770638 71.57279 12.46721
-2.782807 65.57663 12.34416
2.590672 67.26689 12.54433
-2.576396 64.23199 12.24991
-3.694294 64.20065 12.52639
9.576201 67.82394 11.95924
0.8336778 62.47888 12.0398
1.642872 61.19614 12.2669
4.400843 61.71517 13.14812
5.188546 61.45111 13.24515
6.65489 57.70248 13.45684
4.364891 64.35294 12.9566
3.517849 64.16542 12.82421
5.622335 65.17121 12.93049
6.855044 66.42007 12.69541
4.70858 70.93866 12.47053
3.531133 68.69959 12.57109
-8.24563 80.53012 12.58978
-9.933722 82.55803 12.2071
-5.14996 81.26297 12.50288
-5.126325 79.7057 12.53352
-3.230218 83.14328 12.39387
-5.936261 76.29541 12.48493
-3.77804 84.12816 12.3189
-8.702664 85.85773 12.10493
-3.104203 85.29491 12.19068
-0.9911327 80.00502 12.50691
-1.900906 82.66061 12.42298
-1.936611 81.82593 12.46228
2.114786 81.48837 12.47135
-0.1098676 79.36552 12.5125
-2.189403 83.75002 12.34388
-6.898371 87.26254 11.93032
-8.227739 86.98036 11.97747
-9.522157 26.65473 13.72636
-8.912374 25.77783 13.90521
4.430225 87.19907 11.90463
2.416056 85.14057 12.2108
4.553212 87.6383 11.8348
0.2504099 89.04543 11.62103
1.797039 88.03622 11.7745
-2.129601 90.72817 11.40166
-3.21281 89.1877 11.60023
-4.554862 90.14694 11.4621
2.335114 109.9422 13.07247
12.8546 57.50565 9.539004
11.25592 54.75689 11.21592
-12.50005 103.2589 7.104727
-11.13453 104.1045 9.175108
-2.094935 105.7266 13.21529
-9.892542 106.5719 10.22886
-7.613016 110.962 10.80991
-9.059459 111.4054 9.641959
-6.062046 102.2834 11.93009
-4.476103 101.131 12.07987
-4.789854 101.421 12.0776
-7.119297 100.8906 11.46841
-10.4348 96.92342 10.15814
-5.791256 95.64021 11.14325
-7.378232 95.23284 10.96827
-5.735771 97.72589 11.27477
-5.737092 93.2349 11.154
7.47034 41.17333 14.28395
6.336251 41.97641 14.28554
6.400496 45.05978 14.21651
6.482201 29.81891 14.63021
4.435767 29.88827 13.80272
2.355532 32.00268 11.91974
1.923764 29.9335 11.51016
2.735667 28.42598 12.19296
3.565361 25.86005 12.95472
3.432748 36.75617 12.97902
-3.457493 39.30095 11.79536
-5.655215 30.92904 13.09828
2.438468 37.68629 12.13729
4.738982 43.04683 13.80419
2.432766 37.99835 12.13989
0.8351246 38.17964 11.13654
-3.620217 23.30099 11.2794
0.3088729 25.70551 10.53892
9.351647 120.1077 9.148291
-6.576005 33.58771 13.56297
-4.612295 69.04195 12.49682
0.285137 47.38458 11.32376
12.25607 74.29535 10.81995
2.577621 48.66209 12.46221
4.010753 40.86855 13.44087
5.150525 44.33338 13.94887
2.925823 46.07974 12.67241
2.646977 41.87941 12.38445
-1.225921 43.26157 11.00466
-0.1504423 113.8034 12.92244
3.127727 114.3757 12.58154
2.016514 101.243 12.51703
1.618093 99.68268 12.18591
2.771532 97.33031 11.62271
3.154279 101.1093 12.32155
1.013908 101.919 12.74164
8.644156 97.32681 10.68743
8.47942 95.91116 10.76538
6.377466 92.31026 11.17714
4.809595 90.91868 11.35377
5.847697 87.96345 11.78267
9.600651 88.95889 11.48727
4.404067 110.793 12.46427
3.460714 112.1794 12.60085
1.581102 112.328 12.93367
-1.236074 112.5588 12.93751
-0.05051756 106.2443 13.29594
-0.5832925 108.6866 13.16541
-2.022385 106.9359 13.25558
0.2236618 109.4629 13.12243
1.675823 108.3049 13.20839
-3.070218 106.6033 13.13563
-5.616789 78.39676 12.53022
