# .PCD v0.7 - Point Cloud Data file format
VERSION 0.7
FIELDS x y z
SIZE 4 4 4
TYPE F F F
COUNT 1 1 1
WIDTH 1671
HEIGHT 1
VIEWPOINT 0 0 0 1 0 0 0
POINTS 1671
DATA ascii
8.400854 131.6215 13.75029
-2.535655 125.5072 12.24905
0.5849027 127.9244 12.00188
-8.327064 124.5069 10.86534
-3.364922 127.9269 11.889
-5.111651 128.193 11.90336
-14.81627 134.3081 -2.076584
3.39215 123.2084 -7.441099
14.93205 135.3361 -0.7444625
8.633511 152.4039 -6.08085
14.86805 135.83 1.63543
-14.79139 135.8945 -7.297101
-10.07923 147.8427 -10.91131
-10.88887 150.5967 -8.8501
8.880381 151.726 -7.888802
14.83829 135.6004 2.253592
-12.08261 140.1539 -11.45991
-2.265574 144.3227 -12.31886
-8.509172 151.6336 -8.225082
14.781 134.3298 -0.6283479
15.21509 136.7674 -6.823437
0.6706738 143.9496 -12.36997
-1.028658 143.9797 -12.36119
3.414977 141.5001 -12.64815
11.40851 144.8704 -11.54913
-14.83647 133.865 3.331339
-14.8962 134.6551 -4.503496
-12.19007 136.9133 -10.56018
-12.26286 142.5781 -11.51624
-11.62042 145.9186 -11.27905
15.04543 135.7874 -1.831702
-0.07582824 121.5337 -6.854103
2.64478 144.1933 -12.34944
-5.027697 144.2832 -12.37175
3.552964 145.6996 -12.12268
11.61053 148.2665 -10.44185
-12.13477 134.6555 -9.534103
14.47332 137.3796 -8.889055
13.12264 126.6006 -0.9853062
6.131895 123.9902 -7.109955
-2.115084 123.161 -7.457251
-7.93452 124.8476 -6.773621
5.34425 142.3972 -12.63092
-13.82475 130.4445 -2.752995
-8.530639 137.9579 -12.36348
-9.800596 144.2577 -12.03718
-6.882564 143.3933 -12.5365
-11.3501 138.6471 -11.53993
12.71187 129.2949 -5.146337
1.114267 123.759 -7.686382
-12.94967 129.1948 -4.439388
-4.15878 125.4489 -8.199001
6.249458 147.1129 -11.86865
-5.523555 142.313 -12.64272
-13.18968 132.9054 -7.468746
-7.127966 126.8324 -8.099965
12.01772 140.2317 -11.50942
1.612799 139.2678 -12.6349
13.13811 135.0731 -8.873265
10.46132 141.33 -12.09891
14.5036 133.014 -2.628402
2.911925 125.9402 -8.48655
-12.79351 130.8161 -6.318448
-10.09935 129.1519 -7.96453
7.636114 140.2216 -12.71134
10.9883 130.7647 -8.278241
11.97432 137.6141 -10.94376
10.35961 132.3641 -9.494114
7.548388 129.4155 -9.339119
10.90729 136.9937 -11.2641
9.277905 127.1571 -7.322579
7.340847 129.5658 -9.481628
8.002266 133.7508 -11.08287
0.7901962 138.2057 -12.54919
7.101566 126.7395 -8.079389
8.729487 130.4526 -9.351526
4.816594 135.8192 -12.115
4.713215 133.1735 -11.34694
1.780275 136.5677 -12.28137
-6.705852 127.4235 -8.552786
-0.02078342 131.4371 -10.72752
-2.859539 127.3156 -8.997139
-0.9891816 128.3563 -9.400847
-3.280611 127.33 -8.995771
-0.3727436 125.3337 -8.27268
14.58658 132.0776 1.844614
-5.108893 130.9338 -10.5073
-3.027565 132.2862 -11.06114
-1.490347 132.894 -11.26418
-2.019399 135.9466 -12.14199
-4.892844 135.9793 -12.15155
-6.935719 136.1183 -12.09994
-2.098021 138.2619 -12.55139
11.77116 120.0038 0.2442711
1.23408 118.7593 -6.147503
12.77066 122.6045 1.862383
-5.219238 119.7757 -5.86814
-10.64047 119.9641 -1.970612
-10.17618 122.0495 -3.427553
-13.41933 126.324 0.6204476
-1.456977 119.5374 -6.338809
-11.41518 123.199 -2.240372
14.61565 131.6806 4.792742
14.03738 129.4406 1.504939
-14.57415 131.9015 3.997874
-9.539298 119.5565 -3.245055
-0.496177 119.0067 -6.228986
12.75466 123.3742 1.023741
-13.84049 127.9597 2.620124
9.894222 122.7033 -4.104134
-0.01742346 120.8138 -6.663078
-13.51654 127.4502 5.328942
13.58477 126.1161 2.990863
10.78855 122.4064 -2.80091
12.2696 124.3061 -1.316418
-4.740606 143.901 5.946484
-11.99027 146.5696 1.925321
-9.113202 151.7154 -3.738885
9.452968 140.0845 8.227235
-11.95125 145.1965 3.044072
10.5237 150.2912 -1.460869
-4.329273 142.6845 6.881029
10.04222 141.51 6.594308
9.003806 150.9776 -2.249513
-7.969613 140.9138 7.961627
3.273848 139.2818 9.849155
-11.73662 144.201 3.82447
4.472622 144.1259 5.852221
8.537097 149.4236 0.1901287
-9.698539 141.1973 7.107449
-9.609007 148.1577 0.7318593
-7.70508 144.2878 4.846645
11.68022 142.5296 4.966853
7.977207 147.1884 2.204221
-11.31075 139.9529 7.372496
1.632793 140.9641 8.271478
-6.214312 144.2956 5.278927
5.664686 142.6805 6.682462
8.51486 143.8741 4.938072
6.842034 141.7613 7.284659
2.291737 23.3805 11.71365
2.001746 41.83193 9.969883
4.164489 16.33881 15.69321
4.549366 11.71693 15.93821
1.386536 113.407 11.878
5.7623 89.90825 12.83446
4.799234 14.01383 -14.30028
-3.53393 15.01705 -14.46848
11.95655 114.9813 6.982372
23.21593 14.42013 -7.602038
7.764953 12.96327 16.60968
-2.900935 22.45582 -13.61791
-2.606999 45.53407 -12.43982
6.476265 81.02058 14.48388
2.57255 19.34344 12.57822
2.966392 15.85968 13.35345
16.58757 17.2547 9.923598
2.142411 37.36633 10.29909
13.59876 109.7748 8.323594
2.908032 113.4753 12.46316
-3.566092 22.78913 -13.96752
-0.3769463 88.46515 -12.4415
1.447101 112.9894 -6.787134
6.814939 14.1724 17.45797
8.482359 12.64542 14.53138
10.85856 114.6686 -5.156084
4.368878 112.9139 11.89655
3.686561 112.6098 12.36075
-2.52151 45.07301 -12.46184
5.023255 13.25383 -14.26283
1.317013 14.47742 -13.74512
0.4701928 102.6085 -10.57779
1.602274 113.1623 -6.783557
3.353658 21.05891 14.34767
1.611039 37.68861 10.10799
15.17827 14.95715 9.616231
2.609717 84.47863 9.582179
1.98753 93.13261 12.0579
1.925106 104.7664 14.58421
6.816823 110.4079 11.15607
13.18839 14.55982 -13.23207
9.068933 13.4312 -13.98329
-2.956505 24.53796 -13.51325
4.986 21.10261 -14.7595
4.10014 14.80827 -14.2343
0.7101797 101.3722 -10.71843
5.497102 111.9819 -6.351535
0.0212865 112.0047 -8.261068
2.121069 51.67398 9.473483
3.089708 29.5692 12.64688
11.93362 14.80923 9.327472
17.67857 14.77822 10.25734
25.31971 14.81386 12.57372
2.091876 88.47674 10.81794
12.05291 115.179 7.196345
2.68855 98.06379 12.96603
2.283626 93.86854 12.13059
5.986288 94.20046 9.917354
7.303208 114.7974 11.40358
3.861573 107.4452 13.5615
-2.694232 53.20162 -12.28673
11.81841 14.16586 -13.52843
-1.173519 33.37151 -13.20324
-1.518536 24.65127 -13.23516
-0.7770291 75.63293 -11.78539
1.276797 99.54317 -11.73944
0.8708586 94.81287 -11.59282
7.699824 112.1656 -6.363648
3.665788 20.97166 15.12378
4.695997 14.79286 16.3497
1.678917 49.7096 9.511355
3.036541 30.3259 12.16886
18.32842 15.51205 10.48012
2.295608 63.65622 9.101411
1.549306 89.0425 11.09403
3.60468 78.27019 8.947474
12.85984 114.2652 7.956315
3.078252 101.6638 13.62625
11.24766 114.2961 10.15043
6.146712 110.6518 14.58987
5.479081 106.6324 12.13386
-2.445774 46.09573 -12.44351
-2.582807 54.75662 -12.27196
20.10357 18.58524 0.9557232
18.04489 19.40314 4.509895
23.4698 15.16432 -5.901068
22.65608 16.25105 -3.072929
0.7745316 20.46913 -13.66862
3.82914 24.18274 -14.71692
6.356864 19.41195 -14.81336
0.04918524 73.50907 -11.87169
-0.5719211 88.8043 -12.55059
9.633325 114.6631 -4.873578
1.57999 101.5236 -12.29787
6.524719 14.99767 17.51731
3.207667 28.00248 13.87627
3.451292 29.55938 14.53586
26.14828 17.94795 8.788879
2.904107 63.02211 9.149978
5.079286 67.30416 9.930453
3.724027 85.55951 9.458235
13.71336 113.2412 2.526761
11.50915 114.4656 -2.11348
14.48807 109.4554 6.815345
13.74215 113.2126 3.666587
5.637179 89.0682 9.42085
7.17746 107.3857 10.95446
-1.371769 56.51604 -12.62521
0.6313596 71.28253 -12.29693
18.21209 21.30325 9.100346
23.84187 17.40554 -6.171604
21.97836 16.7496 -2.424733
1.538597 83.25454 -13.14596
2.270223 103.4988 -12.31846
-0.05581013 92.23811 -12.12735
4.07742 102.3676 -11.88804
4.442595 108.5992 -9.851599
3.094024 36.46825 11.03515
2.061393 65.6308 9.04149
4.410265 76.67745 9.103238
14.72619 113.5129 1.419392
12.51711 113.3079 -3.089728
11.81181 112.341 7.637477
13.88817 113.0088 7.575837
3.323858 87.54029 10.0594
6.806994 98.54361 10.20213
0.08226238 53.123 -13.5946
0.4000171 67.48794 -12.63708
24.41844 20.22511 -3.295134
1.930781 30.65981 -14.45636
5.396031 18.58815 -14.64566
14.22458 112.8776 -2.807409
5.338284 110.0992 -6.780976
7.104228 110.9311 -6.200622
10.92847 107.5306 -7.363067
4.164611 45.29253 11.40727
3.661458 26.91185 15.37207
3.479503 84.94501 9.441382
12.60764 113.2644 -1.334654
12.70052 110.8506 8.749243
6.228587 90.47183 9.627279
0.3755429 59.26365 -13.58707
1.871788 65.69765 -14.15027
1.134435 28.21469 -14.04191
1.387357 86.42338 -13.23544
3.875959 110.1533 -11.06986
3.375636 26.06359 14.63264
6.311127 77.55636 11.27523
12.67826 111.1046 -4.835843
6.994937 88.73042 11.3355
7.152416 97.23154 12.07771
0.908413 50.33829 -14.16268
1.112135 69.90612 -12.83898
6.800613 76.5959 -16.07887
5.37781 31.7443 -15.62843
3.030429 105.0213 -11.67582
5.537118 91.95827 -15.16419
4.00436 40.47083 13.04922
5.24739 62.07923 10.91932
14.05949 108.0099 -2.929813
14.04252 111.4774 5.738614
0.321905 41.32341 -13.87536
4.640977 46.41567 -15.92591
1.222778 56.89835 -14.19184
17.15131 22.76655 7.722371
21.78073 18.80861 -2.401958
3.013944 89.16866 -14.10339
1.535975 108.8597 -11.0797
5.535724 71.94066 10.02992
14.49007 111.7165 5.176112
6.967994 89.79549 11.6469
2.69605 57.27277 -15.03398
24.41622 24.10599 -2.659181
22.33364 22.44274 -1.420212
2.603745 83.4398 -13.39064
4.505636 106.9079 -8.377148
13.08942 111.9353 -5.169347
14.28924 109.5591 -2.411918
4.880719 83.98128 9.068572
4.483007 91.92377 15.73779
1.926921 47.92605 -14.71142
4.586421 62.00535 -15.92473
23.04187 19.81014 -9.267611
7.818974 108.3256 -7.560124
2.726599 107.2008 -11.86295
14.27978 107.9812 -6.590243
11.91046 111.4757 -4.492977
15.88991 111.3108 3.285015
0.4416736 45.69161 -13.94213
21.24974 22.56793 -1.869508
6.436348 105.1395 -9.644508
16.023 106.4386 -4.803662
4.861064 55.56913 11.12633
12.44899 108.5259 -4.898331
14.33224 108.7159 -3.550062
0.2180502 38.75961 -13.80422
8.856439 45.44874 -14.09605
3.890799 55.84424 -15.63548
7.854765 57.23166 -16.25794
23.30056 18.8368 -8.498607
7.44854 105.6373 -8.780351
4.114036 42.78946 15.97226
14.04505 112.1036 -0.2991219
14.92717 108.9963 10.34078
5.055113 41.91989 -16.0151
7.296854 60.23674 -13.65552
4.436522 88.83556 -14.68942
3.229042 50.97153 9.852371
4.920235 56.96254 12.06176
11.89558 111.701 10.33182
15.45578 110.0693 5.755775
7.88852 61.2808 -16.05012
21.31564 24.88714 -1.002018
3.942031 37.60653 14.82171
4.373775 56.24394 16.15854
15.0308 108.8383 -1.055678
15.59383 105.9564 -2.577892
15.3792 109.7634 5.903427
6.739928 60.61582 -16.49662
0.6101034 76.90293 -11.85213
3.859595 56.61547 15.16561
15.91383 105.9557 0.06552281
15.96882 103.7566 -3.302424
2.517958 33.42604 -14.80067
6.075983 65.38023 -16.38239
3.692638 75.4502 -14.69677
6.85775 89.51379 -14.98005
11.85076 107.8237 -9.349672
3.827901 53.59921 15.10582
13.3083 108.7472 12.52262
8.429519 41.62668 -16.00475
2.377768 76.3548 -13.13137
10.45612 104.6179 -8.31653
14.24695 106.0548 12.71969
6.060388 33.47293 -15.90112
7.384236 59.59279 -13.58011
7.94876 67.17747 -15.48092
19.13818 21.56858 -0.5923451
14.54842 103.7056 -8.857227
3.852823 59.9781 14.9203
14.61266 106.4855 12.32216
9.203888 37.57928 -15.48274
18.03916 24.46293 1.808348
15.39273 98.66551 -9.398098
4.517169 52.96138 16.28426
17.01134 102.6112 -0.4896966
9.165324 42.60065 -15.07769
7.226939 63.75867 -14.29083
14.08795 105.2779 -8.555983
8.479503 99.9362 -11.71035
8.811265 96.24493 -12.86254
15.41161 104.4989 -3.29722
13.50584 106.7805 -5.680418
16.19958 103.1757 -1.674635
17.87462 26.19704 8.28355
4.702547 82.89217 -13.67148
5.134814 101.7613 -11.33078
9.718904 95.131 -13.27782
6.008587 61.82639 16.1917
14.16824 107.4985 -3.837771
11.54587 101.5816 11.66065
14.74009 104.5458 12.51245
5.190683 88.45046 -12.39954
6.678413 102.1265 -11.19376
5.178238 104.893 -9.673756
11.09359 93.86163 -13.20176
15.15115 110.5524 4.005347
17.68728 104.7771 6.077112
16.59619 25.33238 5.863701
5.881862 84.75175 -12.14799
5.464681 95.76134 -13.1152
3.522833 93.10319 -13.42387
3.884236 62.82616 15.09729
4.198916 65.37383 13.86388
15.31032 108.5192 5.182415
9.567812 44.06501 -12.54569
12.3204 92.81682 -12.55655
17.025 99.86073 -3.263086
10.39566 43.03898 -12.09768
6.0837 80.56853 -12.35094
6.68752 94.19498 -14.30024
3.943196 66.51047 15.31307
7.438703 42.96035 -16.52045
17.07216 21.73092 8.422581
6.570909 96.74279 -14.04206
5.616776 67.86447 11.77243
16.02161 100.65 -4.219389
17.83869 25.54259 7.104223
4.339025 67.35015 13.83469
6.540919 97.94148 -13.7883
11.14645 39.96469 -12.01571
12.77056 38.9317 -12.12736
18.18275 26.23396 0.8817818
3.688395 97.88265 -13.10966
17.35115 30.21015 4.39926
11.9649 36.25162 -11.9657
16.92162 30.63366 5.308413
9.343882 15.5757 11.41073
5.984858 15.58517 17.44821
7.340325 16.14528 16.92443
7.372931 18.16817 16.51578
12.72539 16.25078 9.329618
3.005015 96.70928 12.44809
11.04753 113.3657 11.63668
6.628705 108.4055 14.54464
11.09402 108.5236 11.82755
11.84502 17.51948 -14.05305
9.719598 16.22944 -14.32119
6.63275 110.8754 12.17385
15.65787 15.57613 -12.35761
18.75906 16.01035 -11.13249
22.91821 16.7987 -9.82023
18.11327 21.28909 -11.47099
17.5654 20.83792 -11.31067
21.3838 24.51358 -11.23986
16.60771 21.40852 -11.27076
16.40752 25.41178 -11.62587
22.8782 23.1814 -9.353498
23.57748 22.30749 -7.58789
23.64487 22.11231 -7.360838
24.33231 25.69245 -5.609719
20.94765 28.45304 -11.10351
24.24296 26.32163 -1.752139
21.09347 30.4953 2.044626
4.562667 23.27549 -14.82824
23.92747 18.86977 12.79124
23.20005 19.3095 12.55952
19.42721 17.20955 10.95772
17.35462 21.12088 10.20637
17.81579 23.28994 10.47004
15.13441 26.11575 9.647019
22.5071 22.82998 12.22317
13.78609 107.3632 7.712444
14.07521 109.2435 6.547624
13.27186 105.3554 9.393021
9.076601 16.52039 -14.45017
2.318306 111.5415 -9.53848
21.24412 20.08483 8.733367
2.472491 28.21569 -14.54856
4.627359 28.49138 -15.21248
7.893619 27.36839 -15.5991
10.14054 110.4156 -7.740219
3.724659 24.20259 15.35896
3.894773 33.49652 15.33062
4.228754 36.92018 16.29585
6.677708 36.53992 16.5738
3.518075 63.5022 -15.42725
5.299387 100.8468 13.22313
4.356133 101.0469 14.18666
7.932613 103.4117 10.96467
6.020618 104.9917 12.11648
6.883694 105.7952 11.51547
4.970084 109.4911 13.55657
7.158667 107.6016 12.63624
4.56478 109.6774 14.74958
7.964934 109.4993 11.24004
16.99542 20.88481 8.923382
5.94625 90.41212 12.75397
4.835371 89.22449 13.40767
4.05894 87.76414 15.11089
6.275309 83.66248 9.946569
4.310979 84.06079 13.96564
5.119044 82.87959 13.1816
5.368342 85.05091 15.92194
4.028612 77.71152 14.24576
7.514697 72.76653 -15.60126
6.593723 67.60741 -13.43929
6.41534 69.19222 -13.54862
6.931309 72.11037 -12.13601
4.950411 104.4475 -11.45553
5.422175 103.8526 -11.5499
3.339274 49.22789 -15.38591
6.935789 51.48045 -16.56157
7.254377 43.70711 15.46184
7.528305 44.52991 14.22933
4.630748 51.09686 16.39561
16.91321 107.8307 7.945434
6.144419 97.37106 15.01932
0.3142692 35.16858 -13.8473
5.688969 79.26408 -16.01274
5.715184 81.09663 -15.94605
6.855477 86.74193 -15.19607
4.777048 80.81371 -15.26884
11.56368 60.25394 -12.28088
4.247833 92.46639 -14.29004
4.935627 85.05457 -12.6116
9.226077 85.18159 -12.09618
12.56829 101.1406 -10.31817
11.33549 99.68322 -11.12969
16.0774 98.27028 -8.392238
15.54191 99.6274 -8.839217
18.54786 100.2085 -2.963187
16.49547 100.8352 -5.9572
17.92669 102.5521 -2.822851
17.59568 98.56371 -5.247288
18.45183 95.95938 -5.105163
19.89336 95.03024 -2.820819
16.7894 93.72279 -8.403577
17.86642 91.22663 -7.294633
12.74447 90.75777 -12.59595
6.904649 86.23679 -11.96494
15.17809 90.69033 -10.25759
10.79425 85.49281 -12.21632
12.92291 88.4433 -12.43437
14.47278 86.00098 -11.64111
14.09664 81.82323 -11.85318
16.39305 83.651 -9.694515
15.8214 89.00143 -9.84039
19.85131 86.84595 -5.444713
9.729774 28.36631 -15.33198
10.21695 106.0891 11.3143
7.710505 106.1132 12.36604
4.785 74.02579 13.19742
16.93765 103.6115 5.659189
17.9804 103.8632 7.763234
16.0861 103.1226 6.692569
17.87429 98.25552 9.902868
6.698361 83.10021 -11.8313
7.447955 81.11319 -11.7011
10.76245 78.52851 -12.247
13.22043 80.15755 -12.42599
11.85987 83.85255 -12.52668
9.800936 73.37441 -12.00756
6.881888 73.3821 -12.13798
13.51926 74.77714 -12.38339
17.65073 74.83246 -9.743455
15.05953 74.67914 -11.6925
12.80171 73.39561 -12.6166
6.92962 65.42465 -12.93122
12.1242 70.21207 -12.49401
7.426461 60.99821 -12.64731
12.41688 67.20332 -12.46684
13.3609 61.70514 -12.77421
12.64747 58.31237 -12.57118
13.09221 55.55167 -12.44874
15.39374 58.51121 -12.97456
13.74549 56.91389 -12.71723
16.68232 54.92886 -12.47837
12.48609 46.08687 -11.74754
9.137958 53.91772 -12.09721
9.102716 56.12164 -12.01153
8.21236 55.23762 -15.27833
14.53604 51.8578 -12.65188
12.57939 47.24893 -11.74699
8.087309 51.7377 -13.8125
9.709445 46.57036 -12.25038
16.00344 46.50805 -12.35173
16.8315 45.77094 -12.38495
18.45922 46.19135 -12.1454
13.60776 47.73223 -11.88982
20.43089 43.60332 -10.3763
19.20319 48.34317 -10.59902
20.94707 45.58694 -7.992918
15.39162 49.68752 -12.62718
20.85586 43.84054 -9.516653
18.58191 52.41346 -10.62715
14.78683 37.99833 -12.31737
16.33406 38.4801 -12.15514
18.55877 31.667 -12.12637
17.47834 34.35483 -12.29196
21.78968 45.51209 -4.880744
22.48959 42.04224 -5.396061
2.905828 99.52132 -11.80131
5.327642 100.0956 -12.33711
5.857272 99.64462 -13.92988
3.896832 64.91361 15.17612
6.831525 46.2448 -16.55017
6.582819 50.69581 -16.53701
5.970755 76.29311 -12.70094
19.44233 23.45576 8.839397
19.37539 28.70747 1.066958
17.47767 31.89503 6.33603
10.56741 32.7593 -13.89196
16.87238 36.06871 -12.30581
12.30296 24.10129 9.372672
11.13112 18.41142 9.510263
16.7014 28.13088 10.24319
11.97124 25.64173 9.389229
8.947224 23.96908 11.55914
8.289783 19.29184 14.05686
5.678097 101.14 11.675
7.825377 100.6449 11.22294
21.04333 30.91005 -11.02331
21.93328 27.68265 1.138663
21.74137 31.08105 2.949506
23.16707 31.016 -3.453966
19.32842 30.67947 2.269009
24.02643 35.06236 -0.2882364
23.68783 31.41107 -7.306878
23.67563 30.69361 -6.001616
23.26319 34.0343 -6.864194
23.27845 33.9564 -7.738784
22.13313 33.29135 -10.28956
20.85737 32.09672 -11.17982
17.20591 28.39014 10.41431
10.89012 20.85951 -14.61258
10.59972 111.7499 -7.807548
9.709417 26.18405 -15.23339
10.38358 30.5615 -14.30219
13.87883 26.99077 -11.61576
15.49156 27.17525 -11.63941
17.25029 29.90891 -12.1336
14.79447 32.76025 -12.04062
13.79044 24.17622 -11.93511
16.97348 32.58099 -12.27131
7.533102 22.46582 16.23601
8.338682 23.47893 13.71525
8.400257 24.91566 13.27452
6.113145 39.85424 16.77674
7.803071 40.8908 13.22551
7.976562 38.16842 12.83096
4.332848 102.3855 14.04118
5.796453 101.6216 15.33754
6.508759 103.3132 13.88423
6.29373 108.4791 14.7795
6.074192 78.38378 11.98301
8.534112 43.21833 10.89522
7.085726 47.4155 15.51529
5.011549 90.00613 -14.22295
20.23097 92.77707 -3.115319
20.57999 91.3539 -2.974519
18.47865 94.92749 -3.105567
18.83945 93.10861 -4.023348
18.03675 96.52129 -2.569019
19.35438 96.8792 0.4150956
18.99124 97.6741 2.136672
17.31306 81.327 -8.910905
16.13345 79.0162 -10.15955
18.49984 78.16035 -8.396464
17.41817 74.50624 -10.0053
19.41538 77.80311 -7.283408
18.8782 71.99407 -8.346647
19.62063 72.85448 -7.413089
17.83093 67.74772 -9.95827
18.77292 62.19123 -9.293988
20.0714 59.73387 -7.341345
17.09281 60.65548 -11.50097
18.04939 63.99017 -10.56746
21.43827 64.34869 -4.313401
20.10636 64.87319 -7.107516
19.37747 66.82928 -8.608558
21.14511 67.60557 -4.915736
6.325163 83.13266 14.98229
6.512451 78.47797 14.43468
3.883687 77.38866 15.04573
4.119347 72.77472 15.59357
6.543184 77.13929 14.44119
3.870898 71.80925 14.63076
5.919409 68.4175 15.98819
6.541264 73.3103 14.9194
5.469086 72.98264 16.10835
7.311272 83.70507 11.70242
8.637732 85.94395 11.45435
7.161259 74.41873 11.7235
6.963381 66.07052 13.32774
7.215551 65.22954 12.16609
6.061793 61.01022 16.18479
4.930328 66.72256 16.27939
8.246921 69.54906 10.73248
7.100494 60.11302 14.08297
8.221073 73.45731 10.83581
9.517946 70.32327 10.34619
11.12572 67.11427 10.06051
10.45975 73.06478 10.42324
13.10524 73.07163 10.58628
11.2582 72.96897 10.44521
12.61345 75.71015 10.98321
16.38365 76.67211 11.18901
16.14799 79.78555 11.28981
18.55977 78.75376 10.56703
19.88282 76.21835 10.08177
22.51897 75.94631 9.259504
20.89481 74.45499 10.14933
21.56446 74.28527 9.960146
23.32912 74.5685 7.890323
22.9712 76.3655 8.49054
22.08246 81.67198 6.646013
20.05297 78.88188 6.167783
19.19322 85.20214 7.280109
19.40102 85.61477 6.499358
20.34466 74.72012 8.076451
19.819 80.43446 8.263465
19.30791 82.45995 9.582448
23.3035 72.51226 6.873492
19.68517 77.83082 5.714546
20.22371 78.37658 4.693626
20.33502 78.00432 4.036876
16.12594 100.7399 11.60621
14.74411 92.31572 12.06341
15.92528 98.35611 12.03325
8.75456 99.49034 11.38042
9.77141 96.45173 11.26028
13.91135 92.70486 11.91965
18.11881 101.148 5.705864
19.11121 97.37526 8.333518
14.65629 107.0407 8.423379
6.26687 71.86523 -12.98001
18.45416 53.75181 -10.5711
20.94694 60.34058 -5.6292
20.76524 58.26566 -6.399276
19.29744 46.9386 -11.14024
20.9277 52.03951 -5.90661
21.66979 51.9949 -4.369824
19.58533 39.7165 -11.75956
23.00273 46.64737 -2.812932
17.35837 98.99805 -3.937078
17.17784 98.50684 -5.336284
16.20694 97.44224 -5.352442
17.79984 32.37844 6.776082
9.66843 27.68984 10.17805
10.00774 29.53636 9.876528
9.870939 30.34161 9.974001
25.46737 38.62792 7.574899
23.01554 25.4703 12.3046
19.23963 26.09584 11.09715
25.93459 23.24941 12.39305
26.35399 20.31252 8.835316
25.97091 26.02576 12.23235
13.19173 20.95836 -13.08679
18.08617 35.43402 4.296281
20.10773 33.59777 4.243769
21.22722 37.269 3.338952
18.88994 36.06772 4.771804
20.43743 39.72339 4.931704
17.92113 40.61964 5.561214
19.35052 44.77654 3.078994
24.65013 39.7282 2.669225
24.63292 37.78683 2.13528
24.96426 38.71072 1.237517
23.28915 44.1776 1.598899
17.31762 40.69021 6.328133
23.49539 34.02985 0.2562135
19.97738 46.56261 2.783443
18.55654 38.87473 8.044721
24.99199 41.4688 -0.6924793
24.79836 44.02821 -0.936098
18.21928 40.68145 5.211122
19.85679 39.89783 8.831409
22.18532 39.37449 10.05755
23.71049 34.49024 -1.049865
24.90989 47.52592 1.105126
18.22637 37.02254 7.714177
19.34012 49.39003 5.258339
24.09328 50.11522 1.719087
23.9269 35.196 8.51424
24.54163 34.56765 9.110508
25.78162 34.45026 8.670757
25.22519 44.6566 7.230812
23.52804 42.67825 7.625184
20.58115 31.45534 8.419206
22.23339 28.02503 10.46664
20.75234 39.70461 -11.08723
21.40423 39.74137 -10.21097
23.49549 37.80465 -5.426781
23.48867 38.94639 -4.249547
14.90299 104.8899 7.35637
22.98492 23.23316 8.931889
24.34215 22.73411 9.038105
4.480647 28.30897 16.63969
9.290707 34.44591 10.34512
8.856529 35.81974 10.79098
8.144464 36.34596 12.38256
6.239473 94.85213 13.51025
7.218944 94.89668 12.37885
7.184802 92.44936 12.23417
6.230855 90.88764 13.30431
6.929471 55.34033 15.4593
7.157675 53.22853 14.82945
8.373165 44.40788 11.09032
18.2736 90.76917 -5.602557
18.42453 88.88509 -4.741825
19.65329 92.59375 1.975429
19.12472 91.96346 -2.375678
20.6908 86.59914 -1.442703
21.85944 84.46136 -1.730806
21.17142 87.02322 -1.489683
20.50936 85.32101 -3.024647
19.97969 88.04121 -5.154539
20.45061 79.57755 -5.424907
21.55844 70.33591 -4.104665
21.62925 79.28447 -3.715113
20.92018 80.00076 -4.643061
22.37711 78.96631 -2.840125
17.38701 63.59059 -11.26315
21.89575 61.5988 -3.661555
8.12641 91.61968 11.62921
10.52813 91.51723 11.15631
12.34283 86.0202 11.25188
17.22565 91.41647 11.57618
13.92584 84.97509 11.37122
17.60561 95.6332 10.6419
15.38224 89.96538 11.92501
18.69973 90.27105 10.2886
13.47363 80.78405 11.42237
14.22212 86.25205 11.43351
7.419702 62.09189 11.89292
12.19894 65.04288 9.845195
10.6987 61.33265 9.885598
15.41864 64.25114 9.476747
7.832624 59.16908 11.27147
14.60124 73.93488 10.79964
18.95029 72.36774 10.06421
17.38684 70.7896 9.861932
15.82735 65.0499 9.538747
18.35041 69.15263 9.761183
20.55985 86.55177 5.575897
17.77842 84.50433 9.179609
20.41625 81.50165 3.268765
20.69031 79.33286 0.05207858
19.56993 73.36504 9.68058
20.28971 76.72839 4.088479
20.44629 71.44572 7.391639
20.73238 70.09419 7.393877
22.50537 71.87083 6.126595
21.21064 67.26743 8.336418
20.91545 67.30564 6.897524
23.48056 71.23992 9.113632
23.25443 69.41832 9.535296
22.21976 69.15746 9.872815
23.02989 67.28332 6.260587
24.37043 66.46793 8.521858
21.49419 63.90611 9.196377
17.51221 65.20295 9.790704
21.91582 62.3354 9.959734
21.41349 62.73032 9.957897
18.26197 61.81108 9.960457
24.27051 64.14297 7.028202
24.80429 61.73758 8.904319
19.86193 63.94321 8.836589
21.69359 62.55537 6.463799
19.82463 62.11287 7.968408
24.24156 60.60397 6.707157
19.95814 61.71684 8.65491
19.90562 58.51551 10.34676
24.30861 59.07977 9.983392
14.98767 59.27883 9.418707
16.89952 55.96309 10.10024
9.988497 59.04239 9.957291
7.424686 56.06726 12.80046
10.19326 57.23171 9.865702
21.19146 56.67604 10.67306
20.44845 64.66141 4.474406
22.7647 54.2648 10.69653
20.00891 60.37905 4.490201
20.48348 58.82932 5.897373
24.37075 54.42329 10.2319
23.06861 57.05478 10.48114
25.70541 54.33253 8.944582
15.06827 103.2664 8.514484
15.02095 99.86791 9.547229
17.2751 95.23515 7.427441
14.58906 104.4929 7.6759
15.48315 96.47891 7.598887
19.41393 94.62132 2.016338
19.00669 99.54354 0.8443211
16.50287 99.29345 6.148113
18.57071 100.4871 2.18022
16.87158 100.2121 5.142558
18.6611 99.47794 2.368866
20.28007 90.31972 5.729183
21.23923 86.44382 6.183337
19.36719 94.41894 8.804459
19.43186 90.75947 5.605757
19.54518 96.30849 6.19317
10.66436 54.33757 -11.88188
23.5585 48.79171 -2.178815
21.57504 47.18283 2.987805
24.22148 55.7382 1.081391
21.36034 49.5066 2.609683
23.2963 54.88475 -2.277496
22.39662 60.28654 -3.072922
22.04917 48.62648 2.808557
22.53072 52.89341 2.425235
19.04829 50.90354 1.20351
24.23491 59.13009 -0.625056
18.19226 50.61637 2.028652
20.64206 55.32862 0.2207619
18.60345 47.26782 2.348329
24.25113 60.166 0.06143425
21.1088 59.64871 -0.7274173
24.17146 62.27923 0.06056203
18.75877 53.70144 0.7098565
21.8378 62.13397 0.08010433
19.65375 51.34194 5.025777
19.78526 54.5361 3.412058
20.1275 69.68671 -2.727092
23.42829 68.30958 -1.596537
21.35531 56.9449 9.725664
23.5285 69.4643 -0.249035
20.89602 57.12585 6.070242
21.11042 48.81704 7.420144
21.05518 53.32611 8.659381
18.37962 29.6007 8.011275
12.73228 32.84457 9.35498
15.44086 36.53131 9.883867
17.34543 32.9557 6.171572
20.2731 33.84957 8.647688
21.58258 33.34908 8.311563
17.64064 45.37403 4.735555
21.42628 45.64084 8.712342
22.36372 46.51592 9.088522
23.19146 32.9867 -1.82812
28.32908 29.19831 10.25109
26.16432 23.7351 9.722625
26.00873 26.82437 10.06695
26.09349 35.99022 8.234153
28.04137 32.4935 10.18866
27.12251 36.62223 11.10684
27.44415 36.68295 10.63956
24.05141 36.3333 12.03166
22.69471 32.23909 11.99818
19.16592 29.95814 7.951613
20.99601 27.31524 9.824233
21.40343 24.15847 9.535875
23.32997 40.41856 -3.240509
8.035758 27.56298 14.40353
7.66012 32.03558 15.42037
7.85339 33.24239 14.43246
8.599672 37.75755 11.07306
7.429101 48.8817 14.29044
11.55918 45.8231 9.502625
19.4086 93.06769 2.592617
20.0218 87.90156 -0.6286845
20.21492 87.68037 1.127019
19.92491 91.0647 0.07798484
18.73721 89.23003 5.873972
20.57888 83.1154 0.9408152
19.91404 86.69466 -1.465165
17.79522 89.36466 7.788217
21.76912 82.05351 -3.449607
22.47829 78.40926 -0.9595224
21.17369 79.94716 -2.454463
21.51144 77.91803 -0.5816659
21.15067 73.30242 -4.776185
23.39312 72.35452 -0.8824054
12.33506 90.49723 11.34819
18.2402 86.88005 10.90445
21.85159 84.38621 7.790761
18.37426 86.74124 9.717578
17.74155 87.80039 9.842576
18.20852 90.96236 7.18166
17.83319 91.85144 8.257015
16.57666 97.1422 8.788202
17.71871 90.58116 7.372927
20.65256 81.74535 1.070761
20.10997 79.69304 -2.412216
19.31725 72.71381 5.675882
20.78284 72.84086 1.777371
20.72081 74.57359 1.421248
21.06723 74.84803 -3.544795
20.76634 74.33319 0.3024276
20.23313 77.26767 -2.050163
20.95225 70.17889 -2.85741
19.7954 68.49566 -2.012466
21.60635 69.75289 -0.3423999
19.97722 66.8658 -0.9660251
20.27032 70.77867 3.317414
20.61572 66.00656 4.442599
20.65326 68.41158 4.498805
20.17588 69.21243 5.865538
14.0032 54.52419 9.43701
19.82828 51.15241 11.10098
17.61506 49.98963 10.42284
14.56695 49.89716 9.518895
10.18598 46.81061 9.721004
11.18173 57.86233 9.677919
8.041298 52.59107 11.22231
25.40968 56.90078 8.093371
23.1258 55.83378 6.317166
23.85493 58.21581 6.443542
22.80953 52.74356 6.568586
24.71935 51.14748 10.45646
23.41052 49.71718 10.98057
25.94452 49.83453 7.9249
23.21483 49.63666 6.814883
26.49938 46.58853 9.48139
21.58607 52.01573 9.557835
22.49106 46.97032 11.38149
22.74078 42.98214 11.67216
16.96472 45.70414 10.33495
20.74488 48.80726 11.31398
17.86015 103.5252 3.120876
19.16191 92.68111 9.430986
22.43804 59.49125 1.696404
21.41311 63.65084 -1.357049
18.75757 48.7728 4.642411
20.70382 33.64221 11.51969
11.45846 37.13391 9.411009
19.27112 33.61669 7.010892
24.41629 37.24578 12.00348
21.11309 37.96571 11.65613
13.68706 40.5085 9.569137
11.52577 41.02198 9.426935
9.812395 36.47548 9.927382
6.23631 86.97629 13.91854
8.800361 48.94267 10.40089
10.36736 51.5399 9.76588
20.42341 85.38908 0.1978023
18.78133 50.12564 10.8338
25.67838 44.14362 10.98031
17.33579 44.96305 10.46411
20.00427 63.14634 1.842101
18.4426 48.13265 4.568796
21.94274 64.48788 0.8906226
19.51197 61.38002 -0.2781318
19.69527 35.92613 11.19862
18.78944 39.25912 10.90623
15.90523 36.74151 9.991221
15.00185 39.33823 9.724148
18.10728 41.14252 10.67415
26.93784 41.89045 10.06894
2.251299 115.8816 -5.734085
9.082978 117.1179 -3.525016
4.403233 115.3592 11.62581
11.54281 118.0121 -0.1048686
8.193251 115.3852 -4.244005
1.623407 118.8058 11.86251
2.059381 114.2149 -5.970254
9.903985 117.2593 -2.786606
11.12467 115.9186 -1.632254
10.87123 115.1129 -2.296045
8.840441 118.3719 10.0436
7.448637 116.8948 10.4278
6.159061 114.8222 -5.072623
11.54684 116.6719 7.13539
-6.98839 115.8842 -4.717357
-11.01616 118.3804 -1.179339
-3.453793 116.4769 -5.745935
-7.63978 115.5964 10.37974
-3.385192 116.8883 11.86034
0.9095529 114.262 12.01175
-11.96589 118.6713 6.808331
-11.35365 117.0784 7.533901
-4.645493 119.073 11.59251
-8.600892 118.0521 -3.84404
-3.548892 117.7018 11.96307
-12.38556 116.3741 3.544442
-1.319107 114.812 11.94955
-3.460524 106.4817 -11.22891
-3.593431 42.8441 -12.72718
-3.998758 34.93524 -13.47357
-22.97045 14.25678 -7.751842
-24.4156 13.80685 3.573047
-22.75364 14.93898 0.6153055
-10.09103 16.06546 -15.13613
-1.199342 113.1175 -8.011551
-0.445392 113.235 11.82171
-18.38162 105.0216 -0.6464629
-1.263494 111.0251 -8.097256
-13.81698 111.5757 -3.722529
1.146373 28.82011 10.65306
-6.943034 112.6113 -7.275555
-12.60202 114.5698 5.958449
-15.83618 14.8563 -15.83087
-8.477579 13.90151 -16.44227
-0.4663429 99.95295 13.12354
-4.363898 21.3438 -14.80624
1.49259 19.32851 11.54158
-3.764823 76.51826 10.52374
-1.458569 113.2842 12.38217
-6.797444 14.21992 -16.90679
-23.08741 15.30009 -7.160406
-4.262159 114.1337 -6.536381
-6.038805 112.9944 -8.046094
-1.365277 102.656 -10.79808
1.371971 30.44732 10.54039
-1.775574 13.12227 16.93176
-0.1996761 14.21382 12.93934
0.9730805 99.70062 13.80567
-5.726554 14.66919 -16.31244
-7.045297 23.07368 -16.71342
-15.64328 15.12398 -15.77431
-3.521123 44.19017 -12.61917
-4.127775 83.99014 -12.04539
-5.800631 112.0467 -6.086954
-10.66033 114.6069 -3.300854
-2.810111 112.2828 -9.466773
-0.5129256 46.38425 10.09228
0.09624176 29.76135 10.90619
-4.328992 15.16872 14.47656
-0.1125634 21.51862 11.77923
0.8493398 83.43396 9.551308
-0.4242539 97.11109 12.74958
0.4217466 109.936 12.3421
-4.148297 35.36794 -13.59015
-5.503212 24.47391 -15.80893
-3.523729 54.38987 -12.45859
-18.55771 14.38106 -15.50872
-10.49573 112.9997 8.67077
-14.07285 114.264 0.6934446
-8.571073 112.1897 -5.797274
-11.72153 114.2916 -3.931736
-4.210172 103.9758 -12.37824
-19.212 14.67277 2.145643
-10.27278 13.22729 10.55527
0.9504185 30.2501 10.58619
-0.2713983 35.25547 10.67642
-0.5913764 22.06522 12.2294
-0.5473917 72.43511 9.100636
-5.454968 113.7888 12.34093
-2.863809 91.69495 10.42935
-0.6221159 98.82539 12.97396
-0.2786101 104.8603 13.60201
-4.190157 30.98641 -13.93443
-9.586201 17.86699 -15.64621
-6.543012 55.70897 -15.40541
-18.03013 17.40604 -15.86419
-21.41421 15.6469 -11.53121
-22.99093 16.68138 -4.668159
-22.73528 18.62058 -3.785048
-23.13205 18.01194 -6.534759
-2.644884 91.37083 -13.30951
-4.161529 91.8455 -13.41499
-1.692753 72.2649 -11.94833
-5.94477 112.7348 -7.812133
-4.949686 101.3674 -12.99035
-4.934978 110.8837 -9.353611
-0.6887067 47.89132 10.07359
-1.675535 49.14327 13.65147
-1.772708 52.18991 13.55475
-22.57287 13.60117 3.045163
-18.65089 14.30485 12.9388
-0.2658812 31.72849 10.94709
-4.176301 18.58476 15.21366
-0.9967263 22.50286 14.58757
-6.805195 113.529 12.58207
-11.62959 112.8355 9.34422
-0.7188421 58.24079 9.589244
-1.086265 84.9697 9.810793
0.2383637 99.96573 13.54815
-6.100288 30.1941 -16.02846
-4.299517 64.4378 -13.42005
-4.820539 41.27226 -13.96223
-4.588331 51.5535 -13.27709
-22.95214 17.30551 -7.652919
-23.06279 21.23975 -5.100733
-14.12592 114.2745 4.491354
-7.187527 89.61982 -13.52652
-3.405506 70.23067 -12.71436
-14.37534 112.9702 -0.7554108
-16.26542 109.8531 1.118468
-3.751245 103.5538 -11.78999
-4.82602 109.666 -10.22569
-1.344514 38.99009 11.20529
-20.88528 15.0246 2.542256
-12.39502 15.16269 11.20519
-0.1169703 33.12041 10.731
-1.028496 17.58945 15.11586
-11.6198 113.9183 8.88769
-0.3282181 65.62535 9.227902
0.6978273 76.65708 8.931715
-2.115626 84.68452 9.507088
-2.710233 105.2973 13.47551
-2.58264 111.317 12.5828
-4.266902 61.9664 -13.18306
-22.72803 16.65468 0.6420557
-21.86847 19.29053 -10.56284
-3.912565 94.64491 -13.74458
-4.523468 76.0116 -12.88868
-12.96533 113.4557 0.9722285
-7.860576 101.1581 -12.88745
-0.8794279 34.00687 14.57868
-22.76772 14.58729 3.177763
-0.9846535 24.81847 12.50024
-2.14684 22.90136 17.52459
-10.46051 112.9838 10.60347
-12.15678 111.359 10.42971
-1.261506 61.90932 9.620334
-1.301126 78.35307 9.132386
-2.366256 109.7929 13.80116
-2.494759 98.68958 11.91049
-3.913842 97.81786 10.97062
-3.052896 108.8472 12.89
-18.99136 16.6336 -15.18386
-22.75228 21.45289 -3.901543
-4.421396 95.93443 -13.55797
-6.057306 72.89656 -14.26499
-13.70353 112.3473 -0.3149742
-7.953511 110.1387 -6.647494
-13.48698 114.6717 -1.465894
-2.561962 55.07504 12.43807
-24.1278 15.88955 3.714594
-0.6051484 25.8009 11.68829
-1.020427 19.99818 13.79273
-1.699324 70.31207 9.414534
-1.042977 87.28345 10.44529
-3.51465 109.6739 12.25114
-6.924808 42.17367 -16.24166
-27.45305 16.90235 3.078497
-6.059696 95.00878 -14.09592
-13.75553 113.6188 -3.120056
-13.97253 111.6498 -1.859755
-12.08717 112.3526 -5.421101
-1.14225 36.47648 14.12034
-4.821493 16.14605 11.33538
-1.140306 27.28841 16.85371
-3.597898 19.33058 17.32182
-13.00383 109.2207 10.57283
-1.840538 76.50926 9.2482
-3.710444 77.34086 10.3053
-4.225468 85.90707 10.23177
-6.134808 34.52578 -15.90861
-7.438914 40.1164 -16.49195
-6.456675 93.69138 -13.80578
-8.43753 88.45386 -13.887
-5.174284 82.25999 -12.62503
-13.28845 112.1029 -0.2576853
-9.760538 108.206 -8.643291
-5.133566 108.3649 -10.49971
-18.56735 18.82675 2.014162
-0.6441342 31.35188 15.65978
-4.25033 23.30825 14.09696
-10.73042 109.3566 10.80862
-0.8417723 58.10503 14.4556
-4.114663 79.00188 11.01411
-5.883481 107.471 11.94403
-6.101257 69.18025 -14.59519
-20.65087 20.43302 -12.92721
-5.62266 96.41978 -13.82699
-4.982297 83.28668 -12.39245
-14.14715 110.4289 -1.493649
-10.46545 108.685 -8.375904
-13.36048 111.5216 -4.26794
-4.564836 20.512 11.736
-4.048355 22.21113 16.35178
-4.700047 24.642 11.28507
-2.916012 63.56599 12.63298
-3.544382 106.6691 14.17024
-21.1252 22.49072 -12.07729
-6.596469 75.89455 -14.31908
-13.60874 111.2264 -3.937808
-2.773522 56.68705 11.84799
-2.608657 27.79067 17.41793
-0.4694317 61.27848 15.05901
-20.56915 23.0913 -13.10997
-10.97093 87.0397 -14.63789
-16.63752 107.113 0.6759882
-10.66049 97.56583 -12.8603
-3.235877 26.27959 17.23286
-3.221488 64.64874 11.98626
-3.856079 76.72061 12.15536
-2.339693 98.42409 13.7622
-10.36711 61.33377 -15.67366
-21.18319 33.49906 -11.64947
-7.475152 77.647 -14.49229
-11.38474 75.9429 -15.64735
-15.92598 108.4815 1.814696
-0.705528 32.98399 16.29804
-1.086502 55.21236 14.17706
-3.925662 31.42142 15.34699
-2.560967 35.57708 17.17957
-13.72837 109.712 8.636024
-16.36418 106.5369 6.862473
-3.557631 82.19054 9.81451
-5.494355 96.45155 11.63545
-23.18185 20.82454 0.904597
-10.91963 93.10013 -13.84078
-8.459564 90.61562 -14.01582
-8.623514 72.78754 -15.26346
-13.28358 105.075 -9.099713
-10.58016 98.15221 -12.11726
-7.087756 26.28739 9.962872
-4.007328 81.66483 12.48418
-24.34739 23.84835 4.339884
-11.24843 92.31849 -13.82489
-9.044364 98.1705 -12.36062
-14.38844 112.2759 2.795621
-2.852053 39.63479 16.8213
-12.5267 106.7057 8.804031
-2.702154 79.70049 13.49684
-6.131933 63.75434 -14.84427
-24.14178 22.8883 4.272276
-9.398505 86.32115 -13.33633
-11.57217 70.62554 -15.83406
-12.11254 66.34553 -15.88372
-16.86346 107.415 3.270867
-15.10095 111.4213 4.41424
-3.664113 40.52895 15.05798
-2.492457 31.88363 17.31838
-3.483698 85.62819 13.21837
-5.459577 102.5447 12.87338
-20.67398 27.21652 -13.04272
-26.17237 20.79956 0.5042555
-1.999778 39.84232 17.2154
-2.415723 80.24858 13.66017
-1.859756 106.1077 14.1861
-27.08751 25.01185 3.069903
-4.908422 39.0116 11.00515
-3.938406 46.15462 12.69239
-24.87404 25.149 0.720333
-14.14427 68.74726 -14.48003
-1.251107 78.42387 14.2462
-13.17577 69.03596 -13.45295
-2.521448 79.2738 13.58008
-3.023161 104.0786 15.95391
-2.543318 109.3746 15.58057
-2.640419 78.98992 15.93419
-3.036505 107.7402 15.81245
-6.848309 42.38758 10.32902
-1.271821 109.8456 14.9727
-6.620053 47.36264 10.54743
-7.157764 40.70478 10.27944
-2.072623 75.65424 16.46814
-1.195868 73.82908 16.55122
-6.679951 112.1563 13.84218
-12.6498 72.58199 -13.51931
-8.378718 47.79232 10.50457
-6.298922 38.20183 10.27742
-2.956246 78.58313 14.80593
-3.140774 77.92114 13.92916
-8.217722 52.02638 10.6008
-3.724716 113.7651 14.03046
-8.627579 52.82993 10.62801
-10.72738 47.72868 10.95012
-4.690125 108.7912 14.9457
-7.703958 57.05365 10.72761
-5.052645 37.88725 10.90759
-3.976544 32.91276 14.01006
-14.34182 53.09714 11.89695
-3.971281 38.53082 12.94394
-4.969499 75.81978 11.69335
-10.0917 53.98232 11.02309
-4.350519 31.77807 11.92475
-8.781084 56.51461 10.65779
-5.912952 60.30495 11.33189
-14.24557 44.22326 11.96441
-9.369924 53.72502 10.83619
-12.75365 59.40382 11.69162
-14.70371 55.84877 11.9078
-15.08184 57.95163 11.80569
-13.38038 50.87605 11.65481
-15.1925 53.78005 11.95928
-17.00631 48.97153 12.14343
-7.296712 20.22058 -16.80342
-8.950725 108.1916 -9.551311
-5.671882 109.9352 -6.554238
-8.165619 107.5633 -9.248878
-3.454448 94.07127 10.5911
-6.851425 28.6069 -16.56715
-4.972888 57.28608 -13.67648
-5.912775 53.0132 -14.81929
-2.268734 51.03791 12.67869
-1.429202 46.41933 10.60795
-15.77615 15.52933 12.27625
-21.54426 16.48083 13.29342
-22.69201 17.18442 12.87863
-10.62022 112.4235 12.35401
-8.688387 27.81626 -16.44894
-6.375649 103.4815 -12.4099
-7.420497 108.6721 -10.36633
-6.615237 103.9709 -12.19397
-0.9310346 44.70681 14.56659
-0.4979361 44.33406 16.11218
-21.43784 16.8134 4.673799
-24.72666 17.17929 6.487946
-20.42965 19.37959 4.013233
-21.64372 22.91551 4.185998
-17.58363 21.44477 3.111948
-24.23689 21.80727 6.024231
-19.29388 21.08465 2.416679
-19.76187 19.20665 2.359751
-21.83984 17.88317 3.084918
-21.16126 21.4251 3.218456
-8.942112 110.6228 12.07715
-7.299851 110.2541 13.6873
-9.769451 18.60356 -15.47938
-10.2915 24.75779 -15.17887
-11.33359 24.69006 -14.7723
-14.29625 23.0309 -15.40025
-9.256895 27.63576 -16.05293
-16.0126 30.43197 -16.06652
-16.80846 26.37094 -16.10253
-13.24325 23.8249 -14.99641
-18.66018 30.26621 -15.48984
-18.80686 30.67465 -15.34458
-15.41598 22.40069 -15.85086
-15.92995 20.59225 -15.97506
-21.8714 30.57749 -10.58853
-4.779194 89.74442 12.21149
-3.288297 86.5332 13.39386
-4.561183 86.69067 12.68176
-19.05871 20.52381 -15.20862
-20.62684 24.90721 -13.05361
-18.75868 26.21952 -15.48255
-22.51 23.32168 -2.975837
-8.973688 34.74068 -16.30839
-8.297681 37.8162 -16.55058
-10.43111 33.37667 -15.3524
-10.75378 32.6012 -15.12372
-12.95145 39.69472 -15.48097
-16.28033 32.82626 -16.11908
-11.98033 31.81197 -14.88517
-16.48917 34.51468 -16.14479
-18.80783 34.39444 -13.3695
-21.31503 35.77817 -10.93564
-22.87444 31.70123 -7.798867
-19.46312 37.51801 -11.87823
-20.00584 36.3347 -11.83061
-8.41168 46.96217 -16.43157
-15.07799 107.5001 -2.66227
-13.12961 111.6052 10.15618
-12.9048 109.2072 11.67608
-14.24623 107.0311 11.63976
-17.28445 18.42051 -16.0944
-15.93181 108.1744 -3.464163
-13.50737 106.7939 -8.441218
-16.1934 106.7326 -4.577327
-15.4448 105.5861 -5.6077
-16.47348 103.1485 -4.970823
-10.63779 104.0977 -8.797035
-16.93458 101.3938 -4.681376
-9.676212 106.8747 -8.244516
-8.606098 104.7032 -9.108888
-14.19648 101.6221 -9.239011
-9.349305 100.8937 -11.37964
-7.028181 106.3992 -10.66238
-5.850888 104.3627 -10.95303
-19.27514 100.0426 -0.9943749
-14.28048 100.7872 -9.316735
-15.50591 97.19539 -7.415169
-16.76533 94.94058 -5.94159
-14.00843 96.708 -10.10621
-18.11209 99.10431 -3.518491
-19.37553 101.0287 1.547641
-10.60958 100.6689 -10.66327
-9.585703 92.94895 -13.28265
-9.470894 92.24515 -12.4211
-15.87461 104.1766 -1.466971
-15.89102 93.3906 -7.661612
-5.340571 102.4753 11.42768
-7.375608 24.50396 9.917579
-6.651928 21.44365 9.88262
-4.842751 25.90029 11.08326
-3.30626 66.69311 11.94321
-0.3825378 69.3066 15.53169
-0.5009043 58.20776 14.95814
-2.415257 60.78441 16.52909
-3.689931 72.17572 11.33492
-4.191322 29.48535 13.38336
-6.626606 28.15172 10.02317
-5.707912 61.67067 -14.37631
-16.07115 105.2809 0.1174363
-15.42073 104.1216 7.898823
-22.65143 27.87177 4.253527
-19.91691 31.56741 3.160284
-17.2578 26.30213 2.672558
-20.28671 33.51213 3.014931
-17.09635 34.16676 2.224065
-19.18373 36.23453 1.640456
-9.492404 92.66785 -13.36854
-11.20651 103.5993 10.35799
-11.84861 103.087 11.01967
-11.80546 89.71425 -13.60443
-5.829727 102.4697 11.72274
-14.29733 66.09909 -13.9662
-2.704266 83.03146 15.64901
-4.186422 85.17115 12.91942
-2.982844 84.01437 14.64876
-8.724471 88.39537 -13.12202
-11.27545 86.15755 -13.11065
-11.60519 98.36955 -10.98077
-8.59194 93.23951 -12.48962
-9.732131 83.18513 -13.20408
-10.12991 79.10293 -12.45411
-10.81673 75.62626 -12.78606
-12.59585 81.30206 -14.13477
-7.998683 98.09809 -12.08839
-11.95996 78.87782 -13.42073
-8.103036 99.03096 -11.83762
-7.090969 100.086 -12.72423
-7.844571 96.0297 -13.35118
-7.639439 96.39191 -12.44627
-9.231558 37.74228 10.56412
-17.29253 38.27135 12.48734
-15.55525 39.35991 12.26194
-10.63255 32.81589 10.86296
-11.07778 74.1203 -11.91628
-12.4133 78.58514 -10.12182
-12.23801 75.71103 -10.2289
-14.05351 72.17899 -9.28914
-14.24182 77.98499 -9.084674
-17.98088 73.98985 -7.128258
-17.53886 46.64301 12.21722
-6.782539 106.72 13.41037
-8.177646 33.73424 10.22833
-3.538104 54.89394 13.16136
-3.183016 55.83322 15.24931
-10.99004 62.05662 11.38985
-4.994388 63.31789 11.76715
-3.410563 60.56226 12.91474
-17.55366 52.23097 11.97366
-22.09088 56.88854 9.575193
-18.40082 57.68783 11.38275
-16.61875 59.33577 11.57854
-8.389854 108.6577 -8.98678
-9.0857 52.80692 -16.18149
-7.796416 55.43203 -16.0438
-8.954561 57.75039 -16.00772
-11.11814 60.93703 -15.67534
-5.194138 55.33046 -13.89195
-13.15156 19.72596 11.56108
-17.0798 17.77917 12.68844
-24.86901 15.80203 8.029595
-0.440715 45.00595 15.95858
-0.5839356 44.87396 16.53975
-3.147078 52.24424 15.96017
-3.500442 48.28533 15.20377
-3.469014 52.36642 14.29925
-16.99211 28.93895 2.975772
-17.66902 24.34541 2.158356
-13.70677 19.67126 -15.17547
-14.27234 20.16308 -15.40418
-22.13605 24.94328 -9.918529
-22.40597 28.17388 -9.202249
-2.313836 89.01999 13.93022
-12.99592 40.09584 -15.50667
-16.80624 41.57573 -15.76513
-17.53013 41.07598 -14.95943
-17.12335 42.21904 -13.01125
-19.44727 38.52473 -11.65107
-11.7456 31.33255 -14.86048
-22.75375 30.87342 -2.971182
-14.32126 106.8096 11.76165
-9.677414 106.5288 12.41945
-14.31813 107.8066 9.028664
-15.46352 92.82804 -8.513008
-18.17307 92.63632 -4.687652
-18.86679 89.19936 -5.030354
-15.29227 87.40425 -9.111156
-12.00543 91.46132 -11.44519
-13.52257 90.03198 -10.42966
-17.839 101.8338 -1.940259
-10.86074 23.07802 10.83233
-9.177897 26.19407 10.32759
-9.078352 31.58716 10.3465
-10.99603 17.91993 10.78681
-9.331768 19.53333 10.30332
-8.106486 18.60493 9.990609
-2.259715 74.32152 16.36011
-2.772655 72.89753 13.31758
-3.0561 72.4285 13.9049
-0.340519 63.59321 15.50724
-6.215415 27.49402 10.11882
-16.58648 104.1438 -2.637399
-14.00264 107.3061 9.410322
-14.00514 101.3047 10.27703
-16.31479 102.7642 7.507795
-14.01656 101.4912 8.840624
-27.02633 27.64386 1.721727
-17.46144 100.8505 1.040007
-1.658878 85.59804 16.40399
-3.299 85.43565 13.97484
-8.300118 87.93355 10.54078
-9.535456 83.25993 10.70765
-10.74323 83.37644 11.07654
-7.395256 78.94613 10.55718
-9.712599 80.31629 10.64575
-12.93719 83.78013 11.63158
-14.3693 81.82034 11.52084
-13.74693 78.27219 11.32267
-15.28871 86.40371 11.42576
-20.43887 78.55173 8.517495
-17.63216 78.76772 10.7982
-11.79332 90.59616 11.78436
-15.50069 88.86515 11.29934
-5.162962 86.62957 12.15674
-16.88433 38.73303 12.43837
-13.25168 33.3357 11.76558
-12.82194 70.57993 -10.13049
-17.23552 77.00292 -7.275526
-10.35815 81.37627 -11.2613
-18.77052 70.58082 -7.174519
-21.00028 72.81551 -5.214134
-18.82379 68.11191 -7.306698
-20.28116 70.69344 -6.3627
-21.17109 70.98701 -5.126622
-21.14289 68.04178 -2.559186
-19.78461 78.38312 -6.063191
-19.81107 66.03745 -7.008317
-17.70756 62.61094 -8.135414
-18.76987 60.88006 -7.809793
-17.63231 60.28047 -8.345871
-18.64836 57.14445 -8.156007
-18.59948 57.92595 -8.143807
-19.65391 41.96091 12.30475
-6.575548 104.3266 12.56031
-3.781649 71.07391 12.50992
-2.964392 70.29799 14.38326
-3.991115 65.09169 12.37324
-2.935922 65.93358 14.03108
-2.594147 62.59741 16.28011
-4.427624 63.05219 12.24056
-14.46628 75.69297 11.03298
-2.829125 60.05385 16.16394
-6.235097 69.28832 11.10538
-8.858515 62.8856 11.22956
-3.824602 60.17561 12.29841
-17.20131 59.86474 11.47474
-15.45505 62.01764 11.22491
-18.23673 60.32553 11.27733
-21.10312 56.37418 10.69868
-12.65162 60.18167 -15.82089
-10.34726 53.02483 -15.68312
-11.87911 47.78121 -15.45043
-10.43685 46.74427 -15.63756
-9.699866 46.93054 -15.97378
-22.32472 21.54936 12.71199
-13.98357 32.57441 11.98241
-13.86108 25.86828 11.90739
-23.93714 22.74408 10.03295
-14.76092 24.94831 12.17028
-12.94382 24.3467 11.58275
-17.26982 26.10941 12.75705
-23.40526 25.12251 11.13852
-23.51686 26.60587 5.441391
-23.84004 29.81973 6.505795
-10.27911 27.55448 10.6933
-21.33117 26.31156 4.461033
-21.44961 31.12971 4.59598
-22.31058 30.51468 11.9081
-20.08918 31.82419 12.78506
-21.01429 27.80734 12.79865
-20.99441 25.94846 12.90501
-20.88083 33.57325 12.45669
-15.45665 32.33714 12.35506
-17.81263 32.0872 12.73505
-20.00367 33.46223 12.70874
-17.45245 36.29068 12.5722
-2.64443 52.76807 16.60345
-3.027809 55.62371 15.98606
-17.24344 29.09517 3.78471
