# .PCD v0.7 - Point Cloud Data file format
VERSION 0.7
FIELDS x y z
SIZE 4 4 4
TYPE F F F
COUNT 1 1 1
WIDTH 1669
HEIGHT 1
VIEWPOINT 0 0 0 1 0 0 0
POINTS 1669
DATA ascii
-3.698089 72.57758 12.10001
-1.524783 75.14207 12.27132
-2.329759 75.71944 12.30998
-14.44627 42.96572 4.63086
-14.89433 43.89838 4.072098
-13.07808 51.36626 7.576159
-11.22264 53.84631 9.078976
-8.471219 60.83232 11.20918
-4.881119 68.56811 11.40619
-3.863868 71.77916 11.98754
-2.442159 74.425 12.2382
1.234336 75.25945 12.27815
7.192375 63.82295 11.4175
9.943344 60.75864 10.16694
12.14456 52.58078 7.891542
12.18104 56.39218 8.435369
7.270922 65.75431 11.27304
1.180513 74.4279 12.22429
9.532516 64.39722 10.75447
0.5179726 82.8492 12.29683
2.163458 74.33678 12.22937
4.30538 75.87264 12.34546
5.987197 65.34345 11.47542
3.067331 75.55286 12.31343
4.181019 71.25072 11.91728
12.99492 43.22906 5.895788
15.07304 39.49417 1.827768
16.11405 32.76557 0.9335984
7.978679 63.65701 11.15486
15.95855 36.0385 0.1065893
15.97302 32.65364 -0.6953474
12.94847 50.75969 6.985794
1.378479 78.51006 12.39048
10.78774 55.97517 9.18073
12.44027 45.55493 6.743576
14.89981 40.68309 2.068479
7.877413 61.51382 11.07818
14.66456 45.78731 4.321574
9.600125 59.6124 10.16988
6.795027 68.47651 11.51008
7.578132 67.93223 11.42779
9.956959 57.42265 9.754725
12.35933 56.24699 8.298547
10.89852 53.45626 8.780403
12.8967 51.74103 7.184443
2.760174 76.92841 12.36485
2.335361 75.05135 12.27706
3.594947 74.07491 12.22773
4.796733 72.82983 12.14065
2.986432 73.7428 12.19202
15.2988 36.49456 3.634089
15.87481 35.8974 2.410677
12.55541 47.80666 6.854445
12.4962 44.1296 6.662186
13.36102 43.39978 5.218784
14.36203 40.99258 3.216719
14.5073 39.58307 3.180143
7.886936 62.46861 11.14155
8.590513 58.08352 10.42472
5.825721 71.34913 11.97781
10.09214 53.66214 9.246282
10.17053 51.08574 8.950593
12.2816 49.95102 7.393186
12.7792 43.09996 6.325967
14.92248 37.6007 3.726308
16.46017 29.43062 -4.768078
12.88971 27.13629 -7.047482
13.74319 26.86222 -6.879916
17.14704 29.76994 -4.14444
1.780321 16.88976 -4.105801
15.55544 27.04652 -5.930756
13.17842 26.95973 -7.03398
16.28255 30.7926 -4.352923
14.04102 26.26659 -6.86724
2.676334 20.43103 -4.275089
16.34746 31.27253 -3.99279
7.988869 23.76609 -6.020592
9.365557 25.59576 -6.488911
3.768761 20.69884 -4.52731
11.93434 26.68177 -7.034082
13.96416 30.15704 -6.473323
9.315719 26.62685 -6.450828
9.038195 23.60443 -6.402668
5.161582 19.9294 -4.945987
4.437431 21.41008 -4.730613
8.402149 22.48728 -6.167589
16.62335 28.91252 -4.753184
14.27135 28.32059 -6.54727
5.42501 18.98305 -5.019452
5.585785 21.75871 -5.117345
-1.495544 17.82623 -4.012928
-7.65452 23.58505 -5.663298
-0.5637822 18.12688 -3.943885
-6.205511 23.1923 -5.210278
-1.840926 16.40058 -4.033038
-10.65366 24.25282 -6.476353
-16.51733 29.44723 -3.639496
-15.46607 31.11067 -4.981338
-14.6238 26.8923 -6.599264
-16.38951 30.41356 -4.565258
-14.84263 30.16651 -6.273001
-12.69236 25.71997 -6.731715
-16.24644 33.15963 -1.943945
-6.949486 19.36825 -5.334607
-5.360725 22.39111 -4.931846
-9.16189 24.0452 -6.107336
-10.12885 21.76494 -6.345959
-11.14033 25.51849 -6.552265
-13.3966 26.13983 -6.744764
-12.27763 26.89281 -6.712507
-13.1913 29.03283 -6.770281
-0.5603076 17.1396 -3.943293
-4.720078 19.76145 -4.681066
-10.90653 26.56821 -6.530827
-14.19907 135.2624 2.263487
-16.16965 138.0874 3.498967
-16.81615 142.1671 3.492627
-16.44768 144.7408 1.216401
-16.63149 144.3614 1.869509
-14.50347 139.146 5.590725
-15.96576 138.065 3.74032
-13.8771 133.985 1.209182
-13.08715 134.3532 3.968541
-15.33219 139.7257 4.863647
-15.92418 145.2569 0.4082589
-16.81538 142.363 3.407646
-15.81102 144.3312 2.457548
-15.94504 138.7273 4.188612
16.74384 140.8721 3.809315
13.45925 133.0754 2.037396
15.37296 143.3103 3.492503
16.40301 145.2422 -0.6375204
13.2076 135.0894 4.214637
14.4173 135.085 1.426062
16.90086 143.7251 2.241699
16.73968 145.1372 -2.152205
13.38414 134.8522 3.546403
17.47778 144.4128 0.7964764
15.73321 145.3565 -1.970603
14.49565 136.7326 3.956466
16.21578 143.854 2.529358
16.36782 145.0244 0.4620903
13.9251 133.4586 -0.2274046
14.48677 134.2316 -2.426947
16.96835 144.8527 -3.257599
14.51288 134.3045 -1.126727
15.34407 144.7775 -4.122679
12.79561 130.7292 0.3345498
17.38913 142.2957 -6.176904
13.88699 133.4409 0.1102975
14.90074 134.7522 -2.996779
16.71729 145.1362 -2.323635
15.79569 137.5029 -6.82545
15.43143 141.1566 -6.931495
15.58917 137.555 -6.889916
16.7502 137.1376 -6.182468
-16.18849 137.6822 -6.588001
-15.19778 135.3583 -4.657479
-13.97212 133.3031 -0.648716
-14.60952 144.8608 -3.837393
-14.61868 134.2848 -1.458869
-17.23964 137.2493 -6.173556
-15.2709 137.3816 -6.834552
-14.55356 134.3033 -0.7471402
-16.11423 143.1843 -5.772482
-15.20934 135.0319 -3.195709
-16.21805 142.1303 -6.383493
-17.31185 144.6155 -3.811383
-16.50495 137.9347 -6.667904
-16.2373 143.8042 -5.069789
-11.56282 127.2008 3.659348
-8.64686 127.9025 11.13411
-9.222199 144.7603 4.527326
-12.09539 128.9789 2.259645
-3.567071 129.81 12.94155
-12.70553 106.4051 4.558783
-11.83147 110.9952 3.784993
-12.55394 106.8373 5.090579
-10.89639 120.1422 4.834642
-13.1047 136.6605 6.56083
-13.65004 144.5571 3.144448
-2.619871 107.3147 13.04671
-11.1174 133.3063 8.64462
-12.36839 144.6501 3.418891
-12.21914 145.829 -1.130126
-4.259825 126.5287 13.05889
-12.63429 105.7526 5.385775
-12.47397 133.1601 5.526363
-9.840916 121.3131 8.320675
-0.622288 104.083 13.07229
-2.195338 131.9362 12.60759
-0.1766875 125.8498 13.38071
-10.98233 111.462 6.725346
-13.55755 145.6232 -1.679632
0.05196461 111.2078 12.99194
-2.01216 132.9966 12.35026
-3.54087 104.9381 12.81415
-7.813544 140.8248 7.555423
-7.838054 142.2755 6.805009
-6.350773 112.2724 11.25191
-9.48026 143.5352 5.316926
-12.69801 105.0855 5.454065
-5.464618 134.247 11.63025
-11.12911 130.2683 7.710347
-3.355752 118.7506 12.74574
-4.757163 134.2168 11.78925
-3.181115 114.7854 12.49414
-2.477756 124.5245 13.3971
-12.4854 105.4458 6.069548
-10.46642 104.076 9.697026
-1.64488 109.39 13.03407
-14.37532 142.5651 4.56055
-10.37429 145.1283 3.375504
-12.56991 131.3492 2.470685
-12.74115 134.8976 5.545636
-11.64791 130.1026 4.254156
-1.441229 122.3218 13.35774
-11.51023 140.5419 6.526649
-12.65271 138.09 7.297718
-10.23414 139.5797 7.365439
-9.330449 140.8684 6.878676
-0.3575233 128.8328 13.05298
-10.19379 118.3406 7.069966
-10.80023 115.2986 5.217273
-1.73831 114.324 12.78592
-2.199701 111.5438 12.83823
-2.027686 119.6059 13.08132
-0.583582 121.4355 13.32852
-11.07718 113.2736 4.948148
-6.145986 104.0485 12.0342
-12.26806 130.5075 2.413942
-11.50026 125.301 3.553015
-11.80343 129.9079 3.454822
-0.3851779 128.0562 13.15022
-13.97247 138.6741 6.060828
-0.2436773 130.6617 12.7967
-11.03591 117.0609 4.169699
-10.96683 120.505 4.286442
-11.10395 123.6114 4.978414
-1.970963 111.4859 12.8635
-10.70373 112.7414 6.574214
-11.08145 112.122 5.981799
-6.660535 104.8918 11.86659
-11.01128 130.8897 8.666287
-10.46541 126.7567 7.077062
-5.106991 130.5217 12.81739
-5.396476 129.9483 12.83521
-9.733541 115.1885 7.733022
-10.60139 121.2827 6.436934
-10.41753 120.3889 6.851924
-1.16848 113.2196 12.85597
-12.20239 107.2411 6.277809
-9.68563 104.5793 10.29673
-6.439705 105.4079 11.95803
-10.36863 127.3531 7.426401
-11.09626 129.9347 7.201758
-10.46921 129.372 8.736826
-10.57681 124.2268 6.882746
-2.943248 111.963 12.62906
-10.62492 113.396 6.379704
-7.072426 107.0397 11.64008
-10.11705 123.371 7.990584
-6.050828 123.4087 12.45593
-9.349004 125.3943 9.439249
-5.507683 107.6375 12.2809
-10.17975 111.8247 8.057752
-6.59757 111.2413 11.26156
-9.25077 110.4875 9.618434
-10.05629 133.4446 10.01996
-9.347026 126.8396 9.635026
-9.505133 129.1774 10.67584
-8.843488 130.2805 11.57385
-10.10991 124.3011 8.007695
-9.50429 123.5406 9.171971
-9.334693 123.5761 9.446398
-7.398433 113.3341 10.50115
-7.334337 109.6528 11.15554
-9.364355 111.5387 9.147371
-10.08515 115.4069 7.085969
-8.778989 112.3254 9.522528
-12.06945 134.8443 7.078479
-9.101519 126.0281 9.888188
-5.416699 111.7472 11.80397
-7.738394 111.5558 10.50051
-11.11253 108.3397 8.149135
-9.47412 118.6813 8.438569
-8.616415 111.6635 9.844824
-11.8757 133.7726 7.223231
-8.255159 128.7171 11.71271
-5.725581 112.6796 11.54859
-8.05701 117.4309 10.062
-7.221622 130.1973 12.41321
-6.901693 113.4522 10.8346
-7.102828 114.851 10.69081
-5.87039 132.506 12.30429
-5.806826 132.034 12.44365
-11.83274 144.2666 3.925109
-10.86352 144.888 3.580796
-2.408476 125.524 13.36449
-11.96703 139.2145 7.321841
-11.26996 136.5825 8.500596
-8.75185 136.6289 9.574497
-7.122302 137.1912 9.707118
-7.906922 135.0449 10.61516
-6.179617 133.5915 11.79488
-6.678255 133.9139 11.54604
-3.146571 113.476 12.50901
-3.763072 112.8731 12.3555
-3.285308 122.6215 13.23046
-5.270774 121.4298 12.59262
-2.583903 122.8921 13.33501
-5.965836 124.9667 12.5406
-5.765431 121.0906 12.3091
-6.461583 120.7437 11.87071
-4.734276 119.1956 12.39776
-6.673043 115.3455 11.00478
-5.299185 114.8948 11.73956
-7.266961 119.1705 10.96267
-5.794362 116.4351 11.57294
-10.17039 114.8631 6.976053
-5.797829 123.9967 12.5936
-8.410431 124.0777 10.66347
-10.32248 107.5692 9.394577
-8.599051 113.7729 9.451619
-9.403504 132.4745 10.87162
-8.622396 141.7342 6.730564
-9.610183 137.3167 8.969397
-3.522185 135.0431 11.58667
-5.047078 135.7468 11.00095
-4.922909 113.7382 11.91555
0.5480606 122.9522 13.42635
5.531337 103.9733 12.19604
10.87358 106.3916 8.993894
1.061696 120.5929 13.24257
1.495791 108.4753 13.12971
13.71649 137.707 6.049646
1.737263 106.2416 13.14595
12.39535 107.5028 5.255847
10.55335 133.2093 9.516521
11.88011 137.2742 7.827324
2.749398 133.9723 12.05703
3.947771 134.3555 11.85177
2.136571 124.0581 13.42398
12.22044 109.3958 3.862
12.92822 141.93 5.357317
8.090893 141.2327 7.228233
12.07825 109.107 5.197972
8.658774 143.9088 5.442834
12.628 105.6434 5.328834
12.68583 133.8161 4.786426
12.35903 108.2202 4.728662
12.0107 145.9052 -1.180679
12.40648 136.7025 7.35839
11.15453 120.8049 4.99675
7.936206 132.4009 11.76307
13.10744 135.3064 4.817396
12.34789 141.2639 5.941788
1.997745 103.8378 12.93157
9.977869 145.4636 3.065968
10.60171 141.6759 5.938498
2.847499 108.4179 12.96373
13.82483 141.2997 5.554252
13.85509 145.6283 0.9375724
13.89819 142.4696 4.775283
14.09395 145.5316 -2.227206
13.96824 139.5391 5.933718
11.18127 104.2603 8.852776
1.878667 107.3158 13.13236
1.373094 104.6543 13.08402
12.53048 105.4639 5.816362
12.49444 107.6481 4.549411
12.42567 105.6644 6.067286
11.04413 128.0002 5.439816
0.8201968 123.3821 13.44199
12.9507 135.5741 5.546444
14.63234 144.0116 3.345858
1.756974 118.2119 12.96942
10.82601 116.0302 3.938214
10.76916 117.312 5.364217
11.4313 124.1407 3.384373
8.65582 105.0317 10.9586
0.8511332 110.4054 13.01781
3.218754 108.3462 12.90807
10.44034 105.8271 9.536606
11.82818 128.7894 2.80018
11.17742 127.327 4.915715
12.93142 133.5735 4.036617
12.71308 133.0615 4.689606
0.879931 113.3517 12.88088
6.684712 120.4094 11.6718
0.8404724 124.9736 13.43175
10.70692 116.3199 5.194598
10.43546 119.1533 7.032858
10.02961 118.0987 7.74379
11.19073 125.5313 4.839343
1.164909 111.6187 12.91595
3.937872 107.1296 12.79346
5.408871 105.0385 12.31374
11.22057 107.2684 8.323163
12.01431 108.381 6.120543
10.99895 127.0533 5.513179
10.40128 130.4885 9.718794
11.51454 131.5244 7.558383
3.336106 129.4316 12.98462
1.214595 126.898 13.26899
1.96399 113.5194 12.7673
3.433906 113.7528 12.44597
5.358485 116.4027 11.83868
4.137754 114.5542 12.21759
6.718694 116.2875 11.05735
7.902809 115.1239 10.06475
9.125751 116.9178 8.886574
9.334124 118.3961 8.792391
0.7271619 121.7582 13.35396
3.307946 124.9456 13.27112
5.562837 119.3289 12.08944
9.77284 113.8955 7.923229
3.835976 111.3342 12.49696
11.77364 110.3987 5.008721
10.25484 127.1138 7.723128
9.546566 130.8918 10.87144
7.210982 114.5413 10.61641
8.800082 116.6375 9.234973
2.691298 123.1711 13.36112
5.38395 118.9361 12.10505
3.397091 120.5554 12.96434
4.438342 120.7668 12.7487
5.539199 113.9237 11.63288
7.070823 113.3747 10.76328
11.26762 123.8584 4.371985
10.83878 122.9071 6.049207
10.89638 129.7516 7.844355
10.09806 126.0711 7.976221
11.78864 134.8135 7.632147
11.2523 130.1383 7.093149
9.765738 116.812 8.00055
10.31749 120.9734 7.404202
9.670001 124.1424 8.882346
9.047036 123.1109 9.85565
4.689487 107.1131 12.56897
11.16582 130.8281 8.150351
12.27355 134.1861 6.24985
4.793978 126.1193 12.964
9.852444 122.9402 8.488276
8.123785 124.1805 10.95629
8.605033 123.9513 10.43793
6.645897 123.5202 12.13004
7.419209 107.4919 11.43126
6.129978 108.4608 11.92988
9.79862 130.5319 10.62958
9.711264 121.8459 8.670197
8.826513 120.1168 9.681256
8.719014 129.8432 11.56268
8.270538 110.4158 10.42873
9.742449 134.4543 10.11117
8.488568 110.0101 10.37487
12.29815 135.018 6.64891
5.780613 128.2773 12.77482
10.84584 110.6036 7.540969
7.878624 133.6041 11.33471
8.901011 110.1079 10.02933
9.929733 112.8121 8.016068
6.982855 132.3244 12.1235
6.295826 133.2652 11.95766
5.047289 133.9812 11.86948
4.021888 131.5804 12.69147
5.105066 132.4796 12.42488
7.568682 129.3264 12.20614
4.016412 131.3584 12.73171
6.548661 135.8021 10.63233
10.33646 128.6553 8.430973
3.243981 129.315 12.9982
6.721457 135.2147 10.91268
9.323427 125.0704 9.501163
2.947956 126.6588 13.21149
3.506267 106.8079 12.89235
9.488934 141.156 6.645569
11.97102 140.1662 6.828066
10.96417 138.9112 7.778355
9.958446 138.44 8.251501
8.424497 139.4381 7.988879
9.947899 142.046 5.959028
9.589688 144.9056 4.023314
11.25237 128.7029 5.045137
9.530027 115.1323 8.218481
9.903773 137.2592 8.942185
9.178455 137.7819 8.820299
8.661155 135.5393 10.19606
7.536102 138.8018 8.675399
8.12973 125.4704 11.05048
-16.34137 35.84339 -0.4567005
-15.93878 41.2195 0.4790828
-15.62576 43.95073 2.150223
-13.93198 57.73922 4.679722
-15.51392 43.67051 2.615231
-0.6148556 95.8641 11.54026
-14.41917 96.14301 4.835303
-14.74148 94.3931 4.324565
-14.16368 62.18355 4.294163
-14.31619 67.25843 4.833868
-12.71039 61.16138 8.692565
-4.46081 81.98429 12.35443
-13.78037 55.42142 6.727378
-14.89654 46.34477 4.245341
-14.93053 90.35021 6.099626
-13.25367 90.18448 9.136793
-15.3252 90.26103 3.949705
-14.46479 50.10894 2.232325
-14.62477 52.56516 2.03045
-14.37469 50.18341 4.030556
-14.36153 51.2367 4.457396
-9.626702 67.19038 11.23128
-15.3377 45.47524 2.750894
-7.365443 77.91283 12.45974
-13.24342 58.55365 7.883653
-14.29846 96.7971 3.390115
-10.23633 96.05762 10.28638
-15.3051 44.26923 3.221985
-7.38018 73.03037 12.18935
-10.2479 80.65898 11.9575
-1.865744 80.88428 12.38031
-1.432142 94.22688 11.28202
-14.67796 74.62997 5.481656
-12.72163 73.29314 9.999051
-4.197719 82.51129 12.32291
-15.1836 91.91721 2.930331
-1.779078 95.37827 11.39415
-14.65127 48.14481 4.066543
-14.33431 51.78109 5.14763
-14.04726 54.79867 5.988473
-13.95393 52.75812 6.550603
-13.73236 59.03685 6.203435
-11.37713 61.69451 9.835051
-11.92621 64.11725 9.598324
-14.21975 66.42509 3.364596
-14.3351 69.03692 5.730962
-14.64274 73.10108 3.66078
-8.706275 71.85105 11.9981
-15.12786 88.73239 5.728565
-3.334132 82.71996 12.3069
-15.18361 85.93513 5.479772
-4.639313 93.97493 11.0938
-14.55607 94.90484 5.333797
-15.26527 90.96265 3.901017
-14.33559 94.41838 6.455548
-13.71921 93.25388 8.04261
-1.75774 93.69066 11.21388
-5.301565 95.87103 11.10292
-14.34427 55.19816 3.826749
-13.75539 57.41162 6.409948
-14.19953 52.98027 5.851673
-14.18583 62.44427 3.728052
-13.89945 59.93402 5.5693
-10.85946 64.814 10.39926
-14.74874 74.63272 4.076041
-11.32251 68.12491 10.64213
-14.81716 76.34911 4.279323
-8.467113 76.99103 12.32318
-14.87297 81.59789 6.243994
-4.218175 77.92107 12.42932
-4.444336 80.13851 12.41669
-3.205667 85.88488 12.03255
-15.39409 85.94398 3.060914
-2.731184 86.30774 11.97892
-0.6516122 87.28345 11.85471
-8.711857 94.64489 10.74001
-14.97181 91.64692 5.708232
-3.799756 94.21504 11.13455
-6.869087 92.32444 11.08776
-7.698909 94.88714 10.85212
-7.354004 90.67184 11.25861
-9.801527 91.28737 10.90512
-10.81722 93.43371 10.31366
-8.299548 90.80979 11.18253
-13.89716 59.53609 5.442618
-14.01477 67.3791 6.792357
-8.457132 69.88597 11.74774
-11.08081 68.12402 10.81281
-14.4142 72.8894 6.70634
-14.76869 75.3222 4.14026
-8.754545 74.49614 12.15038
-6.010064 75.86702 12.34365
-14.57898 79.50374 7.250344
-13.9958 82.937 8.754998
-15.31146 84.82179 4.216621
-6.393929 78.45779 12.46914
-8.71448 80.63657 12.29925
-4.809536 82.1525 12.34859
-10.87156 81.24542 11.70816
-14.89458 87.2096 6.748862
-11.53055 90.12342 10.40762
-2.511778 91.27803 11.24372
-2.810175 92.69087 11.14021
-11.38867 73.57504 11.17312
-14.40685 74.72313 7.112168
-14.61386 75.96175 6.31711
-7.575486 74.97575 12.267
-13.64177 81.49033 9.27115
-8.88746 80.39426 12.27603
-7.177838 78.82249 12.46843
-12.15747 90.4752 10.03364
-12.62265 90.33228 9.669869
-7.081564 88.72768 11.59862
-11.74302 71.63326 10.74916
-9.781623 72.22433 11.77085
-14.94597 80.26436 5.555336
-14.2134 78.79738 8.102489
-11.44409 82.49551 11.40169
-13.5772 82.01855 9.32702
-11.18549 77.84058 11.56649
-13.93908 88.24082 8.530412
-4.137578 87.36553 11.84061
-5.635722 86.3812 11.97529
-5.141522 89.02262 11.56942
-13.72049 72.76998 8.527642
-11.54681 74.97751 11.12486
-14.45383 78.44698 7.351371
-11.4237 77.25157 11.3604
-9.536345 87.82735 11.4606
-9.728979 75.48756 11.94305
-10.83782 84.52641 11.51362
-13.49344 78.3326 9.357814
-14.0161 75.61525 8.208658
-13.01766 61.56163 8.271481
-13.45995 94.13512 7.992314
-11.87868 92.14631 9.966411
-11.74596 94.08918 9.757862
-13.69283 59.2103 6.405516
-13.37908 60.30137 7.620791
-13.37658 67.81432 8.39483
-12.74749 71.2883 9.821136
-13.2843 70.21502 8.984637
-14.02489 66.39534 6.555822
-14.31376 71.5848 6.751675
-14.11192 85.23703 8.60528
-13.87637 87.59794 8.678442
-9.716693 85.70884 11.75517
-13.39274 85.46754 9.578257
-13.06629 84.47436 9.927757
-6.507896 83.68401 12.24272
-9.600529 84.28604 11.90339
-8.835185 83.86597 12.03623
-5.012526 83.25415 12.28473
-13.81231 69.42771 7.930669
-12.87296 69.71842 9.503094
-9.942394 85.39883 11.7265
-13.00015 85.47765 9.988249
-8.787887 86.97379 11.73192
-11.54756 88.8952 10.56596
-6.964581 87.61757 11.7801
-14.68454 84.33601 7.419377
-10.32492 89.6388 10.98512
-6.89163 84.68804 12.1503
-13.29007 97.42172 7.458135
-10.33012 96.4663 10.22263
-13.43355 100.7893 4.244959
-12.98531 104.4581 4.2295
-12.53411 102.638 6.761483
-0.7820599 100.7351 12.42465
-6.795507 96.99069 10.99924
-5.628059 96.59656 11.12363
-1.092867 99.18095 12.0706
-3.44668 102.0205 12.39131
-3.840058 99.24065 11.75087
-0.9819462 101.3856 12.54533
-1.045246 96.0827 11.54189
-6.37818 98.98258 11.29011
-13.872 97.84447 5.690058
-13.27118 98.24147 7.204664
-12.9557 103.3416 4.996965
-3.337785 98.99992 11.78417
-6.560884 97.25153 11.05708
-13.40656 97.93301 7.102766
-7.454302 102.9005 11.4775
-3.420505 96.52982 11.37035
-11.28233 99.2625 9.243571
-12.08927 102.6932 7.692071
-11.8167 97.25935 9.201484
-9.278969 102.6679 10.59525
-12.06729 99.03922 8.528935
-5.14 101.1411 11.90453
-2.662988 97.25827 11.56405
-6.958961 99.93668 11.28991
-9.359597 100.0712 10.47952
-6.780919 101.6633 11.54819
-4.138191 102.2455 12.31099
-6.962765 97.6941 11.03949
-6.769536 101.2497 11.50825
9.843535 68.46351 11.38936
5.038475 87.86882 11.76077
14.51253 48.61622 4.228416
14.51656 47.86404 4.221053
14.98427 78.22152 4.271444
14.18167 69.04671 6.744595
11.44689 61.43404 9.541746
7.653773 79.28671 12.42339
13.81392 54.60043 6.232503
3.289191 94.74734 11.19234
9.691428 96.27174 10.38861
13.95447 60.5118 5.183509
9.960517 90.37199 10.94655
13.56535 58.32988 6.788143
3.346074 79.58933 12.40276
13.99876 62.46684 5.524617
14.76931 84.94578 7.077454
14.70717 86.65784 7.221016
14.91969 43.53924 3.055366
12.91389 54.8511 7.595182
14.75101 50.18092 1.484135
9.736276 73.4236 11.91039
14.65004 51.4507 3.695836
14.56984 47.33257 1.185478
15.39401 41.84379 0.666805
15.6677 37.20469 -0.06901684
15.3959 86.65253 3.719161
14.09182 62.79994 3.599516
14.84613 94.07949 4.590778
14.94403 93.26084 3.345037
15.39289 89.13676 3.815155
15.33342 41.06569 1.310431
15.17723 80.92424 3.455265
14.4266 69.46677 3.865019
14.84958 44.36048 2.797393
14.72448 45.14861 3.166684
14.6832 48.77699 1.297966
15.01174 43.59866 2.493611
14.6573 73.07121 3.756041
14.09118 76.85368 8.256901
4.47118 80.35487 12.40854
15.05831 80.43614 5.009778
12.38977 63.30929 8.87392
9.622413 67.41818 11.23052
13.49614 54.48808 6.792925
14.72604 51.93121 3.173258
14.01967 57.73114 3.981661
12.53951 57.16993 8.244237
12.43142 61.70285 8.747711
14.05392 60.70403 4.402965
11.3717 60.61044 9.514947
0.9423773 92.21333 11.15486
9.36391 94.52594 10.63639
1.894682 83.71964 12.24121
15.04717 92.53568 4.794487
14.04391 96.54948 6.353737
13.8877 96.04241 6.973204
12.82166 73.1771 10.02815
14.57097 71.51701 4.159409
14.65826 73.53025 5.352477
14.76846 79.69746 6.65187
6.75311 74.03797 12.27299
5.915819 76.72107 12.40234
3.67611 84.12362 12.21537
14.57018 80.42429 7.400417
15.44334 88.00328 3.069606
11.58632 64.82467 9.909453
14.48705 53.15012 4.258696
14.18745 55.22107 5.258346
13.95033 63.17076 5.912748
12.91442 61.32509 8.149148
13.70586 57.54127 6.446322
14.1137 62.79781 3.819255
14.19518 64.53439 4.595327
13.33895 62.85112 7.556677
9.767342 95.01784 10.53121
0.7366909 87.51559 11.81067
15.31812 89.03955 4.624641
14.97848 91.87773 5.666326
11.61115 95.06585 9.702265
9.065065 72.41013 12.01922
14.5294 73.95909 6.229233
14.48411 69.98145 5.076993
13.71022 71.93659 8.459596
13.4615 66.1431 8.03359
13.83603 70.88377 8.030127
14.79309 75.35924 4.401345
12.3344 74.73433 10.62399
11.6134 71.25308 10.82063
3.346588 80.65272 12.39339
5.016084 83.27239 12.29256
1.7258 82.09042 12.34117
15.14585 81.26452 4.728899
14.23253 87.37274 8.126633
11.49427 68.0331 10.45579
14.27234 66.60242 4.82351
13.93977 57.66724 5.329595
12.94673 64.84595 8.489233
14.09205 63.3093 5.170353
6.234171 95.02667 10.97289
3.149499 86.96758 11.89191
14.51332 92.74039 6.706428
13.93808 90.32284 8.297678
8.98788 69.93834 11.72862
10.20858 75.2588 11.91317
13.619 76.57055 9.142035
13.28829 74.90111 9.501568
12.38106 67.83733 9.658123
14.63437 79.88399 7.152505
14.71199 77.70153 6.594341
13.80438 75.6894 8.641744
13.77682 78.50346 9.048847
11.39627 78.1955 11.37691
4.110623 76.78056 12.37907
1.42443 85.18179 12.1074
8.400951 82.38352 12.29423
2.585023 84.59858 12.17013
14.17586 80.83483 8.430657
13.69415 83.22364 9.092464
14.74059 87.61635 7.074405
13.2368 84.27314 9.771096
14.99358 86.35732 6.364027
11.85707 88.77065 10.47024
15.10321 84.41895 5.858249
14.18202 84.27729 8.409942
13.90603 65.18834 6.594348
12.08648 93.54375 9.589936
13.2448 92.2176 8.846008
8.475498 90.44377 11.23204
12.34876 94.80753 9.268216
9.833201 92.50952 10.70653
6.642278 94.00616 10.95086
4.357641 89.13046 11.54535
1.323307 90.37205 11.32362
9.41674 89.01495 11.31825
10.97338 75.24419 11.57508
6.564728 77.68686 12.44664
13.79255 84.83131 8.973753
10.03692 84.70025 11.82361
11.51233 82.45895 11.31674
9.717429 91.57831 10.8471
5.940991 92.01144 11.11167
6.557435 89.43565 11.48491
3.459229 92.31413 11.11747
6.421163 87.39285 11.83448
12.64617 83.20051 10.45509
10.25269 82.39027 11.93802
11.10743 86.07889 11.24459
12.80268 78.89722 10.3046
10.97031 89.84132 10.7174
9.54645 83.70806 11.95692
5.083889 88.97734 11.5728
9.352813 87.82908 11.55763
11.07256 87.40167 11.13474
10.32666 87.92826 11.32119
4.659293 84.90755 12.14725
8.16545 83.99145 12.20807
6.348655 84.51131 12.19662
11.58754 73.16851 11.0418
8.625472 77.82928 12.40232
9.556659 82.06137 12.1378
9.249711 81.30879 12.21084
11.27945 71.60456 11.08221
12.16669 80.21912 10.88647
10.85259 77.8431 11.70199
2.01235 97.187 11.60829
10.44272 96.5112 10.12526
5.376119 97.97184 11.28942
13.26672 102.8113 3.181082
0.6188323 99.15163 12.09334
13.17544 103.3741 3.56599
12.22901 96.93538 8.894118
12.94703 97.1618 8.088518
13.67275 98.98152 5.032151
12.79497 100.7366 6.771785
12.21479 103.0972 7.28416
13.84603 98.50646 4.329179
8.62021 103.6575 10.97134
9.407881 98.30982 10.37265
3.0488 96.7807 11.43764
4.654626 98.09905 11.41718
2.720807 101.8232 12.46652
13.15034 100.1466 6.092684
8.03121 100.5643 11.03146
7.130986 96.87569 10.92459
11.67363 102.8074 8.277744
12.93123 98.89216 7.316555
3.345764 100.471 12.09173
10.95865 97.87023 9.64732
9.260387 102.9354 10.56746
5.878225 98.25716 11.25019
13.80951 97.99431 5.310905
12.41169 99.42183 7.964205
7.210564 100.9329 11.32111
6.351841 97.32425 11.06464
12.6713 101.9034 6.568527
8.99073 99.80271 10.60044
10.53975 98.62007 9.736608
6.35758 102.3001 11.7596
10.61299 100.3891 9.590044
11.56544 124.1034 1.335877
11.44206 120.0442 2.693327
11.88015 127.4429 2.248168
9.724261 121.1736 -2.907038
1.243428 139.3498 -10.56491
10.64292 145.1224 -4.959246
12.24434 109.2963 2.836143
10.62185 118.105 1.367979
4.851993 136.8525 -9.590524
11.52812 133.9499 -7.287416
12.75709 106.0848 0.6133842
2.327882 138.9122 -10.33425
14.00892 136.3512 -6.865944
1.262143 123.2105 -5.664694
13.5857 144.7213 -4.467546
10.64323 105.1315 -4.114081
2.500641 105.3034 -6.870849
0.01546354 106.8719 -6.066634
11.05127 107.6019 -2.445583
11.50415 122.3073 2.315429
10.68598 124.6658 -2.451696
11.54206 124.4853 2.697985
1.096761 110.0305 -4.672132
1.372656 114.2506 -4.082074
3.624507 143.8329 -8.756943
7.639313 144.1406 -7.540195
7.796987 144.8489 -6.662549
10.1994 122.7847 -2.594405
5.67666 143.4057 -8.628082
0.5764751 143.6807 -10.10585
14.2573 143.0297 -6.260854
0.3566128 121.0485 -4.610994
12.66158 107.4852 2.523672
12.60546 106.1025 -0.03710739
12.03591 108.4295 0.1029244
11.02729 118.0335 2.956103
0.6168361 134.7785 -9.43401
6.024767 106.4045 -5.98906
0.5754219 111.4581 -4.213642
4.378275 106.1526 -6.33792
12.12128 144.363 -5.621908
1.263384 137.5156 -10.04728
3.352329 141.5235 -9.659657
11.49699 121.7188 2.896354
1.190385 120.3342 -4.687522
1.454075 124.7665 -6.72132
11.21774 113.7084 2.242043
9.976616 107.7772 -3.553379
1.98296 115.9281 -4.974525
10.92805 115.7874 1.270053
1.368944 131.9781 -9.033932
14.37253 135.8489 -6.343918
13.55447 134.2754 -5.727388
3.750748 108.7236 -5.098853
2.211415 109.275 -4.915046
14.49157 139.3444 -7.416458
1.751984 133.5562 -9.296788
3.896096 139.7739 -9.977907
11.48898 122.4804 2.575114
9.771134 123.2236 -3.195881
11.14831 124.2107 -1.262113
1.894608 116.2846 -5.27539
1.449926 121.5093 -4.662951
1.899935 126.9447 -7.600606
11.81165 109.75 0.9244223
9.38096 108.1486 -3.814619
0.8221102 115.9533 -5.160933
8.446692 115.9603 -2.126348
0.6631227 131.4024 -8.881724
13.09233 132.486 -4.622538
8.467817 105.6323 -5.549055
8.570984 109.8669 -3.486364
10.60823 110.8222 -0.8629544
1.468849 109.9986 -4.675644
7.484972 134.1115 -8.872049
3.625618 134.5327 -9.340235
7.460275 132.5958 -8.659005
11.26306 120.9731 0.1735864
12.14176 128.3228 -0.3018536
12.77595 130.4512 -2.015527
1.085138 117.9868 -5.753232
1.630875 119.9659 -4.687434
11.26449 112.4279 1.688954
11.14633 110.3877 -0.2128451
5.088044 117.052 -4.740341
2.492925 110.0069 -4.631998
10.65286 116.9843 1.112568
8.39581 136.9088 -8.89297
11.8386 137.69 -8.01384
12.7276 134.8821 -6.922454
6.507234 108.3774 -4.941616
10.90091 111.323 0.007783514
7.085488 135.4641 -9.094669
5.653365 128.9833 -7.850721
11.12797 120.9962 -0.5909092
11.93043 127.5173 -0.840197
11.67618 125.1343 0.9282945
11.43464 125.4858 -1.124615
9.406357 123.9571 -3.908746
10.88316 125.4955 -2.591293
4.112083 118.6497 -5.339901
3.092974 125.1137 -6.84338
3.080899 121.4672 -4.638558
5.261335 120.7269 -4.505432
4.638865 115.4896 -4.144962
6.709376 115.5007 -3.329494
10.79414 141.4785 -7.933321
9.765046 112.8875 -1.265795
10.89111 113.3992 0.8036914
7.939327 141.1484 -8.78296
5.827304 137.4911 -9.494296
6.536883 137.256 -9.342557
10.82166 136.6882 -8.239051
8.299373 134.6713 -8.753552
4.799585 130.8784 -8.557281
12.89139 130.8337 -0.5038849
3.69272 117.0729 -5.41149
4.856937 126.7906 -7.353215
3.027809 114.695 -4.072308
6.091974 115.6162 -3.612734
10.25357 142.4072 -7.769872
3.565469 130.7778 -8.595483
6.385575 130.3724 -8.239478
7.935803 130.8054 -8.096777
7.807329 128.6337 -7.260205
8.126858 131.8085 -8.33156
9.668481 130.9391 -7.392422
9.535444 129.7299 -6.959978
9.265777 125.6558 -5.084249
9.486615 134.315 -8.336554
8.76781 133.974 -8.542562
6.467346 117.9472 -3.882302
8.855085 119.9738 -3.204686
10.28508 125.3009 -3.61837
6.514963 119.346 -4.497172
7.946393 123.8279 -5.03086
7.029351 123.1993 -4.95266
6.948716 122.8424 -4.785166
7.450706 120.2702 -4.136158
9.166614 141.4312 -8.395391
9.623571 141.9204 -8.112685
9.885784 144.2821 -6.51343
8.831339 119.1891 -2.257328
7.891618 119.4034 -3.541557
5.848437 120.5321 -4.412175
8.780295 115.478 -1.966133
8.998097 138.9099 -8.757605
9.271536 128.4708 -6.521661
3.267856 125.5512 -7.044567
7.0619 140.2362 -9.143802
7.16666 137.2494 -9.199143
8.955303 138.5721 -8.775774
8.312992 127.5966 -6.68178
11.3124 127.2164 -3.100933
8.344323 126.8809 -6.366064
11.13083 144.9597 -5.149385
12.01957 142.7443 -7.029031
12.08461 130.0703 -4.370987
7.302319 109.6723 -4.156628
7.189812 110.1517 -3.984452
3.957597 144.6341 -8.349203
5.441955 144.2502 -8.333553
2.670872 113.246 -3.991306
8.651848 117.1751 -1.38352
9.935231 114.8315 -0.8451472
10.91519 128.4796 -5.00905
11.18063 128.4832 -4.629535
7.894997 113.499 -2.893475
5.202259 111.9898 -3.938074
5.982862 113.8256 -3.499469
7.412909 133.2047 -8.785865
5.122427 133.1246 -9.082885
9.178266 144.5163 -6.547853
9.105785 119.3928 -2.146732
-10.69353 145.8163 -3.744618
-1.091879 110.2945 -4.512149
-2.372511 128.2076 -7.855385
-12.78101 142.937 -6.663854
-10.24411 105.6015 -4.307135
-1.022988 108.7113 -5.176197
-2.096134 141.5909 -10.55922
-1.421599 140.1415 -10.68155
-2.434544 140.0959 -10.51509
-2.454289 105.6225 -6.700522
-0.4196961 132.6917 -9.208952
-2.096407 107.5942 -5.690464
-4.530133 142.6105 -9.253854
-14.01761 144.7829 -4.16833
-9.289827 106.381 -4.711116
-0.1121185 140.0173 -10.78837
-10.47612 105.2765 -4.218046
-11.86743 108.4823 -0.03357257
-12.41933 144.0816 -5.745334
-12.23903 128.4042 -0.399349
-11.24155 122.3553 2.443013
-11.91978 109.2782 0.9832136
-6.045931 105.2288 -6.581176
-7.236453 144.9939 -6.837852
-9.880163 145.1854 -5.153282
-11.74585 145.4569 -4.107188
-7.744963 144.0788 -7.435953
-13.78984 138.1035 -7.498641
-12.01906 144.9691 -4.724716
-11.28456 113.7503 3.194459
-9.773507 136.7408 -8.514557
-10.92281 119.412 3.537464
-13.54981 134.2283 -5.738069
-1.284764 132.2138 -9.096811
-11.52694 105.6361 -2.773346
-2.851686 108.605 -5.197077
-3.232197 106.2834 -6.330367
-2.482414 114.4248 -4.062236
-10.57097 106.2604 -3.668659
-12.33766 108.0389 1.224719
-11.60948 111.0092 1.847128
-1.71496 136.9745 -9.840164
-3.89873 141.029 -10.13534
-4.494036 142.3542 -9.416184
-7.333529 142.9456 -8.273587
-3.851682 143.2052 -9.119902
-6.566816 138.4984 -9.499853
-7.347552 140.0208 -9.238237
-6.925151 135.0932 -9.079727
-7.596303 139.5286 -9.199957
-9.985582 135.8505 -8.367311
-12.48662 138.8797 -7.831118
-11.31062 139.3869 -8.090171
-11.58112 141.7287 -7.647466
-2.394343 132.6314 -9.129838
-14.55403 137.0874 -7.088314
-2.405908 118.5011 -5.199652
-10.81856 115.4732 1.487256
-10.9528 117.6806 3.671318
-13.15951 132.4646 -4.442522
-1.090146 129.7811 -8.329461
-0.3078533 128.9403 -8.067517
-6.812613 106.3757 -5.810225
-0.3764292 112.7706 -3.935398
-0.04107135 113.3141 -3.98943
-3.184618 109.1558 -4.944318
-6.583912 107.3666 -5.395696
-11.63417 110.2677 1.121908
-1.89203 135.4117 -9.480145
-1.292758 143.0988 -10.62962
-14.29622 138.7886 -7.448574
-12.70109 134.6397 -6.795653
-0.6622394 120.4762 -4.501441
-10.98505 115.6778 2.696289
-10.59446 120.6803 0.8736637
-10.40929 118.1941 1.905623
-11.72603 124.7684 0.908744
-13.19676 131.3844 -1.854419
-4.949335 132.8558 -9.009523
-4.25401 129.5886 -8.174828
-3.891459 130.2515 -8.41413
-2.661423 126.843 -7.503226
-6.509971 129.415 -7.883684
-2.606288 126.2655 -7.319366
-7.895977 108.1071 -4.606337
-3.360621 116.1003 -4.934305
-2.481279 110.7996 -4.332002
-7.490185 112.5978 -3.000671
-5.280221 110.0654 -4.422468
-2.620453 115.2158 -4.456
-4.0867 113.2321 -3.758536
-2.925968 116.8558 -5.480233
-12.19498 106.7928 -0.6612607
-8.955525 107.8438 -4.230256
-11.98144 110.2338 2.948996
-11.02017 114.9508 1.8195
-2.552144 134.4698 -9.345573
-11.63422 124.2335 1.241314
-12.18875 128.0436 0.4529522
-12.94949 130.733 -1.100302
-2.838986 133.3739 -9.217696
-5.859399 107.7571 -5.349683
-10.79609 111.4832 -0.06578442
-9.652586 108.9683 -3.145296
-11.20923 114.7526 3.158067
-11.05692 114.3787 1.593695
-3.124927 123.2655 -5.537362
-11.35722 124.406 -1.42014
-11.07634 122.2157 0.3518058
-12.91259 131.0689 -3.332981
-8.128003 110.4463 -3.487854
-5.853824 109.5726 -4.553342
-8.369761 110.5845 -3.286776
-3.582346 118.392 -5.195145
-11.17194 124.8464 -2.009282
-9.339354 118.9482 -1.158288
-10.09452 117.9289 0.8108706
-10.68436 134.1142 -7.823263
-5.908354 113.1123 -3.531454
-7.810215 117.7732 -3.348407
-9.527567 119.5759 -1.213461
-9.487446 116.3241 -1.214139
-7.851527 117.3449 -3.302523
-9.693709 110.8538 -2.067024
-8.66744 114.4174 -1.922564
-8.380052 113.3618 -2.194882
-6.708371 122.1476 -4.343332
-8.066448 118.8328 -3.295821
-10.34701 111.9712 -0.5884621
-5.604776 114.2624 -3.496014
-8.636248 119.8463 -3.241918
-6.501815 117.794 -4.728881
-5.504608 118.6084 -4.980423
-8.002255 145.2504 -6.073629
-11.33582 142.1249 -7.548461
-8.104465 143.1068 -7.989728
-10.65326 141.3961 -7.982618
-9.023011 143.3025 -7.604591
-7.696517 136.0071 -8.994981
-5.881124 131.9279 -8.770532
-2.000435 131.118 -8.76177
-5.843974 135.0231 -9.218877
-8.558262 132.9484 -8.430297
-6.142077 132.1709 -8.800928
-5.291578 134.469 -9.21034
-3.708228 135.8186 -9.485648
-6.376287 134.968 -9.155092
-12.96969 135.3627 -6.911325
-12.39035 133.9717 -6.701146
-11.75248 126.8943 -1.342982
-3.354926 134.3723 -9.305305
-1.920592 119.1036 -4.889875
-5.746069 123.7238 -5.2973
-6.328477 125.2684 -6.237075
-10.49206 122.4556 -2.581259
-7.988589 124.9915 -5.534564
-7.6402 121.41 -3.918817
-8.788046 123.5499 -4.174617
-10.1429 126.2905 -4.570595
-10.28917 125.5459 -3.976844
-12.04244 128.7173 -2.593483
-11.90357 129.678 -4.272311
-9.655592 128.1646 -6.120723
-9.153344 126.6535 -5.771614
-6.000038 127.7135 -7.40357
-9.957213 128.1176 -5.841008
-10.60872 132.3416 -7.343109
-6.860527 125.1705 -5.988453
-11.61995 133.3781 -7.040554
-7.407533 110.9629 -3.595439
-8.476834 115.1416 -2.178497
-6.696986 117.0284 -4.36497
-8.196785 141.3759 -8.714068
4.112403 98.39095 -9.475261
0.8630393 100.4728 -9.00407
12.67566 99.51019 -1.368426
12.83544 104.6485 -0.02609424
0.3258776 101.3405 -8.704923
6.442503 104.6166 -6.880427
1.029288 102.7413 -8.140968
1.421591 98.41054 -9.514874
5.329211 98.20673 -9.383707
13.08885 97.95226 -0.659902
2.417095 101.4757 -8.688981
3.175759 102.8997 -8.092869
1.396846 104.5154 -7.282368
2.743759 100.3012 -9.083508
4.896429 101.4914 -8.53229
10.17028 98.17982 -6.490991
6.300525 99.99377 -8.684875
13.43168 97.55209 0.261623
13.20786 99.72752 0.4884436
13.09636 103.7989 1.138645
3.489553 100.7298 -8.926075
10.83058 99.04775 -5.402731
10.25813 98.94565 -6.200558
11.76362 103.4837 -3.143792
11.14066 103.3532 -4.116803
12.32873 101.6691 -2.185374
12.69348 102.4224 -1.032072
7.64004 99.67199 -8.191372
8.86336 101.5772 -6.859161
3.615127 102.7324 -8.16059
11.78958 98.93935 -3.712127
7.916413 100.9088 -7.701843
10.00191 101.5555 -5.819672
5.395112 103.3539 -7.71889
8.911011 102.6367 -6.454281
10.54377 100.7067 -5.401589
6.891995 98.19006 -8.955763
9.293568 97.75647 -7.552781
10.87433 99.46615 -5.234601
15.82376 37.34601 -1.175931
1.745942 22.29285 -4.102919
0.9237729 95.10149 -9.897202
14.38024 48.6049 -0.05742268
8.611428 26.29478 -6.225278
-0.1910161 24.75813 -3.877847
7.24417 25.34131 -5.746417
5.017054 96.62832 -9.688294
0.6252046 26.52049 -3.936352
14.04197 59.24072 2.484534
14.02776 64.14983 2.945155
15.2804 90.69891 2.788997
0.5153321 87.67064 -8.790401
14.30174 72.91982 2.352521
14.7022 81.61797 1.049999
0.8680654 58.70897 -3.93025
13.58709 88.36584 -2.495997
14.78835 93.1832 2.321974
14.56832 33.34171 -5.213691
5.430456 79.65644 -5.235983
15.03827 91.20243 1.899351
13.2515 66.95584 0.8659186
2.481058 21.4196 -4.230825
10.41421 91.06834 -7.035653
0.9384318 24.84432 -3.952027
0.7248297 29.06217 -3.925881
0.177209 23.52847 -3.874393
1.909277 32.44123 -4.137067
2.204649 56.64948 -4.224592
7.094063 48.00897 -5.423159
0.338899 56.61028 -3.834868
8.133315 51.41858 -4.888589
5.403704 92.48475 -9.829402
2.304611 64.27996 -3.958632
14.62659 33.1066 -5.201457
15.32844 38.60957 -2.658909
0.1399764 77.62633 -4.85508
-0.06486099 63.72414 -3.837838
1.277762 81.61816 -6.005136
2.787717 34.96284 -4.36144
1.190238 92.53339 -9.96165
10.69186 92.82846 -6.65396
2.422803 77.06559 -4.705995
13.40925 32.63311 -6.227944
0.4162642 55.3189 -3.844563
15.41452 41.20547 -0.2460129
3.341586 32.70627 -4.489562
9.543214 30.4685 -6.373601
1.958211 26.00239 -4.132347
13.78914 58.23953 1.322968
2.671036 64.82906 -3.916422
5.260557 76.88356 -4.575817
13.55116 76.20165 -0.1582034
14.84299 89.14037 0.4232555
8.728026 84.12686 -6.08944
14.66689 87.16245 -0.2260816
5.194412 95.01946 -9.738331
13.94938 94.67651 0.2075274
13.58969 95.40849 -0.4575225
0.5235896 22.79416 -3.925587
1.814429 25.75861 -4.101605
4.613721 24.14938 -4.816648
7.504336 96.54263 -8.939956
3.448962 90.4346 -9.752205
1.881515 92.08488 -9.958724
15.84803 37.01958 -1.515874
14.08827 32.64534 -5.864508
15.81331 35.23114 -3.021556
1.615596 39.1918 -4.083605
0.9820239 44.89928 -3.963908
14.15862 46.97675 -1.050565
11.46324 30.02982 -6.744667
2.199297 36.82647 -4.218977
2.058443 33.42088 -4.177384
2.130509 55.67553 -4.218462
1.395992 56.10764 -4.045594
1.390829 58.39618 -4.031161
12.6341 59.2359 -0.2487921
14.48175 51.94531 1.072895
0.2239426 70.09978 -3.857062
13.77282 67.22797 1.912144
12.83631 64.97354 0.3620931
1.767581 79.94045 -5.442716
14.68737 76.48409 2.747818
14.50644 73.00725 3.00844
14.04862 72.41261 1.734182
14.90396 80.31561 2.301988
14.39186 82.32829 -0.007494253
4.106471 82.84341 -6.355791
14.88243 90.58767 0.9525518
15.4113 85.8829 3.150277
2.390311 89.13996 -9.414608
2.053722 85.22264 -7.561608
9.05246 96.89519 -7.895552
12.58087 93.51418 -3.611572
3.016944 23.23689 -4.35908
7.110417 94.01524 -9.326613
4.455394 92.52735 -9.943333
6.495021 91.77874 -9.557033
0.7231325 91.47418 -9.86492
6.674863 90.94198 -9.407874
15.21382 38.05654 -3.145479
13.74921 41.16732 -4.104053
12.56151 43.23014 -4.509319
13.65302 42.39466 -3.722195
1.79885 44.19397 -4.128286
2.821398 46.40915 -4.402825
1.566776 51.51171 -4.075461
14.50514 53.17222 1.500224
0.9449559 41.37003 -3.954722
0.6161852 35.14904 -3.912671
3.644029 24.48278 -4.520789
6.73489 27.62844 -5.550677
9.586992 31.83313 -6.325637
6.600964 29.56816 -5.498352
4.741482 31.24565 -4.898328
1.437805 32.3587 -4.05016
0.5438469 58.09491 -3.872952
14.04835 56.71932 1.615377
11.84205 55.53431 -1.169159
0.6900365 70.47127 -3.867149
0.5551926 65.43111 -3.857984
13.85662 62.94198 2.396755
1.017956 79.23446 -5.254817
3.742627 74.92323 -4.269332
11.60288 74.47194 -2.116387
12.42559 76.62016 -1.784293
12.87486 70.03416 -0.1026763
13.99691 79.98579 -0.3021516
15.17697 82.64214 2.732639
6.599204 83.67396 -6.436654
14.22973 89.21613 -1.245071
11.10083 92.55016 -6.125971
13.89116 93.60435 -0.6823519
13.89885 85.99693 -1.860579
13.87945 86.98387 -1.907303
14.33519 86.88759 -0.9475428
2.165773 85.45376 -7.681019
11.78447 95.7795 -4.502577
12.06619 95.24641 -4.10288
9.170331 93.09245 -8.174335
4.664026 89.4119 -9.433491
2.87974 43.81517 -4.412669
0.055799 41.54292 -3.841077
14.31768 50.16075 0.2364298
13.42086 46.68474 -2.405385
13.38311 45.69618 -2.888929
13.01427 49.83753 -1.549873
12.39373 47.65287 -3.086722
12.03918 46.07013 -4.040754
11.18421 46.84703 -4.406723
14.18811 51.61036 0.4109298
12.4937 53.72556 -0.9501579
13.32499 52.73522 -0.4573062
10.2445 56.32328 -2.168866
11.17396 55.21396 -1.696584
13.4454 58.20325 0.637141
10.56182 54.35258 -2.282313
12.16684 59.89631 -0.6161652
10.9324 61.04105 -1.480298
14.60797 44.44959 -0.5410631
8.793015 31.54807 -6.146426
1.842314 35.27329 -4.131501
3.113396 30.02133 -4.415977
2.279713 62.33208 -4.086082
7.840272 67.89244 -3.1991
2.744877 72.41781 -3.972849
13.34122 68.09968 0.8979377
13.1729 77.7111 -1.088809
14.39916 80.79851 0.4004543
3.322167 83.23795 -6.563495
4.323425 81.34949 -5.798377
13.41335 84.16168 -2.356766
10.86043 94.83013 -6.152867
8.9989 94.12222 -8.266431
13.06547 33.01178 -6.312223
13.81584 35.75476 -5.431736
13.14085 43.81171 -3.869843
12.9047 40.40182 -4.987035
10.7023 39.72892 -5.883179
10.26877 60.45646 -1.877076
9.781852 52.71952 -3.442445
9.822606 62.48302 -2.075619
10.8392 63.76348 -1.588328
9.237292 65.0471 -2.524569
8.346429 62.46071 -2.778318
6.817499 63.39418 -3.369194
2.818883 39.76594 -4.375759
0.7359845 38.19814 -3.933753
3.914492 36.19856 -4.684299
2.446278 70.0093 -3.801932
4.018405 70.74454 -3.77749
12.89213 64.51135 0.494256
13.13533 78.59037 -1.346094
14.21522 78.67774 0.5530028
7.977177 81.59715 -5.461196
3.967386 79.97379 -5.395121
12.16725 85.79314 -4.198145
12.9383 89.00424 -3.602972
9.996283 92.85354 -7.403846
11.58758 94.25583 -5.153073
12.97186 90.73485 -3.472316
11.23408 45.05095 -4.869726
10.33885 45.3456 -5.166737
9.142633 56.2391 -2.987479
12.15756 61.00482 -0.5292371
8.080138 66.45888 -3.040517
5.929214 30.51801 -5.275192
3.119375 69.95927 -3.771296
13.57015 81.72663 -1.585906
5.89933 78.88435 -5.004558
2.120438 79.19405 -5.228619
11.19065 84.24031 -4.78488
8.803946 83.7425 -5.907351
12.19595 83.49659 -3.691325
12.20505 81.68536 -3.206679
7.903839 82.79868 -5.818866
9.745815 81.48873 -4.851284
11.46026 78.72226 -3.150046
10.31688 80.52573 -4.284908
12.84594 88.02326 -3.676574
10.24018 90.42336 -7.129225
13.2556 91.34962 -2.894116
11.12339 88.22939 -5.914358
9.639704 45.0406 -5.439653
10.3927 59.14166 -1.851891
11.54789 65.64482 -1.167248
4.601495 64.74125 -3.793041
4.06369 62.87481 -4.089337
5.687857 36.42965 -5.206717
6.201607 31.56672 -5.361869
4.428313 68.01655 -3.637798
13.2848 72.52442 0.1289459
7.098182 82.76559 -6.013364
8.940575 87.07745 -7.225983
10.22587 77.81551 -3.68191
11.15024 89.57676 -6.10668
8.8249 42.32883 -5.761515
8.136052 61.69596 -2.899922
9.536611 67.39005 -2.647314
6.553747 63.58253 -3.449042
4.772151 68.12788 -3.606275
7.766438 68.51729 -3.255136
13.34902 70.6871 0.5547602
9.635149 86.89434 -6.744746
7.43834 84.29958 -6.560775
13.24586 75.78128 -0.5468591
6.717063 74.34821 -4.02145
10.5489 77.71994 -3.493782
10.65328 75.50691 -2.996587
11.33906 77.40788 -2.884087
8.78124 79.27802 -4.620653
10.36075 89.75338 -6.975134
7.716174 88.00793 -8.25473
8.803568 57.69798 -2.946274
10.16811 66.72583 -2.27684
3.642219 65.33165 -3.844386
7.311538 69.36415 -3.395388
11.91802 76.29781 -2.211209
5.20213 89.13589 -9.29615
4.768873 61.59601 -4.168356
6.162818 59.61506 -4.170141
2.321503 61.46015 -4.12614
2.831234 61.99092 -4.149982
5.532111 57.30595 -4.69594
2.13164 47.46087 -4.202354
3.211691 50.36353 -4.53219
3.948577 59.64932 -4.442648
3.597578 58.29979 -4.478479
7.092309 54.53504 -4.705818
2.931006 55.67151 -4.42775
2.971982 52.55538 -4.462309
3.730964 54.8878 -4.640926
1.188353 53.47275 -3.998078
10.33942 49.75562 -4.038878
4.813982 54.08912 -4.899054
11.24685 51.60544 -2.540948
9.767613 50.50332 -4.207719
10.81402 47.46158 -4.471734
10.10037 48.05278 -4.72436
6.607836 52.40003 -5.069928
6.044994 51.57071 -5.160367
8.523056 46.2837 -5.472588
4.442499 52.10967 -4.883683
7.717451 43.74584 -5.631093
7.569822 43.37907 -5.633188
7.309943 48.40851 -5.376853
5.83814 44.3339 -5.292563
5.082635 45.62421 -5.09282
3.728189 44.93122 -4.671329
5.435555 40.82211 -5.159096
3.778596 88.499 -9.170718
5.286559 85.88915 -7.74409
13.73772 37.38421 -5.176582
12.58964 37.41562 -5.747097
4.788141 76.68821 -4.557101
12.99972 31.4541 -6.578551
3.056514 74.56075 -4.230572
13.00771 35.50854 -5.925853
11.22527 33.46182 -6.46483
9.544904 36.45047 -6.122793
8.074081 32.54037 -5.916139
5.65054 37.97715 -5.201421
6.807176 39.91655 -5.532387
6.736166 38.78796 -5.510748
5.913156 41.69341 -5.296739
6.315596 39.24556 -5.400203
6.718051 37.79987 -5.501763
8.581186 77.96921 -4.381982
7.449473 77.84386 -4.582877
6.048369 76.38926 -4.425442
5.591299 74.4204 -4.111403
6.143652 75.77472 -4.297966
6.523839 73.08883 -3.870539
8.250093 73.90407 -3.713117
5.612694 72.7834 -3.900378
5.800284 73.54115 -3.976835
7.929648 69.80237 -3.331668
5.307038 70.08718 -3.651537
8.757532 69.48734 -3.123035
5.192952 72.16678 -3.852542
6.102903 33.45632 -5.325408
5.193292 51.68566 -5.05718
6.874779 36.6811 -5.541563
10.54733 37.29685 -6.133462
10.72257 38.84943 -5.999063
8.249967 38.01939 -5.866921
7.529727 39.64974 -5.698882
-12.80209 104.6955 -0.2677265
-5.892089 99.56762 -8.911404
-1.766396 99.88512 -9.168452
-8.458477 104.7726 -5.938238
-0.3965908 101.0925 -8.792609
-0.2481531 102.5888 -8.198503
-1.169084 100.4286 -9.016846
-12.76126 97.21613 -1.840464
-13.6274 99.93567 2.600432
-12.85789 101.2574 -0.546119
-11.80231 103.5453 -3.04292
-13.12101 104.189 2.290485
-12.7387 97.88418 -1.684143
-13.40662 99.98465 1.350874
-0.09583821 97.78773 -9.590358
-2.786593 100.4316 -9.008335
-5.215243 99.69245 -9.023829
-4.321413 101.9008 -8.419428
-13.16522 103.4453 1.808007
-5.717153 98.53861 -9.207619
-12.40947 103.6142 -1.66216
-5.435318 103.5667 -7.526352
-13.40629 97.08179 -0.05408813
-12.3205 104.2692 -1.690713
-5.46983 104.0638 -7.286537
-8.855036 99.70163 -7.352857
-11.15798 103.2347 -4.013971
-9.936234 103.6172 -5.254704
-11.35746 99.25103 -4.449121
-12.1619 100.8468 -2.590219
-5.032052 104.2673 -7.26434
-11.34753 101.8196 -4.038086
-8.992126 102.281 -6.531569
-10.35632 97.65049 -6.402232
-6.531221 99.2956 -8.800844
-12.87524 102.1512 -0.2888758
-4.527052 103.1703 -7.84847
-6.865086 100.8055 -8.221122
-11.56924 101.5182 -3.719336
-2.761541 43.81412 -4.352572
-0.2300383 54.70938 -3.774132
-1.508353 26.25029 -4.029852
-3.239723 31.68147 -4.44299
-1.133558 21.29809 -3.973311
-13.63965 95.35561 -0.3545178
-14.47724 50.57211 0.3112009
-6.298097 29.55452 -5.296723
-14.45852 95.28405 2.433797
-1.214844 33.87775 -3.988733
-0.8678884 64.80624 -3.862649
-3.890919 93.1358 -9.950126
-13.02615 87.38063 -3.306264
-2.81168 25.24007 -4.2859
-3.662957 91.00375 -9.820101
-2.17289 90.92716 -9.824998
-10.4161 41.22936 -5.754207
-4.456223 25.68795 -4.716741
-2.481145 24.09361 -4.20512
-4.776645 96.92142 -9.643105
-0.7016441 76.61118 -4.63745
-0.6618262 23.21313 -3.913795
-0.3097749 72.34464 -4.005545
-12.99983 95.3056 -2.068229
-14.10063 61.43782 2.499494
-15.30354 33.50781 -4.018897
-9.93111 48.32407 -4.908457
-2.514354 29.37054 -4.246989
