# .PCD v0.7 - Point Cloud Data file format
VERSION 0.7
FIELDS x y z
SIZE 4 4 4
TYPE F F F
COUNT 1 1 1
WIDTH 1667
HEIGHT 1
VIEWPOINT 0 0 0 1 0 0 0
POINTS 1667
DATA ascii
-1.368501 143.476 -8.247478
-11.86467 117.6934 -4.58611
-9.93708 119.8723 -4.801011
-14.52003 60.86581 -2.670109
13.75106 88.95552 -2.738139
13.4396 93.17847 -2.230986
12.47352 97.60703 -2.665065
11.86837 93.73797 -5.076998
12.80406 92.44256 -3.724685
12.49105 100.5717 -2.197494
12.11331 127.9425 -3.515922
11.3685 128.7428 -4.859803
-5.895556 18.76337 -6.693807
-10.26518 135.5854 -8.377597
-11.39686 128.3062 -4.469439
-11.50483 129.3272 -5.202977
-10.14738 137.7653 -8.488874
-8.374463 142.6308 -8.144444
-11.76256 139.2095 -8.103123
-8.812262 139.6787 -8.766655
-13.51931 140.9989 -7.450371
-11.63981 120.4062 -4.297772
11.64364 40.95435 -5.971403
12.50466 98.19988 -2.439213
12.12761 101.6718 -3.045373
11.16797 97.64891 -5.38799
13.50639 133.0695 -4.653052
-10.54994 134.2076 -8.155765
-11.45023 137.201 -8.23735
-11.48796 124.4987 -3.450524
-10.12074 124.8766 -4.247867
14.94069 41.09969 -3.915159
12.47995 88.4203 -4.485681
12.32256 89.89636 -4.788172
13.77594 132.8419 -3.821105
9.470635 132.0362 -8.54487
-7.649267 139.5554 -9.065021
-8.253969 125.1779 -6.178742
-8.512611 123.4384 -5.39386
-10.69097 126.9293 -4.511118
12.99704 93.44295 -3.027686
13.07262 133.2171 -5.547418
-2.995067 135.9509 -9.775173
-1.141944 137.5002 -9.594215
-7.948334 124.6704 -6.272004
-9.89014 128.3633 -6.534348
-10.71778 128.2685 -5.487326
-8.748958 126.8459 -6.709552
12.70182 90.59927 -4.17884
11.56495 129.6099 -5.314555
-4.51371 137.0814 -9.688868
-8.399091 135.4461 -9.014037
-8.016187 137.5784 -9.097836
-8.404117 134.609 -8.923416
-10.78637 130.5366 -6.825569
11.11139 38.99474 -6.15587
11.32928 39.72266 -6.092622
11.44712 132.5551 -7.383223
-1.864604 140.4051 -9.248772
-1.451231 131.7274 -10.10676
-6.257862 125.3096 -7.961116
10.89535 37.24385 -6.316387
13.20169 36.04734 -5.938638
-2.126795 132.643 -10.09057
-6.039947 130.2555 -9.311026
-9.537115 131.5084 -8.038447
-6.374289 126.8232 -8.300344
15.57868 137.5879 -6.8547
13.28462 142.538 -6.875067
13.64265 135.5921 -6.665859
13.98038 135.9327 -6.676238
13.88853 144.2812 -5.135289
-13.50987 95.92893 -0.6377645
12.5878 122.212 -1.47872
12.49932 121.8334 -1.536914
-16.13004 31.53324 -2.73094
-14.54926 31.40952 -5.223364
-15.98337 35.2752 -2.562011
-15.30803 34.89403 -3.965808
-15.26912 41.91037 -3.28524
-15.63529 44.37991 -2.402986
-13.23776 42.27648 -5.385845
-12.65604 43.55 -5.593575
-12.80965 39.00832 -5.829619
-15.30242 45.19725 -2.898914
-11.85351 46.45335 -5.504677
-8.399445 40.57294 -6.101448
-15.41178 65.22434 -0.8375688
-13.25518 67.53088 -3.232385
-12.40339 66.74363 -3.728376
-12.63184 67.69698 -3.567194
-10.42363 66.69776 -4.267889
-13.45188 61.66796 -3.510311
-14.41171 70.28171 -1.990099
-14.52371 70.84315 -1.770391
-14.92974 74.26689 -0.8303354
13.92307 27.04306 -5.97937
12.31651 26.99709 -6.58299
10.48381 26.93477 -6.724743
8.076982 35.38696 -6.160034
13.07061 32.14162 -6.225138
12.81068 31.38466 -6.339159
7.558568 30.22239 -6.490956
9.749358 26.46093 -6.73451
13.47382 32.8946 -6.000201
13.31329 35.34436 -5.918072
3.94537 18.96491 -6.732879
-15.80218 142.4348 -6.371531
14.23386 52.26503 -3.699575
13.81825 53.05769 -3.995901
8.101763 51.14455 -4.723763
8.283813 51.67223 -4.672603
11.93793 51.06395 -4.956287
14.93736 53.55702 -2.817068
13.19771 53.85969 -4.36154
13.86903 47.87674 -4.478114
14.12659 46.13976 -4.329128
12.84286 48.52379 -4.949868
9.402294 48.64151 -5.056629
8.886389 49.78989 -4.891762
12.6646 73.54546 -2.920717
-11.44015 54.82228 -4.80748
-14.61896 52.37555 -3.208415
-16.09878 46.30624 -1.158471
14.69489 71.67197 -1.596035
-11.85585 75.60179 -3.391925
-11.50565 89.36449 -5.894584
11.18671 113.9763 -4.937842
8.696054 109.1824 -7.619802
8.00801 114.5183 -6.49452
10.47024 113.2107 -6.46067
-13.5268 92.63911 -2.203522
-12.98891 98.30294 -1.081754
3.802749 144.3034 -7.875608
4.845595 141.8166 -8.917007
0.4748212 143.4816 -8.223759
1.267642 144.7474 -7.674336
0.884874 143.4823 -8.227815
2.389062 137.5885 -9.569951
0.6948197 137.7058 -9.575898
-1.155546 136.0975 -9.703647
-9.654794 28.17059 -6.572392
-10.79393 26.74461 -6.563899
-5.660633 23.30716 -6.623047
-14.30635 84.44696 -1.401731
-14.50478 86.54061 -1.233992
12.08984 100.4073 -3.195667
11.4721 101.4845 -4.303301
11.40183 100.0656 -4.582098
9.817511 107.6368 -5.845713
11.91723 104.5251 -3.211204
-12.68089 103.0321 -1.656939
-11.27655 113.0074 -5.453267
-11.9129 109.7412 -4.024096
-13.15311 126.349 -2.408404
-11.93755 126.9766 -3.069894
10.16778 109.4424 -4.860776
10.99262 105.7844 -3.979982
9.879252 105.9492 -5.353878
9.327615 107.0653 -7.462644
-0.50021 103.1752 -9.634672
7.742558 109.8919 -7.404586
5.647828 108.49 -7.635701
6.821795 113.7322 -6.724998
5.876563 109.0418 -7.560113
5.529356 104.9849 -8.25793
2.755737 96.59384 -9.887688
4.538104 104.3407 -8.352804
5.690085 103.4066 -8.703468
12.36792 122.5228 -4.009529
-13.5033 25.76915 -6.026543
-13.41864 30.12261 -5.947482
-11.7475 26.44002 -6.418839
-8.884727 29.92219 -6.509247
-13.73211 33.38717 -5.750658
-11.21398 30.38837 -6.466566
10.19637 98.90715 -6.640293
-13.85905 61.0579 -3.321809
-8.191539 120.3263 -5.579703
-8.000216 120.7366 -5.704504
-10.06593 114.8129 -5.846438
-8.300882 116.9668 -5.765483
-8.202816 115.445 -6.043593
9.699896 131.17 -8.258337
0.1194756 132.2689 -9.935529
-11.41576 131.314 -6.5873
8.149638 36.48443 -6.067148
-8.622341 127.3291 -7.14277
-5.215367 129.5098 -9.920743
-5.177419 131.6724 -10.15928
-2.614738 130.3039 -10.35964
-4.630412 128.8317 -10.25628
13.48745 138.2463 -7.709408
7.719257 141.5625 -8.708904
-12.77645 99.82307 -1.430574
-12.06773 98.49261 -3.40383
-11.37562 96.80056 -5.287678
-12.60081 62.26265 -3.973155
-10.62895 62.6279 -4.472027
-9.598942 62.19817 -4.69466
-13.71132 64.20245 -3.12649
-9.693672 73.84425 -4.467606
-5.426939 68.6424 -6.375218
-13.72079 78.7681 -2.296379
-11.52952 72.52834 -3.624391
-11.37739 75.36593 -3.616496
-14.38856 80.04482 -1.363262
-6.835581 72.76315 -6.028859
-11.59737 77.04644 -3.530768
-13.00275 82.39697 -2.93912
-11.73524 81.74519 -4.029895
-9.769896 87.79729 -7.427872
-9.741261 80.6888 -5.240676
-10.42719 84.91469 -5.76619
-9.056632 77.88499 -5.354754
-13.28078 79.87036 -2.551564
-14.37427 75.88583 -1.761237
10.18247 20.94326 -6.908585
10.72044 23.0684 -6.852299
8.34013 19.97244 -6.910334
9.416214 23.09944 -6.851765
0.8414526 22.01259 -6.604295
4.40779 19.38938 -6.733696
6.311455 24.41338 -6.6443
4.31413 21.48918 -6.662826
4.725912 22.45371 -6.64768
5.990521 26.89158 -6.547221
10.13542 31.27904 -6.580924
10.36562 35.09134 -6.42407
-4.894574 25.97971 -6.535551
8.925529 33.34117 -6.405513
-1.327774 30.88105 -6.078795
6.246824 34.81739 -6.017518
9.03531 32.16034 -6.480928
10.2806 46.63967 -5.390341
9.901636 42.49944 -5.708961
8.049682 41.84378 -5.485532
5.841616 42.51926 -5.287738
5.656366 41.37467 -5.362538
-1.220729 36.33121 -5.9161
4.960391 43.34106 -5.364119
13.9896 63.22581 -3.032406
13.72403 61.14704 -3.384513
11.18741 62.56677 -3.920595
13.06487 59.73696 -3.798921
9.709757 54.67704 -4.55645
13.39797 58.86205 -3.738425
7.521878 50.65065 -4.775765
6.454825 50.0419 -4.984115
4.445124 51.22941 -5.707436
8.65655 63.19376 -4.307731
10.59179 60.3466 -4.101485
6.94906 55.90596 -4.839364
12.07762 57.82813 -4.252075
11.2627 60.16118 -4.127663
6.312254 56.30208 -5.145279
12.89464 71.30754 -2.978662
-11.952 57.98534 -4.486306
-4.381832 50.90715 -6.373981
-11.99185 49.88607 -5.163006
-5.884709 47.17574 -6.09811
-11.76759 49.01344 -5.279837
-12.2816 48.48652 -5.247527
-12.4105 51.85143 -4.936626
-9.598775 47.93129 -5.536886
-8.939135 47.5786 -5.614496
-9.761708 49.85316 -5.369816
-9.608155 48.84386 -5.462833
-4.24929 47.16404 -6.416328
11.37779 116.315 -3.05128
10.31599 116.5518 -5.994446
9.048745 114.0974 -6.63259
8.938833 117.0294 -5.960565
9.612407 117.5374 -5.914083
9.980796 118.656 -5.721658
7.125602 116.9484 -6.417623
12.00448 120.8266 -4.516645
8.082248 121.1062 -5.984334
10.96017 127.8129 -4.754179
12.77568 121.1264 -3.201744
-13.68322 90.4529 -2.630479
-12.39002 95.33987 -3.599763
-12.56232 96.11064 -2.913809
-12.41713 90.49252 -4.611743
-11.31092 95.80782 -5.592512
-10.42427 98.53818 -6.365821
-7.537622 111.8528 -6.902641
-8.794425 99.36395 -7.902522
-3.428572 96.80628 -9.81286
3.258298 138.8601 -9.485451
2.738802 137.7838 -9.555503
4.810017 137.4988 -9.511404
0.6331827 129.0157 -10.09542
-1.439962 128.5608 -10.36702
5.312441 132.9626 -9.830715
0.5865577 134.5022 -9.779703
-1.631935 134.5446 -9.85885
8.596041 101.8419 -7.823023
7.849807 99.88251 -8.552958
-12.01745 104.5403 -3.012924
-8.396011 111.0409 -6.953202
5.900895 111.6441 -7.16504
-11.43816 36.2672 -6.375436
3.122153 27.79012 -6.418316
-11.90985 40.16655 -6.032568
-9.076475 41.28224 -6.031901
-9.09836 39.48827 -6.143917
-10.15303 35.82315 -6.365134
-13.52578 37.04904 -5.556255
-8.680395 44.22849 -5.868248
-14.58971 37.07816 -4.711153
-6.471666 38.14212 -6.20403
-3.510425 34.71782 -5.994186
-10.30346 28.9457 -6.531307
-8.629574 37.61589 -6.208832
-8.672729 32.11056 -6.431763
-7.434937 31.43747 -6.405366
-5.95222 31.91254 -6.270098
-5.315868 30.82619 -6.299908
-1.47363 31.70651 -6.012021
-4.933043 29.83621 -6.343588
-2.334145 33.16218 -5.96442
-6.844045 121.4774 -7.03146
-5.21796 123.0012 -9.255828
-3.261229 119.4705 -10.13273
-4.05171 121.9187 -9.912544
-6.080697 115.8049 -7.355471
-3.360983 118.3331 -10.07825
-5.838679 116.7006 -7.713825
-7.743719 118.0531 -6.011177
8.270289 124.9992 -6.572647
0.2591041 130.8085 -10.02324
-0.3008076 129.7329 -10.13747
-0.2782653 131.8275 -9.994657
5.195689 129.9872 -10.04867
-1.218577 127.2177 -10.41841
-1.756984 126.3201 -10.54731
-3.177233 121.4174 -10.31546
-2.749195 121.9713 -10.49624
0.6937422 122.7555 -10.43554
1.489903 125.1057 -10.27399
1.398193 121.8907 -10.46346
2.147647 127.458 -10.1515
-2.704005 126.9798 -10.58292
6.47374 122.643 -8.651722
-4.81454 125.662 -9.797428
3.700089 125.8486 -10.25687
9.739125 124.6625 -4.945652
6.666211 123.5622 -8.65908
11.20396 134.2252 -8.198476
11.22533 138.6893 -8.261902
3.879557 137.4825 -9.546624
6.963085 136.2473 -9.475451
6.035996 138.6094 -9.37338
7.969816 133.3338 -9.378669
9.822371 135.6879 -8.501062
8.918547 134.8985 -8.87942
-12.87462 98.04045 -1.479908
-11.80571 61.06751 -4.322115
-5.694544 70.68371 -6.348141
-14.13994 88.20848 -1.979363
-11.79923 89.27385 -5.486651
11.26824 36.24188 -6.39678
6.832628 36.53706 -5.897772
10.10888 67.68217 -3.839214
12.27904 57.63639 -4.222613
-13.74223 50.60357 -4.360607
-5.786878 50.61778 -6.048969
1.41641 116.0274 -10.49916
5.948333 116.1175 -7.463069
1.107559 113.3859 -10.46612
6.341784 117.9834 -7.383189
10.72184 123.252 -4.678476
12.84766 125.9368 -3.54718
-12.44677 91.54485 -4.416234
-11.54784 91.91695 -5.865442
-11.35277 85.64343 -5.312166
-10.29258 87.45388 -6.833913
-11.43074 86.55703 -5.516444
-8.755955 86.81808 -7.499856
-9.213198 85.69411 -6.756338
-9.717845 82.35241 -5.443789
-11.09476 87.40049 -6.120748
-7.623992 80.65135 -6.119226
-6.202615 84.48804 -7.268136
-8.317085 82.25242 -6.039467
-12.16614 93.01031 -4.680065
-3.702848 102.8514 -9.627589
-7.924041 98.56846 -8.610134
-8.464808 97.01498 -8.596026
-8.204329 92.76884 -9.210829
-8.023295 97.7263 -8.708263
-7.845077 93.28423 -9.398778
-3.674211 99.80473 -9.450905
-7.771967 95.31413 -9.221234
-6.397517 99.26075 -9.158115
-3.808812 94.92722 -10.05385
-8.273912 95.28971 -9.012868
-3.20218 99.39199 -9.458531
-4.431546 99.2638 -9.453557
-2.787198 104.1052 -9.894026
-2.619241 100.8589 -9.500749
9.923472 90.42549 -7.909505
11.14762 95.74835 -5.949321
9.122026 99.39692 -7.597572
11.12096 93.93756 -6.318961
-11.0681 100.843 -5.042253
5.160804 108.1134 -7.759467
1.82354 109.0141 -9.60248
1.384799 109.584 -9.960455
0.5056027 112.6989 -10.5309
1.677006 109.9129 -9.849216
4.949552 110.2916 -7.522309
-14.616 36.37854 -4.765175
-0.04312318 39.95937 -6.090109
-6.831365 36.72569 -6.180881
-6.004004 33.31728 -6.18509
-3.902925 34.12157 -6.024488
4.785764 38.18549 -5.572706
-2.897027 35.45982 -5.975917
-1.310936 32.80146 -5.935892
-2.951577 40.31184 -6.328405
1.862403 33.5075 -5.850764
5.33259 28.19487 -6.473505
2.656177 31.13933 -6.12219
-2.225271 24.08355 -6.548494
2.971371 30.02896 -6.248677
2.060622 28.62146 -6.327584
-5.219068 40.80101 -6.337254
-6.589295 43.7013 -6.118116
-4.564815 42.31882 -6.410512
-4.643777 40.14806 -6.324053
-4.615325 43.62649 -6.398795
-8.870679 28.68796 -6.545015
-8.070512 27.49851 -6.565393
-5.151033 28.81111 -6.418772
-1.255431 29.62867 -6.193058
-2.64186 116.2257 -10.23033
-3.490987 113.5168 -9.377436
-3.975505 111.9337 -8.746993
-4.517028 113.3545 -8.471335
-4.662905 110.3775 -8.266418
-4.708182 112.5664 -8.218826
-3.14066 115.3212 -9.911531
-9.34386 111.3604 -6.674624
-0.5158751 115.0055 -10.59823
-2.030219 116.9106 -10.41978
-2.474742 115.3399 -10.24348
-0.6575271 117.2967 -10.61659
-7.967727 111.1803 -6.993131
1.137157 114.1659 -10.49719
-0.3179705 118.8665 -10.65525
2.338232 122.5252 -10.41692
1.024398 119.3571 -10.5834
1.1164 119.0801 -10.58316
4.08309 122.3981 -10.13307
4.458227 132.4046 -9.860891
3.419222 129.3035 -10.07139
8.382556 129.5737 -8.335438
7.012161 128.7255 -9.484125
6.99453 122.9151 -7.949882
3.764617 116.8856 -9.689299
4.546831 118.9603 -9.527704
7.804786 138.8447 -9.093998
9.886345 136.0845 -8.478791
-0.8508626 19.58542 -6.662773
6.991257 43.33342 -5.243872
9.901488 59.43408 -4.175082
3.465933 64.44751 -6.703018
9.655404 63.64222 -4.03795
-10.13403 50.60846 -5.278529
-11.25992 53.90535 -4.898776
-7.537496 52.60725 -5.552248
-7.502854 52.31418 -5.56927
-0.2239222 48.43457 -6.683004
-2.967915 46.94766 -6.598028
2.668025 110.1657 -9.232649
10.31878 124.6727 -4.564535
7.899569 123.4809 -6.686523
10.56196 124.2122 -4.557556
10.28708 126.4082 -4.761389
9.418529 127.9378 -6.651882
9.006269 128.5083 -7.374143
-9.700746 92.70267 -8.12972
4.586962 100.5594 -9.233812
4.842158 101.4303 -9.078553
8.214404 98.09418 -8.564916
-10.16008 100.8703 -6.410083
-11.22448 103.2854 -4.914753
-9.445253 106.0375 -7.197324
-7.737113 103.6538 -8.261852
-7.066375 101.6289 -8.71047
-5.834682 104.8346 -8.718982
-6.790771 104.3503 -8.5057
-5.39611 107.4396 -8.358974
-8.814269 109.1077 -7.175272
-3.415512 107.3817 -9.23058
-9.17888 107.6898 -7.216232
-2.01599 106.1713 -10.10288
-9.746394 107.4192 -6.93261
-3.705713 107.7253 -9.046781
-1.203873 103.8178 -9.914094
-11.17052 107.0004 -5.606759
-10.86277 110.0837 -5.945707
0.4270286 104.996 -9.661159
-1.404193 103.2848 -9.846975
-11.94131 108.513 -1.767574
-0.07777497 103.9575 -9.648888
-11.43469 107.8417 -5.1344
4.426714 33.68887 -5.978431
5.300197 35.65798 -5.834888
3.280435 24.24818 -6.564816
0.04177924 23.68221 -6.558131
4.500305 25.29778 -6.559175
0.2860391 27.43717 -6.362537
-2.618457 24.9395 -6.523309
-0.4466882 24.74696 -6.514941
-3.55099 28.37915 -6.379791
-1.638491 27.19107 -6.399099
-0.4842009 24.81542 -6.511784
2.825039 111.2969 -9.311187
6.394781 120.967 -8.155607
-5.284634 63.31182 -6.228354
-9.215081 69.77349 -4.535699
-6.045073 68.57491 -6.110148
-7.52659 70.04374 -5.473622
-5.41382 65.19167 -6.236542
-4.88168 69.43102 -6.57212
-0.6621633 60.58835 -7.016596
-5.846712 73.05025 -6.366673
-8.264293 69.58645 -5.020041
-8.938574 74.44982 -5.046276
-9.331127 73.71775 -4.689534
-5.20308 57.90461 -6.205754
1.435974 59.47796 -6.902812
-6.490696 62.30678 -5.74
-8.76511 60.34603 -4.959126
-7.119848 62.49371 -5.474086
-1.31936 51.63784 -6.795025
-3.17034 68.92524 -6.893483
-1.755873 62.71772 -6.970342
-3.588662 67.82374 -6.811073
-1.133787 65.56057 -7.04589
-0.3874949 58.97242 -7.012672
3.20509 63.1432 -6.720551
1.971772 68.62639 -7.005627
0.6706535 21.45278 -6.618008
-2.323563 48.03511 -6.667708
-3.464324 43.07315 -6.487089
-5.507107 84.6504 -7.461714
2.778935 71.44431 -6.940497
-2.532994 80.94705 -7.091239
-3.639807 82.88033 -7.211669
-1.183448 83.20175 -7.402064
-1.39188 86.55868 -8.424104
-7.182687 76.91498 -6.091417
-2.01364 77.49209 -7.033302
2.331094 84.13898 -7.548124
2.660866 87.69444 -9.087566
-6.80287 77.20126 -6.219531
0.2624788 76.2569 -7.105072
-4.923024 72.92811 -6.619387
-0.564182 74.34846 -7.105173
-5.41668 91.57034 -10.07302
8.596021 96.01748 -8.697194
3.158046 96.00507 -9.947371
0.07695238 36.89435 -5.835672
-0.8215789 37.95363 -5.989008
-0.3797758 41.21105 -6.259053
-0.7099492 44.15623 -6.509913
-0.9783965 38.71109 -6.070261
4.659834 38.69048 -5.540917
-7.340704 64.72139 -5.354212
-6.683566 59.09983 -5.667988
-6.740892 53.33199 -5.739984
-9.186007 57.33463 -4.971814
-7.617191 53.78167 -5.490946
-3.002124 75.40951 -6.920392
-5.329445 76.97603 -6.589376
-3.757796 74.26296 -6.838385
1.421078 58.31273 -6.869125
1.58916 62.06257 -6.94534
-1.010174 72.5747 -7.094575
-1.897304 72.71886 -7.026072
2.323581 75.18486 -7.016335
0.1331091 72.14386 -7.106993
3.243724 76.21055 -6.928861
-3.300677 71.46984 -6.88986
-5.032006 70.24162 -6.560181
4.391639 76.80228 -6.771512
10.99734 82.20199 -4.65102
1.42911 70.7085 -7.06637
2.567811 72.60805 -6.957423
2.950866 66.86253 -6.845154
3.931047 67.93333 -6.675642
2.395845 47.48315 -6.180279
2.351657 51.98943 -6.443076
0.06360351 47.6549 -6.62186
-2.462608 43.46377 -6.512401
-0.6394387 48.67243 -6.710401
-3.789692 51.89558 -6.496439
1.336875 51.19444 -6.608382
1.294728 47.32539 -6.439758
1.812597 48.92063 -6.421941
1.340184 50.78221 -6.593339
4.482292 44.42864 -5.451917
3.773587 42.12498 -5.549756
2.470942 42.4977 -5.850847
2.627648 85.82274 -8.082525
-0.8558071 85.70386 -8.040923
-1.527582 86.98936 -8.666079
2.095358 87.42369 -8.930145
-3.519582 85.30992 -7.871048
-6.071906 88.94315 -9.373577
-1.306451 90.33006 -10.10172
-1.664286 88.19198 -9.377524
-2.423639 91.4776 -10.1714
-0.2832282 90.46338 -10.12363
0.7350647 93.19382 -10.18137
-0.6432218 93.18639 -10.18335
2.481951 88.01141 -9.274119
0.9995524 94.8315 -10.0887
1.528034 90.39227 -10.09334
2.647441 90.18296 -10.02697
2.20102 88.79583 -9.696669
6.549637 89.54178 -9.558328
7.8652 91.74402 -9.360504
4.59098 91.62731 -10.05459
11.66631 89.84798 -5.764682
11.49246 87.50692 -5.699724
10.39926 89.36517 -7.302007
4.556663 90.62811 -9.951348
8.270866 86.6778 -7.730723
-0.9383307 96.69498 -9.857557
11.64885 83.74172 -4.485351
1.972748 97.66737 -9.731976
1.878819 99.27477 -9.432001
12.46539 85.46886 -4.080365
5.654529 98.301 -9.507518
3.764031 96.88369 -9.857628
-4.789244 79.02676 -6.70781
2.639796 77.39893 -7.009372
0.6181611 104.6286 -9.522615
1.99116 103.8262 -8.887106
3.431018 104.742 -8.408221
-0.03826811 42.06801 -6.279665
-1.816884 58.68512 -6.889678
-5.968555 54.68013 -5.962056
-3.281111 57.31161 -6.646493
-4.275224 53.89904 -6.399765
6.981652 61.57828 -5.097967
1.499862 59.0517 -6.880323
1.154835 57.59264 -6.882178
3.595769 55.37843 -6.23953
-1.527449 57.03104 -6.88195
1.730074 54.36272 -6.694479
3.856528 66.87693 -6.675712
8.717424 65.73618 -4.342614
0.1092331 52.96359 -6.834799
-2.449272 57.2378 -6.787527
-1.733039 52.9213 -6.814161
5.211628 39.83303 -5.463589
4.996728 93.29293 -10.1183
2.910555 93.74216 -10.13966
7.007025 92.91409 -9.717689
6.538096 95.03082 -9.751743
10.4878 88.71397 -7.103663
13.75217 83.23782 -2.083842
14.30847 85.4106 -1.479887
13.34364 83.6166 -2.704701
10.90448 84.83174 -5.423381
9.791434 84.93163 -6.155092
10.16705 81.33076 -5.03055
1.699089 83.11684 -7.383417
4.063013 64.61518 -6.554345
5.053164 66.49799 -6.329212
5.366994 62.46765 -5.977869
5.133684 57.45381 -5.754973
8.343775 59.95011 -4.389674
7.553513 70.11807 -5.449969
10.50525 74.47007 -3.897825
12.16992 68.8586 -3.317298
2.596062 40.94419 -5.724172
7.693501 86.94421 -8.117608
7.097533 84.90398 -7.226491
9.729009 86.68836 -6.931992
9.253332 83.59926 -5.964913
10.48249 80.2221 -4.703514
3.223824 80.95394 -7.055745
6.63418 77.27041 -6.263441
9.111658 77.27314 -5.263944
12.88872 69.92358 -3.067635
8.639109 67.59284 -4.506395
5.733876 72.94632 -6.404778
8.783839 71.187 -4.725884
7.657801 72.53193 -5.633316
13.5554 74.94469 -2.439959
9.717894 73.94124 -4.3735
8.349648 71.97099 -5.122051
12.39962 72.36603 -3.096855
7.004439 72.20231 -5.915568
14.54866 76.5044 -1.490263
12.0739 74.95496 -3.137971
4.843649 84.58031 -7.516198
1.076824 82.18682 -7.289254
3.555738 82.43396 -7.168246
4.672585 81.26418 -6.913441
7.099703 78.22972 -6.156934
5.360766 63.44852 -6.04585
8.363629 66.27628 -4.598363
6.481642 61.42206 -5.367601
4.650252 82.91537 -7.114993
8.039854 80.15933 -5.952582
8.102128 83.27145 -6.332841
12.68987 80.38406 -2.992187
12.43868 78.06126 -3.005465
-10.45418 94.48991 -7.143288
-14.67433 134.4066 0.8652474
12.62529 117.0913 1.52857
-10.40658 65.95949 12.05627
-16.69835 45.97035 6.792807
-11.24293 145.7858 1.703896
12.57387 145.9212 0.7282022
-15.4849 72.30313 6.849733
13.06775 100.0861 7.301885
-15.55768 145.3687 0.5772259
-11.91866 144.7854 3.547575
-15.58182 136.0757 0.6475133
-10.5709 143.5163 4.923917
-15.87749 28.55051 8.317811
13.76319 99.55284 2.911052
-16.19911 23.28783 8.093252
-15.09524 41.61347 8.900074
-15.31666 49.58616 8.428414
-13.51448 102.3291 4.869898
-15.25408 91.85484 3.285589
12.3584 128.9325 3.914135
11.21897 137.4535 8.012009
-15.8587 44.62256 7.906134
7.079488 73.91061 12.49353
-12.3502 121.3131 1.411076
-17.43351 140.1128 3.692675
6.025903 135.4023 11.06384
-9.275638 142.8569 5.844893
15.44928 86.97884 2.875307
-16.94687 145.0326 -0.05915428
-15.08285 145.5948 -1.270304
-10.73389 145.9677 -0.4592842
-15.46596 85.98737 3.923085
-3.278998 15.75828 12.5984
7.878132 14.59561 14.12343
16.19466 14.80652 7.04668
-7.824654 18.23795 13.56869
-10.63286 135.4386 8.960303
-15.98456 14.72714 8.55588
15.08295 74.10444 6.859993
14.21348 56.64521 9.415876
15.39915 26.22439 8.027649
-13.49066 79.69045 9.824496
-8.28746 97.12206 11.18408
16.32721 21.3823 6.666705
-15.79704 15.82135 8.746436
-16.63391 24.30152 7.571105
-12.99895 106.168 3.286625
-6.080893 97.65177 11.72236
-1.2888 137.3476 10.66296
-17.1619 140.4936 3.866438
18.0886 143.6239 1.806845
-11.57431 15.14378 12.41599
10.49885 145.9997 -1.133033
9.594881 50.81824 12.83663
-15.136 15.67725 9.477592
12.18437 110.149 2.676179
16.55261 16.23686 6.441387
16.62675 14.64279 6.352309
12.98359 105.9727 1.286722
10.75361 145.9728 -0.4416962
15.12537 136.671 2.563345
12.07087 121.3718 1.316862
16.27786 145.1779 0.3108054
4.430968 15.03493 13.25812
-12.72247 145.8809 1.01042
-14.14616 145.6912 0.8180295
14.2494 23.90592 9.76421
11.59428 18.91351 12.66236
14.54597 15.55241 9.555943
6.333502 140.2284 8.448065
11.24605 144.7452 3.684319
13.18382 145.7889 1.340336
15.36428 145.4926 0.505134
-12.77939 113.6735 2.559904
-13.68408 101.0748 4.126157
9.814179 105.1907 10.48489
13.65147 131.0018 1.083
-4.028075 138.3774 9.887114
16.13798 59.97895 5.481534
-13.86352 73.7977 9.405025
-15.32402 46.03531 8.522619
-15.44001 89.32829 4.753536
15.40498 90.13985 2.874878
-15.29537 27.91804 8.982787
-12.05182 15.54929 12.11714
-3.867985 14.46214 12.78484
-8.217691 138.7202 8.548892
-15.08759 136.5032 2.532652
-12.53636 131.2187 4.855288
-10.78039 138.7448 7.721655
-14.31454 145.1339 2.406016
-16.59709 145.0673 0.3708192
15.09663 23.46821 8.548119
16.48983 40.15806 5.82116
14.75502 135.7714 2.063896
9.634064 143.4386 5.320345
13.41599 143.2974 4.271982
14.69833 143.5209 3.676759
-12.41427 123.6126 2.664398
-12.78846 107.3306 5.87752
14.32932 97.23241 5.184083
12.67192 108.0449 4.29844
13.25257 129.1853 1.212768
6.295704 139.811 8.664114
14.67239 49.25874 8.891525
15.95252 53.84269 6.330007
15.84081 64.97048 5.750403
-15.0312 71.47262 7.81488
-15.35403 61.66326 7.951215
-14.97119 64.01095 8.398711
-16.80426 44.76485 6.708952
-15.51344 80.1255 4.887884
-15.49852 88.26482 3.471885
15.46143 80.38888 3.915877
15.37481 79.28507 4.930679
15.4846 88.45422 3.859051
-15.59657 19.38344 8.893195
-13.43156 16.44176 11.07448
-8.350714 14.68909 13.63045
-14.51363 35.62907 9.676932
-5.24983 15.94922 13.17133
-10.08619 142.7288 5.594894
-10.07588 141.9054 6.120739
-9.121279 141.3345 6.794605
-17.02666 141.7078 3.607195
-16.45096 138.5293 3.479275
-12.73442 125.5389 2.092986
-14.76001 142.9224 4.039814
-1.438328 16.64052 12.15314
16.1966 30.68087 6.630767
16.31166 33.28152 6.371881
15.38924 33.84221 7.899855
16.31166 35.91953 6.295187
15.07807 135.1965 0.4804881
10.90842 139.457 7.3376
-12.39202 120.9577 2.379613
-13.04022 111.0072 1.800362
-12.45134 109.5097 4.53573
-13.83829 99.70461 5.526212
14.41838 96.80236 4.468257
13.26397 103.6096 1.524317
13.35953 103.205 4.253885
12.22274 124.3943 1.28057
12.27057 118.6354 2.877444
12.33646 115.8794 2.048789
12.98472 128.4764 1.667694
16.47349 56.20408 4.998765
15.9867 62.27304 5.639242
15.86911 65.45234 5.622922
-15.95465 68.70578 6.36084
-15.34324 76.95194 6.486787
-16.18789 63.22986 6.520964
-15.96017 52.82119 7.470048
-16.72676 45.20161 6.79002
-16.59982 38.38826 7.202172
-15.34901 85.38939 5.577157
-15.06534 93.08484 3.090448
15.54617 75.48099 5.377079
15.41906 85.16454 3.20384
15.19161 91.79468 2.407113
-15.49348 27.13567 8.780191
-15.32155 17.94417 9.228959
-8.405556 20.35429 13.50155
-7.18885 17.16269 13.56503
-9.428975 14.63694 13.45645
-16.58874 36.74903 7.270817
-1.490559 16.47786 12.16211
-11.75304 140.9153 6.189391
-13.32078 135.9354 5.305116
-13.24976 127.4275 1.237231
-16.11847 141.1008 4.138915
-11.78359 137.3358 7.701923
4.235343 15.70166 13.19057
16.33957 22.29941 6.622404
16.24917 29.42726 6.57394
16.73311 36.48853 5.51285
13.43937 16.07829 11.02561
13.68856 144.8499 3.045201
-12.64399 116.1795 1.760385
-12.93371 111.8007 2.072896
-12.56141 110.7432 3.508845
-11.66305 115.7471 5.555878
-12.99833 106.2904 5.07636
-13.75012 100.1325 3.200507
14.48605 95.95168 2.666152
12.51363 115.8111 1.539761
12.77762 107.4677 2.792722
12.29138 123.4728 2.474993
12.36857 119.8138 2.758887
11.66708 114.6538 3.371327
13.78365 133.3477 3.059301
13.41867 132.4664 3.039886
11.96988 126.1393 4.388058
12.67479 128.1208 2.5204
15.29843 55.75893 7.593494
15.49772 50.75694 7.359148
15.67762 51.10887 6.999633
14.96227 49.03185 8.388069
16.02924 47.33072 6.43927
15.27003 67.63274 7.036902
16.10248 68.53748 4.586766
15.08806 72.32032 7.077523
-16.48104 65.48689 5.777729
-12.78205 70.12523 10.66429
-15.24158 75.32227 6.969589
-15.48121 47.90443 8.280591
-16.44389 49.38027 6.978325
-13.60135 45.71954 10.38636
-16.47719 47.25229 7.028311
-12.6877 39.89851 11.2496
-14.27076 43.47131 9.761109
-15.10349 90.18003 6.426808
-15.30499 91.7883 4.17557
-14.19372 96.15544 6.485912
14.64167 74.45943 7.951683
15.03732 76.13536 6.751299
15.43842 81.11948 3.974545
-14.95075 27.11896 9.381466
-13.3015 18.17254 11.16153
-4.671384 16.79608 13.01559
0.3878892 19.92056 12.14564
-11.92487 127.9421 4.933665
-12.3994 127.2186 3.619213
-12.84353 134.1678 5.531004
-15.07508 140.506 4.738978
-12.05615 137.7294 7.440714
10.57125 16.1398 13.32177
3.584166 19.20425 12.99708
15.11745 28.74685 8.426595
15.41859 142.6972 3.791689
-12.21781 117.2093 4.083343
-11.01232 123.7103 6.789687
-12.36659 109.7809 5.672511
-13.07211 105.2515 3.689029
-12.64671 104.9344 7.250274
-14.60412 94.64991 6.202356
-14.34015 97.05959 4.081688
12.53155 108.0219 5.996323
11.76546 112.2298 3.70121
11.58104 124.4136 5.286005
11.57809 116.5367 3.880893
15.8709 44.80762 6.808132
15.61407 56.70774 6.930392
15.99169 45.01608 6.573952
15.338 63.72037 7.178284
-15.78936 67.13754 6.833497
-14.88881 76.64165 7.515788
-15.39761 54.06018 8.162092
-14.59869 63.78837 8.945093
-14.34545 49.39077 9.550795
-14.89665 52.48817 8.851486
-12.49688 49.62935 11.25421
-14.50996 45.06852 9.468898
-14.94487 84.2059 7.119652
-15.40572 86.46361 5.039086
-14.77733 88.87946 7.450104
-14.6558 93.1492 6.803166
-12.86528 95.21652 8.913579
13.48173 71.20457 9.831858
14.95422 72.59863 7.384478
15.41172 89.75894 4.829033
-12.90509 16.92378 11.49508
-10.05392 20.75441 13.07338
-14.41044 30.01133 9.903651
-13.38605 127.7637 0.9803005
-11.48399 128.2021 6.084139
-13.55737 133.5909 3.722265
16.43179 40.88436 5.901119
15.8507 40.9899 6.97394
-12.5489 115.9688 3.275037
-12.26385 110.4156 5.679914
-12.87236 105.9996 6.309348
-12.18119 104.2411 7.988707
-12.64171 108.08 6.123353
12.83259 107.0762 3.731348
13.84504 134.1905 3.371272
11.07672 126.7772 6.883324
12.53607 129.5784 3.678155
14.96245 58.02626 8.190703
15.41097 47.43459 7.618248
-15.34064 75.01516 6.794524
-14.52974 56.54599 9.160019
-12.54669 48.56826 11.2342
-12.41036 51.50257 11.28461
-14.10875 80.41162 8.871092
-11.2871 96.60631 9.933433
-11.3302 19.40715 12.5836
-13.2888 32.07074 10.91825
-15.08158 39.36618 8.972975
-14.4171 39.71254 9.702847
-6.276775 19.30892 13.41679
-13.7241 132.9359 2.677352
-13.77898 99.33754 5.929524
-13.45502 102.9051 4.201085
12.78243 107.0396 5.327901
11.99702 107.5581 7.503434
10.43631 123.8952 7.753729
13.54334 57.15583 10.17051
-14.22086 73.08776 8.981701
-13.11636 72.85368 10.29544
-13.52709 32.21886 10.69172
-14.97374 40.83414 9.060415
-4.719823 19.84112 12.99991
11.46916 123.5204 5.409665
-13.7845 76.52318 9.396551
-11.87423 79.07027 11.36432
-13.88801 66.39715 9.730026
-14.21851 69.82674 9.191233
-12.72958 73.22923 10.62811
-2.046119 17.65725 12.30382
-11.47004 82.75607 11.60687
-13.35575 77.38443 9.886884
-12.28279 74.54863 10.97133
-11.86088 77.32744 11.32363
-10.13038 77.30521 12.2129
-10.05823 78.65057 12.25286
-11.06741 80.19754 11.91098
-9.078809 79.23591 12.46831
-11.17683 80.98636 11.82997
-5.293699 80.52077 12.52116
-12.72029 83.506 10.71537
-13.13101 83.43049 10.3938
-8.090347 77.51779 12.53043
1.917512 137.6217 10.49539
4.924368 135.4228 11.29446
16.19454 138.3422 3.344287
15.11123 137.0601 3.166249
13.02058 135.2197 5.076149
13.59088 136.5953 5.052739
-5.889672 136.1544 10.6874
-6.749268 137.2253 9.847437
-12.90867 21.25999 11.46951
-13.78534 24.59162 10.65315
-11.31224 21.85577 12.51833
-9.401748 21.7275 13.23793
-8.947598 23.38245 13.31116
-10.7357 25.14506 12.7129
-6.379562 28.68451 13.36884
-12.50084 29.17414 11.64104
-8.264656 24.77211 13.45635
-7.269071 28.77687 13.39826
15.21842 80.62065 5.531085
-13.38377 137.2744 6.11195
14.97915 31.91828 8.589209
15.14951 30.99258 8.33514
12.48353 32.96516 11.68443
14.88654 35.51601 8.656907
9.121259 139.8015 7.638031
13.47452 101.7218 4.859991
14.10072 98.21326 4.127237
15.09105 91.72186 6.076325
14.76201 89.69827 7.379165
14.43844 92.93594 7.435069
13.39007 89.52311 9.395597
14.57618 25.34522 9.273766
14.64895 22.54575 9.242284
14.69228 16.47895 9.328983
15.29969 20.05486 8.317394
12.21015 49.93449 11.45598
14.70017 68.66764 8.273835
12.70344 75.29641 10.51718
14.05963 73.0937 9.110375
11.47217 69.65797 11.49701
10.88815 69.52466 11.78923
12.88337 72.62483 10.41848
9.778927 77.99983 12.29438
11.16965 69.78061 11.6563
7.1973 71.51605 12.47134
10.75527 67.03904 11.90181
11.53125 73.20705 11.4435
9.689405 73.01122 12.16786
13.16077 64.38226 10.33202
14.44276 60.19112 9.009394
11.49041 64.0679 11.61755
15.06193 58.24717 7.992592
14.37135 61.27223 9.099937
11.85437 62.94491 11.41135
13.87849 65.17664 9.644152
-9.164076 29.09035 13.18034
13.61558 18.4035 10.7627
9.117029 16.7489 13.90848
10.02061 19.2486 13.55845
12.49274 18.33645 11.94563
12.02309 17.7696 12.36523
13.23365 19.33644 11.18988
10.28905 22.83746 13.34666
12.50788 20.96802 11.85306
5.909568 17.71113 13.73326
4.991538 21.64902 13.49679
4.634665 22.10723 13.36823
-11.34589 119.2375 6.176956
-11.48876 117.5614 5.853377
-11.50524 116.0916 6.015883
-10.48616 120.6008 8.233453
-10.65435 124.8962 7.577808
-11.7315 127.1602 5.279824
13.41154 102.7323 4.691316
12.49845 101.026 8.143754
12.50399 103.5446 7.274294
12.57948 105.0336 6.693449
12.3102 104.3544 7.469944
13.12453 97.37691 8.093895
13.60977 98.23266 6.850984
11.23676 105.9374 9.008281
11.29437 101.5599 9.441667
10.85461 106.6421 9.373881
11.0845 108.9317 8.667595
9.200741 108.3832 10.66792
12.10741 111.0153 5.307799
9.680509 108.4815 10.24528
11.82481 110.9754 7.331023
11.4251 112.3186 8.024297
11.22989 110.4701 8.416473
11.45038 114.2326 5.616283
8.025509 110.3413 11.32166
13.25611 103.9045 4.637025
11.2557 116.1562 4.632415
10.79413 116.2437 8.200633
10.65843 121.534 6.788182
11.27485 114.1875 7.623357
10.78677 116.4607 8.168389
14.82646 41.56447 8.710006
13.63319 42.40621 10.27172
14.51838 40.18386 9.165937
10.85935 39.03273 12.60903
14.21967 38.67577 9.603095
-12.38001 55.0156 11.24625
-11.56133 66.71826 11.52131
-11.86524 83.69092 11.31505
14.47447 81.63921 8.236622
14.11263 80.77412 8.947772
13.33394 77.40352 9.94806
14.59687 82.7103 8.054992
13.92468 83.09362 9.266403
14.8878 86.11492 7.314972
11.5385 82.56751 11.5599
11.36825 77.01368 11.61843
-11.90974 117.8859 4.795583
-12.0912 104.5541 8.084319
-11.81497 112.7393 7.066894
-10.8848 109.98 9.031438
-4.679535 58.01031 12.77222
10.75448 57.27055 12.15143
-3.908372 21.83453 12.77234
-5.333417 24.3088 13.17221
-5.870609 23.75299 13.31654
-2.839644 24.97799 12.48632
-5.360517 27.36285 13.16654
-2.674097 20.67 12.44418
-5.900255 26.36287 13.30545
-11.09428 29.72483 12.49423
-0.6736331 20.37696 12.09824
-9.356005 74.30404 12.25833
-9.688141 71.65589 12.15792
-6.893813 71.60497 12.49776
-6.335017 77.64316 12.5452
-4.240404 75.60057 12.53718
-6.649236 82.01346 12.4917
-7.666327 81.55497 12.51984
-11.1762 83.86298 11.7082
-9.717926 84.23239 12.16099
-5.88606 83.19011 12.42547
-7.167577 87.31105 11.94652
-8.618815 87.7422 11.82561
-4.531446 83.58045 12.38195
-3.699657 81.69695 12.47742
-2.312171 85.52637 12.17948
-0.6807311 85.75187 12.1499
-10.67879 85.30318 11.78582
-11.98758 86.50542 10.96187
-13.41678 87.18761 9.63574
-14.84774 85.5584 7.446192
4.174043 136.0319 11.10471
3.685911 134.5459 11.86056
5.449729 133.1594 12.28194
-3.074849 136.2481 11.11223
14.28157 138.3819 5.19074
-10.01599 135.7229 9.273838
-12.99115 32.51872 11.1645
-12.91792 30.77187 11.27048
-12.21396 31.13278 11.79494
-11.33538 28.30898 12.3968
-12.53677 25.95812 11.69207
14.59658 36.35158 9.09001
9.775371 136.4955 9.173524
12.53964 136.3095 6.766489
12.87553 132.2913 4.965737
7.57128 139.0026 8.621591
12.06591 131.404 6.584996
11.41409 135.2018 8.131183
14.5758 96.17204 5.162418
10.94504 98.83685 9.91339
11.38115 92.63 10.36349
12.54709 84.05232 10.80197
12.11528 86.2055 10.90399
8.136509 83.34991 12.45843
13.16646 96.93515 8.166012
13.38968 86.41779 9.797782
14.46878 84.4397 8.318475
8.424836 84.57187 12.29769
8.377235 85.49648 12.18334
11.21885 84.20773 11.64061
9.993729 82.52002 12.207
5.369397 69.23476 12.56014
7.705481 70.08859 12.46052
2.590327 75.47371 12.52438
6.112884 74.99528 12.50251
5.978387 73.60503 12.50578
6.408284 76.25878 12.50077
6.10808 77.9491 12.51678
5.241119 76.17657 12.51139
10.91187 73.84064 11.75596
11.28766 76.77965 11.64519
8.422851 74.6709 12.41342
11.79635 78.9242 11.41267
8.609426 78.94032 12.47495
-12.39409 133.2442 6.582536
-12.57123 132.7025 6.18611
-12.45461 136.012 6.932475
-5.908667 131.3956 12.78213
-9.527908 136.0949 9.465035
-12.68605 136.0134 6.567777
12.92773 23.70355 11.42139
13.42343 25.9986 10.82041
14.45556 25.97383 9.435931
11.8995 27.8673 12.27496
-9.454191 113.4399 10.25195
-4.970354 120.6197 12.89771
-9.796257 124.5002 9.176195
-10.461 130.4261 9.922394
-8.241577 127.4002 11.63909
12.12946 107.0356 7.326122
9.151904 111.4811 10.50761
10.69651 122.4838 6.866493
14.41201 49.45643 9.242256
12.77287 49.14129 11.03101
9.851635 53.04723 12.62994
12.25143 52.79343 11.34229
11.17111 52.90786 12.07917
11.08966 55.32128 12.04373
10.37607 48.957 12.58496
8.326421 52.14529 13.02271
12.21833 47.10667 11.52029
12.02244 56.72703 11.42052
13.45632 45.76109 10.43012
10.95479 44.01374 12.45291
11.88202 44.03635 11.86049
14.22649 34.60706 9.625668
12.75411 35.58268 11.3758
11.93793 36.35528 12.01159
9.437897 38.11054 13.20554
6.452773 39.29353 13.48939
10.55214 38.15799 12.78205
-3.270605 30.40053 12.60234
-4.047538 31.28283 12.82176
-2.924304 26.5893 12.51659
7.607957 23.7459 13.87742
-1.492981 30.80992 12.22613
3.989295 24.83302 13.11502
-1.264697 26.90797 12.20224
-5.224337 29.54059 13.14577
5.211684 23.49302 13.53643
0.4835089 27.98362 12.17638
-0.8067193 30.61868 12.16455
10.32714 34.18634 12.99008
8.807273 35.30349 13.40331
4.505865 23.29135 13.31108
2.340262 25.415 12.58032
8.100289 36.6605 13.5279
8.593966 38.02152 13.40521
11.97216 42.20235 11.84161
5.911132 37.68951 13.43473
10.16784 26.98105 13.3097
-2.451656 32.75965 12.40977
4.868295 38.27512 13.19821
5.717342 35.4413 13.42568
2.460838 33.22432 12.57959
5.221 42.15469 13.24574
3.81024 34.08171 12.95059
1.485801 32.29223 12.37066
6.898763 40.95448 13.44165
3.58486 40.00092 12.85943
7.773579 32.38991 13.67735
3.421395 33.43156 12.85037
2.9766 31.48726 12.7438
2.464381 34.86805 12.59416
4.866452 42.28981 13.16909
9.048483 40.47534 13.22984
11.45071 43.6249 12.15434
9.219126 44.11028 13.08058
11.93233 45.67868 11.77197
8.764051 47.78642 13.12114
6.166382 43.76352 13.3367
3.423141 41.84489 12.80692
-14.9807 57.35338 8.609228
-11.87395 53.12116 11.60435
-9.83281 66.80835 12.21807
-12.57268 66.59898 10.88103
-13.45566 63.9531 10.21268
-14.31211 65.20418 9.308428
-14.18587 66.57242 9.390855
-13.07147 90.11242 9.683337
-13.73909 89.6283 9.004344
-11.54027 94.91494 9.936065
-13.31819 94.99606 8.477828
-11.88035 93.01138 10.07053
-3.6817 87.6503 11.93591
-10.28724 92.20674 10.89954
-2.430049 87.62827 11.94665
-3.893672 87.89499 11.90737
-6.266784 95.73727 11.57878
-11.09551 96.99512 10.00265
-10.10717 95.11055 10.58286
-11.49873 97.60995 9.69889
-11.63469 101.8957 9.135057
-11.57395 91.00817 10.54446
-9.874681 99.81693 10.56689
-11.89445 104.7037 8.328192
-4.281279 100.5645 12.27786
-10.66053 103.0287 9.929585
-8.906367 97.92189 10.96209
-5.477956 94.90868 11.64931
-9.357095 111.0239 10.44563
-10.09384 52.37635 12.4707
-9.457809 47.99112 12.76307
-10.05208 49.36488 12.55388
-2.353724 24.74897 12.37897
-5.802296 72.32103 12.5238
-5.660324 74.79698 12.53113
-4.279284 76.50842 12.5394
-0.5861807 83.05237 12.39925
-7.940459 88.88802 11.66741
-9.565147 90.99841 11.18907
-5.641138 92.15856 11.56516
-4.648674 91.79487 11.64532
-2.479358 91.71301 11.75058
-1.837956 90.92731 11.76604
11.20179 101.1118 9.530469
11.96598 99.00214 9.058189
7.964825 101.787 11.38648
11.43793 97.8928 9.612988
8.342718 101.4252 11.22528
6.003036 101.2286 12.03183
8.091648 98.70995 11.28674
14.30405 93.11191 7.674802
11.70274 96.42842 9.601007
8.015655 135.9028 10.12231
-2.564709 132.0141 12.70518
-2.175387 133.1713 12.3781
-5.118078 30.5696 13.11965
-6.262409 30.82786 13.29687
-6.645507 33.89768 13.32311
-6.388433 35.37654 13.28839
-8.205145 34.13087 13.2517
-10.01021 32.99591 12.88913
-11.68133 34.17715 12.08901
-13.64116 35.554 10.51728
7.58901 78.78603 12.52432
8.198963 81.27132 12.54929
-1.302636 80.40058 12.50808
11.82472 61.16539 11.47248
-8.284962 133.1561 11.4958
10.42877 25.10526 13.25231
-11.1288 121.7959 6.589036
-9.680171 121.9364 9.470097
-9.361712 123.322 9.798984
-10.51187 126.8887 8.085282
-7.964064 126.68 11.73522
-9.477949 127.1491 10.1203
-4.793863 130.0565 13.05064
-8.83667 132.1251 11.62298
-9.124436 127.064 10.60474
-8.340941 127.1068 11.45075
-4.989165 126.1105 13.03328
-7.099738 127.7355 12.38383
-7.398849 123.5297 11.83734
5.933818 110.6248 12.29226
10.04086 52.38475 12.60906
9.008549 30.9385 13.49727
11.5954 30.3438 12.44613
10.18598 26.41983 13.31998
9.62733 27.45833 13.44269
6.529624 26.69879 13.77604
5.205302 26.21381 13.48625
7.543382 29.3479 13.75254
2.191832 39.82696 12.50694
-0.2350642 28.3287 12.11961
3.880366 29.75984 13.02222
6.650668 46.70806 13.25955
-0.5390505 44.56307 12.2368
1.474337 47.27172 12.39227
0.9176936 43.47081 12.29278
7.998765 47.82849 13.17691
7.703134 47.03089 13.22036
-0.3786115 36.20578 12.20192
2.081388 41.07307 12.48184
2.558588 37.7079 12.6032
0.495757 42.24416 12.25674
1.602109 37.57884 12.37154
-13.6056 62.28939 10.10091
-13.2723 57.06859 10.52113
-12.31739 57.74918 11.24005
-13.12744 59.61494 10.6033
-11.27056 59.11007 11.82176
-11.69845 64.01579 11.48475
-10.39008 63.32904 12.11381
-9.348573 60.57556 12.47304
-8.61703 61.10963 12.59534
-2.456131 63.676 12.5461
-7.383652 66.101 12.56594
-6.004095 64.58923 12.68836
-11.75196 68.77275 11.37485
-3.848731 93.53865 11.73031
-0.8966187 93.64848 11.8646
-10.80848 109.4393 9.171792
-10.81226 54.66828 12.12197
5.171875 56.11765 12.91925
-3.530523 74.52176 12.53647
-2.237601 77.23652 12.53503
-3.618833 73.74847 12.5367
1.879554 77.36565 12.52791
-1.560528 79.34052 12.52348
-0.6882408 81.78025 12.46762
0.3620375 76.36089 12.53063
0.07250786 81.19733 12.48711
1.408452 87.6131 11.95562
0.2342524 89.34547 11.82967
0.5646179 87.32288 11.98218
-1.854754 85.31215 12.20068
0.2793664 90.29093 11.79282
-0.8145081 87.36355 11.97485
2.394665 84.82298 12.25007
2.860963 86.60265 12.05652
1.622874 96.36858 12.0899
2.663532 93.58836 11.83015
4.391023 92.2907 11.70211
6.972417 90.09152 11.60224
8.350121 86.55466 12.03127
8.676289 89.6216 11.49871
9.410855 87.95248 11.69876
9.892293 94.17967 10.77913
5.928712 93.25932 11.5912
0.3999977 134.8963 11.74884
0.3129182 131.152 12.81446
9.853386 134.0228 10.04116
11.01689 136.5121 8.436157
8.041327 136.385 9.866109
6.300169 133.0854 12.1955
4.476664 132.5183 12.5867
10.73839 127.3598 7.904745
5.714889 132.1749 12.61593
5.646399 128.0432 12.94301
4.103248 129.0849 13.08819
1.543112 126.1042 13.47952
1.242214 125.3266 13.49708
3.97261 124.791 13.35553
10.6034 131.3257 10.26445
7.149462 132.8906 12.07692
9.134768 129.9574 11.74605
11 129.6189 8.367292
11.55552 130.6218 7.441128
10.16026 124.9684 8.546266
9.482129 125.9162 10.00964
10.14646 121.7022 8.3069
7.854149 126.6293 11.83413
8.478992 130.0104 12.21752
10.22738 118.9131 8.994318
6.130816 126.4951 12.70793
9.318189 123.1302 10.05192
7.64675 122.5299 11.6662
10.56251 117.9377 8.371041
2.248472 125.1131 13.51961
1.419601 127.6008 13.27043
5.671272 123.5689 12.79851
7.665354 123.6064 11.69062
7.078645 125.1624 12.14976
6.514297 122.8218 12.40725
3.374527 121.5992 13.31516
6.355215 116.4656 12.19462
-6.243916 36.14795 13.2683
7.292742 82.75279 12.47029
0.4076977 77.17599 12.53048
-1.19216 74.05689 12.53429
0.8072835 74.38892 12.53038
-1.437483 72.80658 12.53534
-0.894246 71.28595 12.53449
-3.155943 71.96183 12.53908
-1.469898 70.19851 12.5355
3.424376 69.58012 12.55261
-6.684371 134.2652 11.49445
-7.486067 136.4962 10.00003
11.00968 22.50137 12.95287
8.242754 22.36934 13.88967
-10.51112 110.1272 9.454096
-10.01811 109.4482 9.962938
-0.9854053 103.1482 13.0064
-8.986362 113.9836 10.61003
-7.592146 124.2855 11.73357
-3.925784 122.4349 13.30947
-8.202727 118.1065 11.13507
-6.978527 121.2899 12.02085
-8.143717 119.6218 11.17559
8.230762 115.4297 11.07669
5.966157 113.465 12.31675
9.724283 53.55077 12.65879
7.555247 49.23753 13.16066
3.382777 27.3087 12.88476
-6.126544 37.02409 13.2466
-6.934665 38.83386 13.25354
-2.84515 38.56625 12.52261
1.196178 36.81547 12.30554
-2.03377 45.96863 12.45053
-3.339977 38.12474 12.62942
-5.325815 41.11966 13.06298
1.54332 38.33453 12.37282
-5.082327 45.06256 12.96665
-7.760131 38.3012 13.23088
-9.489178 41.50648 12.91221
-8.616543 37.26414 13.15257
-7.329679 41.56895 13.19888
-7.968984 42.91511 13.14044
-8.732289 47.05773 12.96418
-4.95224 43.94072 12.9614
-6.343794 45.18476 13.13082
-10.04332 44.95467 12.65213
-8.781529 70.26766 12.3299
-8.993006 68.35642 12.34364
-7.023437 94.34377 11.41566
-4.440039 95.62601 11.80536
9.166228 61.88737 12.53319
1.853019 81.26958 12.48785
4.658716 86.10237 12.11594
4.391015 88.58161 11.84373
6.190645 88.56519 11.80153
5.557595 85.1068 12.23245
2.466305 82.16368 12.4544
0.9248359 82.46666 12.43738
6.652286 83.02173 12.44107
2.39318 81.00705 12.49672
4.051378 93.36512 11.75338
3.812468 94.48267 11.82351
2.45582 95.15992 11.94524
4.780572 96.12992 11.86168
2.621483 93.07722 11.80818
6.771221 95.57742 11.54135
4.652634 93.05251 11.69954
0.523043 96.19127 12.08957
2.319579 131.5353 12.77752
-1.16263 130.569 12.91377
0.9491197 127.7145 13.25823
-1.064546 129.9274 12.99988
-1.31691 125.839 13.46725
-2.503339 127.1111 13.30126
-2.348388 123.3813 13.53347
-3.347086 124.5845 13.48446
-2.935981 130.1201 12.99731
-3.745317 127.6894 13.16683
-6.114189 129.2999 12.9597
-4.960283 133.2545 12.31053
8.365323 118.4831 11.05333
8.360324 120.1241 11.08085
7.853263 116.9765 11.35489
5.629402 117.6751 12.5263
0.7982023 117.4402 13.34176
0.9648462 123.3952 13.52413
-0.7570145 121.4721 13.45564
-5.127349 121.7079 12.93542
-1.703834 119.8971 13.37915
-0.07737814 118.402 13.38075
-0.4878848 119.4707 13.39924
-7.750071 34.8777 13.28558
-11.42319 35.13251 12.21823
0.9790661 71.42136 12.53384
4.055052 69.17574 12.56272
4.143991 66.79869 12.60547
5.879731 68.53987 12.573
-9.530768 116.1603 10.04347
7.604144 111.1415 11.53206
6.148134 109.8371 12.19589
3.127784 111.8009 13.0686
4.87855 112.3135 12.6456
1.045146 115.6214 13.30893
0.9289062 115.9187 13.3179
-4.598677 47.42605 12.86286
-1.251855 45.37798 12.33578
4.080256 48.72588 12.92357
4.738735 47.42452 13.07552
5.527051 48.8266 13.15761
4.274245 49.86087 12.94995
-2.78463 50.43885 12.55813
1.778172 51.08474 12.45478
1.523994 49.96843 12.41503
1.377004 52.38144 12.41093
2.962306 55.92123 12.65356
0.02989169 57.04975 12.39125
1.321007 57.45516 12.44982
5.926197 56.18181 12.97313
4.598602 52.27401 12.96467
0.462817 56.60244 12.38592
5.476056 55.58399 12.95481
-12.3118 42.41949 11.47668
-11.62769 39.51021 11.98463
-9.54468 41.03319 12.9036
-6.0451 47.09357 13.0776
-8.305585 49.28291 12.98676
-3.527471 47.10717 12.68168
-4.427163 49.56734 12.82045
-5.337159 51.62028 12.92481
-6.078858 50.54084 13.01669
-6.940872 51.53579 13.03727
-8.039425 52.5367 12.93626
-7.719989 57.41441 12.81843
-4.948201 66.28236 12.62217
-4.712742 69.93965 12.55473
-2.254238 100.8065 12.56154
-6.048588 98.09309 11.75857
-2.611309 95.46519 11.93786
-4.535743 96.3415 11.85042
-3.038913 97.16027 12.06858
4.368712 101.2163 12.37864
11.81784 92.84967 10.13057
2.873336 119.5186 13.25579
-0.2189155 68.26077 12.52781
9.690563 63.91439 12.33539
2.409275 69.31831 12.54648
0.1042293 67.82011 12.52651
-0.0616396 66.63282 12.51849
4.156602 66.22785 12.61945
-3.142973 65.61797 12.57196
-6.290823 65.73283 12.63171
-5.490757 62.17614 12.74044
-4.393078 63.11238 12.66536
-7.340459 59.38313 12.79665
-3.677123 58.36615 12.66316
-7.926012 117.0433 11.34842
-0.3787118 52.78849 12.32189
-3.046028 53.53986 12.5893
-1.210495 55.90666 12.38822
-5.984834 57.35075 12.89961
-1.780632 55.00964 12.42789
8.842166 58.36094 12.72699
9.731298 61.27742 12.4088
7.07948 57.14606 12.96443
6.066718 61.34068 12.81052
4.996303 60.12571 12.80565
-11.80604 44.22943 11.78659
-8.270914 55.85628 12.81078
-9.429443 54.42197 12.63176
-8.786665 57.71979 12.67897
3.95472 102.6874 12.60893
