# .PCD v0.7 - Point Cloud Data file format
VERSION 0.7
FIELDS x y z
SIZE 4 4 4
TYPE F F F
COUNT 1 1 1
WIDTH 1662
HEIGHT 1
VIEWPOINT 0 0 0 1 0 0 0
POINTS 1662
DATA ascii
10.41771 131.0208 -7.580093
14.43042 143.391 -6.363628
10.96434 118.6712 0.8889732
11.74554 129.0854 -4.351149
10.34231 119.0055 -0.5705736
11.70374 124.4884 -0.1048875
9.01655 119.3075 -1.627488
9.799439 123.2301 -3.254974
8.618447 117.6501 -1.741036
10.67808 127.1725 -5.372812
7.04002 125.2957 -6.18495
6.339749 119.9389 -3.606056
7.500232 125.4817 -6.129398
6.744083 123.8853 -5.652783
6.871679 119.0077 -3.095461
8.398045 125.2632 -5.32538
4.591328 123.6309 -6.522137
9.080546 125.479 -5.022672
13.42408 133.3378 -5.181679
6.551917 122.5106 -5.537196
11.0133 125.0053 -3.274419
14.96813 142.2899 -7.07348
-17.79044 144.6777 -5.171162
-8.327579 146.4477 -3.112896
-8.639861 145.084 -5.982452
-15.19371 137.7797 -7.17003
-9.588917 138.0316 -9.539567
-10.21607 143.6601 -7.012599
-11.61747 125.3568 -0.09028303
-5.848534 132.0759 -10.18823
-9.133219 130.2471 -7.584812
-10.62249 118.7436 2.068155
-1.389598 119.5857 -5.234896
-8.885595 143.0435 -7.710751
-13.23687 131.72 -0.3074756
-12.04666 128.9315 -3.172805
-18.45936 144.689 -5.384143
-7.030519 127.0061 -6.64852
-8.004022 135.3719 -10.13397
-11.78784 146.0529 -4.20258
-10.99692 121.2236 1.962844
-19.04272 144.5701 -5.467889
-2.226121 118.5625 -4.736981
-3.580013 126.8648 -8.071187
-15.09867 135.6581 -5.300498
-8.182185 138.4929 -9.712686
-12.25398 144.1668 -6.034747
-15.58939 145.9892 -3.56874
-12.77726 143.9773 -6.004289
-4.685802 128.652 -8.595258
-11.58104 126.1564 -1.093304
-9.877402 133.1974 -8.424281
-11.53699 139.757 -8.698016
-8.096527 136.1649 -10.15855
-10.65132 120.3614 0.5606034
-7.88098 119.9358 -2.654639
-9.521995 122.2651 -2.570925
-9.857183 123.6798 -3.191298
-1.755949 120.4331 -5.47986
-4.770335 117.2956 -3.5689
-8.333623 132.6797 -9.146525
-11.53431 123.8234 0.888274
-11.57651 132.8329 -7.083826
-5.372551 122.3447 -5.518779
-9.595703 144.2228 -6.659353
-8.754249 124.6926 -4.686499
-8.688404 124.9633 -4.996003
-7.435685 140.5714 -9.115111
-7.867254 124.3286 -5.192667
-7.349758 124.7117 -5.785879
-4.990077 124.6435 -6.224655
-14.68188 136.7961 -6.946454
-14.64087 138.6732 -7.839514
-12.39855 134.8093 -7.232455
-8.608974 130.6427 -7.976683
-11.61438 132.4215 -6.758414
-8.141295 128.5058 -7.168778
-11.51975 131.0882 -6.194793
-7.460803 129.9926 -8.155531
-6.846128 117.9789 -2.861297
5.618998 116.8482 12.39638
-17.36437 46.38856 18.48883
-10.80464 115.3527 9.836164
8.721829 116.1853 9.296148
-2.300538 118.5167 13.02453
12.5861 114.0436 5.925902
-24.30587 70.65265 25.16379
0.01338739 115.3683 15.14213
-12.90192 81.33598 28.54558
-5.559293 117.4958 13.45353
-16.75056 50.78403 19.70966
0.5015372 117.4298 13.82057
-13.53921 96.9927 7.814249
-11.10459 115.6457 7.940102
-10.82678 114.1201 5.31952
9.862517 113.1662 9.090459
-6.770568 116.9859 11.08256
0.0537114 85.58665 18.04179
7.526337 116.0738 13.04932
-6.145821 117.6174 11.44614
-0.9361318 119.3623 13.87653
1.202101 119.8756 15.44287
12.3874 115.0649 5.387486
23.67819 67.35612 17.34027
16.00092 103.711 4.725874
11.29401 76.66699 21.25096
19.7069 52.75137 14.46871
16.96616 48.44545 12.18831
16.28216 45.50798 11.67998
-7.366279 114.2187 11.99766
1.85331 117.5486 14.56425
16.51185 56.04132 10.01173
-8.838712 115.1823 11.56133
2.205398 117.5375 15.06327
-3.97974 117.6295 16.44781
6.315068 118.337 12.57269
0.6164104 118.5318 13.17603
2.061089 119.6727 14.94857
-6.223391 113.7949 12.36376
-7.110294 116.3531 13.94503
11.51364 113.5334 6.843514
13.91988 112.0414 6.108452
18.63551 81.07181 8.200089
-4.442533 117.1621 16.07744
1.824349 119.1889 14.7016
5.133678 114.4723 13.02383
-9.563281 113.5558 10.37655
4.205007 115.5241 16.162
-2.172233 115.8924 13.63171
5.834823 116.5091 16.17131
6.855715 115.8166 15.35438
6.410609 112.2689 17.6641
-18.4687 41.84747 18.01397
-14.08936 82.2501 27.89789
16.23624 46.50785 11.3897
-15.0008 110.2728 11.35984
-1.169718 89.91612 24.81049
-10.63715 115.5559 7.796642
13.9796 112.0422 10.7527
12.66858 111.3591 6.636857
14.6697 110.1544 9.578371
9.623652 114.9061 11.71321
1.122258 115.1354 15.44745
-4.708519 114.4772 18.42756
-2.193689 116.2645 16.02212
-17.75314 45.85572 17.75213
-16.98279 49.62252 21.11602
-16.4848 54.81947 18.94832
-19.78522 63.76068 21.81684
21.59258 68.47153 13.52295
16.22149 76.69566 21.31926
17.27828 48.38255 12.64501
23.55744 70.03637 18.89951
-0.3044531 86.82688 21.9403
16.91055 104.6551 6.116934
12.68252 114.3119 7.720173
14.72137 108.9812 9.844481
2.153801 116.9719 16.64688
-4.378877 115.2371 17.87202
-2.086989 116.1078 13.451
-16.95917 49.73266 20.98895
-16.52749 55.43204 16.83304
-18.82061 59.61862 22.12197
-21.86137 69.07604 21.60563
-19.31404 79.4749 27.02729
20.28002 78.22158 10.53474
16.58625 61.45788 9.110777
16.36691 54.06233 10.22402
23.70809 64.60838 17.22916
-12.98157 98.35919 8.585093
0.2972249 87.32567 19.50361
15.41601 107.923 5.176887
-11.93331 114.1197 10.0319
-13.15029 114.1613 7.508879
12.8034 110.1455 11.63062
-5.077472 114.646 17.01995
-1.821515 113.4423 14.5085
-3.190616 112.9311 16.73035
-16.7612 50.6801 18.83101
-16.46222 57.66376 16.01371
-19.57932 62.10752 22.14788
-16.15436 66.26707 13.39772
-15.37115 71.20273 13.11917
-14.45729 79.68133 12.53008
-13.3606 93.57571 10.34843
-9.714398 83.28538 28.68757
15.65362 75.95721 21.56993
17.86465 77.1685 7.527282
16.67283 57.34476 10.002
5.983485 84.89406 23.64135
17.63364 51.41058 12.46017
24.02656 63.48214 18.0322
23.30674 68.1311 21.09015
-12.54466 111.1562 7.842674
-4.141736 88.42544 19.76842
0.2342523 89.21802 17.1159
-1.154336 89.4744 25.16496
18.21519 96.96212 6.543872
14.98497 107.7774 7.098479
12.02313 111.8185 11.17453
-2.925109 108.8925 14.32864
-17.90157 58.04688 21.4661
-16.64246 60.18766 14.68058
-16.69189 59.68203 19.48611
-15.45895 70.50831 13.22348
-23.78448 71.19344 23.58485
-13.10296 97.63098 9.754385
-14.81044 83.93098 9.83277
-14.09756 80.85077 28.383
-13.47814 81.25468 28.42665
20.33458 72.48437 22.25352
17.32704 65.41778 9.389075
17.88416 81.94405 7.406314
17.64921 54.53952 11.80618
13.43258 76.98785 20.97962
17.26111 91.08856 5.950092
23.86115 62.34174 17.62278
-12.48909 104.6101 8.568097
-13.68921 106.3186 9.193151
-13.00142 107.0492 8.903255
-0.08024851 86.3699 21.15836
0.4342 88.60123 28.24212
17.54322 101.579 5.993955
14.5037 107.82 12.59415
10.67551 107.8399 10.2718
-3.088278 113.5348 18.68274
-17.37693 56.52402 21.05424
-23.662 70.61174 23.32299
-24.09488 72.19835 24.93621
-14.1518 89.38752 9.129477
-13.61496 96.27534 10.66991
-18.54314 78.16293 27.99189
-6.833337 83.61022 28.04437
19.50798 73.83763 10.37798
19.02881 78.0703 8.841876
17.64344 82.32695 7.152464
14.18083 74.55027 22.08678
8.862627 77.55484 21.88239
17.67697 88.08093 6.904855
17.74155 66.45925 9.67648
-14.73306 105.3206 9.391963
-12.96035 98.80823 9.315459
-4.228171 85.13931 22.47716
1.273704 89.83197 28.03613
4.299363 88.74447 27.01265
6.092896 81.43317 23.88616
17.74408 99.97794 6.05938
-16.30667 58.51143 16.14229
-15.42515 75.88316 15.31589
-22.14869 67.13146 22.38519
-13.5811 90.3374 10.59657
-13.26865 95.71288 9.929472
-14.15861 83.63042 12.24258
-18.16673 86.71212 14.90138
-14.92789 89.47079 12.72506
-18.45514 81.1209 26.65497
20.58287 71.27269 11.92791
19.22569 80.24673 8.913091
18.97775 57.22818 12.6515
14.89749 75.21059 21.83151
15.14509 79.29897 20.12642
19.21846 89.10706 8.287102
19.383 89.66891 8.480459
17.86767 96.09928 5.903293
-14.25809 106.9533 9.004903
-14.03274 109.3395 8.262866
-15.36684 110.3123 8.560925
-1.142715 89.16508 25.0182
-0.6938259 90.23027 22.25135
4.612868 83.54626 27.03391
-15.009 73.86244 12.99792
-18.62365 75.48746 17.91304
-15.476 95.37804 11.97885
-22.23551 77.60931 25.75659
-7.653386 89.0206 27.30009
20.53199 81.52685 10.71678
18.6378 60.53064 11.68012
9.044556 79.65688 20.77653
19.31922 87.97289 8.583385
-16.39565 108.2262 11.04112
-4.617075 87.50817 24.79353
-5.661125 90.44119 26.16737
6.788545 82.81258 21.63576
15.68874 107.2467 12.1284
-14.97914 78.30553 14.35815
-14.61175 95.27618 11.56971
-7.485065 87.22276 27.71216
20.26185 81.84234 10.26376
10.31811 80.09784 19.94436
20.85282 85.71126 11.30928
-13.3358 107.784 12.71532
-7.094246 87.88113 27.40706
15.80149 104.5645 9.910268
-17.32138 79.84909 16.08167
-13.90608 85.47805 25.03422
-15.36859 84.63892 25.65198
-15.76712 83.80804 26.48695
-15.18376 85.15291 25.07234
-18.56199 85.72002 23.85188
-14.67345 87.08186 23.49114
21.20788 81.15845 11.96302
19.74221 87.91102 9.118998
3.244896 96.94515 25.51445
0.1207277 93.60438 26.16904
5.3699 86.09398 25.38491
-16.04657 74.80959 16.27242
-16.6337 80.5206 15.51022
8.285377 81.71381 20.33662
6.711541 86.47117 19.96077
4.019283 89.2037 27.22405
3.926245 88.67171 27.42973
16.91839 104.2303 12.70716
5.774545 86.72145 23.14111
6.953838 87.66425 18.9465
4.944385 93.33588 25.21705
-18.96927 73.55244 18.58
-17.50972 74.59483 17.52277
-16.70217 71.25089 17.58637
-17.25944 80.51263 15.82514
-16.46095 83.5135 14.85765
-17.38192 74.54026 17.44848
5.635721 88.02728 23.56146
-20.23332 77.49413 18.2644
-21.38431 80.8748 18.55811
-20.50204 81.82145 25.04754
6.78566 87.57141 19.22014
5.856906 89.88077 20.70411
5.589664 91.57161 23.96679
5.603781 97.38239 21.28718
1.801937 96.96755 25.59172
9.213791 115.7048 12.78751
-7.072659 115.5212 14.57933
-1.905344 117.3579 14.63936
7.521543 114.9888 13.14689
6.310521 111.7519 18.2676
4.417311 111.0279 19.71702
2.214806 116.8877 14.81388
-19.32548 67.10771 20.55528
-18.83196 66.92018 20.29044
-16.61348 65.92236 18.57461
-15.67982 64.31413 15.94863
-16.36921 62.34407 18.58938
22.89776 61.36909 16.10926
23.79919 66.8933 17.70041
21.61195 65.40571 13.95009
21.01512 59.49406 14.27239
23.61281 66.61159 17.03458
21.22167 64.74645 13.60673
19.87046 67.64615 11.70109
19.99515 73.57362 10.94932
20.35281 69.53868 11.91955
-3.930302 87.89518 18.51677
-23.49199 75.12576 23.54148
22.43189 71.03307 21.23581
17.31773 103.606 7.04604
-16.49851 93.41463 12.71358
-15.57176 94.34352 12.20996
-22.69809 79.59107 21.46414
17.67406 75.68339 21.75516
16.45585 78.66341 20.52754
-4.14439 89.1322 21.28469
-3.691646 94.61718 17.26708
-4.64692 90.62314 24.68086
-4.007949 93.5033 22.429
-5.014832 91.5462 25.25496
-4.154544 94.80317 23.32646
-5.138673 95.94248 24.72666
-3.70052 95.99588 17.32639
-4.088183 95.72631 23.1135
-3.608239 97.79688 18.76644
-18.0438 103.3204 13.52482
-18.19764 98.7932 12.35462
-17.13875 101.7162 15.3521
-15.96767 105.5145 13.62674
20.88893 87.04929 11.5518
20.24889 92.54477 11.42403
19.92609 92.49953 9.769387
-14.69661 110.7361 7.959365
-15.54393 85.73802 24.37887
-19.95575 86.71047 22.66314
-19.87043 85.15419 23.7214
-20.4108 87.60768 21.70243
-21.57185 86.64668 19.3889
-10.88091 89.18787 25.6424
21.62463 79.43491 12.78881
5.772655 87.01064 23.00349
-17.05742 86.57727 14.4573
-15.25554 89.74234 12.90445
-17.88217 88.75818 14.28446
-18.84581 90.59943 14.38648
-21.4504 84.27197 18.23103
-16.23309 90.41837 13.25286
-19.8127 77.4323 18.03482
-21.62236 82.23563 18.66676
-22.3149 82.52097 20.77811
11.21252 102.3374 12.14505
6.337979 111.2988 13.25305
7.411766 108.2563 14.3475
4.667081 108.3586 15.74589
3.817415 97.65331 25.07017
7.007765 109.8733 13.79504
9.565538 112.0162 11.88645
3.684215 113.8287 16.46993
0.2688743 115.4887 17.34528
0.2989236 114.4511 16.09598
0.2669561 113.8299 17.99567
1.191511 112.4845 13.64821
-0.6647047 109.4891 17.38791
-0.162553 111.466 16.69669
-0.6946158 110.1521 18.73596
0.1690723 109.7699 16.68422
0.6295378 109.9617 18.92311
0.2918496 107.5144 20.9341
3.868932 111.9158 18.23396
-7.921501 112.4925 13.25597
-6.140236 113.5616 14.0076
-1.02249 110.5802 14.89043
-17.47433 64.03923 19.86953
-17.02728 68.08644 18.58847
-21.46516 71.42284 20.66646
-20.99316 72.1944 20.10971
19.78869 57.07178 13.50259
20.54491 75.86362 11.18731
21.50071 74.75151 12.68968
22.57407 76.10471 14.93418
-4.043109 91.488 19.87713
-3.828596 92.91017 17.84858
-3.70007 98.59529 17.12136
-3.982432 89.59161 18.49205
-23.20184 76.08926 24.90507
-22.77562 78.5815 23.92378
-22.91385 78.437 21.99524
22.28495 69.32116 14.38094
13.17377 106.3368 11.46456
17.44682 82.74854 18.73069
-5.564654 93.53286 25.53818
-3.595274 98.49946 20.90919
-5.257489 98.3965 24.35852
-6.175266 98.75522 24.52665
-3.432186 101.7218 20.61102
-0.4230968 107.0198 13.80347
0.9937467 99.81219 17.01056
0.9418139 99.38531 15.5309
1.025574 100.9988 15.20347
-0.005766985 103.0263 17.78804
0.2846037 100.6447 18.10501
0.7075465 101.4978 14.71538
0.008949379 93.48094 15.79635
-0.8367062 107.4468 17.85765
-3.163979 101.405 15.38196
-0.09335958 90.53888 16.29899
0.4284735 105.3173 17.13668
1.633028 107.513 14.1785
0.3984012 88.97157 19.57338
0.1117398 88.67475 20.49219
1.225135 104.137 16.40631
1.345091 105.9952 14.35293
-0.9582934 92.56357 22.45168
17.71528 101.1465 9.59513
18.64433 99.84778 8.402034
20.08916 93.59751 12.26137
19.32211 96.3159 13.21502
19.21225 95.30186 14.28886
19.32681 96.997 9.740023
17.96355 100.5765 10.67603
18.15278 100.4264 13.2714
18.08723 93.63181 16.12707
14.95643 97.15987 15.01839
9.300551 88.89358 16.49419
16.6454 101.4408 14.27097
13.35453 101.2593 12.15397
-21.78122 83.29523 19.03355
-20.66266 88.34977 20.90396
21.17072 82.4182 11.90481
-22.18373 72.50117 21.0312
-19.92614 89.2598 15.55107
-16.60543 89.19925 21.58021
6.073446 111.8727 18.89289
2.879233 107.7753 21.63747
0.3040567 95.98298 25.44479
4.625654 106.942 15.58736
1.319512 110.973 13.70233
-1.359106 106.4549 13.93601
-2.827369 106.4593 14.41388
-3.865613 110.2785 15.45199
1.058917 108.6084 13.89127
-3.892983 109.8374 15.69647
-3.37388 106.0169 17.31827
-4.405746 112.0954 19.74755
-4.554196 106.8808 21.74145
-3.223322 108.0207 20.13396
-3.963898 105.1912 21.76487
-3.072091 110.7032 19.43696
-5.626451 107.6957 21.5227
-7.657711 100.4904 23.33588
-5.881896 110.5671 20.04219
-6.955728 103.837 22.24265
-5.831746 101.549 23.70987
-8.993056 98.2094 21.83071
-7.319179 110.0502 13.80609
-6.144102 108.3367 16.28283
-6.934767 107.2343 19.95082
-6.720116 106.4602 21.03556
23.10383 73.62587 16.5412
23.27583 70.37471 16.38775
22.55766 74.27007 19.54254
22.64764 77.49948 17.29503
23.16369 72.73341 18.59326
21.82894 80.50127 17.97199
22.30408 79.91387 15.18548
21.47088 84.98744 15.94907
22.26117 79.9259 17.07542
19.04861 85.70078 18.0461
17.32523 82.01916 19.116
18.91494 96.62766 7.940297
15.55897 104.166 13.6167
-9.749451 92.24852 24.61187
-3.333391 103.8224 18.90714
-3.504993 101.3618 19.99722
-3.373474 101.6967 15.66845
0.7755865 97.52188 17.81653
-1.244469 106.7614 19.92881
0.4600733 105.5149 21.89052
-3.165405 103.4424 15.10187
-0.3468384 97.89255 24.16891
-1.114521 93.45995 22.38984
20.69653 89.17999 15.07408
10.44785 97.89439 12.93562
-14.73423 90.82136 20.83107
-11.20429 89.75261 24.82349
-12.72959 97.99715 17.14392
-14.27346 90.90834 20.88703
-15.32364 89.69385 21.39585
-14.93638 92.72415 19.7729
-20.21346 94.51368 16.19333
-19.77645 92.32785 14.9567
-19.33123 90.85573 20.07585
-20.79214 91.49522 17.863
-17.76911 97.33558 17.31265
-19.23975 98.79608 15.11922
-18.02756 95.55945 12.90283
-19.38103 98.77362 14.42935
-18.76517 97.16209 16.89829
-12.08312 99.89811 16.3176
-16.04227 102.1653 15.66134
-12.87672 94.36164 19.15955
-17.19008 101.2505 15.3842
-8.0165 101.0814 18.81765
-11.00697 97.46765 18.12247
-15.34915 102.1618 15.85229
-13.4776 103.9399 14.94593
4.365284 110.4341 20.32108
5.64593 108.5599 17.8037
10.05411 109.6879 13.52686
22.06649 79.35662 13.90845
18.7182 82.04043 19.28074
17.07546 81.20229 19.51608
19.55547 77.35815 20.86735
12.80653 102.396 11.36173
9.811746 101.9747 13.74006
-10.04851 95.98521 21.61751
-3.749626 102.1865 17.11549
1.828441 99.40491 24.75797
1.72168 101.0687 24.13771
2.697379 99.52363 24.75648
2.91111 99.80781 24.62816
21.2102 86.73483 12.70266
14.32093 94.49937 15.26444
-19.585 87.81571 22.11707
-9.036111 99.39884 18.76861
-10.17238 96.07982 20.89972
-10.68262 93.93159 21.61836
-6.812195 105.1994 18.58594
-7.870805 102.1451 17.80114
-12.62707 111.8177 11.78111
-15.36134 108.5674 12.36657
-13.90903 103.9824 14.67436
-10.74384 110.8565 11.25097
-12.04598 109.5841 11.98644
21.74133 84.00961 15.48887
17.09517 91.77013 16.88005
14.35592 92.33965 16.14964
14.57177 94.25635 15.55585
14.8137 91.41203 16.58618
10.85141 84.06773 18.03265
11.19569 86.32771 16.98729
9.955306 88.69828 16.32667
14.50911 84.31772 17.77306
10.95746 82.6935 18.59935
10.27967 89.13203 16.1101
13.66812 92.45466 15.75602
9.034959 90.4929 15.98592
11.13621 93.57075 14.36781
6.480824 93.68487 16.94631
10.39528 107.1299 10.47996
9.85965 108.1716 11.65154
-1.118278 95.50103 23.71382
-1.00683 97.31564 20.73178
-1.181213 97.53062 22.77277
-11.21807 98.01801 17.6224
-9.684322 101.1112 16.58564
-6.863394 106.7044 15.48581
-8.093611 108.4865 14.73623
-6.445579 106.1044 17.2863
-7.436555 104.5568 16.20664
-9.108301 98.03211 21.64053
5.225166 97.42875 19.66806
4.893943 100.5436 18.28654
4.121485 102.2408 23.53315
3.578884 104.9061 22.77423
4.715501 100.9251 17.01048
4.728302 102.7202 17.41591
1.130597 104.7598 22.49358
5.050662 97.47855 18.75155
5.372924 102.6297 19.38925
5.566687 106.1936 18.79722
4.620337 104.9904 16.24313
16.79054 89.49326 17.38343
12.5585 94.08322 14.43477
13.7044 96.91554 13.99053
7.094902 94.90201 15.78078
9.353994 95.95992 13.96703
7.845829 97.0835 14.58075
6.552632 100.2122 15.58232
5.398765 96.11704 20.2478
7.488828 100.1719 15.39244
9.92236 105.3119 14.18214
10.14219 108.3783 12.634
5.167568 105.0637 18.3987
6.975066 102.9332 15.03342
12.06664 105.2952 10.63274
2.111178 113.1694 16.45782
3.575588 112.7338 16.96638
-21.68643 82.23016 23.37445
9.834544 101.4242 13.34522
8.745749 102.1975 14.77855
11.13621 101.3992 12.00937
8.250795 105.2615 14.72235
6.671976 106.7983 14.34026
-5.709188 114.1905 -5.53946
9.454921 107.7593 -5.431853
3.688361 112.5628 -5.74912
15.92457 47.48291 10.62021
4.606732 109.9448 -7.345272
-5.383284 114.6365 -4.906449
4.792393 8.47754 -16.87229
27.9255 21.6587 -8.573018
10.98472 112.9095 -0.572817
-11.89663 111.6914 1.449862
-11.10172 113.4835 2.747311
-11.79436 111.6667 2.329842
16.23506 82.29722 5.471667
-12.1398 114.0587 2.684102
-11.08898 113.6723 2.455208
5.464724 112.7469 -4.723696
13.15798 114.7496 2.753888
10.17585 113.7967 0.09132456
9.466981 114.4956 -1.480313
-10.10793 114.2188 -1.475904
6.397717 112.7224 -4.320693
-8.384247 9.217255 -17.68044
-16.46691 13.80011 -13.82864
-12.5881 10.48061 -16.5031
-9.330206 114.5644 -2.273585
-29.49898 35.03045 4.773065
-29.34265 38.49673 10.59949
-21.7217 39.3946 16.07316
-11.18492 114.3631 1.609743
2.894217 114.4273 -4.299574
10.75953 114.9951 0.09877188
0.004124429 112.0076 -5.1906
6.100107 112.671 -4.388598
6.658135 113.2849 -3.136736
-8.641718 114.7148 -2.703339
-10.98567 114.4235 1.669407
-8.215742 109.9573 -5.19335
3.615223 114.622 -4.740269
-7.798347 112.6288 -2.818639
-0.8558012 114.4265 -4.419945
-11.51052 111.8938 0.108778
-11.3305 113.7862 -1.098012
-7.798965 113.4396 -5.218106
2.617548 111.686 -6.667718
10.97412 111.6904 -5.694807
9.904741 113.5501 -4.128538
17.36213 37.67062 4.815607
-19.19595 39.25398 17.99728
-5.41852 83.02283 -15.61209
11.58636 114.9474 1.340527
-15.05523 111.6519 4.318832
13.4502 113.3326 -0.0725873
3.361295 113.4371 -4.843527
6.216449 111.2264 -4.882639
2.871513 112.4891 -5.411105
3.576606 111.4244 -6.145395
-3.414134 114.3713 -5.53037
2.110337 111.6362 -8.530656
-0.07868124 112.7419 -4.539711
0.01249603 109.6716 -4.843702
10.35305 110.1656 -6.217872
15.40283 39.7369 7.732128
15.46423 62.79832 4.047552
-25.68256 47.39206 12.27475
14.48053 10.90218 -14.22775
-14.59748 97.26013 7.04666
-13.0179 110.2091 5.196038
11.34746 113.0553 0.196456
-8.211893 111.9625 -3.159169
-8.642759 109.6264 -5.644601
-3.61888 111.3013 -4.609674
-4.507882 109.2435 -5.90756
0.7066168 109.775 -5.989638
1.113915 107.5422 -7.464688
15.36068 50.06441 8.398971
15.28184 39.06295 8.48061
29.45994 47.94577 -5.468966
-18.44321 51.02331 15.19775
-20.81086 39.12384 16.7311
12.02339 112.4096 3.654227
14.21973 113.4242 2.950579
14.21842 112.0273 3.622837
14.32156 107.2045 1.905212
14.69126 96.1341 2.477551
-17.57525 100.4589 6.053204
-12.38171 109.27 5.341514
12.70265 113.0789 1.412951
-8.113199 110.1471 -7.899632
2.53229 108.8923 -9.883481
1.701319 106.3088 -11.29291
15.36387 46.81355 8.997673
18.10152 37.24012 4.412051
15.26431 55.66185 6.946696
-18.08916 68.10732 11.22959
-24.79777 34.25622 -1.1233
-19.53133 43.90303 16.27115
22.76046 28.29432 -11.1257
12.36638 111.0849 -0.04442423
14.71982 111.7241 0.5052295
17.06172 91.96666 5.297303
-14.02112 93.80861 8.098281
-15.0566 97.55993 6.858878
-15.65015 107.4333 5.657235
-8.470971 109.0035 -5.029084
3.014003 108.4577 -9.567469
-2.172425 109.4325 -9.148718
1.137507 106.941 -10.71554
15.3096 45.87171 8.197096
15.53506 43.27637 6.533585
16.50794 68.77023 7.762501
16.17461 60.19544 8.721598
-16.53906 65.10329 13.15369
-26.2753 28.83873 -0.451806
-29.35148 35.83735 4.646152
-23.79607 39.69967 14.96263
-19.5313 44.23784 16.17928
28.03557 25.32422 -8.665536
14.30452 13.88148 -14.58476
14.04267 112.0454 -0.766982
12.87146 107.7968 2.403492
16.60365 98.09205 4.57636
16.34982 95.86371 4.133251
16.41853 90.90591 4.906855
-17.59871 79.65386 9.179718
-15.76271 92.57982 7.484762
-14.35784 98.19597 6.950573
-9.403932 108.1938 -4.684956
0.6079429 108.4824 -7.861355
20.08015 37.73083 3.60365
15.85548 61.06372 8.026031
15.63923 55.23526 8.565079
28.94571 33.95565 2.528147
-18.71751 58.45113 13.03653
-17.25989 68.77078 11.51941
-10.12409 12.67035 -17.47
-23.60343 24.55366 -4.540843
-29.96647 38.17953 7.529525
-28.95492 35.45955 3.886863
-19.54789 52.92835 13.8784
-20.31614 49.36943 14.34161
-20.22937 46.47693 15.11251
30.04782 25.17526 -7.66771
18.54144 14.21475 -12.75304
5.02101 9.418239 -16.93194
13.9365 103.4747 3.405211
14.79149 93.26482 1.986668
15.25788 96.87096 3.267933
15.8401 84.89978 4.678311
18.50407 80.64536 0.05256968
-16.46081 79.19836 9.711926
-15.83535 89.61543 7.96299
-15.66717 86.12575 8.68164
-15.843 103.7523 6.022463
-9.510252 107.6385 -5.510139
15.29738 51.06667 6.607802
17.98651 39.36721 4.218961
16.64924 70.47848 7.623313
16.03063 56.69559 3.776439
28.23534 38.94156 2.343127
28.50251 37.83669 2.336315
-18.19202 57.1837 13.71953
-18.86583 66.75591 11.17617
-19.81643 21.02125 -9.949502
-9.861745 10.24662 -17.45676
-25.14944 26.11838 -2.308357
-30.12704 35.87531 6.698967
-22.54216 49.35498 13.35575
-23.65695 46.0862 13.62524
31.25311 29.80067 -6.537531
31.42541 31.70112 -6.117535
28.03489 20.65121 -8.440761
24.01639 18.3971 -10.34234
4.755455 7.673682 -16.79615
-2.188742 9.686948 -17.87761
13.3621 103.6196 2.072229
17.85776 102.1065 1.627313
18.02931 104.3922 1.789147
17.9924 107.3797 0.7315751
15.20393 87.86018 1.248916
15.25598 83.19677 1.825497
15.23112 82.9406 2.267269
-15.97924 95.72674 6.979918
-16.07923 84.0089 8.911044
-18.52703 102.1626 3.375341
7.703029 107.158 -7.811959
23.82819 40.77648 2.827955
17.56154 43.75024 3.917874
15.51825 71.13612 5.484849
15.47145 71.06161 2.796971
15.82705 61.00685 3.519274
16.31887 61.81751 2.708108
31.00998 34.69468 1.332196
30.97122 39.10212 0.6004236
-18.87835 57.56957 13.13348
-23.97606 58.21832 10.84101
-21.16796 21.35453 -8.190572
-18.86629 20.5801 -11.13626
-11.06954 11.12313 -17.13304
-11.49084 10.44213 -16.97653
-27.16167 32.95979 1.151733
-23.45776 24.1324 -4.839788
-29.51911 40.99588 7.577747
-26.03526 42.52885 13.20176
27.32413 24.11571 -8.986451
28.88252 27.79414 -8.195436
14.38252 10.61862 -14.24031
8.058574 8.388422 -16.10156
7.24104 8.793424 -16.36343
0.8439632 8.120265 -17.45678
17.68904 102.9907 1.717105
19.98295 102.2551 -0.6548961
16.36848 84.20692 0.1653972
15.53131 82.27074 4.016959
-19.7025 72.17529 9.893473
-22.96432 65.75844 9.846191
-18.25777 85.11221 8.093607
-17.90474 96.30902 6.521494
15.26392 74.07121 4.204965
15.38289 60.26521 4.746099
28.69743 39.26266 2.154317
32.95487 32.55635 -1.091796
-15.89759 16.24547 -14.34867
-6.062395 8.813955 -17.87106
-22.90069 26.34404 -5.010378
-24.80466 42.88977 13.76204
-27.76268 43.86623 11.28585
-24.97438 43.70427 13.51496
28.69436 27.31251 -8.310138
28.35928 31.05799 -8.334255
14.53854 12.33406 -14.34602
10.15007 10.88033 -15.77179
17.27835 108.5493 -0.02246503
19.0054 104.4018 0.9172445
-18.07876 70.54674 10.70978
-21.08291 69.93087 9.853782
7.584525 106.3038 -9.465744
24.55293 39.66468 2.879147
-21.66902 58.4076 11.82349
-16.46202 18.37453 -13.81826
-16.89845 17.39523 -13.3863
-27.59165 36.41124 2.09768
-28.53455 41.15929 11.07685
26.71969 28.86483 -9.243446
13.49423 15.51198 -15.05717
20.25795 101.1942 0.1379398
-20.98029 75.99271 8.818363
-20.43075 63.68038 11.19274
-14.30127 13.96703 -15.57322
-13.44731 15.88383 -16.14412
-28.91926 34.54723 3.678941
-26.83916 44.72544 12.01367
26.36286 27.02329 -9.446245
27.89581 30.30074 -8.614603
15.2279 81.07527 3.17253
-21.52082 61.38768 11.27931
-12.49382 14.05659 -16.62203
-28.71588 44.91409 8.876669
20.56188 26.40597 -12.2255
25.3771 29.17879 -9.873635
15.78347 54.21584 4.495676
-4.287824 15.1209 -18.30223
32.18839 32.58983 -4.981846
24.33027 31.10953 -10.32929
20.39917 28.58885 -12.30225
13.39061 30.77247 -16.15983
15.85534 55.0007 4.285295
28.07356 32.8699 -8.402434
20.264 20.81738 -12.34121
-19.55561 64.24333 11.39631
-21.16398 62.65415 11.15252
18.29408 80.04964 0.06376722
-20.18618 67.94926 10.50017
-24.12592 58.4434 10.70374
19.3008 24.2739 -12.86733
17.04971 27.26581 -14.06598
-25.11143 62.07593 8.953802
20.3761 29.59424 -12.30652
17.06004 26.36176 -14.05326
21.36332 24.04573 -11.83997
17.51558 21.26677 -13.71082
-12.18785 113.4071 -1.521863
8.792012 110.3965 -4.341234
-0.6559768 109.6041 -7.822493
-22.53103 41.94238 15.01333
-6.538208 111.4016 -7.252451
-4.518453 107.2636 -6.991158
17.85292 39.51211 4.267206
-22.62037 43.81711 14.55415
8.214254 104.6072 -8.958448
15.97791 46.56637 5.213623
16.64533 45.03436 4.535577
19.09911 42.07158 3.383304
22.42636 45.0824 2.525599
-22.64096 51.76642 12.79373
15.29584 73.98432 2.916351
16.0449 74.30796 1.471516
15.49194 78.65252 4.235538
15.24944 70.06508 4.04863
20.9279 74.29085 0.7775816
21.49041 73.88088 0.8978211
24.0603 69.27178 1.137115
15.33128 71.8798 3.111943
15.95445 66.77695 2.487563
17.0903 68.30929 1.290907
22.8362 70.67393 1.098219
18.01469 67.07745 1.021323
15.95324 65.55047 2.691335
-18.30448 64.29512 11.94774
-0.556739 10.07795 -17.7887
-2.31039 10.66854 -17.96609
1.897239 11.33693 -17.64506
-7.707668 21.50337 -18.30042
-7.213675 11.64614 -17.93716
4.539193 12.72388 -17.37658
15.1582 90.60374 1.598291
15.286 87.60039 1.957601
16.52421 86.58128 -0.1592808
16.78428 86.20385 -0.1779504
18.5583 85.85728 -0.01694217
-20.69451 77.73276 8.624338
-17.63505 81.75405 8.787931
-21.6079 77.65672 8.18776
-20.60057 74.02822 9.305027
-22.23807 81.81763 6.64143
-19.86607 88.9269 6.957627
-19.56333 90.25249 6.853448
-21.90255 84.80567 6.159013
-21.21338 54.21609 12.7966
-22.49538 52.20337 12.75478
-19.19851 22.96383 -10.78201
-18.23413 21.58645 -11.89857
-17.75315 28.15664 -12.42504
-20.24463 25.41647 -9.08408
-15.98045 26.44037 -14.32686
-14.52726 27.74897 -15.54709
-17.21827 27.15558 -13.07351
-18.62988 27.76734 -11.19539
-18.77196 30.0169 -10.62865
-19.79034 30.74892 -8.650683
-18.81495 32.12527 -10.28842
-23.98958 43.25979 14.08238
17.22396 17.37629 -13.60806
22.11916 22.98111 -11.4639
24.01052 23.12055 -10.5545
17.79843 95.42071 0.5315241
18.81915 101.203 1.438096
7.767626 106.9765 -8.138026
7.349091 108.6918 -6.464971
9.729644 107.2098 -5.975432
11.3985 105.0795 -7.608001
9.701508 104.2669 -6.903684
-24.51669 30.76456 -2.022487
17.43627 107.3533 -0.763842
14.44965 105.8908 -1.047353
13.74296 108.3357 -0.7440328
15.26647 101.8354 -4.230678
12.87118 107.1858 -3.516062
15.13522 102.8851 -2.840445
16.6148 100.7103 -3.082838
19.23337 101.0029 -2.442469
15.91467 100.0582 -4.505335
12.29121 13.35971 -15.30472
9.985824 11.62198 -15.90168
9.256754 13.57425 -16.33034
8.249472 15.8559 -16.86126
7.211679 13.96867 -16.93216
6.066301 17.90534 -17.61068
8.096568 21.31371 -17.4978
12.04884 14.77962 -15.53211
11.91214 20.32236 -16.13454
11.77099 21.76946 -16.33111
0.3241801 14.29898 -18.07896
5.308886 13.51955 -17.31184
2.878566 14.01628 -17.77695
11.9946 21.84968 -16.24986
-2.276739 15.34752 -18.31363
14.64121 25.55346 -15.30914
-14.14539 20.65424 -15.75248
-27.78087 51.8468 5.988005
-13.27133 19.5873 -16.28155
-12.03318 26.76268 -17.04971
-13.98804 27.13358 -15.92034
-7.377896 21.18383 -18.33947
-12.33486 25.63126 -16.88025
-10.35437 22.7193 -17.67034
-8.232904 22.16656 -18.22257
-5.846389 22.61033 -18.60772
-8.23563 17.59607 -18.06124
-5.364017 17.49681 -18.39611
-11.52056 15.49998 -17.07171
-8.24047 20.10069 -18.15075
-8.83742 19.98884 -18.02049
28.53888 35.51409 -7.940654
31.18708 35.44646 -5.770511
14.93434 27.27282 -15.20754
20.85274 30.23462 -12.05401
-25.20174 63.98976 8.234056
16.31997 22.90952 -14.36725
-15.56009 105.0412 5.719661
-18.02492 103.2866 4.837415
-17.56642 105.6111 3.315811
-17.05976 105.7313 2.39453
-9.302603 107.52 -8.931531
-9.997299 106.3663 -8.98122
-2.568531 109.4523 -8.719041
-0.4873936 108.3376 -8.300036
-3.081693 105.8146 -9.700733
-11.43928 110.5518 -4.892807
-10.48987 113.2535 -3.674948
0.8211721 103.1845 -10.8227
18.78579 47.98608 2.779793
20.03098 44.96741 2.784477
-19.16033 96.04984 5.978639
15.50939 75.58262 2.061703
15.31683 75.58038 2.370629
23.04574 67.86535 1.236204
21.86728 67.13464 1.11893
24.09094 64.71628 1.3864
26.32111 63.35001 0.7748915
21.14841 66.82561 1.018641
23.81181 60.96953 1.591466
22.95914 64.04858 1.404
27.32933 65.92375 -0.7840614
24.49491 24.55573 -10.33256
-20.06863 91.28205 6.32488
-21.51107 35.07849 -4.618435
-22.82763 35.82361 -2.834657
-19.78625 34.85818 -7.601264
-19.40782 33.28427 -8.89142
-18.45202 37.11862 -9.77687
-14.49893 37.91552 -15.55821
-17.33929 36.58939 -12.18863
-18.39101 39.04826 -9.284569
-17.98782 40.00846 -9.958804
-17.36664 39.64241 -11.56862
-14.58853 28.11962 -15.50062
-14.69903 31.98154 -15.4333
-6.475403 35.84932 -18.91699
-15.19166 33.7522 -14.98275
16.42303 14.83499 -13.77129
8.328082 100.8906 -11.89801
3.918745 102.9082 -12.74259
2.540474 106.4629 -11.3538
1.679501 103.7122 -11.99511
0.7459518 106.4611 -9.562826
9.839594 102.5945 -7.853958
-23.23285 29.9403 -3.655092
-23.50672 32.1212 -2.836497
-22.75946 54.25692 12.20575
-23.3413 56.66994 11.49929
-25.84108 57.26464 9.536377
-26.67909 58.32293 7.347409
-25.03891 54.25868 11.07191
-25.15818 54.91832 10.82139
-26.8541 57.20916 5.207696
-27.39428 51.72688 8.953672
19.67931 102.6838 -1.216344
5.178206 13.9186 -17.37881
16.36764 18.35578 -14.07185
-25.36015 36.39916 -0.2541123
-25.06891 44.16106 0.4775065
-26.22698 40.89643 1.175611
-1.553134 22.13413 -18.7965
-6.49752 18.22841 -18.32893
19.12851 54.49291 1.992746
19.60167 51.8138 2.17157
18.58307 53.39302 2.271326
17.21849 56.4496 2.610475
18.0036 55.40761 2.29779
30.06605 36.72044 -6.694194
31.74769 34.70127 -5.151306
31.39558 39.01071 0.0399271
-1.826403 34.94907 -18.05566
14.97823 30.18281 -15.25089
19.42954 32.39598 -12.77897
-26.02342 62.05104 7.240945
-26.70866 58.11787 5.081019
-25.63488 63.60078 7.509272
-25.89956 63.82363 6.370431
-25.69651 64.49407 4.729413
-24.92849 61.99257 2.494307
-25.35349 62.63762 3.211195
-24.76824 60.18655 2.054414
-23.83818 63.03104 1.540761
18.51374 21.39182 -13.22621
-13.74525 109.9818 -4.243047
-13.25238 107.8572 -5.246208
-10.49364 105.3114 -7.880692
0.02771269 105.9156 -6.413795
0.5972049 102.7444 -7.753668
-0.6150753 105.0841 -9.160128
-2.379124 105.9484 -10.428
-0.9201063 100.9825 -8.518862
-3.642467 102.204 -11.33286
-8.523582 105.2126 -10.10983
-7.146918 100.7969 -10.84379
-9.98137 101.9823 -11.40703
-8.418247 102.6237 -10.94376
-11.65925 105.4418 -5.415472
16.19764 49.51749 4.483525
20.56202 88.04266 0.7306309
-21.00603 91.53337 3.682166
-21.12784 88.48613 6.041711
-20.77462 92.96625 4.873528
-18.78172 91.76899 2.084784
-20.22664 88.27976 2.459893
-21.71081 86.97023 3.280393
-24.93067 34.60743 -0.9332886
-23.46922 34.81248 -2.351527
-25.08583 36.99092 -0.4256496
-20.45117 40.17043 -4.894695
-20.2184 40.32051 -5.220225
-24.19365 37.05699 -1.242508
-18.15373 40.88192 -9.254959
-17.61259 41.89205 -10.35645
-16.63034 41.90414 -12.65655
-16.64468 33.03961 -13.50858
-16.53328 32.79703 -13.66457
-15.33979 30.565 -14.91033
-16.36745 34.92642 -13.74609
-8.884626 31.36007 -18.36199
-7.208127 35.36326 -18.87207
-6.843264 36.62206 -18.89749
-8.494738 38.92451 -18.62951
-4.492827 38.69605 -18.39321
-9.469697 41.54438 -18.37391
-5.719367 30.33578 -19.02743
-5.740275 31.4604 -19.05954
-9.161283 35.69254 -18.41446
-15.1805 35.87929 -14.98428
6.475358 103.4941 -11.98939
4.767976 102.758 -12.72464
1.24146 100.5567 -9.254035
-23.79282 50.89734 12.52046
-0.3940287 19.60476 -18.57772
-3.636393 19.72005 -18.61177
-14.41127 16.34372 -15.51317
17.90252 52.2062 2.683376
31.97558 38.64491 -3.162791
14.29181 25.05802 -15.46365
-22.55704 62.61611 0.485677
-0.7583747 103.86 -7.601141
-6.393619 100.3357 -10.88845
-3.456366 101.6673 -11.85706
-0.9674501 101.9202 -8.68489
-5.506461 97.53584 -12.69127
-7.598722 100.3029 -11.24723
-12.88772 107.2058 -5.364907
-14.22223 109.4573 -3.961875
-15.52169 105.9375 -2.854673
19.88417 60.46101 1.355399
-22.68694 82.66776 5.453751
-22.00208 43.59957 -2.316528
-19.48944 46.63981 -4.697192
-13.51091 40.84636 -16.33722
-12.55189 40.10736 -16.98334
-13.30396 36.34436 -16.45315
-10.03291 35.11812 -18.09915
4.348344 38.23997 -17.14769
-8.641732 39.97364 -18.59702
-10.61491 41.32412 -17.99697
-12.9285 43.56744 -16.7377
13.63761 95.77117 -11.55395
9.366538 101.1228 -9.588449
11.67878 105.8221 -7.724211
15.49446 100.4536 -9.168153
15.15836 102.9013 -7.642622
15.36447 101.1609 -8.816754
4.738895 104.2385 -11.77858
14.73926 104.5068 -6.676749
-25.48693 63.86566 3.76312
-26.605 49.78434 2.728918
-1.535164 99.07719 -12.75869
-3.693087 98.53838 -13.13882
-1.977086 95.59843 -13.48859
-0.6148969 97.62071 -11.59289
-1.598412 94.9061 -13.34845
-0.152815 93.38826 -11.33978
-8.753283 101.6575 -11.40997
-18.86165 98.53508 2.279413
-23.47816 42.82628 -1.063077
-23.38492 42.262 -1.223423
-26.91681 46.95018 2.718738
-26.20782 38.62835 0.868152
-27.64595 45.18516 3.449348
-27.36921 48.28741 3.606958
-27.61883 46.79129 3.703427
-15.66078 45.58996 -13.87122
-20.29748 49.13143 -3.137463
-3.074659 42.01345 -17.17107
-4.194228 37.38777 -18.48869
-14.96061 46.04932 -14.7986
9.418347 100.4784 -10.34116
7.49756 96.69927 -14.18954
14.79906 104.6602 -5.941548
31.83007 39.82262 -1.667977
29.80265 40.0537 -6.491702
31.5323 41.71273 -2.748087
31.12736 42.11983 -0.539982
30.86409 36.33778 -5.976173
26.67006 38.37487 -8.836788
27.17446 39.57963 -8.460351
26.41982 43.43734 -8.591228
26.21082 41.09265 -8.890141
27.69663 42.5026 -7.859736
26.01443 37.90159 -9.213007
28.78949 44.15663 -6.822974
30.57831 44.72084 -4.422877
22.43145 41.37324 -10.89813
25.69723 41.8645 -9.122018
19.21183 38.3097 -12.79999
22.30493 43.89334 -10.842
21.5799 41.08379 -11.37474
26.69365 48.87231 -7.863568
17.08964 39.30393 -14.0681
19.76564 35.8926 -12.53592
21.03176 35.2952 -11.86321
16.73471 33.82285 -14.29415
17.01541 35.2606 -14.13307
14.15096 35.7556 -15.89409
17.18147 38.84434 -14.01461
17.00087 39.38873 -14.12221
-20.51133 64.38437 -0.6796107
-5.75825 94.50968 -14.31242
-7.025213 91.55146 -14.69512
0.4978346 98.46886 -9.173811
0.1002675 93.49001 -9.542906
0.423786 98.22829 -10.74594
-0.1758323 88.93251 -10.70776
1.214992 96.41998 -9.976449
1.594552 92.77405 -9.782482
4.112067 95.59076 -14.53711
1.339062 99.1647 -12.51655
2.629441 99.57019 -13.36902
2.839514 98.41901 -13.70237
5.45328 94.18526 -14.84613
4.103373 95.02595 -14.65323
7.443071 98.93983 -13.55501
7.047058 101.4473 -12.60188
-15.24543 105.4136 2.107445
-13.74936 104.816 1.783713
-15.32257 104.5758 2.215432
-13.73433 103.9358 1.044802
-13.33197 107.3097 2.040406
-14.01419 102.7014 -0.384056
-15.14416 97.23121 1.047829
-15.70275 97.57114 1.329958
-17.73914 96.68554 1.511131
-14.90481 96.49288 0.7015486
-19.14575 97.34786 2.375626
-17.85757 93.99022 1.796563
-14.93911 94.7973 -1.676476
-16.49034 92.14733 1.513553
-14.63574 97.18449 -1.676022
-29.04845 38.65266 4.631814
-29.04283 43.27865 6.159436
-29.94489 38.39035 7.744863
-27.85984 37.54017 2.580088
-27.50119 49.98685 4.204709
-17.86185 48.18801 -7.470367
-16.85531 45.99499 -11.28171
-2.284883 35.14158 -18.18968
-0.06044033 22.06223 -18.75926
4.404638 21.28949 -18.26262
14.02897 99.75125 -10.12239
10.86376 97.98425 -10.61468
15.53386 88.53285 -12.5905
15.19506 100.8277 -9.302367
15.95168 96.46933 -10.78927
15.64118 95.70901 -11.35238
15.61475 92.96738 -12.17814
3.043573 92.94335 -14.61455
4.260066 91.47392 -15.253
8.124806 90.05888 -15.14666
10.31492 94.13385 -14.18432
7.785808 87.79053 -15.51854
8.289934 95.5888 -14.34056
4.293831 92.28237 -15.14573
3.310968 88.85984 -15.01514
4.085784 88.58929 -15.51649
31.16717 44.2548 -2.423229
22.69029 43.37283 -10.65644
23.73124 48.15477 -9.766232
11.13207 33.579 -17.46123
11.54755 30.96384 -17.16299
11.96345 28.95062 -16.80834
16.84468 41.92548 -14.18002
-24.06129 67.87251 2.425577
-1.620197 88.67824 -12.95344
1.00803 90.88052 -9.524639
-4.74944 90.73891 -14.81695
-13.68924 100.522 -7.960712
-13.9242 105.8097 -5.680442
-13.65965 102.7579 -6.830969
-15.57706 99.63453 -7.851905
-13.8874 101.6468 -0.01011241
-14.12781 104.2797 -0.1386499
-12.42962 109.0449 2.413412
-12.6674 112.6107 2.122999
-14.27147 97.41918 -0.4655397
-18.94048 83.10366 1.301237
-15.85711 97.62116 -4.191541
-26.83629 52.05857 3.463653
-26.31786 53.01711 2.906699
-25.48359 51.17972 1.681149
-25.49957 50.15972 1.570606
-24.11263 54.06411 0.7609558
-22.15718 54.01236 -0.7209876
-19.64326 49.68435 -3.80629
-25.90686 55.51978 2.745309
-25.86776 51.38638 2.095809
-24.08862 44.67799 -0.2947706
-24.92547 45.06408 0.4656245
-20.41079 46.78258 -3.465835
-2.59694 37.76859 -17.74636
-0.54754 33.82097 -17.78459
2.664667 24.08065 -18.75495
3.722131 26.21503 -18.7672
6.713837 25.26969 -18.26826
6.492577 29.51148 -18.15883
5.285041 30.63531 -18.01939
10.38802 24.84806 -17.14322
9.04928 22.25283 -17.31691
11.07012 20.36534 -16.45304
7.131003 30.8677 -18.13812
8.72874 28.30202 -18.07494
2.313931 33.12555 -17.53078
10.58216 33.79443 -17.6765
7.048178 31.63499 -18.15436
1.298213 32.30733 -17.63414
0.6714016 33.57533 -17.49353
9.604563 29.00945 -17.86131
9.691255 40.83687 -17.88846
-1.066617 31.23623 -18.39759
2.047445 34.80616 -17.25702
4.825901 32.41827 -17.99025
-1.385693 41.05923 -16.65263
4.962874 34.62836 -17.79365
-2.339734 38.26058 -17.55468
7.057223 39.86235 -17.86052
8.933645 37.98406 -18.02812
2.707735 40.66605 -16.50486
18.42337 92.72565 -9.638708
17.06392 94.44893 -10.58209
13.46214 90.37407 -13.58724
16.21246 91.89433 -11.87815
15.05753 90.72124 -12.75091
12.20796 90.7774 -14.039
27.84615 55.67487 0.7203598
23.77183 62.21773 1.529197
29.35976 44.54306 1.181002
25.85684 46.03399 2.358056
23.1936 44.00997 2.596383
23.38655 47.32058 2.38114
24.3109 50.32653 2.216083
29.07752 50.14959 -5.513695
26.76733 51.82239 -7.452333
20.9852 45.57738 -11.50258
13.47971 41.96754 -16.33659
-24.45721 69.06658 3.205079
-23.33234 70.26434 1.972155
-8.034413 89.88214 -14.75489
-6.609492 89.66444 -15.00076
2.148991 89.29819 -11.14317
2.441251 87.11105 -12.54902
-6.701756 88.30803 -15.17684
-15.69146 99.92712 -3.824086
-14.62209 104.8755 -0.8973902
-20.05678 96.48244 4.187119
-22.99016 57.28475 0.2469769
-18.0234 50.08324 -6.428339
1.78073 30.84704 -17.89307
11.19723 28.51244 -17.14004
10.03027 41.87259 -17.82435
8.905173 47.58126 -17.82441
10.55653 37.97657 -17.67835
7.557865 43.50685 -17.83931
7.129622 39.27464 -17.91801
7.521452 39.74307 -17.97326
-2.640282 29.92335 -19.01169
-1.354176 27.94339 -19.11526
-6.671661 25.02649 -18.60075
-7.561348 27.17404 -18.52725
-0.9596453 23.02699 -18.85965
-3.217462 26.1331 -19.02682
-9.404301 49.19641 -18.24836
9.886135 36.13146 -17.87408
21.13921 90.42849 -6.652689
12.47575 89.00298 -14.03266
22.9942 56.16133 1.817907
22.15721 58.82137 1.549754
21.33709 55.84843 1.724215
21.53486 55.19547 1.776085
23.84423 54.60665 1.953468
27.98646 52.84132 1.042741
26.42925 49.75912 2.011835
20.33069 47.69522 -11.78372
17.20356 41.73585 -13.95478
17.31405 45.51279 -13.78424
18.38779 43.14834 -13.16983
19.94602 48.24536 -11.99009
14.62738 45.86514 -15.55957
11.17112 45.92655 -17.39761
13.23614 42.66946 -16.47437
-23.82663 74.26191 6.781374
-24.6038 71.31499 6.238228
-23.81126 76.71035 4.461553
-23.03726 79.89687 6.018181
-24.97506 69.43359 6.02176
-23.98676 71.61576 3.081592
-21.27467 73.4375 0.8929771
-20.28583 68.14771 -0.3381342
-24.0617 75.04314 4.5843
-22.45284 76.18121 2.049685
-24.06697 71.33916 3.164644
-20.99557 68.63663 0.1409245
-22.87015 81.58157 3.779976
-23.2994 79.22754 4.039341
-21.8442 79.984 2.114281
-15.70647 71.30003 -6.733744
-18.55997 68.61201 -1.419585
-17.57549 69.311 -2.190678
-19.77789 69.70617 -0.4014944
-21.93662 67.04391 0.5305095
-0.9748543 86.21465 -10.95072
1.115415 85.32608 -10.45158
-6.916362 89.02915 -15.04206
-11.88961 101.5521 -9.182374
-16.17488 95.93987 -4.932383
-16.30053 98.2122 -6.346644
-20.4537 55.46046 -1.894348
-22.46776 61.50531 0.3126806
-21.54652 58.19961 -0.6746955
-18.01371 60.1364 -3.670866
-18.49742 48.66669 -5.863657
-17.66784 49.37573 -7.573668
-16.51012 53.29629 -10.03059
-16.78999 53.14953 -8.924326
-17.49856 47.82674 -8.659547
-15.65076 54.91563 -12.58725
-16.83176 53.22605 -8.697292
-16.34154 52.33339 -11.13876
-15.78362 48.3834 -13.32388
-15.42159 52.59802 -13.45222
-13.37133 49.42804 -16.32708
9.448761 25.66636 -17.55141
9.58454 47.62929 -17.76371
6.259138 46.27 -17.44351
2.169514 43.46777 -16.07814
3.814538 44.89809 -16.40809
-0.9552069 32.33196 -18.18599
3.077217 41.79902 -16.50584
4.481347 45.18674 -16.67886
-2.419579 47.40186 -15.9134
-5.492355 41.91167 -18.32964
0.5677937 49.79998 -15.00358
-3.301119 46.94475 -16.4704
-8.586295 42.15973 -18.58618
-11.99845 46.48579 -17.3251
1.272761 47.843 -15.37549
-10.42097 51.21396 -17.95569
-8.093077 47.80517 -18.39744
-4.394958 48.86115 -16.78603
-4.628144 44.44641 -17.61722
-10.03875 47.89796 -18.16179
-1.92643 49.83517 -15.29652
18.59391 92.61217 -9.407438
17.95658 91.20171 -10.63989
19.30216 93.27061 -6.228778
14.65724 87.24086 -13.15682
17.08994 85.96107 -11.78527
15.23357 83.00721 -13.10233
21.20553 88.94504 -7.403088
22.92793 88.05596 0.05834676
18.87253 85.52363 -10.46261
11.73839 84.07679 -14.62589
13.42807 83.77914 -13.94189
11.99869 84.16029 -14.51846
11.10578 86.33395 -14.68364
20.74782 61.56133 1.28691
16.74327 59.98157 2.515322
23.49105 53.6254 1.999847
30.27973 46.86428 -0.4594638
11.44206 47.8454 -17.25093
27.63142 53.27644 -6.51552
30.17617 50.22534 -2.364436
-21.46902 69.14389 9.861788
-21.38305 86.14598 2.700816
-17.80907 74.70214 -0.8863132
-21.08559 81.0312 1.750731
-16.11775 68.10358 -5.373758
-15.90434 64.84127 -8.235714
-15.75093 67.16341 -8.33273
-16.34263 71.08529 -3.695237
-15.93716 71.68095 -4.874633
-15.7469 75.98413 -8.627356
-15.96864 74.73579 -3.700116
-15.76122 76.49828 -7.693698
-16.73221 65.02991 -4.606491
-15.65258 67.24616 -9.885178
-15.64404 71.94484 -9.276743
-16.29928 63.83543 -6.363016
-15.55706 62.86742 -11.48857
-16.10049 62.06276 -8.080871
-16.02672 64.43701 -7.452971
-15.41272 61.84566 -12.21593
-15.51043 61.63973 -11.90724
-13.8634 68.29874 -14.57063
-15.31396 63.9254 -12.24271
-14.04697 67.21673 -14.42752
-14.53731 60.98789 -14.24234
-13.23232 65.17849 -15.52106
-14.24843 58.34867 -14.89788
-14.82641 58.5817 -13.97514
-16.21967 57.94646 -9.387164
-16.00423 57.57175 -10.64831
-14.53502 53.10692 -14.89116
-10.35316 59.01224 -17.61569
-13.75096 54.856 -15.75156
-13.33161 52.22148 -16.25969
-4.046697 83.55176 -14.85363
-6.071022 86.17189 -15.48645
-6.821149 87.02277 -15.33869
-16.07393 101.071 -6.096913
-14.00369 98.98312 -8.992158
-17.74311 55.46865 -5.342044
-18.16197 54.59131 -4.821229
-19.24446 57.30038 -2.776213
-18.4635 60.20385 -3.054481
4.903838 48.6048 -16.93758
-4.045691 53.25314 -15.89967
23.03073 89.06882 -4.102729
23.16493 89.15517 -3.677468
20.84406 86.08459 -8.355069
21.94733 85.18631 -7.106325
3.739855 84.84 -15.52734
29.98615 49.92885 -0.9351283
28.62629 54.54501 0.08217778
11.21811 49.21735 -17.29567
25.96459 55.3354 -7.626729
-19.3165 90.99171 2.190379
-15.75911 91.17574 0.3104264
-17.3705 85.29398 1.084178
-18.10737 89.51102 2.049813
-16.08315 87.782 -1.331442
-17.60423 81.10455 0.2704841
-13.48014 71.1478 -14.68399
-15.74218 76.42806 -9.253773
-19.38757 63.88404 -1.539594
-17.54965 66.41906 -2.85116
-16.86251 62.93021 -4.942153
-17.49821 59.66065 -4.58752
-15.0179 74.63749 -12.21488
-10.27759 57.75237 -17.71638
-9.349697 63.93056 -17.44326
-13.89052 52.46137 -15.70069
-16.12728 60.73549 -8.59895
-17.76936 58.35442 -4.481421
2.707412 49.37675 -15.78039
1.582145 50.54654 -15.19813
-6.021789 50.89296 -17.52099
22.00208 85.06065 -7.053873
30.52521 46.2691 -0.7211105
29.919 51.50957 -1.593191
28.18879 57.69874 -0.03497231
29.03848 57.26006 -2.14513
27.49881 58.99225 -5.64424
27.87768 54.733 -6.03078
27.29621 64.00779 -4.677521
28.56887 59.45267 -3.556232
27.18231 61.94687 -5.417441
26.65291 62.74965 -5.906709
-16.3511 88.45792 -2.45
-16.88591 82.97073 0.1315473
-15.61435 75.45442 -10.25277
-13.65335 69.90522 -14.62649
-10.38372 53.57389 -17.87789
9.789852 75.88708 -16.188
11.71718 51.14433 -17.01998
-7.618738 53.50504 -17.93955
18.13851 84.49776 -11.13572
28.70744 53.5207 0.2625997
29.01476 57.13065 -3.173348
27.24151 54.30043 -6.692939
24.06575 53.83067 -9.084374
24.20797 53.98862 -8.97734
14.89262 49.41093 -15.26929
-15.62195 91.69242 -1.900051
-16.37139 87.17055 -5.591112
-16.03772 85.31647 -4.294838
-11.32829 63.78648 -16.93428
-8.437908 60.17176 -17.66161
-9.170408 60.88708 -17.6597
-6.642025 62.96523 -16.85768
-7.971374 67.60472 -17.14276
-9.765781 70.42852 -16.86051
-3.217571 52.4456 -15.46329
-7.005682 57.09303 -17.41739
17.52697 83.44689 -11.64999
17.70063 82.41161 -11.60676
20.92103 55.32627 -10.95164
18.20125 51.06348 -12.96979
22.5141 52.92236 -10.12263
23.17278 63.98606 -8.713789
24.2014 58.74646 -8.498736
15.38326 49.3711 -14.94241
12.40164 48.8166 -16.79153
-15.87772 79.58702 -7.553627
-16.5428 88.6137 -6.47183
-7.143851 64.44851 -17.05027
-4.992005 66.95312 -15.12064
-7.268442 71.16378 -16.73115
-6.415753 66.88403 -16.43606
-5.251069 70.86657 -15.32208
-4.014567 67.64369 -13.98185
-4.829918 54.97462 -16.2165
-3.951948 51.83458 -16.03061
18.01421 81.91766 -11.40125
17.22506 77.74248 -12.19275
19.18606 80.53209 -10.53789
19.43369 77.10254 -10.54604
18.29803 79.56214 -11.31578
23.8103 81.00579 -5.522228
