# .PCD v0.7 - Point Cloud Data file format
VERSION 0.7
FIELDS x y z
SIZE 4 4 4
TYPE F F F
COUNT 1 1 1
WIDTH 1644
HEIGHT 1
VIEWPOINT 0 0 0 1 0 0 0
POINTS 1644
DATA ascii
10.90433 105.7932 9.590091
9.841588 106.924 10.02395
5.92856 111.5272 11.25259
6.703187 134.3889 13.57574
10.08429 134.5978 13.15749
7.930164 134.2514 13.66953
13.67406 132.8637 10.45814
5.077402 122.3053 11.92692
17.67734 98.69588 3.102518
10.82069 104.6097 9.536718
9.732932 105.9478 10.02433
10.27218 120.4047 9.424154
13.06736 129.9971 10.37577
11.9857 129.835 11.56357
9.194782 130.5724 13.26318
11.52492 94.95638 9.414746
14.1596 96.3317 8.565526
13.29568 97.80171 8.680211
15.3992 97.24334 7.461185
14.63676 95.43958 8.479496
14.16044 99.95019 7.913764
12.4813 93.23344 9.486339
11.84493 107.6885 9.062017
13.15111 131.9997 11.16693
-19.80608 87.5615 -1.282841
-19.10463 91.32059 -0.8745755
-3.352362 123.5247 -7.578192
-3.095105 132.5257 -11.11552
-12.20498 93.36843 -10.86689
-13.19627 91.50816 -10.28159
-3.752289 111.8871 -7.568557
-12.14297 119.6175 1.467384
-1.905823 115.2375 -5.661973
-16.30658 92.45168 -7.0442
-11.80455 149.1431 -9.967993
-14.13747 147.4851 -10.35131
-12.05112 150.8371 -8.293458
-14.90681 142.218 -10.52974
-19.06959 87.27122 -3.774575
-9.152184 144.1295 -12.1936
-14.2511 110.6744 1.627959
-19.39054 88.89012 -2.139445
-16.87574 101.2959 -0.04685041
-18.61089 97.89954 -0.3994365
-6.700171 142.4037 -12.6585
-11.78731 120.7495 -0.07349268
-12.83123 150.7735 -8.321141
-7.379879 143.6091 -12.49919
-11.86021 151.7069 -5.44697
-14.84708 134.6196 -0.2765853
-1.743948 124.5655 -7.986884
-19.03374 88.25497 -3.463155
-14.07622 132.6036 -5.418458
-14.68084 135.6649 -7.436425
-12.92596 143.3808 -11.30002
-14.3019 148.0898 -10.12452
-6.950879 141.2045 -12.74058
-3.852889 123.6345 -7.562301
-10.96404 112.7774 -3.469523
-6.435483 127.2634 -8.548506
-14.32141 110.5218 1.588807
-5.068833 133.7771 -11.53176
-14.42606 138.1389 -9.374846
-15.2596 94.29906 -7.865581
-17.92546 90.07162 -5.127819
-13.78664 128.563 -0.02601453
-12.32336 130.2482 -6.617561
-14.74778 146.833 -10.46092
-8.455449 137.9004 -12.3799
-12.40468 117.953 1.789295
-1.282173 117.3192 -5.90604
-1.497352 113.4112 -6.051218
-12.31497 115.2586 0.5006046
-13.38113 125.5788 1.536137
-2.435887 129.7997 -10.00266
-1.471193 122.7406 -7.310879
-7.251184 101.1563 -11.08204
-16.19978 104.3507 0.3994123
-14.50903 109.8498 0.884953
-6.703928 133.5146 -11.29683
-11.04537 136.8148 -11.14925
-11.34728 138.3633 -11.48709
-15.85605 89.7339 -7.953486
-17.55634 91.15627 -5.469154
-18.78418 89.53516 -3.569485
-11.89986 131.2278 -7.799958
-11.13972 122.6076 -2.385955
-12.24917 123.0354 -0.3270586
-10.66185 129.7983 -7.971869
-11.02049 117.707 -1.284345
-4.130143 113.0577 -6.449667
-12.33611 117.2098 0.148811
-13.37137 126.1664 0.5144037
-11.5126 132.8876 -9.054073
-2.187375 125.7241 -8.421152
-12.26874 92.59142 -10.87255
-17.02429 99.35426 -1.486328
-4.286938 135.41 -11.99999
-11.58156 139.8347 -11.6582
-8.744219 136.2801 -11.81851
-7.97294 129.4656 -9.224283
-10.62141 139.4394 -11.94679
-13.32718 93.92657 -9.933319
-16.47385 93.12804 -6.596766
-11.7842 129.9334 -7.051726
-8.462597 115.4468 -4.094506
-3.159149 113.5626 -5.859807
-2.381577 106.3211 -8.59665
-13.8114 110.3813 -1.079984
-13.293 126.6503 -0.4417384
-6.774366 130.6318 -10.15181
-8.780445 127.7283 -7.952776
-10.60337 127.4667 -6.573643
-13.39429 130.7902 -5.140244
-3.703544 124.5918 -7.942307
-7.774145 127.8204 -8.434464
-6.546951 128.6719 -9.242202
-4.729249 103.0419 -10.34129
-15.09845 105.9754 -1.773481
-13.51999 104.1712 -5.597487
-14.59075 103.4391 -4.472656
-4.338983 110.6293 -7.304224
-11.50744 93.17609 -11.31104
-15.70145 94.37972 -7.292095
-12.3944 132.1733 -7.864188
-3.121194 119.6478 -6.324206
-13.00541 111.4699 -1.702313
-13.40833 131.0434 -5.400904
-6.47533 125.0811 -7.488666
-7.860275 98.0237 -11.97378
-11.99178 102.273 -8.112442
-17.68777 98.6292 -1.251837
-5.059224 104.7015 -9.451486
-8.52704 106.1456 -7.990911
-11.77385 115.1488 -2.333053
-10.34647 113.596 -4.205155
-5.746413 117.0534 -5.211898
-12.33788 112.8615 -1.621185
-11.93548 127.1502 -4.680079
-9.813353 122.1662 -3.936915
-9.832389 101.063 -10.1626
-4.156197 114.4649 -5.613298
-10.23287 123.2367 -4.07353
-9.72117 123.2119 -4.615335
-10.66834 120.0377 -1.978679
-7.428388 120.0687 -4.98483
-5.788068 123.4758 -7.03931
-7.163012 118.9997 -4.848597
-4.826781 121.8762 -6.71057
-11.83339 115.0195 -0.9874322
-11.09208 115.3184 -2.832928
-15.67225 96.55106 -6.448522
-12.10504 95.05598 -10.66959
-17.3885 96.48154 -2.950635
-11.03288 114.5197 -3.989897
-9.4913 114.3614 -4.257961
-9.584601 110.9229 -5.302688
-7.895582 110.5999 -5.870432
-6.588635 110.9587 -6.83498
-9.790987 98.58193 -11.12254
-11.26962 101.7794 -8.918234
-8.867309 101.8033 -10.28358
-13.70656 102.3354 -6.331812
-13.90544 97.62863 -8.265724
-14.53409 99.4853 -6.702849
-11.24301 103.0839 -8.310884
-12.16184 106.1922 -5.890807
-11.75249 107.0896 -5.724674
-12.14552 109.2571 -4.338893
-10.67589 109.7319 -5.216353
-7.616627 106.8952 -7.780355
-7.246166 107.726 -7.588197
-15.99072 98.20821 -5.120235
-5.644843 100.9719 -11.32782
-15.15771 96.87148 -7.066969
-15.44657 98.00773 -6.09825
-15.13717 100.1689 -5.432083
-9.698194 102.2715 -9.672602
0.4871102 103.3211 -10.11578
24.81686 11.10544 -5.98269
19.86569 48.94477 -5.883529
24.64934 14.86001 -6.227154
18.02713 50.00044 -7.521963
14.19589 10.90876 -10.82076
23.08399 36.10565 -6.909265
22.88089 6.206871 -9.119919
0.7125139 32.3411 -12.17762
19.94747 78.16619 -2.790208
11.49518 44.01001 -10.72014
14.45414 45.52016 -10.10262
11.77989 47.51945 -9.737184
-0.4283047 127.1669 -8.947421
6.392071 38.6274 -11.97668
24.92404 5.555944 -6.05884
19.21015 67.39814 -3.536286
20.58589 47.51041 -3.536836
-3.055845 136.9816 -12.30895
19.54858 51.93474 -3.124875
20.19538 86.24899 -0.06071784
-1.325298 10.74114 -12.00452
-0.1764084 109.634 -7.284308
13.24093 89.51376 -10.11278
8.873959 93.58269 -12.37775
18.96335 86.53732 -4.173737
1.331787 34.59661 -12.28179
2.042152 98.41215 -12.11927
6.624634 141.6631 -12.77539
0.9738121 104.3938 -9.535079
-0.7043276 105.8383 -8.820275
0.9318109 128.4368 -9.443665
0.7975168 113.565 -6.320376
0.6693923 113.9556 -5.954566
8.362883 40.1993 -11.98688
0.8067091 129.8838 -10.04495
0.8741063 123.0435 -7.419595
1.362093 131.6855 -10.78516
2.423609 101.1888 -11.15416
-7.887517 9.295459 -12.0532
-4.487324 39.04519 -11.99682
8.36942 75.064 -8.796847
-3.587709 39.38698 -12.03814
-9.663667 42.17736 -11.67251
-9.524549 51.49311 -8.018799
-19.30466 54.24255 -2.043598
-19.55106 63.96273 -1.212908
-2.984054 37.36525 -12.04856
19.43768 49.92168 -5.850472
24.42122 6.985061 -6.521928
-24.02266 5.158114 -7.84054
-20.8775 19.30937 -11.83629
-23.45859 12.5798 -7.630289
19.83234 76.76971 -2.945087
1.180313 131.1812 -10.58706
20.34345 84.75694 -0.314845
-22.74907 36.3111 -8.212282
1.233208 105.0102 -9.206551
-22.06772 7.577363 -10.73549
0.1556577 111.0669 -7.766875
-19.64454 86.40807 -2.592237
-1.155778 107.0661 -8.33394
-0.361052 106.7772 -8.355184
-0.0474043 125.886 -8.476769
10.40396 42.49014 -11.50684
-2.657358 136.441 -12.19926
-1.844445 130.0863 -10.13122
-13.83967 90.41252 -9.782814
-10.05861 92.98101 -11.99542
-19.13927 86.99076 -3.697138
-16.07192 88.99914 -7.734951
-23.7055 6.560546 -7.838223
-3.890113 136.6737 -12.29735
-2.894609 100.6006 -11.38652
17.93636 84.60394 -5.887022
-3.58285 96.56576 -12.55465
-11.52497 44.2447 -10.46077
-18.95783 52.237 -5.230523
-11.96546 52.34888 -8.239445
-22.94012 6.843929 -8.761442
-9.786265 90.28508 -11.84265
-3.208813 135.9418 -12.1199
23.66421 5.78508 -8.06016
22.84681 15.69557 -8.183568
24.62509 12.52399 -6.200531
22.09566 6.75921 -10.6527
18.47485 11.43518 -12.99463
3.038242 34.23061 -12.27155
22.89366 35.81816 -7.774594
16.94008 49.98291 -8.17236
20.52879 79.7009 -0.579914
19.48242 85.78674 -3.273449
5.555199 9.925682 -11.94881
1.415389 35.84699 -12.23686
-2.751547 37.59104 -12.01716
-6.943343 41.1699 -11.95268
19.69868 49.79392 -5.428899
19.3611 65.11616 -2.62511
-11.94845 86.81912 -10.14944
6.608166 95.45502 -12.68775
1.516161 99.59663 -11.74114
-6.579123 9.683804 -11.91668
-21.44491 45.35154 -4.936827
-20.57266 46.50785 -7.020373
-19.16731 51.72723 -4.991967
-15.28508 59.24664 -6.958817
-22.71474 5.915759 -9.395662
-13.07195 84.66674 -8.996502
-20.44242 81.2597 -1.043923
24.30406 12.59411 -6.543118
24.14617 13.75993 -6.71801
19.3045 8.864841 -13.51644
16.45289 8.550182 -11.27157
11.86817 43.59969 -10.97279
22.99694 38.562 -5.608394
16.33595 71.86736 -7.501084
22.22838 42.52722 -6.568311
20.23979 82.80438 -1.797436
20.33993 79.03891 -1.540172
18.57284 87.30147 -4.719697
9.383454 45.88331 -9.779156
-2.000541 11.43067 -11.99161
6.58915 42.49031 -11.53559
-3.326578 38.40261 -11.92298
1.325221 38.32084 -11.9781
-8.66025 41.57953 -11.84745
19.03744 58.16297 -2.803554
18.74442 54.62628 -4.591485
12.13368 49.18599 -9.194674
-13.24238 87.33339 -9.659264
-5.39664 95.40052 -12.75367
1.436448 97.1092 -12.42545
-22.89656 24.46556 -7.911978
-8.051051 36.681 -12.17684
-7.863467 40.14661 -12.00325
-21.79427 44.2065 -5.842829
-20.2198 48.4953 -5.345371
-14.55134 47.25528 -9.511909
-17.63924 49.39429 -8.135262
-18.79108 56.27528 -3.972071
-19.15143 60.96962 -2.510474
-19.60158 7.08482 -13.6025
-24.36629 18.58908 -6.682692
-22.44686 8.284569 -9.445591
-13.86163 87.68989 -9.403829
-20.10238 77.59244 -2.226581
-20.23152 81.39916 -1.983079
-19.35637 81.16087 -4.02458
23.27592 14.36174 -7.663615
23.33791 11.24206 -7.696434
24.42243 23.24062 -6.511847
16.04832 7.415285 -10.96821
8.112771 9.336493 -12.14794
6.346733 37.53146 -12.05095
12.54967 43.88261 -10.82819
9.733261 40.4769 -11.95986
22.58896 39.36338 -7.923901
10.42933 87.47174 -10.86429
19.86786 67.73546 -0.9774198
21.38308 45.44055 -4.430343
20.4609 45.52509 -8.14413
20.16551 80.71903 -2.241951
16.56641 85.37608 -7.173381
15.33267 50.52555 -8.344782
2.461053 9.242484 -11.97847
5.738636 8.378932 -11.95263
4.213877 41.30161 -12.04243
8.111265 42.7481 -11.42964
19.25478 58.16323 -1.272048
19.23668 53.71218 -2.24189
-1.734107 96.64548 -12.52238
2.777179 90.83969 -12.41764
3.061734 95.74369 -12.67074
-3.494157 33.86166 -12.24689
-8.412318 40.00558 -11.99094
-7.715995 36.13032 -12.24444
-21.75831 41.83575 -8.445898
-20.30615 46.32642 -7.731135
-19.2849 46.58172 -8.651394
-17.59935 46.39027 -9.631168
-18.28196 44.03374 -10.42354
-15.50891 50.46124 -8.3552
-18.26133 59.13768 -4.481853
-18.04751 56.71418 -5.065086
-18.62262 59.77663 -3.722173
-14.14815 58.604 -7.37006
-19.74774 65.63891 -0.6816975
-17.04839 7.785959 -11.66711
-24.24551 18.8842 -6.776917
-21.99287 6.560455 -11.02115
-9.322655 86.7643 -10.77895
-19.79713 78.91637 -3.204537
-18.24548 82.81499 -5.622078
23.84659 18.04118 -7.114694
22.92028 23.48084 -8.100084
21.97081 27.02017 -9.235285
22.32306 26.99844 -8.74037
22.88035 29.58395 -7.72987
15.05329 10.34853 -10.82687
9.901445 11.9128 -12.2204
10.18739 36.908 -12.16101
3.126029 33.31919 -12.2319
14.66574 43.89528 -10.82135
11.92785 41.40394 -11.76151
17.69647 41.06458 -11.53622
23.13107 35.50986 -6.699369
9.870999 91.73792 -12.01616
19.60925 69.16077 -2.689571
18.92283 45.88475 -9.318741
19.6632 73.4389 -3.131584
18.51876 74.27911 -5.423296
18.79627 72.36311 -4.90079
18.18517 72.58095 -5.84058
10.09894 49.76002 -8.421735
-9.904211 46.12401 -9.812754
0.225695 10.55971 -12.01217
-2.454338 9.723284 -11.9782
-1.150086 13.95684 -11.9986
5.717116 11.061 -11.95558
2.600672 11.07301 -11.97808
9.943135 44.46279 -10.40684
19.4433 63.06489 -1.602169
-2.857456 99.7912 -11.6883
-23.602 28.21244 -6.54627
-23.167 29.02679 -7.171094
-4.293326 34.90681 -12.27703
-22.7566 34.23898 -8.181274
-22.82912 39.04296 -6.849818
-13.85772 48.12629 -9.331026
-17.13578 53.7336 -6.789125
-19.86808 67.48707 -0.7991305
-19.94991 69.45047 -1.149285
-10.97614 8.141047 -12.44982
-24.17772 20.71345 -6.807082
-12.50053 89.41708 -10.55184
-3.564928 90.2327 -12.26926
-13.78452 85.81255 -8.999728
-18.31014 72.01643 -5.636413
22.71788 22.2608 -8.267232
23.71608 27.38014 -6.797346
9.830388 8.728187 -12.29647
5.770386 33.48824 -12.24442
10.94404 37.48212 -12.09972
23.17704 36.37327 -5.349411
6.496307 93.14644 -12.80406
20.99995 44.87631 -7.726711
19.24688 43.75467 -10.06808
13.69483 72.57048 -8.587785
8.583801 59.86475 -7.366952
-11.09908 48.11611 -9.39948
0.8100614 12.62155 -12.00144
-5.875106 13.65814 -11.90204
-4.328877 11.7763 -11.92015
-8.961195 13.65877 -12.16894
3.968119 14.05525 -11.96613
6.016832 13.35678 -11.96489
11.86 45.36743 -10.00376
16.55919 67.67052 -7.125189
0.8751677 94.05945 -12.77222
-21.61635 21.61358 -10.40533
-1.295316 31.51022 -12.13569
-8.634836 35.93733 -12.25691
-10.14057 8.043365 -12.44175
-8.15599 34.18976 -12.23351
-21.37059 33.68093 -10.32248
-12.99238 51.07791 -8.181216
-18.20327 54.93182 -5.296642
-17.875 60.57394 -4.919343
-19.00563 70.59969 -4.332065
-17.79821 11.25132 -12.31017
-23.3848 18.67819 -7.518633
-22.16203 21.15475 -9.069427
-22.51588 15.28953 -8.76964
-8.28221 83.05782 -9.275025
-19.10381 74.04465 -4.394794
10.35571 9.124264 -12.26422
7.372686 11.27164 -12.02228
13.48156 14.43368 -11.36665
7.593259 14.00738 -12.0175
4.583442 15.7786 -11.96943
4.434686 18.44374 -11.97848
3.340994 17.93122 -11.98193
7.760397 32.99349 -12.20021
16.08292 38.52706 -12.0356
21.76141 34.077 -9.926679
21.31701 36.9232 -10.43728
17.00859 44.2296 -10.62769
9.840205 47.07193 -9.746517
12.15211 49.50369 -8.660686
18.87401 58.23946 -3.355143
17.44379 65.34068 -6.006526
7.939919 90.84448 -12.36536
-21.75338 20.26917 -10.21755
-9.275266 32.84365 -12.17235
-21.43027 40.17112 -9.779718
-15.47402 54.16858 -7.574605
-8.665574 52.77287 -8.512654
-19.01199 67.54509 -3.985398
-17.05626 12.35678 -11.64996
-22.02891 15.53742 -9.94714
10.79456 12.84642 -12.18829
2.055051 14.82055 -11.98736
0.5392362 16.76213 -11.99425
1.301613 18.81914 -11.99018
3.104079 20.61547 -11.98699
5.953034 20.98686 -11.97949
10.88328 34.54229 -12.24656
12.33628 37.54171 -12.10191
13.60985 38.85544 -11.99057
17.76034 71.13857 -6.300691
-3.79363 15.20984 -11.96044
-0.6995508 23.92127 -11.99789
-5.363509 19.81787 -11.96741
-0.1495574 16.15152 -11.99597
17.6564 60.01278 -5.161138
18.57651 61.99931 -4.013608
4.965905 92.437 -12.73733
9.724607 89.34428 -11.65592
-22.23379 30.32798 -8.828838
-20.0523 36.27188 -11.39885
1.952156 62.79055 -7.943412
-17.89229 12.22817 -12.39296
-20.99244 13.94649 -12.37919
1.092925 23.53478 -11.99618
5.997067 20.04512 -11.97961
19.68146 36.99348 -11.5476
17.37205 37.70543 -12.09546
13.88693 69.56202 -8.485297
14.53257 68.82049 -8.231524
16.50747 66.50476 -7.060152
-6.592848 12.63287 -11.91531
16.5883 60.57093 -6.200341
15.78173 65.15797 -7.40417
19.55767 67.16155 -2.41234
4.003501 88.23549 -11.58487
-21.00119 38.31504 -10.57318
-19.36026 11.35153 -13.23765
-20.67854 10.37856 -13.04669
-21.39781 13.24492 -11.98084
-22.35491 7.982757 -9.747738
9.135516 17.36129 -12.04438
9.088599 18.12475 -12.02954
13.61049 36.46727 -12.19713
15.14517 59.01749 -7.107684
14.80702 61.24642 -7.345658
7.224989 85.28397 -10.141
-21.5666 23.32453 -10.45693
-17.68042 30.33669 -11.77867
-9.348087 53.22496 -8.621853
-13.22826 55.48622 -7.666631
-10.70209 58.65923 -7.766327
-8.239102 49.6707 -8.517115
-22.14722 10.28518 -10.3281
13.82728 15.46863 -11.27345
12.55402 18.91233 -11.81859
14.91817 58.73022 -7.183505
-1.311248 90.65535 -12.35543
1.659967 86.15102 -10.66297
-19.60391 14.882 -12.94213
-20.8574 17.11974 -12.05333
-19.84514 22.44876 -11.96245
21.79541 31.10591 -9.539398
13.01684 59.9905 -7.55801
-0.704064 90.35457 -12.28366
-11.7255 56.25594 -7.452254
13.59074 34.24932 -12.22286
13.01705 32.82396 -12.1616
13.95604 55.7114 -7.590409
16.45086 57.16669 -6.460999
16.10246 53.93266 -7.339948
-0.2684571 87.4002 -11.2092
-18.17136 16.51805 -12.41814
-5.57464 56.59828 -7.31933
15.28627 51.72735 -7.986522
11.04743 55.63173 -7.314137
-2.967218 90.8949 -12.438
16.6738 53.85211 -7.006405
9.801146 54.81469 -7.475432
11.24094 54.17279 -7.832943
-1.581381 87.54181 -11.27223
-9.2495 56.72532 -7.383106
-9.986752 58.16805 -7.678985
-10.53247 59.7872 -7.414161
13.24047 50.74969 -8.255523
-1.946202 89.854 -12.14077
-6.864735 54.65615 -7.636386
10.05352 50.59569 -7.900598
7.617226 55.71021 -7.213974
-6.528711 87.11236 -11.08589
9.928465 51.20412 -7.910436
8.143822 63.44715 -8.043243
-6.718006 88.06461 -11.58597
-9.679247 59.66237 -7.435595
7.648559 73.44776 -8.792207
-3.862412 91.73875 -12.62617
-3.489819 92.38602 -12.69774
-2.487688 93.3927 -12.76765
6.974926 62.71016 -7.929748
0.6030768 94.78876 -12.7488
22.14578 10.04709 -10.301
21.49924 11.73342 -12.65667
22.53803 11.25499 -8.869576
15.98255 85.10828 -7.588708
17.40086 83.44437 -6.435785
18.61341 80.12673 -5.240392
-8.765551 39.25881 -11.98262
-9.257646 36.54773 -12.1975
-19.73936 81.6177 -3.334159
-3.804759 41.23313 -11.97964
-19.4854 77.63393 -3.791093
-17.87027 75.78077 -6.158659
-19.04873 70.84213 -4.257529
-17.92569 73.87688 -6.159823
-16.43069 73.32082 -7.491805
17.57343 12.39555 -12.29586
14.95728 12.5653 -10.88058
16.28845 15.33628 -11.27562
22.31208 17.72437 -8.869453
19.15266 14.15409 -13.07521
20.39149 14.44516 -13.01442
19.19987 12.06119 -13.20816
17.66522 18.33576 -12.22087
17.44567 18.59395 -12.08953
21.24765 16.11808 -12.3001
20.47066 16.03735 -12.74358
16.91687 20.45656 -11.67255
20.50589 18.07 -12.44163
18.16247 22.7567 -12.13795
20.68698 31.02354 -10.66372
18.94913 32.04592 -11.75028
19.42398 32.67052 -11.59682
19.94527 34.17549 -11.45302
-8.334139 44.99537 -10.09544
-6.212331 10.59373 -11.89423
-7.806694 12.56749 -12.00003
-12.5479 41.76591 -11.69973
-16.06289 42.28918 -11.33347
-18.32619 43.09484 -10.77277
-18.43197 67.921 -5.085487
-15.13941 70.02258 -8.088408
-16.01509 68.64497 -7.593296
-14.41359 68.90723 -8.292954
-17.1092 63.63244 -6.135458
-13.61781 63.32162 -7.936802
11.41988 86.77988 -10.30408
21.47913 41.45366 -9.124274
11.76019 68.68552 -8.612836
10.78451 73.7752 -8.807312
9.652456 67.7227 -8.506361
10.85048 71.68698 -8.755065
9.531867 73.73006 -8.801523
8.533611 73.74622 -8.797963
5.6498 69.53186 -8.662678
6.182593 71.70008 -8.748639
11.44611 66.79621 -8.414046
8.657326 67.13198 -8.44401
10.84996 72.93495 -8.7965
7.550885 63.82472 -8.102224
5.114442 68.53041 -8.597106
2.087106 68.22482 -8.580068
10.57595 62.78013 -7.915815
3.025407 64.56973 -8.203453
13.21618 66.00581 -8.359586
4.258201 65.68601 -8.32463
7.603609 44.86445 -10.06106
4.297348 43.67374 -10.79986
2.582337 42.44218 -11.54937
-5.678959 45.37594 -9.956563
-9.310523 88.5594 -11.52797
-22.84417 22.43604 -8.025257
8.896451 51.10228 -7.881106
1.239168 54.47061 -7.788871
1.121388 58.07373 -7.708205
-20.62183 28.01851 -10.83679
-11.72068 33.57922 -12.19366
-10.94066 34.03012 -12.21467
-14.97159 33.5597 -12.17808
-6.311532 30.6523 -12.08791
-10.65392 31.97444 -12.12483
-14.35621 38.80152 -12.00319
-12.06668 39.26196 -11.9506
-19.61297 35.51751 -11.62391
-11.86246 32.48551 -12.14263
-15.17893 31.23462 -12.02397
-11.18789 30.30359 -12.04325
-11.67497 29.07544 -11.98822
-13.28181 34.60349 -12.21566
-11.53493 28.71729 -11.97851
-15.55686 30.44049 -11.94816
5.543699 22.30348 -11.98182
1.547331 24.42231 -11.99946
4.969834 27.5519 -12.0186
5.558542 26.39023 -12.00062
8.622731 21.58272 -11.97595
7.937006 26.60392 -11.98591
11.85753 33.69587 -12.21228
18.80992 70.87535 -4.804625
-1.285635 21.71785 -11.99134
16.57729 64.23067 -6.692178
-19.50725 23.47706 -11.95504
-19.49856 24.43728 -11.82526
-18.24339 21.36405 -12.23581
-16.41542 20.4166 -11.40711
11.75355 19.74941 -11.97119
-0.7321962 84.49013 -9.996902
3.503825 84.31921 -9.901699
10.86088 32.602 -12.16329
8.182528 25.66894 -11.97453
10.18242 30.4664 -12.06476
14.26832 32.27823 -12.12065
12.85771 31.10891 -12.067
9.540744 26.96877 -11.97355
13.12517 20.65258 -11.72592
9.295402 23.851 -11.95768
12.10859 22.5566 -11.89905
12.13988 25.07349 -11.90304
-16.68699 12.88226 -11.37159
-13.22391 13.19346 -11.65468
-7.913721 14.51044 -12.00498
-12.15305 11.42558 -12.11373
-9.654379 16.28629 -12.15265
-0.636185 74.09054 -8.789001
-5.486065 81.952 -9.176851
-5.906859 80.15447 -8.894904
-6.30979 82.89341 -9.352505
-9.370942 83.5695 -9.31193
-6.868232 84.90478 -9.986553
-10.47051 80.33709 -8.713016
-12.7685 81.75069 -8.566477
-4.501355 81.15549 -9.059422
-6.632724 79.54433 -8.844026
-4.400187 79.3105 -8.867872
0.1350367 78.93513 -8.866894
1.394078 78.0483 -8.823101
2.627068 81.90958 -9.22183
3.690285 77.72278 -8.802257
2.69727 77.38728 -8.799624
9.646355 76.1098 -8.781061
7.567049 77.617 -8.770023
5.848583 75.76383 -8.79131
12.08994 78.23245 -8.666537
5.091774 80.55312 -8.96199
5.480989 82.69925 -9.333249
-13.19032 58.29648 -7.538084
-4.781708 54.04281 -8.251664
-2.180673 40.96732 -12.03539
-18.82967 79.21284 -4.92096
-17.17991 81.76051 -6.684412
21.68015 23.80573 -10.02768
19.24571 20.12612 -12.49109
14.5112 31.04657 -12.03343
16.46339 29.27365 -11.82575
16.41451 27.71837 -11.75431
20.16329 24.48763 -11.82293
20.25027 22.79764 -11.99579
17.52698 34.47319 -12.17147
-14.90122 39.51938 -11.91843
-3.61909 75.3155 -8.79665
-15.47244 64.87333 -7.540686
-15.87157 62.83254 -7.013186
-12.30003 60.76743 -7.621048
-12.36279 64.00754 -8.070579
-13.30595 64.11537 -8.032269
5.653687 63.62886 -8.080842
5.275023 63.00745 -7.991493
6.013701 57.89997 -7.748918
6.412938 56.00555 -7.129446
9.65638 57.87431 -7.743604
2.477886 63.38652 -8.050466
3.587712 56.75446 -7.419168
2.280835 67.36774 -8.50463
9.266703 55.5035 -7.252906
3.218621 59.4541 -7.560283
6.84035 54.82169 -7.392951
2.733241 56.94392 -7.490185
1.564915 55.00445 -7.286722
-3.286991 56.78577 -7.391828
1.005098 66.00838 -8.369379
-0.09550016 53.68911 -8.537075
-5.65905 59.15034 -7.589537
-7.522582 61.34691 -7.628101
-4.232794 59.72516 -7.450121
-1.330631 62.34713 -7.823143
-3.076874 64.93939 -8.248598
-10.70354 62.76866 -7.897707
-9.10496 63.7607 -8.060387
-5.489705 59.97882 -7.45785
-6.053498 63.02213 -7.971439
-3.722834 65.97385 -8.377097
-1.902155 66.58635 -8.440521
-9.934676 67.55574 -8.546374
-3.484505 78.24416 -8.823103
4.250334 73.62758 -8.786264
-0.292197 76.26471 -8.796206
4.592381 71.96371 -8.753502
2.647081 73.98313 -8.789926
0.07857106 75.79876 -8.795156
-4.339212 73.43266 -8.781948
-9.732295 69.24481 -8.657649
-2.494257 68.98447 -8.633825
3.235129 71.19438 -8.727352
1.952125 69.42374 -8.656748
2.692167 46.39888 -9.80453
6.161573 48.37141 -9.478465
3.387879 49.57821 -8.450169
5.335972 49.19466 -8.885428
-0.5178128 40.12054 -12.08664
-4.367897 45.39004 -9.909147
-4.147349 43.58181 -10.7911
-2.32726 47.09645 -9.728564
-7.22373 49.86047 -8.364516
-0.5502228 44.63755 -10.1582
3.521269 49.07156 -8.97552
-9.774432 47.69817 -9.510993
2.030308 49.31227 -8.706142
-6.350584 50.11563 -8.171487
-4.213971 51.48539 -8.068262
-3.58509 48.24706 -9.370981
-2.54539 52.63353 -8.778345
-17.26246 30.00922 -11.79358
-16.98955 32.13168 -12.0563
-19.19327 34.31525 -11.79344
-9.878301 26.82784 -11.96602
-20.24648 29.73988 -10.88813
-6.530203 21.48326 -11.9742
-0.8323845 21.69844 -11.992
-2.578139 20.72371 -11.98642
2.016708 25.34357 -12.0038
-0.5985576 29.21705 -12.05839
0.3568504 27.02275 -12.02166
-0.09009051 28.61127 -12.04651
3.494243 28.62367 -12.04219
-5.932876 21.99054 -11.97636
11.1033 84.24889 -9.281326
-16.01153 20.78374 -11.34265
-14.66598 18.51766 -11.28952
-11.45915 14.78731 -12.2355
-11.45615 16.21357 -12.20496
-15.49167 23.7584 -11.54518
-14.1907 24.84504 -11.76462
-13.5708 26.63377 -11.86929
-14.69291 28.72251 -11.88797
0.2913569 85.48804 -10.39314
11.62822 23.13648 -11.92136
18.22245 24.47031 -11.942
-11.30949 11.68875 -12.2998
-6.849778 18.53007 -11.96239
1.872776 83.61427 -9.69207
-9.366382 80.45967 -8.792488
-16.29215 80.65366 -7.279511
-3.835119 76.69188 -8.798751
11.74467 75.49873 -8.787808
5.638645 86.79926 -10.93066
9.38465 83.96201 -9.43048
-5.711519 54.5625 -7.69514
-1.917059 49.65771 -8.435433
-13.83244 69.39734 -8.489307
15.19684 86.38668 -8.254046
9.092932 80.97444 -8.842394
2.829136 66.42242 -8.406765
-5.999754 66.21552 -8.413653
-7.337136 71.98558 -8.746585
-8.733075 70.76052 -8.676081
-6.869559 48.46851 -9.256742
-3.641271 28.20157 -12.03396
-0.5766636 21.72498 -11.9922
-3.940908 21.95563 -11.98387
-12.03363 23.85151 -11.91989
-9.270654 22.82774 -11.97251
-5.409373 24.01311 -11.98503
-12.06702 22.33044 -11.93358
-11.75321 22.66927 -11.9468
-14.54065 19.72209 -11.39098
-5.948868 77.90453 -8.796515
-13.60833 75.10146 -8.620306
-11.1354 78.09108 -8.714035
-17.01096 75.8299 -6.984413
-15.2003 78.84875 -7.87999
-16.86607 74.48193 -7.133392
-15.63323 77.48347 -7.775678
-15.61695 79.55247 -7.669941
-16.75568 75.05173 -7.218358
-12.73682 72.83723 -8.762557
14.11335 83.66703 -8.460462
14.04829 80.02357 -8.248458
18.4924 81.15897 -5.374903
16.30366 79.89605 -7.292203
17.97361 79.31927 -5.954109
17.32957 77.85239 -6.638653
18.26953 76.85738 -5.701911
-8.843055 65.35098 -8.29953
-3.979042 72.06213 -8.748941
-6.832289 68.9562 -8.642454
-1.268825 69.18883 -8.644928
-5.027667 66.66978 -8.457494
-6.183226 72.49263 -8.764832
-6.726055 78.0503 -8.792271
-8.985172 73.45866 -8.789634
-2.819927 26.18342 -12.00839
2.208427 53.90587 -8.412057
-0.8774246 53.84568 -8.401612
0.8796343 51.79309 -8.356654
2.574932 50.15079 -7.985983
-5.950614 68.56464 -8.618905
-17.2818 25.69629 -11.74592
-3.487772 126.5899 12.28918
-20.03477 87.51962 1.176051
-13.83105 151.7975 -4.487129
-12.26958 121.3338 6.969193
-14.76272 136.218 3.946831
-13.99906 148.3613 0.2613133
-13.96767 111.2781 2.376345
-14.69942 133.0444 2.141963
-14.74985 133.6592 0.6222053
-8.482044 144.6421 4.326707
-12.75179 121.5047 5.377614
-9.268328 145.3722 3.504556
-12.78323 150.8687 -2.071362
-10.06455 143.7449 4.899665
-14.41096 131.9661 8.865351
-3.393533 105.9763 12.22582
-1.929417 111.1965 12.06566
-2.111403 121.7813 12.04398
-6.457253 129.4951 13.01912
-2.794228 127.9352 12.59652
-14.5239 135.7233 6.413399
-14.0976 132.9648 9.683426
-14.87962 134.6071 4.093627
-14.66982 137.2806 3.588931
-5.316483 136.8177 12.14896
-12.42162 150.1431 -1.273517
-3.371822 132.275 13.55147
-14.81534 136.0073 2.940284
-14.10182 136.7713 6.396026
-11.62565 130.1452 12.03424
-12.5004 146.0518 2.072644
-12.72293 146.1264 1.927892
-17.60386 98.75444 0.5695569
-19.0486 89.69376 4.729033
-13.1777 112.8959 4.069076
-12.40309 117.6785 3.568495
-8.729938 131.6832 13.68084
-13.81707 127.6837 1.804947
-14.84938 135.1922 3.807008
-14.72621 136.7396 3.72683
-5.883592 131.4166 13.61696
-6.98187 138.8479 10.28328
-11.77917 144.5809 3.558992
-11.01072 143.9854 4.38683
-18.35696 96.71466 0.6081622
-13.60587 91.40675 9.656557
-19.13549 87.81209 5.541245
-17.99096 91.25392 6.326489
-20.10987 86.61623 -0.3665942
-15.53504 106.7021 4.257564
-9.445543 97.31702 9.705788
-2.766842 104.5564 12.10059
-3.674779 112.3725 11.84955
-12.28273 116.6546 5.129829
-12.18815 118.9033 6.31679
-13.70719 134.6883 9.703969
-14.64504 133.6139 7.955552
-12.82394 121.8512 2.965266
-5.279342 135.7397 12.84575
-5.831511 127.5393 12.24744
-11.54916 135.3534 11.95312
-10.53654 144.9488 3.659483
-18.43053 93.73596 2.610088
-14.68309 93.62739 8.862428
-16.88241 89.45982 8.352777
-18.29683 93.68156 3.443256
-16.93178 101.2357 3.054362
-9.61582 95.9607 9.709332
-6.917841 101.0153 10.45324
-3.637894 104.6368 11.98789
-2.284433 108.7949 12.24096
-2.825029 111.0814 12.03028
-12.66663 122.6291 6.316281
-4.058629 119.4313 11.73589
-10.09635 131.7013 13.32907
-2.637884 125.48 12.28537
-8.124972 133.7509 13.79498
-9.506698 135.4151 12.96337
-7.83804 129.547 13.03703
-3.518219 131.4838 13.51001
-7.306077 137.7059 11.48103
-10.25346 140.8112 7.54691
-17.21201 90.92709 7.616525
-11.92614 95.18271 9.351593
-4.5453 103.4525 11.51777
-7.847958 102.1049 10.30627
-5.604032 109.1077 11.66674
-3.225061 118.0409 11.80272
-4.66317 110.7006 11.82873
-11.0406 126.8989 9.621648
-12.21921 127.3175 8.319735
-13.46506 126.0807 4.586815
-13.79663 128.9985 5.290115
-13.41632 112.0278 4.35974
-4.24637 123.9133 12.19616
-2.362811 120.0339 11.93075
-10.6523 134.9038 12.79484
-14.09472 130.6144 8.75423
-5.877566 128.6678 12.64236
-8.790834 140.643 8.15672
-6.427533 104.4407 11.0725
-9.857531 111.4749 9.319926
-13.02563 128.6751 8.748737
-13.81448 130.0645 9.0209
-11.77851 122.2449 8.012017
-7.920257 126.0832 11.30087
-9.392962 121.5223 10.25292
-6.908221 121.0813 11.36195
-5.626436 119.4488 11.3955
-11.34149 139.7965 7.795735
-16.85548 101.5747 3.17191
-5.372922 109.4095 11.73662
-10.61984 119.598 8.939746
-6.327245 125.4456 11.71157
-12.78233 130.2337 10.97646
-9.551447 128.3623 11.84362
-11.80036 115.0275 6.680085
-10.63506 115.1194 8.255688
-10.45236 112.1307 8.780819
-7.014446 117.0519 10.69984
-5.154813 118.2949 11.41737
-12.7463 143.1281 4.123597
-13.33649 96.04955 8.936893
-6.873019 109.7177 11.05743
-10.76201 129.3314 12.05969
-11.7474 117.9008 6.970444
-10.08869 117.5454 9.042365
-11.76696 115.3948 6.713198
-13.1198 98.52492 8.630627
-16.23236 99.02586 5.824745
-6.666064 114.4668 10.82931
-10.72017 117.5632 8.474785
-17.0948 98.98782 3.784352
-8.913656 113.0148 9.720137
-14.51004 99.25311 7.794431
-17.72085 96.04333 4.118321
-8.700541 116.9257 9.883552
-15.28837 105.4266 5.92854
-13.58202 102.5495 8.235347
-10.99469 109.7227 9.146546
-15.0435 104.3455 6.681074
-13.48078 103.2215 8.314641
-16.1144 103.4558 4.884089
-14.78211 107.8311 5.255095
-14.36805 109.3922 4.82234
-13.81201 105.9712 7.819479
-9.864202 107.0997 10.03148
-7.332638 104.8193 10.79739
-9.510015 104.1517 9.966587
-8.755357 104.71 10.2844
-9.420501 100.7654 9.744162
-13.99113 138.0929 5.745748
-19.94791 87.9813 1.326319
-12.24153 98.95962 8.908598
-11.9487 101.099 8.958046
-4.316109 113.5829 11.67644
-9.747527 138.9207 9.54277
-11.79162 100.1331 9.011786
22.87171 37.80899 -3.633303
-3.077765 137.4902 11.48661
-0.7800843 102.8504 11.91511
-25.88511 16.93585 -4.744282
-26.57292 7.052408 -2.705549
-23.17528 32.82474 -4.348918
-22.91264 37.60688 -3.755764
-21.31594 45.35312 -3.74572
-23.65961 10.9674 -2.039778
-20.33138 82.72955 3.458381
-4.240527 57.18818 5.436196
-2.70863 6.888965 0.4470869
-12.62755 10.29752 0.217714
-1.625985 33.28214 0.3405294
-12.24823 35.57133 1.01369
-21.31479 7.756626 2.605562
-4.077189 35.34236 1.276876
-18.86177 62.53986 2.805456
-18.10071 53.01489 2.071098
-7.574126 39.60951 0.6886005
-20.31733 85.5701 1.125714
-19.14178 83.70943 6.497838
-15.90647 88.69269 9.220254
-7.277312 91.17974 9.965622
-8.887179 92.75354 9.904929
20.08317 47.03905 -1.407562
-3.39285 99.55213 10.93562
-4.952582 138.9378 10.11586
-4.641035 94.80085 10.15109
0.03910918 106.8076 12.27849
-1.014048 106.8344 12.29146
-21.32553 8.685105 1.22201
-1.464112 120.529 11.98059
-1.808042 123.6827 12.17719
-2.827601 131.9646 13.53673
-1.569384 125.2156 12.27269
1.380602 36.2073 1.325833
-3.434571 43.63492 1.857629
0.5040576 33.07693 0.3186622
2.619907 33.7518 0.5288242
1.636597 136.2061 12.38727
11.82149 40.82431 1.127578
6.426587 35.9408 1.219197
18.16921 48.94634 1.601805
18.83883 55.72987 -0.06182403
7.197013 49.77962 3.716787
-19.87576 66.89142 -0.139713
-0.368462 108.3688 12.2345
0.86349 104.2483 12.1689
23.23266 33.11672 -5.088094
23.13 33.13155 -4.217718
12.7263 76.22547 9.7064
-6.335403 85.02057 10.21816
3.034014 35.67205 1.203184
0.8088847 131.5941 13.46414
20.62437 80.43174 0.05754158
23.12555 34.93138 -3.98834
15.37181 42.9283 1.779796
-19.61856 45.23303 -0.009528032
0.5193411 113.8539 11.97134
-0.4711435 118.0552 11.9132
0.6546521 102.1843 11.76615
-0.1530641 131.3283 13.41445
0.1367552 128.0974 12.66144
0.315328 134.2216 13.26931
0.6643302 129.1657 12.92352
1.475252 138.0302 10.93185
-0.4382158 120.8963 12.00298
13.21012 89.1812 9.997907
7.709623 92.38435 9.933
6.662269 92.13779 9.963448
18.83204 83.87559 6.998865
15.83779 86.64005 9.492345
2.277734 99.81765 11.03445
0.524996 135.9643 12.51322
5.796895 94.11306 10.03065
-3.56173 96.8637 10.43812
19.06561 58.01428 -0.1466676
23.33072 14.20731 -2.567914
26.18006 6.715285 -3.10843
18.85113 81.15537 7.001485
1.119313 137.1944 11.6556
-26.62794 8.33154 -3.168175
-26.20704 13.56752 -4.741019
-26.5877 10.54488 -3.595868
-24.38456 17.71013 -3.865651
-19.52735 41.35772 0.7383462
-21.68403 43.1142 -2.634798
-20.58585 79.97319 -0.2448501
-18.26721 45.56863 1.139565
-21.20304 45.33319 -3.172983
-0.5595131 6.771354 0.4749066
-1.181623 34.22351 0.7370975
-20.14305 48.78236 -2.913995
-18.94201 47.34927 0.3874886
-18.76876 47.68258 0.5811945
-17.28152 52.9646 3.297401
-6.733951 84.34908 10.22157
-11.74579 89.34135 10.03125
-2.992847 99.20352 10.88342
-0.1949556 103.0433 11.97288
2.544178 31.31676 0.0709556
21.6976 43.97943 -3.638204
20.06289 47.57487 -1.625662
8.388166 47.52283 2.915632
18.44581 58.48357 1.979763
26.51993 11.09003 -3.508854
12.40299 87.58905 10.17766
19.1619 86.37944 5.972456
-25.52486 16.96643 -4.327973
-24.29497 8.313367 0.1717653
-23.27087 25.903 -4.986245
-9.479187 6.757068 0.7880616
-22.13698 42.1932 -3.43529
-12.48174 39.39043 0.7910491
-19.62294 74.65462 4.929802
-20.21133 86.24346 1.768806
-20.59722 79.01176 1.94708
-20.32331 73.36982 0.02622551
-10.82023 41.70813 1.571017
5.741168 41.88422 1.699375
7.54171 5.818346 1.164887
-5.536682 37.17029 1.160251
4.925456 38.05835 1.100288
-20.74996 42.37687 -0.6221428
-16.24633 43.38184 1.707369
-18.47545 54.41969 1.036505
-14.17217 48.12471 3.152436
-0.05299943 36.3433 1.335781
1.105306 37.26502 1.28762
-4.007035 36.84885 1.272435
5.364005 89.4819 10.0538
-6.189908 92.14007 9.972264
-11.92731 90.3403 9.924452
1.533922 97.71553 10.6144
25.19996 17.99934 -3.950196
22.82279 38.55071 -3.824619
23.14359 27.98651 -4.662639
22.01668 40.06337 -2.003509
18.85033 48.94126 0.5147761
19.35794 45.60849 0.1461886
17.27155 49.14439 2.684347
18.51893 54.27193 0.9126297
18.42229 57.77112 1.791586
19.0908 7.867954 1.23334
24.48494 17.6874 -3.681671
25.71197 7.434978 -0.5802504
13.25419 86.97598 10.1621
19.05585 85.22031 6.46174
19.32312 82.837 6.183791
17.95134 82.71479 8.121512
20.57639 77.50367 1.133218
-25.47476 18.57958 -4.806222
-25.53647 13.80904 -3.372458
-23.35553 26.36465 -5.141372
-24.79073 19.99084 -4.540344
-10.36973 6.18399 1.073943
-5.255361 35.05513 1.081922
-22.52927 39.96315 -3.38553
-17.63025 43.92059 1.439433
-11.55725 34.60767 0.5950792
-8.600078 37.29486 1.17023
-20.30161 38.7213 0.2834722
-20.34947 73.87997 -0.004261866
-14.75135 86.3484 9.973846
-20.33784 84.29368 2.764989
-20.38841 80.35855 3.368195
-20.52215 78.20891 2.3833
-10.1052 45.44177 1.715118
-8.796508 40.89912 1.024199
6.631464 40.40947 0.8060347
4.641929 7.776828 0.452669
3.334763 37.75297 1.17123
1.539827 38.17995 0.9517294
-19.3289 61.66398 0.8633189
-19.0218 57.79491 -0.03791268
-18.45389 52.59948 1.165422
-5.448733 94.97561 10.14573
-5.72621 93.01798 9.999252
2.681942 94.54483 10.15092
23.69571 23.88749 -4.496316
6.117869 34.11096 0.5612498
22.97073 29.75208 -4.027965
6.293953 36.93397 1.326845
21.10381 43.35325 -1.466218
22.79777 39.50989 -4.421871
16.22776 42.85907 1.685541
18.62647 47.54778 0.7879484
12.12689 41.95173 1.67221
12.80074 46.13088 2.040323
17.0166 56.38234 3.909453
15.49548 56.13929 4.995764
17.18433 57.26636 3.833419
13.20755 55.01904 5.120627
19.77802 65.62194 0.08510901
22.8746 8.651503 0.9017038
25.39562 17.4889 -5.450275
23.77703 8.317263 1.284266
13.82389 87.04129 10.10847
20.61977 78.9828 1.535648
18.26254 85.48954 7.575416
20.15828 77.20707 3.950367
-25.6272 16.33123 -5.499176
-22.49272 20.62056 -3.477871
-20.18519 26.67611 -0.8656231
-23.17278 29.92171 -4.964719
-11.10504 8.131318 0.5598667
-11.65927 8.296889 0.5786596
-3.331522 31.04486 0.04876771
-23.22446 33.90068 -4.868272
-22.88336 29.28088 -3.748119
-9.00213 37.55362 1.085668
-18.38952 39.14436 1.105885
-19.96178 67.89156 0.2514944
-13.26729 87.96172 10.13038
-10.16292 44.53099 1.588465
10.07011 42.07657 1.800738
8.558163 43.78657 1.793703
7.564968 41.36422 1.44732
0.8508688 7.116591 0.4558459
-3.627356 8.390697 0.2856882
3.887086 10.81295 0.1364143
-4.190945 8.288705 0.2977028
7.759959 7.975285 0.5118429
-20.50073 43.34756 -0.5335092
-19.59307 63.58923 0.3514272
-17.269 62.54885 5.273346
-18.56425 54.30091 0.7518575
-18.97231 58.85281 0.6078602
-17.13589 52.25753 3.343754
-3.506995 95.03014 10.2016
-0.08216644 93.26347 10.08626
24.10738 25.80357 -5.290339
24.80046 22.09052 -5.160056
5.057255 33.36945 0.3566619
6.929938 34.38828 0.6431613
20.29062 41.32108 0.1348982
12.329 39.57836 0.6724928
12.50175 46.84245 2.381715
17.25935 52.41902 3.314425
19.53185 65.98954 2.47419
20.08707 69.42661 0.9910419
13.82165 8.109893 0.8930514
23.42294 19.8117 -3.953405
14.6876 87.4472 9.907618
13.17111 85.17522 10.24036
20.02365 71.43569 2.413403
13.32367 81.7758 10.18648
13.71435 82.23239 10.16855
13.31028 77.63807 9.887101
17.55307 75.33231 8.026986
14.93094 77.27273 9.653251
18.57168 80.6742 7.372183
20.03037 76.07135 4.10463
20.2199 75.77911 3.40421
18.68822 72.83658 6.238533
-17.58953 7.891232 1.5729
-16.24448 8.468782 1.777309
-6.557627 10.92227 0.08910476
-22.19112 38.59734 -2.025365
-20.45767 38.6604 0.1401247
-20.1626 75.26517 3.348584
-7.192662 41.9735 1.785654
0.4630324 10.29695 0.1618105
3.912649 11.48119 0.09311662
5.572063 11.68033 0.07540481
2.700314 12.25772 0.05949582
-2.317028 9.134688 0.2245991
-4.610256 10.43357 0.1300511
10.26399 8.327374 0.542819
-1.368107 40.87492 1.10982
-17.01057 65.32904 6.282051
-12.97081 47.68586 2.895243
-2.291222 93.96003 10.1171
21.81645 27.44858 -1.806647
22.83627 31.01142 -3.219658
22.2226 26.58932 -2.291623
21.87146 19.93055 -2.154739
-6.704911 26.01147 -0.08863499
8.005348 28.8341 -0.01739571
21.58888 35.27209 -0.8566855
11.10476 36.40755 1.174884
12.48853 36.13669 1.071618
17.54788 36.575 0.8928478
12.05654 35.93491 1.031795
17.76058 40.04056 1.196991
18.25845 53.81966 1.619952
15.33029 57.69564 5.284757
18.73401 63.05508 3.282849
16.88201 8.779647 1.151767
24.26971 15.89588 -3.170114
21.64349 18.71695 -1.903948
21.41725 16.77541 -2.254689
22.49336 14.23228 -2.63163
20.17978 15.64565 -0.4931264
19.67637 12.71397 -0.594988
18.15512 15.31002 -0.2006925
19.04013 11.42528 -0.1613464
19.85361 15.65172 -0.2218366
25.91751 10.63199 -2.337174
-18.33897 30.36604 -0.05122595
-16.37365 11.17709 1.396422
-10.90871 37.68265 1.049302
-14.91681 32.48388 0.2066959
-7.944313 35.08582 1.001549
-13.38918 86.62737 10.20208
-8.152612 41.4521 1.421959
11.59085 46.93332 2.447073
-0.285272 39.25816 0.5330344
-3.220905 39.72017 0.6106023
-11.4535 48.43003 3.381254
13.22016 29.59374 -0.01984227
21.11497 24.89382 -1.450755
6.419892 30.05972 0.03006975
18.72454 40.71682 1.125094
10.60741 53.69493 5.028914
9.076233 47.98479 3.229461
19.47873 66.68996 3.00233
12.67207 8.798698 0.5194086
16.24909 11.98629 0.3811196
23.09562 13.04566 -2.201709
25.81731 10.6151 -2.238419
11.64946 84.67071 10.25735
-13.14395 11.44553 0.07041141
-14.06194 13.97898 -0.2258319
-11.52576 10.23492 0.1758726
-7.439669 29.128 0.04890197
-15.78028 36.57283 1.097287
-16.70773 41.73711 1.397132
-14.98556 39.69802 1.012495
-8.371619 30.20211 0.0869644
-13.42343 32.99849 0.1783987
-6.835764 42.87325 1.962466
6.432997 16.62171 -0.1135318
-0.4457906 40.22501 0.6999208
-14.86485 60.52521 6.126253
22.42475 22.37254 -2.905906
21.69893 24.40296 -1.780047
11.32621 49.60392 3.670948
19.28313 10.6207 -0.6312444
8.917552 78.69982 9.968902
-5.93438 31.00517 0.06079179
-7.37219 30.55012 0.07471742
-12.73919 33.56946 0.2361283
-2.492826 14.48912 -0.01807741
-13.3913 62.64676 6.92542
21.22407 28.38885 -1.162041
9.837613 33.33881 0.2803842
7.969409 49.78764 3.73241
7.243031 14.86696 -0.0825106
-9.116984 26.66553 -0.09867886
-9.351921 89.19215 10.0515
-2.307941 40.75542 0.9862707
-14.93448 61.58656 6.389398
19.71933 32.0684 0.04495864
8.507465 34.80776 0.7538484
10.25364 51.37297 4.287543
13.09273 54.23806 5.05964
13.96784 54.94364 5.119118
7.761529 9.609464 0.2354751
11.84422 79.05461 10.01487
3.265153 41.80975 1.678924
-12.43997 55.73556 5.02194
18.02543 24.0397 -0.6136963
7.844071 49.11483 3.596448
15.59316 14.61952 -0.4062718
-9.920448 30.81945 0.1098246
-8.968239 26.24259 -0.1118159
-0.4462084 42.49506 1.98039
20.84159 31.26151 -0.5366725
17.29659 24.40141 -0.5122566
19.04659 28.81674 -0.3158054
2.593332 48.41533 3.372104
12.33862 83.17165 10.23489
-15.08658 58.35134 5.510899
9.866982 81.55691 10.16369
7.018947 79.07553 9.996655
-13.04622 62.07805 6.780275
-14.02664 59.11419 5.920623
-9.88579 62.33256 6.842102
-16.84761 55.77323 4.109163
-12.82024 62.56211 6.899598
-13.8229 68.75616 8.405607
-14.65467 67.62557 7.979046
-11.10893 59.36779 6.054914
-11.17451 68.92706 8.467049
-11.26367 67.85554 8.209184
-11.17652 62.87603 6.984702
0.7342221 47.359 2.79011
-9.543298 61.76072 6.699747
-8.777795 59.65985 6.144807
-10.46688 50.10637 3.778134
-8.480625 58.92096 5.935445
-4.236986 54.07077 5.175483
-4.24871 57.33715 5.479339
-19.21463 49.92042 -0.3121504
-23.12727 10.76502 -1.751194
-24.24332 14.6993 -3.524283
-17.52115 83.64625 8.516111
5.839567 84.29154 10.21842
-5.834254 90.42149 10.00859
-3.184909 92.06298 10.01871
-19.0583 72.71992 5.649356
-19.55746 82.44863 5.792668
-19.93781 75.21385 4.184725
-19.07375 79.36871 6.612062
-20.5056 80.00505 2.798701
12.19238 55.84946 5.167516
6.136167 50.39824 3.869878
7.926028 55.62718 5.146117
-18.20934 9.704247 0.9319502
-24.48546 16.37988 -3.761112
-22.15463 17.86262 -2.98872
-22.18419 14.00146 -2.704507
-21.57349 16.6402 -1.719406
-20.44771 12.24224 -1.277598
-7.571126 8.448996 0.3306527
-22.42617 29.16055 -2.432921
-22.34129 31.597 -2.076433
-20.25829 34.41682 0.09682852
-20.98724 26.84391 -1.127057
-21.63905 29.77683 -1.354821
-22.90298 34.57285 -3.218204
-20.46972 32.67273 -0.1749952
-19.08434 26.18455 -0.6187053
-22.20324 36.12869 -1.682769
-18.22789 32.58907 0.2806267
-17.47196 33.94353 0.4153048
-12.35856 30.41906 0.1358614
-14.45483 30.29333 0.1158963
-22.01257 36.43399 -1.417502
-12.13374 28.57118 -0.02514231
-15.51048 26.58711 -0.2121468
2.092839 41.29773 1.360895
5.186233 84.65826 10.2181
20.83275 41.08459 -0.3725132
18.68861 39.69727 1.102505
16.03819 36.46563 0.9840807
17.95193 62.94067 4.656719
12.70307 64.17528 7.313327
14.60447 62.70795 6.752962
17.63449 60.21581 4.039797
18.70413 76.86501 6.910249
-8.158066 46.77931 2.265075
8.34511 10.55173 0.1350854
9.409232 11.89965 0.01625633
15.73306 38.38326 1.159519
19.41613 17.59416 -0.6009783
16.48028 18.85098 -0.6158163
16.84224 18.58353 -0.6743377
14.73499 20.8763 -0.4093806
9.945983 20.3736 -0.2333444
10.9812 18.07318 -0.2425309
21.88988 10.72737 -1.270093
-16.0083 68.3196 7.683045
-18.58263 70.26118 5.898115
-8.116619 49.36753 3.614911
-13.71215 52.03662 4.522975
-13.63408 52.90464 4.868966
-15.07875 53.51272 4.831786
-15.91214 24.07467 -0.3497472
-9.405073 13.33742 -0.073917
4.153169 21.45664 -0.1377122
1.72878 15.46819 -0.04281904
1.155136 12.4905 0.05373775
-1.007498 14.27823 -0.007372659
-4.771846 13.06271 0.008386673
-2.759019 15.21544 -0.03800917
15.66351 41.75108 1.44378
-4.678714 14.67515 -0.03901761
12.39422 11.75619 -0.02167419
15.20341 14.14335 -0.3447019
-8.106279 24.52473 -0.1390236
-4.906309 21.09943 -0.1251756
14.73024 17.80747 -0.4236469
12.71176 19.13534 -0.3143502
12.54496 17.31758 -0.2904572
8.895818 19.92911 -0.2061693
9.103354 18.96904 -0.2035738
7.982076 22.62364 -0.1864353
10.30703 24.18061 -0.2139512
9.542772 25.04818 -0.1760209
17.11906 29.55095 -0.1004329
15.17278 25.38075 -0.3431774
9.578952 30.10337 0.03466427
6.631169 24.26769 -0.1473614
13.87397 25.75916 -0.2696703
12.69379 27.39345 -0.1445955
11.23898 28.95531 -0.03521712
6.128386 26.35026 -0.09357648
6.698887 21.617 -0.170181
7.726987 25.98437 -0.1217341
4.34887 26.96874 -0.06270791
-0.6578502 28.15242 -0.01046682
2.057076 24.82437 -0.09905128
0.8489206 25.65845 -0.07983849
1.835091 20.59346 -0.1177375
3.045375 18.81174 -0.110337
0.886779 17.94937 -0.08693173
-1.73559 21.84867 -0.113532
-0.0006177213 22.53055 -0.1130783
6.920044 53.90716 5.112454
-12.27434 26.38005 -0.172704
3.55109 46.50043 2.186603
8.130962 45.5406 1.70728
0.5404909 45.45765 1.625266
11.79625 81.22638 10.16017
8.600868 83.33913 10.21771
9.353165 81.75552 10.17167
-0.5135146 85.76639 10.19975
6.036086 78.34808 9.930826
-17.76967 57.91124 3.174823
-10.58762 59.52194 6.099895
-12.88722 55.19666 4.996239
-11.32469 54.30286 5.162324
-19.91513 74.53715 4.131857
1.092976 91.1858 10.02705
5.337276 90.28536 10.01973
-4.205686 89.61308 10.05
-1.418453 86.3831 10.18312
-3.026193 87.17551 10.15621
-1.397681 84.71541 10.21257
0.1862214 87.50581 10.14121
-8.684336 79.44981 10.03827
5.842916 85.42628 10.21407
5.831866 87.66647 10.1395
-0.2854496 85.14462 10.20996
3.897003 87.5484 10.14238
-8.939965 84.14355 10.22903
-11.70185 82.56985 10.20923
-19.92604 73.69813 3.899325
-16.1374 83.99212 9.486514
-14.44605 86.41427 10.05971
-15.17338 82.71161 9.926235
-13.17312 84.7411 10.26077
13.1876 58.01291 5.657636
12.23832 57.17591 5.434329
14.06452 59.8316 6.087569
-16.12137 14.51842 -0.07956662
-21.86359 22.07304 -1.410523
-17.23354 28.23988 -0.2062219
-17.2317 34.70277 0.5201403
-14.8969 25.33415 -0.2324147
3.65495 44.00224 1.71552
23.03996 34.5517 -3.700848
14.56692 76.3462 9.624785
13.95257 76.17405 9.649909
15.42441 73.64401 9.028009
-6.34765 45.93734 1.809162
-4.105276 46.13559 1.882261
21.39817 34.08684 -0.6889493
3.863508 14.98164 -0.04299581
14.46114 28.44897 -0.1134838
16.66852 30.43649 -0.001313691
14.19821 32.07267 0.1729828
-2.56248 26.03282 -0.06865112
1.594082 25.0975 -0.09279633
-2.588665 23.25958 -0.1097566
-4.660888 19.29858 -0.1143975
-0.9808684 47.03005 2.540192
7.358887 50.3077 3.856602
15.30747 30.70889 0.03816544
21.4509 36.38868 -0.7067318
-1.159824 46.24956 1.996446
6.012605 48.31319 3.353713
-0.4079143 43.90411 1.74639
-1.688599 47.31031 2.751256
-4.910882 51.5134 4.419727
-2.561228 50.17603 3.857709
-2.586769 82.59891 10.19074
-12.14078 71.16853 8.911004
-8.186522 63.64494 7.189687
-3.715009 64.72973 7.468117
-5.034187 65.17274 7.575661
-0.3390167 69.69147 8.622388
-10.56102 56.79767 5.369048
-8.634543 51.39949 4.279469
-8.553802 49.90411 3.72755
-2.875169 51.46365 4.439551
-6.143216 53.22331 5.174206
-6.716347 47.17506 2.587788
5.462733 78.89816 9.978628
-15.58345 79.9557 9.653906
-18.5205 77.13132 7.169296
-12.49776 76.78873 9.76679
-11.5193 77.7653 9.87951
-16.33402 77.22664 9.0832
-17.32068 77.66479 8.491525
-3.359544 78.12403 9.906134
-16.73668 77.8063 8.948963
-6.047189 81.81892 10.17061
-4.312294 78.24305 9.919592
-15.04944 75.26367 9.375351
-5.059821 80.0429 10.0728
-11.5633 76.20488 9.696191
4.027019 81.10824 10.13326
-16.75764 72.79732 8.210685
-17.39248 73.04432 7.809731
-2.176064 77.425 9.834231
1.767393 82.6315 10.19082
4.019246 82.84185 10.19708
3.095446 80.07528 10.07134
-14.54354 84.72606 10.05126
