# .PCD v0.7 - Point Cloud Data file format
VERSION 0.7
FIELDS x y z
SIZE 4 4 4
TYPE F F F
COUNT 1 1 1
WIDTH 1668
HEIGHT 1
VIEWPOINT 0 0 0 1 0 0 0
POINTS 1668
DATA ascii
-13.43776 116.3947 7.745824
13.96357 115.83 2.485345
-13.92534 128.4104 3.735842
14.80756 135.1955 0.1674478
-14.49372 132.1016 2.103842
-11.71531 143.5237 3.263491
-7.052912 152.5286 -3.227903
-7.070673 153.2844 -4.615327
7.553236 16.50353 8.228652
18.95279 38.48445 1.588873
20.93736 15.85802 12.76779
20.11357 23.78679 -0.002901033
21.64166 24.81584 -0.7882918
10.17535 146.7028 1.780016
12.38348 144.4099 2.396354
2.289896 150.0424 1.956166
-22.14604 20.23391 -1.507438
-22.11165 22.07638 -1.531676
-20.33339 13.30068 11.82092
-23.76335 13.74069 8.865707
-20.33072 63.07437 -0.01259876
-20.6203 50.24105 -0.520374
-20.47677 45.53576 0.08526687
-22.14667 33.70059 -1.567745
-10.77445 14.53772 9.289511
-6.890688 14.97955 16.52409
-0.1280678 15.48247 17.54718
19.83047 61.21117 0.3616338
19.49181 58.84862 1.607252
-20.59058 78.94624 -0.0956044
18.01845 95.48977 2.017319
20.51351 83.63779 0.4725951
-17.58325 97.80525 -0.004395105
13.06781 115.9392 3.771329
13.45523 125.1975 3.680551
13.85906 111.9612 2.291121
-14.08336 129.3392 2.935893
14.83608 135.9124 0.9570299
14.90809 135.9974 -0.5282194
-14.90197 137.4978 0.8763517
-14.83612 138.1048 1.942666
-13.28596 138.7617 5.667032
-11.79359 140.7246 5.503554
-9.58018 145.3714 2.948038
-9.207654 144.7759 3.582502
-11.13233 148.9612 -0.1870071
-10.1446 150.5875 -1.727558
-2.642003 152.334 1.141541
6.173636 17.94543 7.524414
20.86617 41.52502 -0.301262
21.73513 13.91991 11.57929
14.3299 15.25628 13.20339
20.46666 31.53872 -0.1293588
21.99046 16.68141 -0.7730409
8.138439 152.1343 -3.80441
11.28094 142.8743 4.004006
5.897662 146.0639 4.037786
5.15401 145.1902 4.9597
-20.4409 23.55746 0.8156096
-20.40247 67.08604 -0.1133552
-20.38661 65.37553 -0.5019895
-20.39185 47.85246 2.160834
-20.50444 54.53336 1.982735
-21.32005 54.52026 3.373705
-20.96259 41.1037 -0.4737826
-8.700571 14.59182 11.09171
-7.815698 19.65128 13.25833
-4.938124 18.43644 19.02424
20.15228 66.30224 -0.1299955
20.64917 80.70405 0.4742311
20.75764 51.52946 -0.6887714
-20.47045 70.63806 -0.86221
17.34425 99.4542 1.278813
19.46168 89.22177 3.541064
16.74701 103.4325 0.4003368
16.43991 106.3781 2.443375
-16.0572 105.6037 2.796838
-17.72737 97.11323 0.7823099
-14.90604 109.7324 1.817306
13.8513 118.7253 3.720488
-13.74447 127.5525 4.215136
-14.60145 132.9894 1.930861
12.99184 138.7658 6.154184
14.49886 137.6517 3.944099
14.72103 132.8224 3.860343
-14.74028 138.424 2.498722
-13.11895 137.9949 6.90508
-14.62373 134.2862 7.660866
-14.839 133.997 6.781993
-7.316303 147.0617 2.715381
9.118752 18.43646 9.460956
4.104503 15.80146 6.99028
0.1083988 15.95686 12.13192
18.92728 40.05993 1.648135
19.4407 44.07635 0.7837256
18.84478 39.66766 3.765611
20.14444 36.1331 0.3985987
21.23657 17.85224 12.19818
16.21809 13.49671 13.93832
18.41702 28.14573 3.391638
19.70836 19.95754 0.2681885
18.27233 17.85089 2.972638
8.373645 149.8996 -0.1159354
7.113766 150.985 -0.9606711
-23.43382 16.76892 7.617824
-22.25419 52.82214 7.858796
-20.27436 45.834 1.049116
-13.98678 17.33483 9.197175
-7.952459 21.03839 12.82532
-0.1710712 22.62407 17.20603
-6.177563 18.93077 17.76331
0.266485 18.62503 15.03961
20.56489 80.80619 -0.4423612
20.19712 58.22772 -0.350721
19.13634 47.22654 1.265171
19.29519 52.89615 1.250548
-20.32706 84.97601 -0.3498787
18.68533 93.18739 0.4774678
17.36755 99.21127 1.662184
20.47291 84.10483 0.4677637
-17.49152 98.2724 1.960713
-16.22253 104.6456 3.453231
-18.54184 93.63708 -0.01829541
-17.24856 99.31652 2.73816
-13.67141 119.1653 3.426314
13.19894 114.7731 3.383361
14.13591 129.7429 5.613512
-13.3746 124.3967 3.414056
-14.59959 131.6032 7.759724
12.67469 140.4102 4.989184
-6.241637 146.5002 3.576951
6.405298 15.42957 7.562633
1.896114 17.71135 7.923754
19.36755 31.19956 0.8260549
13.50884 18.66615 12.72953
16.34276 17.4958 13.81654
19.33755 16.66769 0.5578522
18.40594 17.2455 4.124325
18.39306 22.48766 2.420419
7.380426 149.2892 0.9870185
3.786452 148.7879 3.035551
0.8082134 148.4717 3.381417
-21.24015 47.52356 3.607702
-22.13091 46.63306 4.806773
-8.927759 16.37305 10.77642
-1.241536 19.36877 18.68618
20.45765 74.8551 1.069181
20.55081 76.87145 0.7868153
20.64988 75.60622 2.783968
20.36721 59.03764 4.198264
19.78322 46.18601 0.316505
19.30402 49.15732 0.9728072
-20.42147 82.96189 -0.9040648
-19.4782 88.57169 4.045261
20.11032 85.92336 3.10684
20.1814 82.6646 4.388671
15.64686 107.8693 1.329589
-13.62793 118.1632 2.955547
-15.07574 108.3139 4.650287
-14.20385 130.0246 6.471522
14.74629 134.2749 7.130349
-7.554622 144.5623 4.52645
-1.873787 149.1345 2.864057
2.089996 148.8483 3.077583
0.1897168 19.45166 11.49471
0.1951068 21.63799 12.47068
19.1568 36.59341 1.215013
14.07744 18.00334 13.01352
18.22359 16.70242 3.073345
18.35378 24.80711 2.54663
18.48991 22.25813 1.86175
3.551764 147.3992 3.908846
-21.5483 49.05625 3.936249
0.2429812 21.99505 14.05351
19.99017 67.9213 0.9695945
20.57176 80.22484 3.721403
19.87304 63.37496 2.344267
18.99577 48.72221 2.168687
-20.90356 68.52942 2.015829
-21.70354 69.44466 4.571733
-20.50188 83.18384 2.442685
19.01847 89.00394 5.236658
-15.99394 102.8206 5.435288
-13.49192 127.6461 6.406546
14.88991 133.1572 6.467329
6.481755 18.67648 7.668866
18.75204 37.63514 3.83363
11.08879 19.83237 11.10773
10.27289 17.42122 10.41032
-21.72046 47.8405 4.211537
-4.268384 23.00179 19.01554
19.63287 48.21241 4.163786
-21.21933 64.06814 2.867053
18.93567 92.05807 2.290687
15.87898 91.9193 8.631411
-13.87251 116.2035 5.770185
-12.79308 118.2454 5.42965
5.374333 25.17595 7.543112
0.239065 23.90117 14.8891
0.1149705 21.24347 16.45615
-1.958977 24.60444 18.75256
20.81902 52.38395 5.785276
-20.40211 57.85506 1.324249
-13.33683 118.5089 7.199828
0.243705 23.37474 15.11151
19.63605 51.97783 3.670502
21.1589 52.14824 6.614882
-12.71207 120.5924 8.177325
-13.13319 125.3008 6.627073
0.6307979 21.96635 9.618005
0.4832788 23.36201 10.1674
0.6623157 20.25332 9.458447
0.2350342 24.9961 12.78915
20.65067 70.59534 6.861626
21.24873 52.83294 7.583718
7.415978 21.87365 8.275336
3.947378 21.03532 7.289339
0.2447502 25.5479 13.53713
-0.3036927 26.03815 17.13061
0.2575558 28.7278 14.128
21.37626 46.3159 7.594077
2.799583 25.36966 7.720303
21.08982 63.33133 6.477647
19.12178 53.77216 10.97952
20.82419 46.50296 10.16655
20.48832 49.41638 5.377953
2.128665 27.04361 8.193215
21.00687 61.06401 5.748609
20.67871 55.78476 9.27642
19.65701 45.32441 4.561529
20.87623 65.0547 7.446667
6.101526 23.48609 7.650671
20.35387 59.18689 9.250478
2.060122 28.98054 8.396846
5.560138 27.03202 7.648307
20.78035 58.2718 5.248681
-20.46248 16.74075 1.34258
-20.30927 19.41135 1.646446
-20.33273 21.44261 1.572381
-20.75246 25.07113 0.1262256
-21.21935 27.09151 4.229398
-20.94775 27.81377 3.8386
-22.4751 26.39569 10.33127
-22.88512 22.40305 6.366325
-22.23405 18.82805 5.610859
-21.92481 18.89364 5.234431
-23.63588 18.87229 8.637239
-21.43107 24.62606 4.512022
-21.00464 26.42387 -0.3352499
-20.45982 32.05515 3.0352
-20.23079 28.49704 1.807155
-22.4984 32.43824 5.652473
-22.95545 32.61777 6.381178
-20.51465 34.5073 3.029981
-20.36241 39.57451 0.8489215
-20.70069 75.87969 0.8682169
13.22494 122.9718 6.102755
13.75198 119.5394 4.449217
12.69653 118.4506 7.936492
11.66332 127.9547 10.47574
11.49024 127.447 10.43205
12.32441 128.5969 10.17015
11.59893 125.9115 9.70845
9.585514 123.091 11.10414
10.35478 123.8636 10.6924
9.145841 120.4719 11.12211
-14.77729 136.1136 3.522683
-20.34704 55.53415 1.274674
-21.29547 58.43978 3.178567
-20.63481 59.35285 1.776883
16.41468 104.1495 2.877449
13.45041 127.769 6.632047
-11.48091 139.2686 7.480946
-9.648122 141.5862 6.090182
20.25458 19.0212 6.875638
18.56015 17.87664 4.51825
19.34234 18.03881 5.818995
-21.44297 51.48111 9.02751
-6.340134 21.10191 17.47914
-6.462314 20.7324 17.29264
-5.101912 20.8794 18.70333
-5.272547 25.28165 18.35641
-20.78591 79.62524 1.254695
-19.94095 84.57189 4.561151
-18.28472 93.95615 3.207663
-14.08415 115.2124 5.313265
13.49961 118.2531 4.277884
-6.951463 149.7912 0.703623
-5.722881 150.7709 0.09949376
-20.28583 42.36762 1.321122
20.85351 71.43535 5.909327
18.68958 70.05454 9.454479
18.86901 71.17171 9.186656
14.79353 70.95216 11.0506
18.23477 72.09313 9.563739
17.94825 60.87367 10.86069
19.44019 69.02374 8.945604
16.29031 73.16261 10.47175
15.3743 69.75957 11.01217
19.46779 67.6601 9.118371
20.02425 76.5681 6.815489
15.16238 98.79095 8.003771
-16.41635 96.62782 6.840304
-15.58673 100.0639 6.987627
-12.20001 103.8346 10.1095
-14.18805 102.544 8.620965
-15.78532 98.68205 7.203287
-14.24883 98.49915 9.107481
-11.4924 104.0614 10.47596
-13.39975 109.6932 7.841274
-12.47422 101.3822 10.0942
-13.54521 99.91586 9.516728
-9.236847 102.1673 11.37692
-14.63208 93.77502 9.31109
-10.81416 95.23552 10.93676
-7.122235 96.71471 12.17427
-6.135436 146.953 3.287589
18.82015 36.37584 4.079182
19.09845 31.66046 4.83511
20.78876 33.90013 6.868552
20.99703 30.08805 7.4019
18.8189 28.70581 4.570377
20.19376 80.20538 5.319882
19.78285 83.03684 5.444337
17.3835 90.04132 7.661466
19.42326 84.94644 5.785313
19.32358 74.95491 8.117516
17.24171 75.87603 9.800167
14.17189 131.7402 9.383101
12.62361 130.3171 11.24032
12.43233 129.429 10.84028
12.53689 134.4576 11.51587
13.26995 132.0362 11.08821
10.77541 136.3078 11.79433
10.07311 129.1037 12.34245
7.043728 135.2561 13.3132
10.47004 137.9332 10.24054
11.41652 22.67754 11.36232
18.33373 20.2893 13.70531
14.67066 25.10872 13.09303
18.23837 88.47807 7.007027
-0.9429102 25.81791 17.96927
9.030279 22.27042 9.462502
0.4825917 29.32837 10.86329
0.3092266 29.90793 12.29364
0.3645076 31.12727 11.94965
-1.421933 28.36223 18.19269
1.378244 32.17424 9.223871
-4.76889 26.81607 18.54252
21.18728 46.13271 9.410366
21.15776 48.3838 9.200259
18.39745 48.37357 11.69737
19.27623 46.45223 11.4814
7.624934 24.51219 8.508171
20.99976 59.50269 5.968048
20.95656 60.17669 5.660756
5.573174 28.00231 7.689927
6.538244 30.24869 8.120914
21.05888 63.16475 6.755111
18.70238 64.16977 10.13837
19.79927 54.33791 10.43864
18.64557 60.0176 10.60864
17.76011 64.55795 10.58356
17.56155 59.28933 11.13743
-20.57923 14.32683 3.209279
-20.39402 24.70806 2.735579
-22.65133 40.02826 5.717676
-22.73965 41.69353 5.92381
-21.17796 40.01562 3.896457
-23.08195 38.24855 7.911522
-20.15756 38.69295 1.592547
-20.83635 36.08844 0.08629356
-22.68515 36.14167 5.842605
-21.03952 77.6679 2.621036
-20.82425 77.07333 5.111447
9.314213 118.6786 10.95507
5.927431 120.1481 12.15934
9.107081 143.5997 4.595201
9.376759 141.12 6.710603
7.212331 141.311 7.391381
10.00815 138.2627 10.14397
4.673166 136.9093 12.03246
6.686992 138.3546 10.83556
5.81362 137.0088 12.02052
1.671998 135.257 12.85174
1.204189 136.2574 12.32255
4.40266 134.4979 13.27259
3.848154 133.1518 13.50159
6.565761 134.9671 13.3632
5.365864 135.9314 12.74624
3.788778 129.422 13.24637
6.176676 132.2533 13.73728
-11.12862 137.0749 10.74635
-0.2853165 131.7485 13.42737
-6.21884 133.4225 13.72776
-5.954464 132.4058 13.73942
-3.308068 132.1485 13.51534
2.649107 128.4751 13.13417
-6.768998 131.2889 13.72677
7.074639 124.6777 12.19562
0.06774007 137.8509 11.1525
-12.58884 134.672 11.3297
-3.67264 134.8212 13.08427
8.031577 125.7255 12.08379
8.772778 129.6611 12.97693
-6.223346 138.5291 10.63087
-10.66234 138.5425 9.316005
-13.62933 130.1092 9.626435
-11.99158 130.6877 12.02052
-10.92752 130.1997 12.50429
-9.193114 127.2745 12.04011
-5.19295 130.8428 13.51598
2.235192 127.5469 13.04024
7.193298 130.3758 13.48059
-10.7187 140.3911 6.697873
-7.671697 132.2795 13.89803
-10.08146 132.6269 13.43946
9.869037 131.7321 13.42329
-6.329506 141.148 7.793902
-6.987382 130.7668 13.59821
-0.470926 128.5002 13.16154
-0.1492735 127.5989 13.0756
4.935312 124.1282 12.53455
-3.312899 138.533 10.54175
-5.888451 128.6368 13.07492
-2.386879 127.5207 13.05685
-0.1833144 126.2497 12.96119
-1.617005 142.3502 7.216738
-4.383676 142.0798 7.267299
-21.81008 62.42488 4.049086
-21.93338 65.82365 5.299875
16.76746 98.34528 4.969748
16.69574 95.35188 6.723901
18.10552 93.1702 4.800819
15.14394 111.2068 4.559943
13.75467 109.934 7.260835
16.14665 103.8843 4.462767
15.20973 104.8214 6.298584
-18.70901 90.11182 5.417649
-18.43099 80.87868 8.10568
-20.22149 79.16675 5.858712
-18.33181 84.16798 7.705413
-17.5341 82.38657 8.715522
-18.05258 80.87238 8.453169
21.23972 22.00086 8.110898
20.59296 24.50475 7.095977
20.9322 26.63759 7.483548
21.08136 27.17085 7.689946
-22.77022 46.22367 6.090785
-22.44492 46.8815 5.399098
-12.69909 16.36777 8.965818
-8.920415 19.66815 10.84219
-8.278497 23.95896 12.0283
-18.46357 17.08942 11.13274
-8.261614 26.46202 12.14425
-18.11531 94.36047 3.505382
13.09143 116.1062 5.634681
20.57785 71.15308 3.229378
13.96514 73.11722 11.06792
14.14336 77.73813 10.74742
-12.61426 110.7816 8.734097
-13.28325 111.7599 7.378125
-12.63206 108.7957 9.153028
-3.908632 105.4028 12.82575
-11.09482 95.9338 10.83081
-9.319119 93.39854 11.45337
-4.107096 146.2684 4.495915
17.95049 85.23668 8.026339
17.32087 78.67684 9.441414
17.21062 83.51285 8.94803
14.0473 80.70805 10.55769
13.22693 78.66189 10.84511
12.69888 77.4544 10.96171
11.38264 72.99905 11.08956
13.70843 129.3847 8.163608
17.46866 26.28748 13.39699
-13.15046 116.8812 8.039347
9.550028 21.83179 9.873898
0.7255054 32.59885 10.42683
-1.55715 32.11578 18.04209
18.93744 49.99662 11.35357
16.06241 46.79494 12.29688
14.87868 47.25853 12.23994
16.53825 45.04503 12.37333
3.438851 35.85972 8.005598
3.116405 31.29274 7.895846
5.857789 34.50158 8.055625
6.841584 34.78899 8.44757
7.537967 32.81 8.732549
-16.92297 24.80981 10.35863
-21.45895 72.14581 3.748135
-20.85638 73.98917 6.185857
-20.80512 77.39007 5.02452
-20.03887 79.25076 6.259004
10.71237 132.9877 13.18112
7.342065 125.619 12.25015
-1.025456 142.949 6.842415
-0.3926211 145.6385 5.155076
-2.373923 144.5774 5.795479
-3.195231 142.2884 7.226005
-20.8014 72.17561 6.791987
16.81634 96.74702 5.675756
13.80587 103.8505 8.400742
15.48661 100.8977 6.654885
16.91957 93.72328 6.980168
16.17573 94.83154 7.654952
14.01167 111.2216 6.928713
12.33278 112.1938 8.730869
13.94754 112.5576 7.011075
11.61082 115.514 9.305567
11.72698 117.0702 9.275115
16.29029 104.8294 3.178463
-17.9304 85.09783 8.054632
-16.01085 83.12497 9.59301
-15.39582 87.95253 9.60786
-16.12898 86.39138 9.37832
-17.91776 91.96572 6.047088
-18.0143 93.19988 5.05482
-16.96945 94.21754 6.762445
-17.73843 94.94501 4.409341
-17.94663 89.40831 7.166207
21.75492 19.56833 9.435915
21.84371 20.0302 9.958762
19.88421 20.34511 13.14257
19.67147 22.75944 13.0726
19.66826 22.13059 13.1151
21.31312 16.33245 12.14368
-21.32603 56.13032 8.719347
-21.04606 54.16405 9.085539
-20.24277 57.75333 9.30927
-14.97228 55.51927 9.771359
-18.33216 59.99937 9.786772
14.06025 75.05767 10.93653
11.96912 72.425 11.15315
8.865302 75.41635 10.72794
8.118204 74.95414 10.53036
8.702353 73.0863 10.62634
-11.73899 109.8357 9.981558
-7.688201 90.1944 12.18458
-10.84734 90.76482 10.98214
-11.45344 92.4711 10.77151
-5.664535 94.21401 12.91652
5.657634 96.12061 11.44388
18.4826 24.76375 3.930448
18.88012 24.0782 4.860896
18.4746 21.52728 3.950577
16.01343 77.49689 10.22309
16.95328 24.77678 13.4851
11.08714 24.17997 11.12152
14.57453 26.2823 13.01743
11.07918 28.45369 11.12867
18.66287 25.70749 13.2776
17.81979 27.57514 13.29829
21.49318 28.94476 10.64992
20.78721 32.99494 6.943912
20.51652 30.75442 11.9231
18.02017 30.33808 13.07021
21.12732 34.18119 7.42875
-10.04814 120.9692 10.70558
1.941831 34.87034 8.712377
-5.997096 27.81586 17.503
16.62618 47.97639 12.17025
14.56881 49.18844 12.13455
13.45178 50.35871 11.95573
15.53012 52.4059 12.01733
18.29869 44.18541 12.05477
20.22166 44.03008 11.06896
20.20336 42.32175 11.2179
21.14347 39.62535 10.27266
4.675718 40.79658 8.092848
8.133752 37.66812 9.248283
8.293407 35.26841 9.276017
19.44448 56.42876 10.47914
-20.82102 18.95172 11.54291
-0.3450767 120.1552 12.72756
11.77028 132.8372 12.51769
0.7154686 141.926 7.48434
5.190736 142.7638 6.65717
14.5268 105 7.249063
6.8477 99.76497 11.52418
14.79478 98.48481 8.51542
14.87543 95.80049 8.884116
15.93106 91.19785 8.75947
15.96137 89.02183 9.164133
15.49211 89.50381 9.320691
14.84212 80.55617 10.37214
13.56137 85.88593 10.31782
11.85148 84.48196 10.72935
12.43319 85.91814 10.5636
12.11144 88.96183 10.51883
9.962251 79.60285 10.9295
4.630804 86.59154 10.82498
6.273936 86.65456 10.82254
5.939964 90.40343 11.07359
8.175712 88.26534 10.97682
3.361514 86.80698 11.0829
8.459946 115.2482 11.39754
8.700208 114.8812 11.32119
11.72488 110.418 9.611196
-13.31512 81.30814 10.26205
-14.58115 79.38557 10.06236
-16.91492 98.7028 4.451631
16.42034 23.17512 13.54581
-19.96213 61.78557 9.120422
-6.954377 23.48387 16.01722
-12.1824 114.9199 8.653517
-8.985455 111.5015 11.35627
-7.964358 89.17549 12.08147
-10.54691 87.90831 11.07207
-11.05097 86.7574 10.88795
17.44887 88.79051 7.967631
4.580077 76.1654 9.967915
10.32976 26.19314 10.56962
10.39711 29.60945 10.65028
8.794266 30.02123 9.467491
11.15174 34.85999 11.19858
11.91424 32.55002 11.67032
8.563534 39.92739 9.585195
9.42875 43.78148 10.2291
10.93649 42.62458 11.10672
6.768517 39.28486 8.552754
14.33252 33.25 12.71067
12.93878 37.6141 12.1133
12.79365 35.28487 12.09536
14.32916 35.6267 12.63391
15.60031 34.41005 12.90495
21.33621 38.84946 9.864151
-9.00731 116.5887 11.27568
1.443044 39.24416 9.558743
0.5185169 33.79152 11.4442
0.2343291 33.94819 14.47488
-1.965482 33.3268 18.15989
0.2869065 36.00536 13.92139
-7.934323 31.36517 12.94019
19.55492 42.42324 4.676374
20.87261 39.25445 6.637568
21.4657 42.7092 8.499735
-21.3486 18.26879 11.46436
1.867814 121.2702 12.67004
-6.708785 111.5791 12.02164
1.13124 117.81 12.6429
0.1000241 123.6258 12.8159
-6.152216 124.4448 12.45649
-4.460145 123.946 12.65187
-8.710294 125.2021 11.81915
-11.93367 123.7418 9.151468
-9.374953 123.6594 11.34597
-0.6003921 140.4068 8.695258
1.869655 140.8944 8.279586
11.08597 108.7843 10.35056
10.33198 101.4857 10.95395
10.64296 101.9493 10.86774
10.92302 97.62222 10.77263
9.897758 96.74965 11.00384
11.58539 94.4455 10.58869
11.33251 91.29245 10.66256
7.618679 92.42623 11.16239
13.61548 93.2075 9.894988
8.80626 81.71488 10.84791
3.438674 82.11949 10.68299
4.014981 116.1094 12.33476
4.239453 114.4663 12.27358
2.985077 115.3102 12.44476
-0.02048183 117.8734 12.69855
-2.690357 116.2751 12.65361
1.06586 113.6729 12.62125
7.41217 111.8837 11.68612
7.454698 107.7573 11.6284
5.535833 111.2894 12.02149
5.615029 107.3941 11.92732
7.423631 108.3014 11.64178
-12.88433 85.02603 10.3936
-11.26809 81.38758 10.64102
-16.38046 79.29256 9.564463
-16.11484 77.99294 9.694721
-17.52672 76.45448 9.245846
-17.14965 97.76205 4.200309
-22.21113 46.77592 8.720575
-19.11799 55.90945 9.823158
-22.53883 48.63626 7.885858
-21.48664 63.30107 7.473519
-7.296482 27.23598 14.97025
-0.317539 88.50491 13.59818
5.567742 79.11359 10.205
5.434183 80.83152 10.33264
2.344309 81.96489 11.19667
9.04242 39.6171 9.891385
21.50821 38.04393 8.678643
16.23969 40.13336 12.6867
16.50626 33.66672 12.99693
2.258856 38.97881 8.674745
13.553 64.46408 11.47933
10.36841 43.24146 10.78033
10.14378 47.34467 10.70003
13.34895 43.68412 12.11155
21.16295 39.16713 7.155564
21.38583 36.40297 10.01276
19.55184 35.23827 5.239816
17.39595 53.23395 11.64447
12.59382 59.05404 11.54967
12.84606 62.71304 11.49705
13.22579 57.34575 11.69695
12.6586 67.41907 11.34161
9.744462 70.04977 10.83778
2.373035 70.64837 10.40158
14.02978 56.65141 11.79469
6.867353 64.53768 9.654947
13.78463 53.32447 11.90164
10.1168 67.40939 10.90684
-22.91455 18.62538 10.57804
0.7307846 141.1384 8.084398
7.737925 97.87123 11.36544
4.1794 88.67148 11.03541
5.233116 91.80603 11.19862
-1.498265 87.80695 14.16173
-3.436055 116.8968 12.60128
5.171997 108.6523 12.02995
-4.501656 85.97217 14.17877
-12.04984 73.16897 10.1772
-14.39116 75.994 10.03353
-15.57508 74.56984 9.867025
-15.42395 73.2684 9.877319
-12.50415 71.84689 10.05701
-10.96031 70.58641 10.36357
-10.19263 75.09603 10.76514
-10.16535 77.70409 10.87273
-22.33833 47.03207 8.583449
-12.8292 30.10243 9.148679
-11.98661 25.87667 9.165072
-12.35599 27.42077 9.158627
-11.53138 24.51855 9.230986
-10.20827 27.95846 9.77173
-10.69263 112.263 10.51763
-7.099498 113.3137 11.92242
5.39993 79.04627 10.18569
20.377 39.68791 11.28061
20.79214 37.31042 11.11523
18.56705 37.18845 12.45244
-6.088166 34.15489 16.96341
-6.321607 33.43971 16.68313
-8.887721 31.57985 11.03759
-7.348514 34.28915 14.49291
10.76495 52.70282 11.04133
8.220769 46.79156 9.582973
11.6428 60.21922 11.31274
0.2428717 72.98587 13.48197
4.512026 67.54924 9.476143
5.805425 70.77447 9.686783
7.408963 66.94763 9.943904
7.445021 97.29248 11.37348
5.758139 101.1939 11.69336
6.172551 105.9122 11.80166
6.903968 99.39385 11.50526
3.551641 98.84931 11.83201
2.615186 95.80795 11.91862
3.255017 101.4879 12.0325
0.8005135 101.3471 12.70006
1.697322 102.7152 12.43861
5.742006 95.01657 11.37006
3.539704 97.06075 11.74319
5.078896 94.91615 11.4086
4.260494 91.01299 11.23324
1.943091 91.19125 12.01198
1.044103 86.96644 12.52048
-6.490137 120.4668 12.15959
-8.213452 112.3222 11.60958
-4.355844 121.6979 12.55535
-7.941948 121.3368 11.76429
-5.63889 113.033 12.26475
-10.98322 115.1686 9.954763
-5.733372 115.0718 12.23752
-1.634283 85.64657 14.41142
-9.689376 86.05454 11.34101
-18.14791 72.43602 9.179661
-21.55019 69.73666 5.410883
-18.77483 66.76731 9.282722
-16.50922 71.4487 9.762855
-20.25901 66.46445 8.430408
-17.39415 67.72227 9.652326
-18.30244 65.55746 9.501473
-18.25249 63.57003 9.648218
-18.7942 61.29612 9.636136
-22.62532 45.94883 8.220589
-22.91965 43.19539 7.462345
-13.90454 21.61288 9.192966
-0.618645 86.84139 13.83719
-0.08682456 89.31827 13.41655
2.103377 96.28689 12.14534
-3.51934 99.97972 13.21839
-1.287819 99.88668 13.26351
3.995686 81.14141 10.41847
1.450084 75.22662 11.66971
-7.866944 36.94917 12.95743
-6.534325 37.98709 16.13442
-1.170583 34.31667 17.61516
-5.956779 38.30001 16.86244
-2.950414 40.89294 17.95887
-2.710908 35.68016 18.25867
-7.943713 32.59668 12.90977
-9.713176 30.98938 10.20979
-14.95317 32.45336 9.600086
-14.15382 31.64141 9.373251
-9.395934 32.95037 10.49884
-10.57537 34.41459 9.732137
-17.40542 33.70166 10.42933
12.19111 60.68504 11.43618
-1.3478 84.74414 14.37341
1.444829 79.58739 11.87632
-1.677592 81.39175 14.75777
-4.749881 81.45149 14.51591
-2.15022 79.14002 15.10248
0.5018672 73.09609 13.03084
0.8334177 70.68707 12.41897
1.117672 70.61663 11.90931
8.515563 68.37206 10.42421
0.3950794 109.0511 12.70684
2.311768 103.9929 12.33294
0.7495587 108.2124 12.664
-3.839073 107.5744 12.75745
-7.780607 108.0716 11.75809
-3.199437 104.3941 13.02382
-1.391557 111.2354 12.80778
-5.729067 112.7529 12.24529
-2.803463 109.5981 12.82497
-4.221779 102.2708 12.92801
-2.286604 100.0666 13.35635
-3.426043 101.9635 13.11558
1.273534 95.01228 12.49225
-3.125689 84.29895 14.72775
-4.425482 83.05418 14.51251
-7.68054 81.05516 12.40113
-1.906692 82.41287 14.76813
-7.861713 79.14062 12.30121
-5.563606 80.35202 14.23409
-5.266017 79.38059 14.47124
-4.420104 78.80827 14.9331
-5.300862 70.28522 15.21949
0.173793 72.35796 13.62333
-10.00883 74.69383 10.84203
-2.938367 75.82242 15.51097
-9.249433 119.3039 11.14099
-8.48245 118.2575 11.48846
-0.4890369 113.6354 12.72751
-16.49423 74.43049 9.692122
-16.42302 53.31191 9.950254
-21.96869 43.99645 9.266053
-18.60513 34.67335 10.68966
-20.84673 37.79566 10.43481
-23.06092 35.51835 8.590545
-13.63431 26.92854 9.208068
-15.31919 28.2084 9.682512
-7.811235 28.89915 13.33528
-0.4717831 91.73615 13.47575
-4.634051 100.6435 12.92384
-1.167601 35.8684 17.51492
-2.9325 39.45425 18.0516
0.009484943 74.40584 13.79434
-0.6204801 67.77993 14.86294
0.06856935 69.02151 13.84917
-3.311723 67.50451 16.14779
-0.9467593 74.11871 14.88864
-1.493595 68.32014 15.60017
-0.08955251 65.92999 14.13768
-0.2648336 64.43191 14.51926
0.6672232 60.5514 12.43929
7.386403 59.37375 9.635365
3.153227 66.42387 9.716243
-0.8789158 62.11592 15.51135
-5.697882 66.99007 15.17038
4.475352 63.6038 9.230727
8.875192 61.38333 10.34432
1.340228 64.56375 11.27313
6.622128 62.79668 9.508692
2.011619 58.72516 10.05256
0.2374388 56.80663 13.61557
5.898856 59.90075 9.148544
7.498978 61.03914 9.745098
5.534861 59.25086 9.063307
7.722394 64.74844 9.97893
0.3191371 41.03253 13.58342
-0.2762014 54.69721 14.95109
1.096012 48.70815 10.73973
-0.1534793 56.26865 14.67255
3.662539 56.52143 9.002312
0.007520271 50.90057 14.49112
0.5306674 49.64941 12.55281
2.168209 57.73779 9.842043
1.886917 54.3025 9.969709
3.498925 53.88367 8.894741
6.448976 56.44563 9.131766
-3.904862 84.37238 14.56419
-5.52308 86.84163 13.61778
-8.24339 71.57303 12.01259
-7.345628 85.41065 12.53128
-19.26142 46.9179 10.24768
-20.25974 39.42845 10.46539
-15.42295 33.40602 9.766026
-15.22849 40.51807 9.715137
-17.79472 41.92935 10.34745
-18.77705 43.86207 10.41167
-17.53725 46.04752 10.19555
-14.89933 40.52591 9.634124
-14.73137 48.85992 9.653045
-13.03602 43.71317 9.439923
-14.35109 42.76616 9.548027
-14.52039 37.71029 9.52984
-18.59211 35.39349 10.65348
-14.52681 39.67549 9.538758
-18.08221 36.38417 10.54083
-18.70326 31.42896 10.84273
-13.74438 45.19634 9.485213
-12.83041 39.01242 9.28355
-9.816871 42.18496 10.28358
-12.56307 41.33154 9.355197
-15.09551 31.18951 9.636225
-17.79941 28.89773 10.65715
-17.81674 25.09285 10.71399
-20.65547 22.70157 11.36029
-19.45836 22.17147 11.27818
-17.15343 21.31446 10.49327
-5.752192 100.2017 12.55061
-9.841857 98.68468 11.21827
-8.391583 98.51807 11.67729
-0.1814393 38.63585 15.91673
9.666072 61.00071 10.6722
-5.826954 69.70988 14.8644
-0.7291625 50.10204 15.94116
0.3914443 48.41354 13.20135
2.97042 53.24665 9.024759
7.260353 52.62735 9.307532
9.586937 50.44712 10.44947
10.12474 52.95526 10.76458
-12.68975 51.92065 9.568624
-11.17171 48.35714 9.752171
-14.78096 64.0918 9.843488
-14.04459 49.0748 9.563854
-12.47102 50.48068 9.556368
-14.85365 56.11858 9.762637
-22.91413 33.92472 9.162138
-19.44694 34.18724 10.80309
-8.544584 37.96293 11.61153
-3.559579 52.72103 17.25315
-8.915639 43.75897 11.17022
-22.59139 30.87614 9.807775
-22.78202 20.7054 10.54269
-19.28997 25.63768 11.13691
-21.07074 27.01873 11.00494
-0.1987377 37.68361 15.98897
0.2948249 37.61776 13.8553
0.2222031 39.53427 14.36586
0.04801837 41.15078 15.13331
0.09280077 43.81774 14.63069
0.277029 43.6415 13.86315
0.9755667 42.50737 10.56001
-6.509228 71.20255 14.03927
-7.069411 69.06064 13.45696
-7.55052 66.60214 12.89215
-0.9086947 46.5253 16.47542
-2.216403 46.91469 17.44262
-0.3235353 42.23718 15.86486
0.6626166 46.62568 11.85901
0.6479694 45.07071 11.80183
8.896342 57.03994 10.24479
7.394222 47.96354 9.169929
2.452778 49.08745 9.116111
7.601328 45.57005 9.191861
-9.939598 50.68732 10.3358
-6.081015 56.20088 15.51187
-22.53672 28.43311 10.12656
-22.89568 24.33552 6.303624
-23.42138 24.39868 8.966343
-20.09271 31.32081 10.90517
-22.30066 25.09917 10.60301
-12.60291 66.57527 9.885865
-10.09725 67.29144 10.61652
4.702393 46.20927 8.357761
5.216396 44.88766 8.332248
4.318471 48.46548 8.472666
2.737954 47.81987 8.914542
-9.196047 44.90877 10.85342
-16.98691 61.87789 9.859254
-14.86254 59.87266 9.799215
-11.11076 62.4044 10.08717
-12.58204 64.01453 9.81065
-10.22685 61.30676 10.45864
-13.24335 60.91684 9.739035
-3.555765 58.74708 16.80295
-8.482779 62.346 11.7271
-6.698789 63.82092 14.20105
-4.391417 60.61245 16.41907
-7.504364 56.63291 13.24235
-15.85365 57.99041 9.873289
-10.8163 59.447 10.13078
-5.936552 60.6311 15.34537
-8.810514 59.79594 11.35668
-7.470952 53.93737 13.3819
-4.901825 56.71397 16.51316
-5.900698 51.39556 16.0616
-8.155566 49.31813 12.21329
-9.015931 46.70992 11.07529
-8.103916 44.39837 12.3604
-11.4223 45.38411 9.614969
-14.07894 57.82137 9.70421
-9.839828 56.49386 10.55145
-7.848066 56.88173 12.63142
-8.544918 55.42289 11.64378
-6.750297 59.86616 14.39104
-7.655812 51.55745 13.09636
-5.219879 50.88979 16.7119
-7.492237 45.79995 13.59065
-7.217374 43.666 14.30567
-7.33774 43.94698 14.01339
-6.597027 43.54482 15.65437
-5.734993 63.9198 15.37163
-9.947837 54.56263 10.39962
-8.237147 47.39001 12.08193
-6.370427 45.32029 15.8826
-5.225082 43.63371 17.23964
1.218616 111.4083 12.60212
12.36646 151.2806 -7.599403
-10.91168 149.1095 -10.1134
-11.47315 149.7902 -9.55748
22.46669 33.12486 -1.236408
22.63631 37.47113 -1.508464
26.36789 11.77026 -9.078169
-14.14952 149.6187 -9.323667
7.029026 13.08517 -11.67724
22.26248 50.21112 -1.849003
-13.52758 146.1295 -10.86077
5.122438 14.06711 -12.67219
-11.46655 141.8368 -11.80903
-23.20615 32.3362 -2.97684
18.33131 94.08585 -1.141257
12.85204 117.2971 0.7327881
26.37267 19.76037 -6.554081
27.00004 12.08732 -6.793739
-0.2045014 151.3561 -10.13939
14.0167 129.1489 1.7015
14.39497 148.5552 -9.900935
11.90251 146.1249 -11.17699
10.92816 149.7034 -9.720314
-22.13687 50.34886 -3.057413
-7.938559 12.661 -10.29059
-24.95988 26.00227 -5.907218
-12.83248 150.6181 -8.606269
-21.05353 62.81452 -2.058374
-26.48168 11.05234 -8.525432
-23.81053 24.62478 -3.354319
-25.22391 12.45366 -3.876742
19.19856 13.8984 -13.1652
22.08648 66.11755 -5.067629
-21.17645 64.20635 -6.754818
-15.14585 136.1232 -3.036165
24.51316 13.08287 -1.609319
-12.31448 116.448 -1.659642
12.51708 149.4374 -9.692824
-14.3627 148.1122 -10.1206
-13.40866 16.74227 -10.93577
11.56282 149.193 -9.958192
-24.94463 13.00884 -3.628587
-13.52403 126.0562 1.824385
26.39813 18.60345 -4.884552
6.913746 121.6823 -5.841664
-14.77529 134.6626 -1.061137
24.4371 20.89362 -2.13125
26.56356 12.48979 -3.724279
24.30867 33.83957 -2.965425
22.96987 23.4433 -1.366621
16.86161 12.07769 -12.77926
-20.92411 70.39117 -2.433862
17.27361 93.21928 -5.205577
-16.75121 89.98351 -6.910424
-8.032573 115.9412 -6.154421
-13.94669 131.494 -3.932184
14.13196 138.4083 -9.763135
6.598765 151.6371 -9.126768
12.48197 149.7338 -9.460893
-24.7011 27.79709 -5.338085
-13.63472 15.38761 -11.05369
-24.33422 12.73838 -2.943727
-5.26367 151.7307 -9.540784
-9.239485 151.68 -7.839756
24.51974 16.73337 -1.905544
22.19876 34.61674 -1.105667
24.18703 18.05256 -1.784068
25.6526 20.66009 -3.3982
26.09685 21.25229 -4.503383
24.90824 23.33514 -2.791421
25.54998 12.27119 -10.27309
18.23178 12.78266 -13.09935
7.880418 13.62146 -11.31019
-20.58649 74.30409 -1.663178
20.18576 83.1544 -2.56725
21.5922 67.47719 -2.222721
-19.46132 82.81077 -4.400615
17.86036 95.49102 -1.745603
-13.41627 117.2335 0.07027646
13.56662 126.255 1.965991
12.3552 115.0888 -0.8075321
-14.48648 132.96 -1.315896
-14.55728 133.3498 -0.9431916
14.46316 132.4037 0.6272387
7.024201 150.2655 -10.12873
-11.86778 12.65836 -10.1876
-22.41265 33.17644 -1.91189
-22.8227 37.77221 -2.760147
-15.58051 12.9742 -12.2679
-22.71632 28.75955 -2.240815
-23.89917 13.23073 -11.97576
-24.91644 18.4308 -4.253077
-3.733282 150.7316 -10.4231
-3.37407 151.7556 -9.919906
-12.389 145.5332 -11.21542
25.95221 13.50564 -9.436349
22.37405 32.87025 -1.172798
24.73663 25.98328 -2.745461
22.63753 25.89507 -1.256329
12.18195 14.05984 -11.01723
22.12389 48.70144 -1.63312
7.260639 14.05304 -11.55931
-5.905411 13.24454 -11.43677
-21.9455 60.19769 -4.436631
20.73938 78.573 -1.684335
21.20444 74.23241 -4.409264
21.04345 60.61325 -1.22292
-18.97083 86.81828 -4.109994
-15.86356 104.2606 -1.126371
16.81759 100.9693 -0.8992541
-13.64343 118.4863 1.766876
-13.28759 120.4437 1.581784
-13.69222 129.3279 -1.690585
13.09174 125.0982 0.4718361
-15.18328 136.768 -2.610676
-15.26679 136.483 -3.906776
15.31212 136.3349 -4.78035
2.806996 151.8267 -9.920261
12.09123 139.314 -11.33799
-10.81084 13.38048 -9.933378
-22.9445 35.51389 -2.786442
-22.28931 45.30368 -2.738949
-21.20766 52.57973 -1.695332
-24.04666 22.94869 -3.535275
-24.83125 12.80126 -11.19144
-6.794533 147.1767 -11.80364
-5.351579 149.5384 -10.90104
0.9558423 148.6432 -11.24986
2.526462 145.5113 -12.10895
-9.454161 146.9731 -11.41771
24.64001 13.16795 -11.1637
23.93725 34.81005 -2.632923
25.06524 31.92604 -4.108738
22.42623 49.84825 -2.013867
22.52056 44.3527 -1.743298
8.554826 14.7632 -11.09178
9.667728 14.32691 -10.87115
13.7857 14.16681 -11.55138
0.7149429 12.32969 -14.34012
-21.13617 68.01272 -2.789503
-20.79193 74.69 -2.745546
20.59869 80.6625 -1.773362
20.96177 77.55724 -2.234112
18.38328 92.96585 -2.361712
21.48754 70.00374 -2.275945
-17.72024 94.25582 -3.527488
-15.61158 104.1779 -1.931502
15.86256 101.1027 -3.49199
14.63294 109.0049 -1.115747
-14.47087 109.963 0.1886893
12.70308 125.0641 -0.8858308
13.49623 127.8906 -0.8216968
-11.91559 133.8889 -9.284861
-13.88076 133.6568 -6.907804
-14.12913 130.9374 -1.170082
14.0025 130.7973 -1.995932
4.838273 151.5598 -9.764937
7.566322 139.5701 -12.70115
-13.63582 14.24497 -11.04901
-21.89888 41.40174 -1.747236
-22.6105 14.18581 -12.7001
-23.6457 29.72239 -3.446843
-11.23392 141.7053 -11.87992
-8.305067 147.8469 -11.32636
-3.924727 148.9482 -11.23207
26.46633 15.59617 -7.784482
23.75388 14.72725 -11.67
24.72965 16.32686 -10.58919
25.97885 18.93353 -8.186582
23.50282 19.11552 -11.26233
23.6065 38.1355 -2.447572
12.29689 12.00801 -11.03446
3.272812 16.22392 -13.60249
-3.764114 14.67384 -12.937
-20.90815 72.35841 -2.695819
-21.30994 65.88531 -3.062207
-20.40982 80.58634 -1.596453
-20.79702 74.99641 -2.847883
-21.82809 57.74787 -3.340805
19.6277 85.07726 -3.297918
20.63369 75.75107 -5.026743
-19.58734 87.99261 -1.973481
-15.17591 105.7331 -1.759163
14.17909 113.0501 0.06984648
15.45003 99.2191 -5.436672
15.45057 99.84114 -5.07332
13.48929 109.4648 -3.33795
-14.43815 108.3388 -1.485542
10.37449 122.457 -3.400805
11.54319 125.2793 -3.681918
13.86435 114.262 -0.1001303
11.02605 115.6152 -5.103856
13.27689 134.4734 -8.47865
14.33562 137.8173 -9.303853
10.43578 144.1946 -11.9195
6.975724 141.4731 -12.73245
-11.06727 18.40305 -10.07441
-5.68235 14.65518 -11.58712
-22.00098 54.34019 -3.292296
-24.05984 13.81324 -11.75128
-20.01167 14.92411 -13.48435
-0.9432811 147.6941 -11.55826
25.78618 20.16426 -8.3357
25.7047 25.20366 -4.376371
23.90247 46.86079 -5.691373
13.77521 12.0572 -11.55757
19.32862 17.1413 -12.98846
7.564005 21.40311 -11.46678
-20.70211 72.64191 -5.173652
-21.39009 62.99551 -2.884943
18.96228 89.55096 -3.12659
17.47365 93.56771 -4.607409
-19.11608 89.2973 -2.81057
15.08589 107.7202 -0.09967832
-13.95514 107.3114 -3.172894
-13.7974 106.44 -3.912911
12.48003 118.2588 -2.783929
10.40495 115.6648 -5.528901
14.98174 136.0868 -7.152693
9.911291 140.8734 -12.2667
8.348166 144.5515 -12.2568
-22.2326 52.86561 -3.608566
-24.31726 23.70558 -3.979827
-25.37855 20.87813 -5.626383
25.83173 25.96255 -5.252383
25.58735 27.44834 -4.632232
24.1908 40.10713 -3.652576
24.01916 45.27427 -5.978358
23.92165 46.71115 -5.878039
17.7633 92.12563 -4.72344
20.31047 72.21854 -6.329998
13.3135 108.9937 -3.717695
12.11385 117.4641 -1.223374
11.82679 124.3723 -2.394727
8.471229 119.9453 -4.262746
2.183231 135.5648 -12.04047
-20.62852 58.06329 -8.733046
-25.05714 13.73493 -10.76378
-24.96272 18.68447 -4.362088
-25.77969 13.94952 -4.931242
19.50656 81.17552 -5.073715
-17.53994 92.97842 -4.781262
13.11243 111.2022 -2.596628
12.66132 119.1266 -1.009784
11.09401 126.3823 -5.285183
13.43866 129.6242 -3.385541
11.32135 119.1556 -2.218533
-21.35782 18.98569 -12.77276
-24.68411 14.52195 -11.05518
-26.05853 16.30079 -7.672437
-25.35054 19.94812 -8.859123
26.25744 21.34999 -5.167944
-16.32421 92.44666 -7.054927
-14.60012 91.32919 -9.154044
11.79155 107.3269 -5.635942
-13.40162 105.6909 -4.91877
6.676848 122.5885 -6.307862
10.91584 125.7504 -4.99796
14.50443 133.0738 -3.312065
11.78449 116.6518 -4.110664
-23.88946 16.28749 -11.54802
20.26795 20.627 -12.67622
18.52341 78.93987 -6.897759
13.5866 108.0936 -3.950383
-13.8963 105.8252 -4.143897
8.31968 122.0346 -5.153727
14.05111 131.36 -3.208485
13.79919 131.3021 -4.549485
8.973559 117.996 -3.605089
18.20093 76.29797 -7.73684
12.57555 132.3664 -7.833794
13.10751 134.1549 -8.450734
-12.65631 106.1754 -6.085117
10.30849 133.8045 -10.22203
7.458128 118.9943 -4.695244
-12.15641 105.817 -7.028126
7.863934 118.2075 -4.37877
10.03892 135.7709 -11.15818
11.21199 138.6259 -11.61224
13.12743 138.2453 -10.47407
17.6377 13.87446 -12.97501
22.80451 56.21106 -3.119936
22.96947 54.57735 -3.206427
22.24616 61.40657 -5.961457
21.44005 56.90685 -7.951654
22.40401 57.98437 -6.410194
23.35905 53.34898 -5.24888
20.0677 55.97065 -9.308197
22.86302 55.45271 -6.137121
20.69349 60.16157 -8.168427
18.64796 60.76894 -9.668908
21.0107 61.78475 -7.564744
16.8606 60.17878 -10.61926
22.4046 62.06223 -3.326719
19.54842 64.61559 -8.474802
20.20568 63.25525 -8.10824
22.32657 63.41247 -5.071167
15.38398 65.96196 -10.69385
18.91369 66.60776 -8.692076
20.39386 68.64479 -6.960627
12.18567 66.94959 -10.98219
18.77777 72.2554 -7.908944
-13.47371 101.6736 -6.921745
-15.92305 98.55896 -4.937275
-13.19159 99.00844 -8.474298
-12.53503 98.43066 -9.30405
-14.24823 131.3276 -0.188396
-23.73558 40.23856 -5.881466
-22.909 49.10231 -5.120903
-23.49636 32.29009 -3.422657
-24.94528 26.20673 -5.950577
-24.53683 27.7401 -4.891377
25.23979 30.79359 -4.420506
7.606248 19.46178 -11.44899
16.82225 21.977 -12.57329
-19.1284 87.21269 -3.639095
-18.45971 84.11584 -5.794157
-19.80468 81.56866 -4.067791
-19.68411 79.46539 -5.232236
-13.98532 77.76954 -9.850963
-18.72111 76.92952 -7.378561
-15.32001 74.66931 -9.711159
-20.45544 72.37315 -5.968951
-17.51972 80.78395 -7.737252
-18.57617 81.9525 -6.266101
-16.67343 85.64896 -7.592256
-12.3831 116.8174 -1.442243
-13.23615 137.8638 -10.24795
-10.55873 137.8981 -11.70729
4.292034 143.3199 -12.50435
4.790095 148.5585 -11.37278
-5.963411 142.6318 -12.64312
-7.733733 140.4273 -12.68531
-18.13883 90.48135 -4.620509
2.314108 141.3737 -12.68411
5.453209 137.8296 -12.58275
2.626914 146.6324 -11.86789
0.3981003 142.1968 -12.59489
-10.95442 16.46421 -10.0384
-22.98444 45.79344 -7.440906
-23.61469 39.71021 -7.331483
-22.63332 45.24284 -8.30757
23.79046 16.91947 -11.33606
21.21688 19.14137 -12.51631
19.21624 19.18801 -12.8826
18.2941 20.66706 -12.82419
17.12108 21.366 -12.66553
17.13306 22.11479 -12.64473
-21.17797 65.34026 -6.426255
-19.55807 68.84732 -8.048633
-19.87356 63.86903 -8.583574
-19.97204 64.5539 -8.382881
-21.28715 62.62795 -6.991491
-21.04765 61.36478 -7.63397
16.79756 85.18168 -7.545803
12.88352 99.35033 -8.628264
-20.43072 55.61993 -9.2677
-21.5678 54.75635 -8.140018
-22.03455 51.90508 -7.937846
24.54785 40.64894 -4.982131
16.96012 94.61425 -5.130412
21.53222 72.63071 -4.120111
-3.859911 15.76834 -12.88969
-13.17604 107.9714 -4.322658
-17.72895 19.826 -13.10617
-16.35125 17.16207 -12.62877
24.97585 22.71956 -9.256612
21.66653 25.69721 -11.70771
-14.70667 83.13727 -9.327483
-6.842353 105.4364 -8.870977
-10.8979 100.4133 -9.825251
-12.60079 93.83356 -10.5499
11.90976 117.3041 -3.886736
11.38766 103.7061 -7.875752
11.65041 105.1306 -6.921108
11.96355 132.5176 -8.438817
8.978901 129.2264 -8.645168
6.346005 135.325 -11.92016
7.880557 132.7146 -10.72573
4.239557 132.0538 -10.97187
-9.449566 134.3093 -10.81614
8.070031 130.4903 -9.657721
3.090399 140.348 -12.73078
1.71881 139.1998 -12.69201
5.195049 120.8693 -6.23074
17.0806 78.09436 -8.468904
16.31855 79.96461 -8.825809
15.75555 86.18591 -8.398473
15.42729 83.20745 -9.039564
17.46975 83.353 -7.150347
23.00479 56.37664 -5.409811
23.6255 43.34141 -7.540208
20.31 55.09549 -9.254076
18.43061 56.42074 -10.26193
17.56324 54.15357 -10.83473
14.29434 55.46368 -11.2445
6.828823 75.06853 -12.20157
10.74084 56.10548 -11.08038
13.93686 55.25349 -11.23962
10.8105 60.33696 -11.08856
17.48344 64.77962 -9.903991
10.69141 68.61996 -11.1089
11.58982 64.5708 -11.02634
7.899115 63.6668 -11.70724
10.55656 66.337 -11.13408
-14.94502 96.24969 -7.607178
-11.41617 121.8371 -1.878586
-23.6811 37.58661 -7.78175
-23.61761 32.82761 -9.235132
24.23343 33.60908 -2.832214
24.66047 34.85227 -7.408216
24.59999 38.55058 -6.336662
24.73668 37.66851 -6.076171
22.92362 36.51969 -9.455976
22.73736 32.86729 -10.12757
21.10262 36.33949 -10.8887
25.04861 33.05505 -6.868837
23.80717 32.19756 -9.148934
21.05452 34.27694 -11.15072
24.20187 32.04568 -8.637371
16.62791 37.56694 -12.13126
24.97989 32.89383 -7.114819
19.1068 41.70445 -11.3625
25.82514 25.41777 -6.611345
21.3258 30.97963 -11.36904
22.38776 45.65051 -8.68966
17.87641 42.78317 -11.6541
11.68311 38.54153 -11.16944
13.48805 32.50209 -11.54774
13.09857 38.28628 -11.45184
15.02873 52.03675 -11.40118
13.16102 41.96511 -11.42781
4.230362 23.75271 -13.05895
-16.85074 74.47725 -9.178964
-11.74117 120.6301 -1.49987
-13.49612 113.0457 -1.727602
-10.00457 139.5395 -12.16695
-4.747561 144.2881 -12.37517
-3.485242 142.4509 -12.597
-1.216156 146.2783 -11.92882
-1.715936 140.6885 -12.7172
0.0717281 139.813 -12.72075
-2.518856 138.2757 -12.63189
-1.431393 141.7966 -12.64084
-6.804203 140.7466 -12.7691
-6.410666 134.3299 -11.62227
-6.223667 139.1513 -12.77432
-5.700813 131.1075 -10.53224
-2.717188 131.8825 -10.89764
-8.890526 133.2097 -10.58426
-0.9511287 14.58182 -14.21533
-17.06876 85.18041 -7.274882
-14.76457 86.54256 -9.053467
-13.81633 83.92847 -9.73225
-14.91927 84.34212 -9.132695
-12.69385 18.09625 -10.57545
20.17112 15.96802 -12.97717
12.76378 17.69002 -11.22101
8.049493 22.98799 -11.31656
8.638528 16.79108 -11.09536
12.46414 25.4603 -11.2291
10.28001 21.48925 -10.87392
7.001785 19.81015 -11.70514
9.059285 23.85112 -11.03761
8.918015 33.889 -11.17129
4.874607 22.48517 -12.74394
1.46844 16.45465 -14.2121
-2.489747 21.38653 -13.6847
-1.689378 20.72191 -13.99519
-5.952209 21.85273 -11.5178
-3.825025 19.52235 -12.95593
-7.189811 16.53124 -10.64831
-7.158197 19.67548 -10.71415
-8.083392 19.74257 -10.29912
-14.63029 19.63102 -11.6754
-5.368432 16.23542 -11.83579
-5.758627 24.33087 -11.70095
-11.18511 28.57798 -10.20058
-10.48658 24.84144 -10.07474
-14.73787 20.00913 -11.74235
-16.3571 18.53881 -12.60577
-7.876888 23.26207 -10.43136
-21.30392 21.12827 -12.5518
-7.39567 26.26535 -10.70599
-8.767249 27.64757 -10.20071
-13.8559 28.30984 -11.37096
-16.12292 29.18242 -12.35946
-13.115 29.92924 -11.00918
-6.695212 29.9851 -11.16391
-19.00103 24.17514 -12.92034
-17.58422 29.46103 -12.63223
19.3786 23.01168 -12.68737
14.07294 23.63702 -11.71533
17.90832 24.76223 -12.63431
25.36152 25.94281 -7.902256
25.46308 30.59932 -5.896009
25.45517 28.46944 -7.029554
-19.93597 66.91379 -7.990993
13.65068 111.0328 -2.348503
-22.87011 50.10065 -5.363258
16.17479 94.06447 -6.722835
11.65355 100.1945 -9.329774
11.45667 92.75778 -11.35976
13.63698 95.21857 -9.368255
14.39548 94.24451 -8.869154
12.96048 97.67995 -9.202034
10.22182 97.9171 -11.10698
6.606163 114.5432 -5.032135
-23.77081 23.07266 -10.71316
-17.95146 22.91331 -13.01948
-17.82926 22.49884 -13.00522
-23.88984 17.75004 -11.35159
-25.05681 24.28359 -8.26125
-9.959514 105.5074 -8.442069
-24.63657 29.4232 -7.683374
10.06253 108.6596 -7.889883
10.79731 111.159 -5.646102
6.179285 124.6814 -7.421719
5.677098 128.3015 -9.217086
8.478383 125.8011 -7.000168
6.873576 125.843 -7.720071
4.590374 122.4245 -6.96248
1.690858 126.676 -8.762252
-9.268746 120.7281 -3.880022
3.650558 121.3293 -6.746664
0.9492534 124.1277 -7.819221
-2.462501 123.1088 -7.450211
-1.792553 132.5194 -11.13276
4.831139 117.0505 -5.510399
6.361148 113.8213 -6.336603
2.96844 118.8623 -6.16914
5.716685 113.5333 -6.675094
1.622963 113.676 -5.764071
6.630275 112.9181 -7.711716
3.400378 112.6821 -7.692907
7.190411 120.0527 -5.102241
17.55432 73.12404 -8.809639
14.31715 68.8098 -10.75492
16.17198 75.84726 -9.485875
19.23018 73.34592 -7.267356
21.50661 48.34759 -9.160388
22.80545 48.44656 -7.814179
21.80038 42.48451 -9.684788
23.02794 41.47221 -8.665238
20.67007 52.88425 -9.271521
19.18694 50.00887 -10.55946
18.16637 48.32429 -11.10281
20.85862 46.13181 -9.958129
14.97244 52.80935 -11.36207
5.703135 59.11432 -12.42128
10.04764 66.05984 -11.1968
8.53387 55.68567 -11.40313
17.7391 67.13843 -9.480981
-12.19526 123.5675 -0.8900735
-23.9781 32.07207 -8.63737
23.36959 25.94988 -10.53855
18.63551 27.45264 -12.49168
16.56823 32.28614 -12.30379
13.88323 31.54824 -11.65777
13.49643 31.96176 -11.54591
16.01881 26.63366 -12.3118
13.32756 22.81796 -11.46049
-0.8230231 15.92518 -14.22785
-15.14608 73.43996 -9.811694
-17.01153 72.17086 -9.346849
-18.65428 69.42329 -8.732822
-14.03306 68.50726 -10.06306
-18.48229 64.70661 -9.484574
-13.28804 73.11066 -10.01934
-11.94482 72.55722 -10.24202
-20.01156 70.6331 -7.238133
-10.86772 69.55859 -10.45685
-11.37131 72.22619 -10.37883
-13.55607 78.06681 -9.936742
-11.07754 85.54688 -10.97851
-11.14953 115.8955 -2.276614
-10.33879 119.5855 -2.965153
-12.15122 113.8907 -3.424264
-11.57531 113.2045 -3.929408
-9.486621 112.7957 -4.392467
-0.9356971 113.5337 -5.880728
-8.679564 116.9734 -5.245382
-11.11586 119.9067 -2.822717
-11.1672 125.2297 -4.179176
-13.64692 130.5525 -3.930273
-10.87879 128.721 -7.114488
-4.967964 137.2385 -12.46829
-12.8907 88.51295 -10.25873
-12.09604 90.14151 -10.87793
-11.29501 17.6779 -10.10011
-22.97401 41.12243 -8.575535
-19.68605 55.54735 -9.850296
0.7981921 17.54453 -14.25018
-4.174665 23.40987 -12.78029
-2.51798 24.81327 -13.6674
-4.370944 26.57244 -12.69738
-22.42016 25.51598 -11.47415
-22.17155 27.14925 -11.42653
-23.49257 26.74406 -10.40281
-23.01766 31.29569 -10.22008
-23.77575 26.64931 -10.10434
-21.98164 30.53086 -11.15823
-19.27281 31.78041 -12.21883
-18.88247 59.78045 -9.81876
-17.65492 61.52284 -10.11486
-20.03135 53.40903 -9.854497
16.91963 92.79638 -6.019159
5.865609 102.5341 -10.74362
9.556892 105.8915 -8.802191
16.95837 89.05529 -6.727378
10.56496 93.40314 -11.76605
10.75218 112.2029 -6.216218
-9.428845 92.52956 -12.21484
-11.94847 100.8036 -8.821362
3.146559 130.1348 -10.15037
-0.01511471 118.4965 -6.125554
-4.048843 114.2264 -5.652509
-1.435223 115.2545 -5.651636
-1.470849 117.5377 -5.95969
9.34216 109.386 -7.866807
6.350145 109.0543 -7.927792
1.963268 110.5425 -9.315634
5.667518 111.629 -8.319973
0.8930473 108.4947 -9.728011
-2.591512 106.7431 -9.905861
-11.38566 107.8339 -6.975121
-5.304746 106.2288 -8.638382
-4.155149 103.9575 -9.997802
-5.937603 104.9932 -9.242632
-9.515318 109.5765 -6.089836
-11.86815 107.2517 -6.867821
-10.12998 108.4563 -6.812022
-8.441443 101.9434 -10.42328
13.44043 68.81801 -10.86014
13.70825 73.27115 -10.65717
11.56375 74.98712 -10.98342
9.450503 75.6136 -11.47293
14.26702 82.81002 -9.823958
10.70995 91.82121 -11.70115
15.89818 87.73402 -8.100542
16.47505 90.29586 -7.230409
15.21189 92.40118 -8.421913
11.13142 93.63461 -11.49692
12.81989 92.24359 -10.53011
23.70487 45.5203 -6.91913
11.00336 47.42498 -11.10348
14.2525 51.16922 -11.38353
12.00349 53.55472 -11.1195
10.3473 53.06367 -11.09602
10.58204 57.06451 -11.09294
