# .PCD v0.7 - Point Cloud Data file format
VERSION 0.7
FIELDS x y z
SIZE 4 4 4
TYPE F F F
COUNT 1 1 1
WIDTH 1674
HEIGHT 1
VIEWPOINT 0 0 0 1 0 0 0
POINTS 1674
DATA ascii
-11.48067 125.0025 2.243969
-11.26537 124.5084 -0.5681711
-6.851021 120.9536 -3.699644
-10.93751 128.7095 7.513547
-10.92575 126.5279 6.273012
-9.043856 133.6388 10.73216
-6.074336 121.1629 12.29964
-4.632569 132.635 12.50494
-0.253661 125.5873 13.4481
-6.767735 134.3322 11.36729
-1.054299 133.7687 12.13988
-8.020399 120.3221 10.71248
-8.423715 120.7045 10.43426
-7.171192 121.2399 11.63867
-9.984675 119.5488 7.718821
-1.786787 126.5895 13.37889
-9.950996 132.5941 10.55565
-8.677987 123.4123 10.56109
-8.409767 122.8884 10.88793
-9.349637 124.5209 9.582484
-11.23529 127.3931 5.527334
-0.9954218 121.335 13.34421
-10.35074 126.1296 7.719157
-10.13453 122.3164 8.145665
-9.02309 121.9356 9.942901
-1.72496 130.5132 12.9073
-3.060202 132.9306 12.42623
-11.03767 124.8652 5.713309
-8.028967 125.5633 10.9879
-3.06344 130.5653 12.91306
-0.1577129 124.9919 13.47075
-6.084432 131.8756 12.62739
-11.10757 123.834 5.408157
-9.783717 124.0217 8.856511
-3.783918 128.971 12.94528
-2.970923 125.5404 13.31038
-5.83893 128.8428 12.84783
-8.02092 127.9342 11.64941
-7.464429 126.4353 11.47231
-5.560076 126.3644 12.49467
-3.367655 126.5629 13.09444
-8.702749 129.4732 11.84058
-5.881643 123.5441 12.72698
6.75201 121.4342 11.99516
10.61168 127.1438 7.286643
1.287933 131.8192 12.70847
7.931839 134.064 11.07019
10.05919 133.5469 9.93303
0.3974873 133.1609 12.34548
11.85729 131.5364 4.835485
11.83549 132.8746 6.196309
3.427279 123.1963 13.4147
10.99873 128.867 7.337199
0.448404 121.4196 13.37285
1.507645 126.5076 13.35626
9.378038 133.3865 10.67408
11.1635 127.534 5.676422
11.05202 127.1495 5.964912
5.509771 127.769 12.61188
5.182412 128.1829 12.76108
7.190889 132.1687 12.26338
8.652471 132.2691 11.64951
10.02003 120.2414 7.936097
10.25789 129.4915 10.14554
0.7412001 128.7966 13.0052
5.316865 130.0903 13.0131
9.909794 131.4733 10.84643
7.791105 122.5325 11.39353
10.59546 125.1663 6.991416
9.677638 121.7117 8.894442
10.26539 126.6124 7.892777
10.49253 125.061 7.260139
1.564072 130.4286 12.91163
4.845097 122.313 13.01044
5.027995 126.7122 12.67579
8.789083 129.2629 11.82772
9.182301 123.5407 9.886556
10.30969 130.2084 10.26248
3.79229 123.7854 13.3838
8.026164 125.5936 11.04739
9.036812 126.4152 9.880347
10.46131 132.9198 9.653599
11.61787 131.7509 6.670641
-18.895 20.35621 -0.7368802
-5.622358 31.02749 8.289189
-17.2568 24.54565 -0.07460932
-15.40189 38.56943 2.542167
-16.3748 45.03896 2.352885
-17.82085 22.92655 -1.112412
-0.5264807 118.0337 13.4073
-0.1703192 119.2929 13.38292
-11.03199 113.6073 4.593327
-10.50255 115.7576 5.188738
-1.16343 14.7115 3.800497
-6.924841 117.2114 11.89662
-9.895809 111.6766 10.12702
-16.06766 87.09377 3.693153
-7.252094 115.878 11.89893
-14.63065 98.04535 3.999666
-9.639304 51.4437 9.671537
-0.7843933 68.70019 11.84837
0.1873724 105.3802 13.23837
-10.38462 105.198 10.17631
-10.50526 116.367 4.694215
-14.63058 46.19236 3.999922
-9.810985 116.7669 8.325147
0.3966711 56.05844 12.37257
-10.79879 114.1382 5.523157
-10.03 116.3045 7.940671
-3.970253 120.9689 13.03533
-2.717357 106.9203 13.25709
-3.723691 97.13756 12.96117
0.6977755 32.13376 9.973696
-12.31515 108.0765 6.652334
-13.17775 105.803 3.936239
0.5916566 52.642 11.58315
-15.8899 73.35849 3.087935
-2.531643 46.01643 11.72058
-10.46011 108.6423 10.88142
-3.504593 68.84682 12.03683
0.2774767 82.88837 12.91616
-8.681437 118.8234 9.887136
-5.997771 120.8251 12.26958
-9.138064 118.5511 9.228584
-17.75738 19.62717 -0.6575277
-15.04718 60.87589 4.302737
-13.40332 17.48169 3.415854
0.1206625 111.6384 13.2994
-15.19679 19.16229 -0.5382553
-15.62278 92.81007 4.288948
-9.319836 76.40681 12.41877
-3.513968 108.7747 13.30239
-9.004171 113.3663 10.69144
-0.1530388 115.8847 13.33649
-14.33278 16.45715 0.6578712
-11.8997 16.48189 3.566884
0.9747243 30.45674 8.962902
-2.180547 31.81173 9.559968
-2.268116 51.10143 10.18002
-15.34424 51.47661 3.190456
-15.63294 69.7466 4.186516
-14.9754 82.85036 8.453281
-1.397282 84.23467 13.03606
-13.55229 100.3021 4.926346
-11.08557 109.4852 8.069786
-13.84331 102.5114 3.665782
-10.89975 110.8673 8.171361
-12.73071 107.5387 3.925938
-10.73269 105.7327 10.36461
1.685848 20.01012 6.716151
-0.5012348 16.6042 4.647851
-1.873119 105.6452 13.20205
-3.447225 111.9921 13.19024
-14.72231 17.42962 0.2101293
-17.51352 27.21586 -0.05601327
-11.42732 14.64715 3.468481
-14.71711 39.84698 3.035095
-0.003553975 25.14812 8.697094
1.849672 37.58681 10.54533
-0.2495047 46.5762 11.80299
-0.1336063 60.4965 12.79165
-15.64186 52.16826 6.081264
-16.04055 70.64188 4.807304
-0.5718042 75.45557 13.09469
-15.30823 75.01958 3.685749
-1.138443 86.993 13.01433
-15.43281 94.77268 5.368363
-14.60504 96.45528 4.108085
-10.45556 113.58 8.58515
-13.55573 104.5584 5.280501
-13.54428 105.7324 5.316552
-1.94879 109.122 13.29578
-10.39542 108.595 10.9341
-12.19418 110.5432 5.9251
0.4893748 18.42006 6.613994
-3.65185 15.31924 3.823051
-2.379092 17.33116 5.892162
-8.9869 111.9696 11.47106
-3.461992 112.7329 13.13717
-1.527975 114.4434 13.29806
-16.2604 31.84604 2.413702
-12.86804 14.95917 2.942775
-16.58719 35.38866 0.7498229
-16.51157 38.00185 1.302564
-1.477136 25.10979 8.545457
-0.07500377 29.89988 8.156949
-16.26377 45.07492 2.706391
1.040767 35.92805 9.552355
0.2441558 42.76098 11.37293
-2.758252 44.66039 12.25079
0.2037113 46.94519 11.51385
-1.638983 52.03504 10.56317
-2.214931 55.68005 12.73123
-2.258108 57.15969 12.24223
-14.98015 61.00147 4.872312
-14.9818 52.40149 5.231518
-0.9883065 65.53276 11.79619
-0.209375 72.16444 13.06479
-16.03918 69.88044 5.025331
-0.2477257 74.06632 12.91296
-1.467368 79.29457 12.32566
-15.59388 75.57433 3.327122
-0.6009772 86.35534 12.99499
-1.250506 90.52462 12.77684
-15.48081 91.20843 3.021585
-15.24379 95.81437 4.051863
-0.5514966 99.97381 13.15932
-1.824346 106.285 13.23792
-4.674656 104.7056 13.08329
-6.202153 105.2981 13.06506
-12.2991 110.5025 7.052907
-8.987298 17.43143 4.385324
-0.7624187 20.39037 5.80963
1.228258 22.38948 7.344091
-0.4295523 17.06165 5.684556
-3.898598 109.1533 13.26039
-5.251386 104.4088 13.06404
-2.808943 105.4363 13.14152
-10.43561 109.9496 10.42134
-9.367801 109.6712 11.43965
-4.345558 115.2685 12.92615
-14.34119 17.68961 1.602308
-16.48963 24.31641 0.5245586
-15.56717 30.50822 2.085394
-12.62179 16.23638 3.371047
-14.96824 18.97115 2.305669
-15.69075 33.3386 2.242395
-13.67909 38.51694 4.422749
-12.06903 36.90752 5.422841
-10.38367 34.87106 6.066998
-12.36209 37.4948 5.340293
-13.87254 35.87596 5.36181
-11.50392 34.12443 5.357768
-6.937203 40.20394 8.1489
-8.647606 32.54482 6.835454
-10.57406 32.82378 5.393798
-10.31067 34.82473 6.438764
1.082476 25.10571 8.79165
-1.293266 30.84863 9.233509
-3.293239 30.72913 8.762225
-1.777173 29.01384 7.316189
0.2160465 28.37455 7.024622
-16.18898 48.05755 2.821403
-14.30576 40.90579 6.724802
-13.98884 44.6052 4.99023
-16.38115 45.73327 3.963512
0.8457248 34.71673 8.644404
1.095055 37.79531 10.28559
0.06398425 48.08914 11.23737
-2.842978 51.89862 10.44531
-2.893516 54.02171 12.58181
-16.44544 55.98413 4.692718
-15.26579 61.59346 4.77426
-15.81663 61.97639 5.699504
-16.58965 53.80229 4.243473
-2.017869 63.17426 11.96898
0.3253689 68.71808 12.22445
-0.1557686 73.11491 12.8511
-15.35845 72.35909 4.130979
-15.48908 66.09718 3.889672
-2.374043 74.53538 13.19322
-1.3591 78.02721 12.20122
-16.11218 78.57376 3.390725
-15.25339 79.57623 6.673687
-15.98722 85.22507 4.18983
-16.17729 87.1571 3.627106
0.1964017 83.26227 12.93864
-1.792891 90.04005 12.6041
-2.70508 91.29751 12.94228
-3.352486 96.73423 13.10101
-2.2439 93.49678 13.18698
-2.930461 99.45126 12.91002
-9.086075 105.0918 10.80879
-8.777999 18.17102 5.065144
-8.447559 17.60329 4.753441
-5.374197 106.5396 13.22351
-6.376601 106.1769 12.91845
-16.55059 22.43842 1.114742
-14.35834 22.52081 4.332743
-14.99062 34.64898 2.684134
-14.45055 40.08155 4.104075
1.597284 31.71062 9.693544
1.111755 27.01406 7.54119
-15.51465 41.11726 3.546816
-2.086156 35.29149 7.79379
-4.297415 39.53213 10.39546
-5.324827 40.20105 10.33715
-4.067857 41.29867 11.57153
-3.56529 53.76154 12.43845
-14.12051 57.75322 6.936791
-14.96512 64.64903 5.008466
-14.86649 51.23441 6.432117
-15.06567 66.24445 5.706039
-14.96276 69.49997 6.772608
-15.90568 76.68594 5.574736
-15.81648 73.52087 5.45776
-1.771315 91.49104 12.99814
-14.85298 92.56647 6.316471
-15.30456 86.67128 5.861974
-9.626157 105.276 10.43914
-4.405632 19.45905 5.7079
-15.8396 21.78018 1.761775
-16.94577 26.04238 1.016351
-14.87886 32.82978 4.247369
-2.351053 24.24345 8.545635
-14.03722 45.87961 4.992548
-14.9529 52.32821 7.918443
-15.50443 57.23894 4.973544
-16.39457 63.38986 4.30348
-13.62924 50.96578 5.454046
-13.09583 50.82824 8.81566
-1.231652 72.78693 13.10908
-14.95228 67.73521 8.19781
-14.54012 73.53987 7.011635
-3.581551 91.56508 12.95641
-15.24032 92.40202 7.849374
-6.741214 88.95135 12.13914
-7.469341 90.37416 12.45993
-15.47248 93.70803 5.159975
-16.07597 27.25324 1.495588
-3.879831 22.10166 5.555106
-4.418619 21.15796 5.061394
-5.498977 23.67408 7.045618
-1.295329 36.38203 8.000523
-4.496195 34.04691 9.236521
-3.185648 50.96221 9.907077
-3.281168 49.33183 9.740222
-14.58972 65.73219 5.279964
-15.28896 72.09909 7.288635
-6.169926 95.37717 12.36494
-14.71873 93.64924 8.249628
-13.4892 95.89775 9.396162
-9.882788 102.3326 10.5191
-9.133899 102.3073 11.69932
-12.52233 28.91566 5.523633
-13.35722 30.06069 6.050428
-3.220902 49.57308 9.759496
-4.290517 46.70652 10.80225
-14.26801 65.06201 7.414093
-7.646538 66.09584 11.12126
-14.46795 74.54993 7.392083
-14.62558 78.49212 8.796222
-6.578602 92.94811 12.73909
-14.07958 95.58068 7.080284
-12.14524 28.47152 5.298264
-14.55398 29.44479 3.57671
-11.69795 27.82886 4.902437
-1.388387 45.96973 11.97668
-6.303274 51.79574 10.48431
-3.845171 69.29633 12.37639
-2.618467 65.33726 11.26345
-9.436282 98.4958 11.92217
-13.4934 93.40983 9.271602
-5.913217 39.0055 7.213215
-15.09586 75.8416 8.499983
-4.767563 97.27071 12.59246
-10.15699 44.76165 10.25141
-8.439805 37.51332 7.268373
-14.36333 74.32145 8.694488
-4.360446 97.87483 12.67473
-12.26343 92.24323 9.90619
-11.23228 36.13489 6.378055
-3.324549 37.30621 8.032626
-12.42576 75.80412 11.23503
-9.846349 88.38705 11.72193
-5.001835 42.07214 11.58142
-5.564648 41.57439 11.21524
-4.131534 41.80392 11.60553
-8.78583 39.92217 5.805336
-5.067025 34.99108 8.326337
-7.36594 49.60312 8.728798
-13.78803 87.86398 9.793257
-12.57549 88.87762 10.4349
-8.185423 41.82359 8.564585
-6.844089 44.45609 11.5724
-6.548145 49.64311 8.876467
-10.62794 40.50999 5.791411
-11.58943 75.95323 11.90226
-12.26923 84.99848 10.93791
-6.141534 47.21486 10.28274
-11.36784 76.29982 12.016
-13.39861 77.51541 10.08141
-8.002876 116.3485 10.81899
-12.77628 103.5563 6.381015
-13.4515 103.3048 4.853764
-13.17485 101.8855 5.838221
-12.60664 102.1082 8.871212
-13.703 101.5025 6.090153
-15.79405 21.93803 -0.2271973
-12.76757 96.90457 9.897023
-15.03142 95.75079 5.816379
-13.23405 95.7555 9.691259
-13.45328 97.00062 7.64728
-11.34679 97.86674 11.0236
-10.24022 101.0552 10.69168
-14.30371 100.7875 7.221846
-12.96883 97.52245 8.335522
-10.31844 97.62368 11.52771
-6.830462 100.8629 12.5405
-7.509639 103.1783 12.73802
-5.91581 97.54581 12.16342
-7.869266 99.60242 12.27463
-4.390321 99.05379 12.56019
-2.917898 101.2559 12.84349
-7.162835 32.12365 8.285663
-15.15958 42.11464 6.040451
-6.08026 33.51075 9.280318
-12.51255 37.32847 7.054134
-13.29752 39.22417 7.261138
-4.966767 32.16372 9.130747
-7.475946 35.53281 8.616521
-13.47254 40.48106 6.966459
-14.81389 39.82829 6.015738
-11.88727 38.18879 7.69581
-13.67546 39.66903 4.661821
-11.18299 41.7689 5.795624
-12.35985 42.4638 5.915983
-13.66106 38.52807 6.781494
-3.316346 29.58159 7.620029
-4.461539 30.32031 8.118048
-7.008275 27.07652 7.629757
-7.004464 30.12921 6.353305
-6.277843 27.33247 7.235548
-3.386557 25.89694 7.934895
-9.54524 27.70784 7.43695
-5.697018 25.07328 7.917178
-4.853225 22.1458 5.203574
-6.99228 20.77232 4.991848
-8.229888 20.67871 5.332834
-7.440642 24.13976 6.311268
-5.300964 30.55089 8.066127
-2.270861 63.69044 11.57276
-9.945291 65.63078 11.40963
-4.685124 62.0481 12.63315
-2.795588 78.66205 12.19955
-3.083801 16.72495 5.105698
-14.6822 20.06218 3.429019
-1.567344 33.15168 9.744989
-13.70899 56.4862 8.040833
-14.13767 62.51727 6.690023
-13.40295 49.6602 5.414988
-13.5545 50.08217 7.243362
-14.25577 53.33995 7.093096
-10.79751 51.15257 9.209778
-9.058256 50.80614 9.103784
-10.59708 51.63218 9.693156
-13.53781 56.37059 7.33458
-4.948384 87.25648 12.19799
-9.079384 95.84499 11.24993
-14.84192 66.34386 9.033824
-15.17873 65.81985 8.596258
-12.30221 63.40658 11.04726
-15.05384 81.92139 7.469992
-13.26497 93.78062 9.568302
-11.02774 95.56406 10.87072
-12.14973 96.49575 10.6147
-9.614302 96.70828 11.42863
-10.77215 47.87369 10.3213
-9.650838 48.08944 9.734425
-12.41722 49.0639 7.731379
-10.98826 45.50528 9.268766
-8.631314 46.83544 10.90944
-13.71716 49.5714 7.832967
-12.29585 49.21255 7.237113
-13.08086 46.6119 6.058116
-9.861191 43.98631 9.331969
-12.10243 44.86165 6.484598
-10.33652 43.87897 6.454495
-8.576667 42.54106 7.230034
-15.02287 85.7812 8.11366
-12.66642 78.53568 10.99544
-10.42268 81.13338 12.232
-11.59485 78.66158 11.48215
-13.2186 80.65765 10.54005
-3.478328 79.89203 12.47251
-13.25242 86.32205 10.15922
-13.15262 86.25744 10.22519
-10.67373 80.2578 12.01274
-7.886198 77.69917 12.43338
-5.615108 77.62457 12.18874
-11.77014 80.58879 11.71939
-11.9867 82.99287 11.32433
-4.242539 78.74227 12.22279
-3.012968 81.13953 12.88018
-5.183893 79.65517 12.40491
-6.917796 85.32488 12.25702
-14.1968 81.73449 9.007856
-3.553126 85.96382 12.75769
-9.855593 82.93004 12.31565
-15.41579 80.27497 7.216326
-5.167045 85.70498 12.44048
-7.580673 21.72417 4.542564
-10.00692 20.23536 5.461691
-11.25701 22.39752 5.104246
-12.40569 23.65672 4.972008
-8.858792 22.13892 4.542397
-12.43857 19.89923 4.437334
-8.02439 24.2181 5.865575
-5.7488 71.01123 13.23437
-8.976605 73.67849 12.25791
-9.628681 72.51887 12.48679
-6.793597 73.25149 12.9306
-8.238092 72.11 13.10803
-12.27995 73.61085 11.07402
-12.3194 71.24645 10.70753
-13.80125 74.152 10.27501
-12.64243 70.96376 10.19012
-15.15704 71.49685 6.580852
-14.44519 21.03279 3.960831
-16.00545 24.81692 3.338086
-14.61705 27.69936 3.023777
-5.581334 60.63157 13.31194
-12.98548 58.13984 9.409987
-9.908853 57.87199 11.77547
-12.10632 61.27877 10.5685
-12.61387 62.90348 10.97444
-14.17135 61.89931 7.237706
-11.79751 57.24434 10.42978
-8.432273 69.72095 12.7301
-14.2078 83.28887 9.306672
-9.428106 24.83391 4.450939
-7.068195 68.5236 12.31793
-9.477021 70.49855 12.44364
-13.61222 69.78558 9.782399
-12.43041 68.07346 11.00472
-11.1707 64.99679 10.36344
-9.680378 66.99892 11.53893
-8.709654 67.92185 11.81134
-12.44602 70.62529 10.34116
-8.159163 64.87301 11.01993
-8.965796 61.89058 12.44385
-10.1582 62.86274 11.45624
-5.471515 68.32966 12.09373
-7.214116 64.55545 10.82159
-9.697827 58.36018 11.81909
-6.839057 61.49522 12.92083
-9.336269 61.1498 12.73834
-8.859942 57.65902 12.67667
-5.826778 60.94341 13.21077
-5.95654 59.64096 13.26087
-6.134892 58.10941 13.16328
-5.652067 57.66368 12.95457
-4.248857 54.02956 12.50347
-9.287336 53.86301 11.09714
-7.640281 54.00932 11.72403
-8.362795 56.2229 12.45847
-7.26363 57.18515 12.99881
-10.6193 54.96399 10.86425
-13.72945 24.0113 4.698876
-13.19402 26.48539 4.504288
-9.958362 51.25773 9.458117
-11.8271 51.17792 7.722669
-12.90382 55.13061 8.751556
-11.25067 54.84163 10.47046
-14.8344 26.66589 2.572048
-15.70152 32.35938 3.264771
17.18432 53.0515 3.63079
2.196778 22.33272 7.626291
2.218071 25.10089 8.703682
5.483019 36.09345 10.1399
2.243788 36.09035 9.826805
2.625444 14.71676 3.734464
6.878428 14.3636 3.570961
10.21477 17.2411 3.172919
15.79513 19.52437 2.639977
0.4149835 118.8962 13.3835
1.370366 116.8497 13.34405
0.9151075 69.69675 12.30848
7.045553 118.3141 11.46153
9.068362 119.5907 9.490062
6.489884 118.2679 11.77578
1.219558 97.17443 12.98565
0.3522678 99.03976 13.11983
8.344111 113.1335 10.874
9.432828 114.9086 9.514848
7.885192 118.5443 10.98683
1.330079 120.4922 13.37624
10.72971 108.7694 9.079757
5.340825 119.9421 12.60454
0.1471307 117.321 13.35033
20.4207 21.91037 -3.651054
20.12684 21.25557 -3.73766
15.99759 69.97877 2.699067
16.24903 66.8222 1.991238
6.195846 22.29816 7.532936
19.9411 23.76829 -2.888485
19.9683 21.49972 -4.552497
1.231094 119.088 13.47114
19.76937 23.25259 -3.317877
7.697626 114.274 11.47088
3.046114 120.9724 13.19976
13.2738 105.592 5.331698
12.27598 109.4796 3.655262
2.277822 31.55327 9.452212
9.822313 119.6386 8.143727
3.167199 95.89455 12.6426
15.64313 90.31897 3.744728
20.28577 21.96037 -4.078216
19.99667 22.05146 -4.382398
12.96159 106.5083 3.470611
9.678345 114.1246 9.310522
14.7102 94.73289 2.861116
18.22734 24.18268 -1.096248
5.777129 117.2228 12.79972
9.722878 110.2304 9.853209
8.171939 108.0432 12.59982
6.557222 108.7324 12.74181
5.264013 112.1496 13.09027
9.768684 109.5732 10.0631
6.334309 109.9959 12.90332
2.380897 15.98673 3.907411
14.61205 17.33055 2.649052
14.90182 40.35266 2.650064
8.669558 38.13999 10.34351
2.482467 49.37072 10.70087
16.80327 52.77359 4.63486
15.08508 70.45612 6.055878
15.95789 76.92355 3.482326
15.50597 86.94358 2.946461
2.071643 101.7875 13.22778
9.976092 108.2384 10.66136
19.01146 25.3237 -1.303605
19.55645 21.91693 -2.053786
12.03813 107.474 7.789351
12.13208 104.9176 7.897324
12.56478 108.2678 3.664656
11.89488 110.7214 4.233156
10.83326 114.8684 8.359198
0.5628597 115.4614 13.33121
4.027627 115.6936 13.22853
9.944006 111.3276 9.377739
4.714108 109.6919 12.9061
4.317465 19.71955 6.915814
1.463497 16.16648 4.433421
3.553514 16.76639 4.142931
7.52634 15.15222 3.326494
12.4438 17.13661 3.158048
17.82408 34.27693 1.284817
4.006166 36.05191 9.787471
16.69925 47.47574 3.383771
16.105 47.99669 2.520821
2.716957 47.2887 10.41138
0.8799098 53.92848 12.20901
16.4614 61.59364 4.648509
15.90563 68.21748 5.087079
2.35575 73.40518 13.09423
16.09872 76.63609 4.183548
15.58415 89.80933 3.5092
1.885523 100.1862 13.16399
12.51463 102.0997 9.886081
3.599895 109.2595 13.01102
18.17967 26.18716 -0.3421243
16.89595 20.03483 -0.9820188
13.0115 104.0463 7.075552
13.70324 104.2981 4.622423
13.31794 101.8171 4.847655
11.91362 108.598 7.099628
10.91233 108.2864 8.957556
11.17654 113.2731 5.161141
14.92909 96.73008 2.687349
2.835399 117.8666 13.17907
3.514162 21.74876 6.942597
1.553913 17.34846 5.552051
8.996337 17.53858 3.370214
9.538672 17.02822 3.132429
7.576675 15.71124 3.206005
17.75465 29.45697 -0.6311888
17.82932 35.00213 -0.8748426
17.02167 40.05834 0.6081323
4.892848 34.32519 9.688748
16.78854 41.51111 0.6512021
4.151306 37.80427 11.36148
3.354297 36.48222 10.15934
16.4173 51.05896 1.336361
2.881356 50.09439 11.0231
0.9552065 59.25579 12.59403
2.937742 56.4216 11.10089
16.5812 56.96277 2.8073
15.728 66.54388 3.661748
1.665626 71.31352 12.79741
15.88582 70.52406 2.31835
2.937941 80.55476 13.02239
16.02301 75.19714 3.236183
15.49577 84.52291 2.636683
2.765197 91.12684 12.32891
15.81122 86.24641 3.327497
1.630873 103.756 13.26521
1.981017 95.46552 12.71064
0.9822613 112.5817 13.276
18.5876 25.96684 0.7177461
18.38494 25.3314 0.6742866
16.70089 20.09036 0.5103272
13.03431 103.6955 5.152836
12.87447 103.0296 7.046519
12.21403 110.7455 5.525012
14.75101 98.86826 4.500882
4.961915 19.43228 6.969871
8.143484 18.39051 6.112087
16.81948 32.20882 1.561643
16.96743 34.99765 2.765334
16.31748 40.28052 1.97112
4.743927 27.54538 7.459516
4.957711 30.69678 8.327792
17.70928 43.81145 2.599576
17.52271 43.36552 3.857551
14.29773 43.1829 5.054192
3.243619 38.50715 11.37255
4.895164 40.30769 8.984825
2.352959 43.56873 11.81655
17.25839 53.84972 3.692194
16.97024 53.89695 4.485989
15.65195 49.95623 4.071307
17.05837 51.64228 1.082069
3.771961 50.77792 11.51438
4.453082 51.24313 11.86337
1.80685 64.17181 12.71452
2.510218 62.6552 12.64825
6.161252 50.67191 11.44084
4.106514 57.82312 11.48788
1.670322 55.92618 11.84266
16.1269 62.05495 1.833832
15.18388 56.49932 3.925675
15.90341 66.73711 5.365663
16.0498 69.62643 3.457719
1.558795 69.5695 12.20866
14.8449 70.60692 3.53568
4.224452 82.02661 12.6135
2.748555 79.94799 13.09171
15.92195 77.71242 2.507064
16.10805 75.91036 6.892611
15.73035 71.89323 6.244644
15.52942 81.47501 4.741426
15.23281 79.21136 3.883556
1.729182 90.88243 12.69583
15.35056 91.60253 5.576182
16.06918 85.31572 6.252636
15.84376 84.96209 3.209431
0.2543709 106.0966 13.24993
4.073805 91.34818 11.88566
3.741188 95.7326 12.56176
10.83629 106.2109 9.746846
1.559026 107.535 13.26091
3.489275 111.618 13.102
18.33367 25.17599 0.5660253
16.48628 18.84504 -0.5963155
13.56343 99.79597 6.343664
13.37452 99.86179 7.382499
3.60588 17.39114 5.199891
7.446614 19.82208 7.117197
17.25058 33.45963 2.81537
2.270513 27.69122 7.711649
14.42039 43.17081 5.239044
15.24323 49.80108 3.572682
16.11606 50.37727 5.066849
14.7222 48.75388 3.348274
15.08367 48.35736 5.390241
1.937305 42.15257 10.71335
16.87627 55.41946 1.620998
3.888184 58.52162 12.1045
10.79733 53.53465 8.721417
13.81262 57.73035 4.826615
16.15762 63.40559 5.549469
4.72802 72.70558 13.14979
15.37674 71.4241 2.537843
4.557922 84.00162 12.68549
16.2667 73.45694 6.960393
15.80666 71.20712 6.390622
6.527985 86.19431 12.72676
15.69578 90.41069 4.758335
15.34749 83.80521 4.330641
3.496258 105.5638 13.00424
14.10844 97.85051 6.121589
13.75833 96.5257 7.856269
13.28437 100.5712 8.962813
7.678185 18.94973 6.829399
16.98211 33.64441 3.363953
14.65834 36.81812 3.325792
14.34168 40.7881 7.971163
15.09887 39.99189 3.595963
4.368554 36.62935 10.69486
6.681649 52.49259 12.02103
14.25504 63.98595 6.714187
5.486409 82.8495 12.47019
15.95493 74.62348 6.922135
14.54993 69.56889 7.444167
15.56338 70.78933 8.579127
5.723835 90.67622 11.58264
14.82975 84.1506 8.591574
13.0002 100.9306 8.836671
13.51089 99.71721 7.889449
5.878397 23.9052 9.108152
6.976158 24.87113 9.376646
14.67199 19.02377 2.829875
15.84033 39.23991 4.754617
13.77055 42.67424 5.214644
11.7947 42.37734 6.837895
16.13672 41.7737 6.20889
6.173575 61.55893 13.11799
12.06709 62.1926 9.084498
6.168529 69.69971 12.23523
15.78743 85.7258 7.004038
15.71513 81.03181 6.765973
14.52018 87.12904 8.690055
8.920053 102.6349 11.48413
13.33398 100.1002 8.194271
6.359534 25.80088 9.576051
17.4311 36.55308 1.253988
14.86814 42.45719 6.741588
4.657285 62.05644 12.87868
6.550835 64.77082 12.50093
14.91194 70.04053 7.11122
14.9623 81.83279 6.801367
14.50877 83.7496 8.538426
10.65672 102.1854 11.28363
13.86666 21.22075 4.035798
12.992 28.74092 5.997964
13.15755 40.27545 7.9938
3.622414 67.12027 11.75191
13.80625 70.26503 9.636936
15.42531 89.82255 6.696479
15.72106 79.723 5.641742
9.319009 101.7511 11.17224
12.1362 92.56243 10.18403
13.03571 44.44844 5.109835
14.29828 47.72075 4.287427
13.14697 40.45497 7.774313
14.44332 38.31138 7.659676
9.710981 37.74665 10.18723
8.005789 62.11605 12.92625
4.246664 66.87306 11.74221
11.1022 53.15833 8.228825
13.54568 88.51933 9.61385
15.98312 51.47596 5.848494
12.15032 37.82962 9.116378
11.12548 41.68207 6.921895
10.15445 60.87566 10.11711
14.30141 53.38735 6.291491
13.18721 66.70049 10.4273
11.87917 96.88931 9.312933
14.02698 47.20319 7.249701
14.04614 36.18711 7.223524
14.56547 37.82832 7.293075
14.11421 65.55719 8.909005
11.0755 85.24665 11.56563
8.740431 61.33509 11.55192
13.70294 86.72132 9.536148
5.334106 40.40498 8.966471
9.465096 61.89067 10.50474
13.27179 87.61608 10.01084
12.45126 49.95402 8.510065
13.56213 57.55333 7.330709
7.300534 49.73247 10.78741
11.34775 45.25396 8.904288
12.10329 65.43829 11.51598
13.16354 68.78963 10.53359
12.55776 65.90984 10.36961
13.78758 67.18297 7.848417
11.985 41.94189 5.960449
7.076045 59.52127 11.87622
11.40373 54.63478 10.91051
13.65332 68.03751 8.964375
9.83097 42.40013 7.925306
11.84049 43.97253 7.982204
9.02557 58.87319 9.754303
12.21413 60.7858 9.314867
14.39218 59.78675 8.708158
15.15946 58.92395 7.639526
14.72976 59.22357 8.405979
10.86597 66.36452 11.57474
11.73327 70.64377 10.86264
13.13866 65.92459 9.13658
11.2642 53.81608 10.62863
7.639363 39.52423 8.437291
12.91909 64.54356 9.591668
15.45697 59.54731 6.497355
13.52596 56.50744 8.721863
14.10561 64.59814 8.728196
12.1408 63.03413 9.157519
13.22654 56.31996 8.30744
8.425382 69.8689 11.91493
8.157614 69.14432 11.85078
4.423057 22.07394 7.310914
6.606789 23.02624 8.28768
3.64723 98.37836 12.96827
6.020941 100.0718 12.46476
7.747653 99.54088 11.41064
6.855716 105.7655 12.25397
8.408394 97.61348 11.62017
4.448897 106.5534 12.75816
15.79662 94.64091 4.477548
13.33628 90.7559 9.342079
15.46635 90.94407 5.672684
16.00784 93.57144 5.293177
12.62643 91.69243 10.28701
13.93004 93.99366 8.45144
12.03466 93.50187 10.43895
11.52697 91.44572 10.69007
11.78554 91.19799 10.70467
13.53852 92.04179 9.651184
18.02679 24.0877 1.366055
16.24722 23.80451 2.057749
16.58233 26.3412 0.8267351
14.73949 26.03522 1.847895
15.66318 26.78345 0.4403138
14.98167 27.18114 1.820499
13.01287 23.28216 3.555223
14.60725 21.54724 3.569961
13.29086 21.58449 3.70995
16.12564 19.03197 2.323069
15.70026 30.61725 1.255368
16.06395 32.92247 4.249187
17.00646 21.08789 0.7659721
13.9904 28.2402 5.938813
15.47499 28.37939 3.889693
10.9862 35.78111 7.565766
6.126078 36.31522 10.38384
7.78434 34.27985 9.767343
4.870553 35.7485 9.690182
4.271235 44.39183 11.60919
4.817668 77.09218 12.43648
10.88178 80.11665 11.94803
15.4996 78.36631 4.088694
8.70756 107.3122 12.50768
12.14031 20.01828 4.853652
13.33363 20.14285 4.423469
8.845385 18.40048 5.778161
9.958769 18.45187 4.676921
12.56146 17.84692 3.047857
6.43523 91.11147 11.4392
4.923553 92.10089 11.73087
12.20864 32.71267 7.329199
14.13678 36.18743 5.715019
15.00881 37.08125 5.885774
15.11222 45.66933 3.758815
9.099165 24.93134 8.517247
7.609948 23.86385 8.924631
11.87995 28.30266 6.285277
11.40076 23.56975 7.2755
10.41113 29.57209 7.536898
10.86644 99.29837 9.941976
11.2846 101.5272 10.9452
10.49505 100.3144 10.57876
10.54733 95.39619 11.096
10.96257 96.59396 10.08085
9.887203 39.62107 7.662217
7.147016 35.43209 10.35418
4.766901 39.32642 9.418144
7.471401 39.07171 8.840365
14.63172 69.49947 4.978858
15.76043 67.98232 5.52188
16.18548 67.47267 4.558494
14.88321 64.8802 7.205948
5.571002 59.40363 12.41386
13.77213 72.51407 8.839829
10.67367 69.27764 11.21512
9.580742 71.1189 11.88542
8.281106 73.04467 12.94763
5.84391 74.73931 12.59682
11.45912 71.19378 11.12623
12.45499 75.38416 11.62866
13.87555 75.81223 10.49354
11.95636 55.72416 10.54255
7.830467 57.27224 9.926094
5.636663 57.37452 10.8274
10.42661 53.73921 11.2543
2.432813 99.08273 13.08452
9.014005 90.0995 11.41126
18.34777 27.84151 0.4195616
14.56621 31.56438 4.878226
11.24517 26.50217 7.219965
14.65262 27.35172 5.332503
5.476467 30.06611 7.449701
6.901391 41.64738 9.181091
10.37869 34.97387 7.534683
12.60721 34.13862 7.905863
2.921868 48.60527 10.11486
7.840576 48.12084 9.339268
3.445985 48.40648 10.04783
7.750778 47.43396 9.091076
8.753157 49.69734 10.34686
9.003855 55.87943 10.66763
5.923266 52.59542 12.19368
10.43607 51.61657 9.777166
10.53801 52.30105 9.950336
4.652999 41.71695 9.99563
6.639069 42.94556 10.3174
10.79585 83.26778 12.31754
10.18885 82.60791 12.50523
7.745829 84.61185 12.64891
9.914688 81.67877 12.39147
13.09019 83.1663 11.06844
9.483646 79.72039 12.43086
6.936345 79.784 13.02099
12.43638 83.73958 11.37939
11.03728 79.80098 11.87806
10.49224 77.84379 12.08537
8.831747 75.96056 12.33417
15.1224 74.47629 7.655372
13.16693 80.08658 10.35674
14.26522 77.06717 8.539338
14.13208 77.59077 9.950235
11.30973 19.0704 3.718549
13.75657 35.44891 6.024951
14.26686 81.87254 9.901688
12.31105 80.71362 10.99064
11.51721 24.94214 7.439821
6.746205 28.86675 7.725452
6.938623 28.54377 8.217969
10.55467 32.50658 7.985081
13.02311 35.17636 7.576348
11.94346 32.2472 7.173806
13.17816 33.62036 7.361495
12.33253 33.15308 6.435098
9.286063 72.48842 12.26789
11.04282 87.02684 11.35693
4.993886 88.5268 12.10129
8.026115 90.01019 11.47302
6.344726 89.44572 11.75336
10.81459 85.83067 11.57784
10.3673 29.31951 6.935105
8.375638 34.5746 9.425761
9.831824 31.33637 8.127915
7.377697 43.17941 10.12526
8.244638 46.79447 9.55771
11.44525 49.87746 8.344079
10.24362 50.45196 9.013794
10.86459 47.81635 9.584937
15.49782 76.9047 6.424518
14.92061 80.34204 8.900198
16.11144 53.74076 5.216269
16.38739 52.62458 0.1588457
15.23497 59.96788 -0.3283515
4.289146 63.47198 -6.873729
16.25053 65.36335 1.582849
16.04054 66.2071 1.895733
2.317749 93.75073 -10.31204
18.16918 29.24214 -2.745114
18.8 29.92205 -1.919828
16.90531 35.29241 -2.60964
14.3307 50.89709 -2.138242
16.00189 48.43372 -1.003055
18.37775 31.53602 -2.274455
16.66054 58.41954 1.228733
15.31326 89.28805 -0.5366747
15.1617 94.05692 1.32142
14.394 64.2971 -1.207512
15.73647 78.6347 -0.5754406
13.21073 104.5159 1.1174
0.8895671 56.70184 -8.379881
10.64445 116.5506 4.254797
10.52009 115.1036 2.168898
10.00001 116.4424 1.215864
16.18134 73.71337 1.680334
1.671479 102.5227 -8.37732
0.03916122 45.62642 -8.716606
0.7120383 63.62841 -8.643841
0.6604543 73.63396 -7.424948
2.917504 23.99739 -6.985183
1.433975 70.51292 -9.048898
7.325781 27.0803 -8.755584
10.3125 116.6447 2.590068
2.065812 57.0192 -8.53459
1.186391 77.98814 -8.160509
10.32522 112.0898 -1.663984
0.9064451 26.03787 -6.452964
2.082714 26.29532 -7.36807
9.522669 106.1377 -4.860969
8.715528 114.364 -1.382541
8.332091 111.8022 -2.82128
2.907859 113.9176 -3.719558
1.07884 111.4112 -4.849442
3.420475 70.35427 -6.837125
15.7496 78.73034 0.4216164
-0.03100225 81.05573 -8.514421
12.97357 41.13208 -7.500347
2.009956 23.21931 -6.445581
0.6617242 77.93547 -8.029757
18.26575 22.70685 -2.82897
3.391246 36.27938 -7.108177
8.005531 41.7498 -7.493716
2.511921 82.02748 -7.373513
2.96167 92.14362 -9.931473
10.48745 110.0483 -1.81131
10.83356 107.5617 -2.997821
8.386584 106.1191 -5.499686
12.91642 106.445 2.449124
13.5464 102.6209 1.598586
0.4187545 29.73095 -8.174427
0.3599868 25.02512 -5.863655
4.260866 24.4082 -8.324939
0.5178477 109.7572 -5.593749
8.271652 113.9747 -2.021742
3.15193 113.0122 -4.421988
10.65199 113.6156 0.6920987
14.7117 53.80982 0.3529031
0.378419 50.70677 -8.635747
1.964959 59.22965 -6.971986
2.176771 58.92606 -7.757936
15.14507 73.35091 -0.3841287
0.4537538 74.28728 -7.316288
17.53342 36.15185 -2.390042
17.57428 20.58899 -3.595609
12.63631 19.77023 -5.155886
2.41114 34.5526 -8.098804
15.84697 43.05271 -3.562586
15.30898 82.2756 0.6979144
0.1130122 89.89761 -9.145106
15.17454 92.16296 0.3448515
11.46699 101.6091 -5.522071
12.08229 108.263 -0.2335188
11.33297 105.6652 -3.894769
10.65987 102.3697 -6.69503
2.715663 98.31847 -10.18907
12.63335 107.6053 1.714657
11.74133 103.3713 -5.078011
1.167597 27.39717 -8.070676
5.915149 22.13978 -7.269294
0.7177601 108.0713 -5.744478
9.351636 110.0828 -3.362317
4.546136 112.1014 -3.848277
6.447789 109.5514 -4.551946
11.51423 111.104 1.305928
16.29916 48.76386 -1.224486
17.37299 46.79131 -0.02835921
1.921546 48.76969 -9.202319
0.9322879 54.70448 -8.578076
14.68351 58.96397 -1.173059
1.053173 59.98606 -6.873252
1.581137 67.86903 -8.734229
14.91705 75.78861 1.67943
-0.09903681 77.8989 -8.210268
18.07105 28.15696 -2.158221
17.95844 25.54286 -3.148015
14.95544 19.24663 -3.794126
0.5877755 33.24194 -8.814272
0.726992 36.32393 -7.996285
16.61018 39.25543 -2.346502
2.275351 41.58227 -9.203813
1.194514 43.07724 -9.11422
0.5979336 83.79595 -8.234759
0.936927 86.39749 -8.452909
0.2093792 90.51292 -9.043828
14.46303 97.43731 1.186109
0.4818436 92.16936 -9.725677
12.84244 100.6283 -2.678344
11.59739 106.8576 -2.52451
-0.006979832 104.3534 -7.458284
2.928413 103.0733 -8.592089
9.807016 103.8449 -6.203689
0.4593728 94.37956 -9.949551
9.00987 19.73385 -5.589343
4.496896 22.50854 -7.160404
1.780982 27.08809 -8.106936
2.141746 107.5956 -6.188817
4.342787 108.6768 -5.428771
15.81495 54.79956 0.6878672
17.18131 51.59558 -0.006963506
0.4313995 51.1781 -7.856645
3.305794 48.28127 -8.526649
1.182716 44.49006 -7.97434
2.355025 55.30569 -8.232698
16.53349 61.43486 0.7285686
15.7307 63.27167 -0.5276039
1.944389 60.41879 -5.847458
2.186913 64.11476 -7.435834
3.57706 64.01608 -7.025921
15.4022 70.70062 1.339576
15.45609 72.09615 -0.08320583
-0.0003411481 71.78972 -8.448384
2.579518 78.62798 -8.957831
2.279554 75.77776 -6.609421
16.45656 27.80553 -2.726316
15.2457 22.91641 -4.882602
15.66937 25.73545 -3.318437
2.008896 31.0344 -7.994379
2.027223 33.18388 -9.445522
2.002274 36.50278 -7.902627
16.07775 37.28876 -3.821997
16.5446 41.09296 -1.640653
3.052315 41.25873 -9.557363
2.03238 44.7897 -7.582151
15.70397 78.91925 1.205977
15.32784 86.30562 -0.7468856
3.76106 83.41438 -8.502318
14.65731 92.32384 -1.29256
14.22251 90.23856 -1.669001
14.93878 90.72433 0.6973293
1.831366 93.91748 -10.24365
12.99623 102.5271 -2.51827
13.11414 100.0606 -0.7293125
7.496908 101.5502 -8.094126
2.715838 105.595 -7.682564
8.424806 107.3513 -5.184409
8.427077 20.77186 -6.531554
10.34878 20.39603 -6.311265
1.499499 106.2621 -6.422803
5.866624 106.1746 -7.523103
6.985451 107.6185 -6.403431
3.561735 110.8243 -4.419216
3.106521 110.2366 -5.495448
15.89095 55.89187 0.7696136
0.3356168 52.24569 -8.233521
6.68578 52.37357 -5.78975
15.01214 56.20871 -1.887281
15.86094 62.43435 0.151642
15.19536 65.18791 0.5166277
4.54635 64.36285 -7.561838
11.78069 66.29795 -2.274671
13.23329 74.446 -0.844125
15.11971 76.33275 1.614116
1.535819 76.43614 -7.004447
17.71414 34.73424 -1.246935
15.52197 38.63428 -4.320812
2.426835 43.20499 -8.682528
3.585969 38.70128 -7.829911
6.501668 40.03919 -9.452114
14.68621 76.56986 -0.936205
14.0985 76.6864 -2.411836
14.09618 84.56624 -1.600554
1.912331 91.50105 -9.795894
13.75264 93.26543 -1.741287
12.77897 95.20267 -2.742182
12.86318 93.66328 -3.105602
13.48778 101.2835 -1.071163
13.26747 104.0967 0.5826765
13.82773 96.34393 -1.124757
7.624521 103.8299 -7.137418
9.72875 22.33398 -7.661488
7.819528 106.1161 -6.001579
2.813534 103.742 -8.424896
3.685848 105.8662 -7.67571
15.51236 55.89571 -0.58744
14.93769 55.87418 -1.801075
9.211061 55.38126 -2.831507
12.93662 60.47662 -2.413919
13.04111 67.00993 0.09008108
11.5401 59.96298 -2.677657
4.444651 64.60377 -7.742084
15.12767 76.55968 0.1922125
13.89263 74.1771 -0.09534708
4.571062 71.27238 -4.66845
17.15887 29.79787 -4.659934
5.634484 27.58912 -8.888517
15.15836 41.16793 -4.235143
13.90198 79.27929 -1.910222
6.14831 88.39147 -9.261075
13.85972 101.4686 0.5503234
9.194001 108.4418 -4.199551
11.07271 23.85439 -7.476378
5.366154 102.1778 -8.727556
7.60387 111.317 -3.46804
12.68235 53.23174 -2.110001
3.467886 57.46097 -6.702434
14.55897 61.73988 -2.38764
10.07402 64.99026 -3.33352
14.87591 70.17907 0.3247694
4.932029 77.10529 -8.167073
12.10885 24.28618 -6.268975
4.124 27.20927 -9.278446
15.25998 31.66411 -4.60296
13.82592 80.04624 -1.952965
3.455796 91.47546 -9.934984
14.59839 23.65853 -4.720005
16.28154 50.69025 -2.11581
16.09231 49.07994 -2.016876
7.40521 55.47189 -3.202099
1.72971 58.28157 -8.006473
13.95947 63.39626 -3.156162
6.104408 60.25075 -6.408967
3.669932 74.34672 -6.0635
15.68453 31.17159 -6.304698
15.62542 41.59198 -4.615493
4.381359 38.73824 -8.552731
5.498628 42.57934 -7.343977
7.237925 42.96695 -6.947664
7.478281 39.60371 -9.347344
13.54796 81.27402 -2.148515
12.89487 90.80638 -3.947787
15.70805 50.5205 -2.486393
2.517304 58.65005 -6.939607
8.051885 63.69755 -7.364194
8.407632 26.62027 -8.870692
6.212573 38.77002 -9.309148
5.339484 41.00917 -9.396539
9.785014 38.4522 -8.824859
5.569977 92.83157 -10.0547
14.06014 90.68703 -2.072833
11.39272 24.93026 -7.753014
7.025047 60.38477 -6.446002
9.850492 24.25067 -8.277251
7.472067 22.72449 -7.910306
2.066622 90.34748 -10.191
12.62194 48.31561 -3.101515
3.363842 59.87752 -5.280564
9.093851 26.41601 -8.830702
10.21789 41.33318 -7.791147
6.992158 62.28872 -7.205607
12.07943 28.15135 -8.332021
11.49023 38.92651 -7.008971
12.72082 85.91599 -4.511015
6.3737 57.22135 -3.193279
9.970964 37.59131 -8.311124
14.76375 85.523 -1.726891
11.19545 40.24967 -8.423774
12.88552 39.72145 -5.567309
4.579268 56.12947 -5.720582
8.947741 53.22506 -3.748205
7.957577 52.24978 -4.162496
9.837033 54.07218 -3.396895
7.99028 50.65524 -4.832651
8.038035 54.50572 -3.286175
10.37877 53.73094 -3.557766
11.33408 50.16291 -4.358175
11.12434 49.8572 -4.752294
9.856102 55.77201 -2.641989
9.018612 55.42915 -2.824561
7.680623 57.59676 -2.803704
8.112952 59.29456 -4.452454
10.52803 48.88391 -4.564922
10.03089 47.91472 -3.782689
12.55808 58.74931 -1.958942
7.111536 47.93401 -4.580778
11.18878 59.78881 -2.700354
8.46802 48.64112 -5.047032
6.498673 52.95486 -5.505468
10.82501 59.0815 -2.3582
16.93316 46.38557 -1.895791
10.71715 45.44889 -4.838207
12.73304 42.91593 -6.329598
13.67506 57.52484 -2.7698
7.355485 51.74635 -4.707136
14.39119 46.83798 -2.992498
13.71511 44.61804 -4.59682
15.58141 47.39164 -1.087639
6.570169 45.67902 -8.14922
12.75556 44.53506 -6.35791
15.56573 43.06949 -5.236012
8.120908 43.19437 -6.831396
7.595416 45.27136 -8.052452
9.612795 43.95131 -7.161363
5.520418 44.86075 -8.000623
17.34157 29.35443 -3.831343
15.70525 28.99083 -5.803335
13.60599 27.39458 -7.125545
11.94073 30.9801 -8.344174
14.39528 31.51994 -5.635931
15.79701 33.92541 -4.912575
15.25453 32.10896 -4.569611
10.35679 31.63672 -8.40689
14.07089 36.35657 -6.402617
15.69302 33.17344 -3.27454
13.65467 30.25357 -7.863683
9.895525 27.68554 -8.835663
13.46631 37.74202 -6.269224
13.37128 31.59455 -6.022458
13.94773 33.16655 -6.216204
11.63198 30.20375 -8.557814
12.00888 33.39226 -6.257144
14.58769 39.80051 -3.893147
6.311654 35.07802 -6.691638
10.64776 33.03252 -6.3185
8.666994 33.7837 -6.850579
10.34558 34.73606 -6.779969
8.414765 36.52486 -8.465625
4.413703 29.72726 -8.272162
4.667006 35.98055 -6.77756
8.338337 29.78765 -9.154313
7.156617 31.56251 -9.435488
7.247252 32.39179 -7.498193
6.944802 32.27473 -8.885906
3.984708 33.47428 -8.639026
7.000632 109.014 -5.818878
2.85043 87.33754 -8.630628
1.936115 86.34496 -7.608262
7.353218 91.62776 -9.534884
6.448409 91.07806 -9.748285
5.602526 87.75624 -9.089113
6.287417 86.04408 -8.07253
7.115762 92.72913 -9.571671
9.820187 92.57581 -7.987556
11.6489 91.95911 -6.278496
13.5534 90.7672 -2.951726
2.266101 98.70476 -9.686841
5.928761 49.34138 -5.666979
3.383755 45.87562 -8.267181
3.095697 82.13152 -8.353079
10.38432 63.81337 -3.396585
10.84882 65.37027 -2.088506
9.364457 70.34159 -3.845678
14.02783 67.99361 -1.230029
12.48084 60.5319 -2.584733
13.2771 61.96162 -3.649201
13.89895 62.33764 -3.273039
7.641706 64.22684 -7.0574
9.099614 64.42225 -4.447227
11.67592 63.16006 -4.366072
10.7118 62.3776 -5.862218
3.321639 43.27386 -7.450117
5.353716 100.0834 -9.119195
6.245327 97.5098 -9.572714
4.39574 96.13628 -9.881927
7.804506 95.30471 -9.317748
6.192131 92.7056 -9.951887
2.758677 70.47192 -8.275434
5.244869 68.74337 -6.956295
7.862498 65.26395 -6.088749
2.974952 69.52059 -8.787094
6.861112 69.03164 -3.933825
3.094219 79.24966 -7.503004
4.677834 78.86675 -6.452188
5.57539 69.25402 -5.084751
7.417781 66.72494 -5.191933
8.358212 67.74294 -3.929694
9.853243 68.94444 -3.054144
5.910358 69.00499 -4.973276
5.113432 69.13339 -6.267276
13.41878 71.72991 -2.969644
7.804631 73.34248 -6.925412
13.89459 70.56876 -2.672378
10.49188 70.54084 -3.998802
11.61187 69.04852 -2.805903
7.892257 73.00964 -6.733564
11.75983 72.86311 -3.135235
13.18982 76.13234 -4.063743
14.59253 26.02111 -3.989714
8.523716 39.30387 -9.252263
13.03815 84.92407 -3.733112
11.29254 50.54592 -2.483566
6.202428 47.93414 -5.118958
5.282063 48.08918 -5.639822
12.71627 44.61289 -4.82712
12.43016 27.84243 -8.098527
11.55219 36.11296 -7.549052
4.671364 85.69225 -7.567569
5.743387 85.17043 -7.055426
5.529582 80.30868 -7.298542
6.607338 84.55697 -6.610864
12.2515 87.7934 -5.144878
8.653152 87.5201 -7.857035
9.305638 89.41432 -8.348431
5.572633 84.06622 -6.352524
6.048961 84.15352 -6.336609
11.50044 84.20078 -5.452144
9.953338 81.8017 -5.047004
11.1896 82.71494 -4.76405
10.07976 84.06916 -5.998586
5.009908 82.73944 -7.587221
8.883795 79.64891 -5.16775
8.145319 79.94223 -6.213157
13.34473 81.01834 -2.292573
4.334735 77.00025 -8.644258
10.58962 78.81361 -4.972098
12.21798 79.59255 -3.148172
6.26784 79.47144 -6.646333
4.533517 79.17658 -6.415815
10.81234 81.46245 -4.664059
11.85601 80.09851 -3.487305
6.280801 78.0804 -6.005433
6.865789 76.71778 -6.862428
12.48976 78.69582 -2.903019
3.229497 52.81981 -8.282987
3.633043 53.10547 -8.345931
4.076586 48.08523 -7.422169
4.020753 44.4683 -7.338456
6.689826 98.98568 -9.371428
6.887261 92.42283 -9.694858
7.656413 97.92629 -8.88268
9.290634 98.79993 -7.735315
8.869163 96.23566 -8.495609
5.694974 73.76322 -6.818833
9.060106 75.69453 -6.580953
8.652657 73.819 -6.896247
9.750541 77.97578 -5.609233
12.9509 24.7731 -5.364442
4.271696 48.60655 -5.876209
10.93481 75.60587 -5.758364
4.694858 51.71041 -7.793198
11.78044 100.3005 -4.11709
10.82808 96.8054 -6.628912
10.62047 100.2046 -6.222674
-0.06896351 23.92535 -4.041363
-0.2153509 25.38916 -6.425622
-3.359674 112.1295 -4.603817
-0.9744076 40.02303 -8.428823
-2.021496 98.27442 -9.418808
-11.16971 111.5356 0.7464949
-0.7158895 42.96161 -8.929235
-7.117787 20.60317 -5.670862
-0.2674388 56.48684 -8.478276
-7.151983 20.4817 -5.560325
-1.50374 101.2718 -8.96979
-1.180167 69.69347 -8.395079
-0.5694874 78.52782 -8.647323
-0.3870395 83.40196 -8.436039
-15.95669 87.28298 1.914581
-1.71368 93.77692 -10.1882
-0.9317525 57.10458 -7.572765
-0.8777219 86.59372 -8.979938
0.211436 24.07282 -4.656928
-0.9724458 95.52798 -9.391435
-5.837615 113.68 -3.317814
-13.08835 72.73451 -1.603968
-3.134465 113.541 -3.688473
-7.345167 113.8054 -2.960446
-19.05166 20.53322 -1.54241
-3.660943 112.3043 -3.959209
-17.25823 26.67477 -3.125904
-12.55023 51.85791 -2.918909
-16.02902 25.90169 -5.14974
-1.409815 111.7268 -4.50276
-15.86878 32.64464 -4.657829
-10.56437 114.5916 2.156497
-15.53167 68.06255 2.340046
-0.8779069 105.9757 -7.13204
-15.81447 73.8287 2.695445
-16.49849 31.21015 -0.8121216
-11.72661 107.428 -1.713682
-11.1775 102.5373 -5.154163
-10.18854 111.3384 -2.256375
-10.10288 115.2761 1.086842
-1.813143 27.82044 -8.277426
-0.2153358 23.35642 -5.094489
-15.16037 84.61085 1.363479
-14.3459 80.16576 0.01091961
-1.660565 22.19679 -4.812357
-4.582611 20.46234 -4.911148
-14.97779 75.04426 1.720415
-3.564037 41.57719 -8.40904
-16.87079 47.77188 1.074963
-7.014779 58.96387 -7.309765
-15.35315 65.65414 2.880843
-14.577 71.77171 -0.3262619
-15.22408 78.52695 1.469006
-2.186691 95.13929 -9.788815
-4.264025 104.8994 -8.220905
-1.352645 106.6001 -6.604407
-2.086822 108.6009 -5.246764
-17.33989 24.89364 -2.371016
-18.38988 20.22052 -1.976511
-16.83173 25.23552 -2.816815
-12.09301 104.7114 -2.531031
-12.61729 102.4812 -3.563401
-10.66801 110.5943 -1.367192
-11.6452 110.6493 1.136233
-10.88188 111.9385 -0.484529
-2.487419 31.74849 -7.500443
-5.634064 21.37177 -6.186424
-3.992623 33.52747 -9.518549
-15.97161 45.22762 0.5426165
-15.48218 49.53685 1.513492
-0.3055784 58.32928 -8.568958
-15.99668 62.18796 3.196258
-3.027699 70.82423 -8.007528
-14.88614 70.71133 1.63974
-2.654539 85.80183 -9.017941
-14.89301 89.93291 -0.5007273
-11.36214 102.2511 -5.408135
-6.184392 105.9 -7.496407
-1.38995 99.23293 -9.588983
-1.364033 109.0022 -5.842365
-3.841043 109.888 -4.730791
-6.470565 112.4752 -4.241876
-17.33872 29.84023 -0.3730908
-16.93324 21.2756 -3.79078
-13.59006 101.0434 -1.740648
-13.69868 102.52 1.118013
-13.18379 104.5846 0.1227431
-12.25887 105.9567 -1.583593
-12.03995 107.0498 -1.391922
-12.80731 107.1391 3.231127
-15.43362 90.13503 1.04599
-2.083048 26.65338 -7.223673
-1.364565 33.10635 -8.350502
-8.957163 20.17962 -5.443129
-16.58809 33.24374 -0.8216175
-1.179758 42.27349 -8.315203
-0.8770405 36.06767 -9.135796
-16.47239 41.60935 0.5764315
-2.62918 52.11689 -8.854241
-16.20691 46.07337 1.133216
-15.1482 50.73005 0.7883669
-15.44301 55.43378 1.645682
-0.4958845 63.0155 -8.332575
-16.05241 59.22208 1.954336
-15.3293 63.55174 1.904325
-1.947716 67.1543 -7.11621
-14.89405 72.45135 2.228468
-15.9666 75.7956 1.141866
-1.448865 86.13675 -8.931793
-15.24289 82.17638 2.176684
-15.88247 86.67059 0.5798158
-1.41855 88.87263 -8.829261
-10.15709 102.1886 -6.273855
-0.7411355 99.84299 -8.712108
-1.428317 97.86729 -9.29282
-9.209525 111.5958 -2.487624
-4.163661 105.3319 -7.027344
-1.728163 107.4792 -5.821512
-7.05161 110.658 -3.875572
-16.74658 27.94683 -3.725451
-12.04827 28.21874 -6.942277
-13.83904 20.37921 -5.152339
-10.69697 99.85577 -5.930227
-11.54229 109.7939 -0.4822362
-14.03453 97.04737 -1.127482
-15.12318 92.5703 1.188004
-2.598854 22.22523 -5.964768
-2.881685 25.17517 -6.818114
-8.02921 21.13851 -6.177402
-17.05064 29.88725 -1.786145
-0.9800978 45.46692 -8.221574
-2.446175 38.26391 -7.447488
-14.75293 40.86179 -2.981124
-13.63526 39.4478 -6.284406
-12.97376 37.69915 -6.108215
-16.49416 34.534 -0.004254197
-14.964 41.24195 -2.532273
-1.068297 53.20985 -8.399965
-0.212632 47.6949 -8.540734
-2.095392 50.45592 -9.281656
-14.87109 47.9486 -1.698424
-15.56788 49.23682 -0.1904566
-15.69558 46.06722 0.5781258
-14.52003 52.59943 0.6720066
-0.3354529 55.92657 -8.390154
-3.155805 56.13982 -7.395604
-0.9747068 64.27928 -8.437654
-2.503066 62.65619 -8.127319
-15.57509 58.41006 0.04232981
-14.08113 65.22101 0.7526886
-15.84894 66.43359 2.458981
-0.9055176 68.20242 -8.273589
-0.7003187 76.56524 -8.200189
-14.67867 72.55905 1.188927
-15.31059 74.88863 2.298008
-0.9979655 79.30885 -8.902316
-2.385718 88.81172 -9.58222
-15.53783 84.14694 2.390557
-14.71671 85.35387 -0.3807869
-0.8997179 94.09161 -9.78886
-1.917793 89.32616 -9.557037
-14.38619 90.97237 -1.230658
-9.042537 103.435 -6.368497
-8.056991 103.1784 -7.095764
-2.997372 95.12942 -10.31685
-9.089972 110.038 -3.793843
-3.012585 107.9616 -5.626047
-16.46483 27.99819 -4.226003
-12.5817 21.22164 -5.887327
-15.60716 23.23763 -4.906119
-16.4229 27.51562 -4.740066
-13.96347 93.33456 -1.083041
-4.711432 24.22058 -7.239262
-4.535486 25.00066 -7.630092
-6.149914 26.7629 -8.827386
-1.729361 29.97783 -7.694684
-2.314817 34.44434 -9.093295
-16.04151 31.38236 -2.405912
-3.920856 44.3987 -9.036729
-16.37551 39.86682 -0.5567975
-15.78654 45.60684 -0.5680994
-13.38748 47.12858 -1.893451
-15.2943 42.78682 -2.841465
-14.36826 44.06818 -3.95688
-3.967224 46.57825 -6.593371
-1.466278 47.06948 -8.153348
-14.91816 52.87132 1.295424
-2.402583 59.62008 -8.620423
-1.801369 65.67403 -6.397174
-16.23633 59.38734 2.908754
-14.20889 62.30414 0.01783928
-3.35577 68.82267 -7.87644
-1.491195 72.53653 -7.380269
-1.330171 77.0116 -8.757269
