# .PCD v0.7 - Point Cloud Data file format
VERSION 0.7
FIELDS x y z
SIZE 4 4 4
TYPE F F F
COUNT 1 1 1
WIDTH 1663
HEIGHT 1
VIEWPOINT 0 0 0 1 0 0 0
POINTS 1663
DATA ascii
0.9483164 123.9804 -7.90469
-6.136823 113.3692 11.15761
-12.39549 122.1354 7.105622
-5.801589 123.9326 12.01193
-12.84335 121.7251 5.581506
-11.82338 115.0009 6.767892
12.90042 121.2442 4.150095
-12.73971 120.2496 4.946846
12.49297 118.0673 4.27398
-11.00336 118.1523 8.37245
10.47092 115.0069 8.540444
12.51056 114.4668 5.520755
-11.64965 124.1031 8.46989
3.025748 123.5727 12.27149
12.77162 122.6293 6.224747
12.60682 117.1679 5.703783
-8.336178 122.8576 11.04755
4.023859 113.9435 11.79651
-10.55776 115.4917 8.456708
-11.05082 115.2983 7.922062
-3.498104 123.6844 12.28145
6.339741 113.3968 11.05182
10.66365 121.439 9.311431
11.72887 115.6533 6.894454
-2.863079 114.6819 11.8939
0.1160595 114.788 11.91219
2.117512 115.1134 11.92079
-4.015543 122.6353 12.14448
8.114717 123.4152 11.179
5.947989 122.8229 11.9535
-5.946092 121.1618 11.67141
-5.554741 121.1311 11.73662
2.715466 122.2784 12.14627
5.696329 120.4805 11.60391
10.40095 115.5626 8.593023
3.029765 116.5882 11.90143
2.769317 120.7402 12.03201
-4.542714 119.243 11.71155
-2.799194 119.9485 11.98375
-3.836082 117.5907 11.79694
-3.634547 121.1172 12.01258
-10.05743 121.4681 9.855033
2.864693 120.4677 11.99471
11.05715 118.4181 8.396231
7.31542 116.461 10.53897
0.4588843 118.9687 11.94316
-11.51707 118.9665 7.882883
2.921653 119.6481 11.94503
6.93675 118.0455 10.86221
3.998864 118.8993 11.79132
-2.922027 119.3251 11.94161
-7.361914 118.6525 10.81723
8.286521 120.6266 10.8841
-5.181335 120.2031 11.67562
11.98423 115.3137 -0.5495331
12.8712 121.2204 3.555699
6.178293 121.5265 -6.194616
-8.450747 115.6293 -4.369251
11.62793 115.5817 -1.101212
-12.92429 123.1721 1.593973
-12.75657 117.4062 2.941439
-12.54603 120.8495 1.988548
10.55663 119.0726 -2.10207
3.24288 116.2669 -6.257926
-11.95096 115.1063 -0.8961551
10.42881 119.9499 -2.422
-11.43303 122.1241 -1.709127
12.81963 116.7073 2.049102
11.88196 122.1382 -0.7673393
6.040802 115.6545 -5.902919
-12.60159 122.8255 0.6478444
7.618671 121.3428 -5.398616
2.433483 115.3331 -6.495149
-10.69684 122.1602 -2.924641
-10.40343 121.2304 -2.892192
-12.3714 116.9048 0.9238119
4.318343 116.203 -6.258586
1.769059 116.0566 -6.703868
-3.587588 116.1347 -6.173895
2.868648 121.5996 -6.992874
-4.775922 121.3044 -6.575059
-2.929964 114.9894 -6.068321
8.381059 116.3907 -4.739877
-3.453697 115.8956 -5.785774
-9.255109 115.7998 -3.991117
-5.79655 116.2087 -6.070748
2.286705 116.0393 -5.817524
-3.904936 120.1903 -6.428683
7.802722 120.6066 -5.005867
4.058942 120.0502 -6.369103
-6.010827 116.1961 -5.519791
2.686577 120.205 -6.582107
8.876248 119.7082 -3.984396
1.02712 120.8818 -6.802061
-9.98415 117.2405 -2.852767
-8.107182 117.8732 -4.277655
1.564368 116.5512 -5.875555
9.194759 116.2806 -3.62297
9.838884 116.6111 -3.064461
6.947655 116.7857 -4.818351
6.016211 117.6411 -5.251268
6.424595 118.5415 -5.21206
-9.686853 119.1176 -3.143647
-10.3988 120.3618 -2.564624
-3.842017 111.9576 11.98237
-2.686495 111.8006 12.0213
3.371366 111.6823 12.02564
8.603341 113.0714 9.876245
-4.259382 112.4692 11.86637
4.818093 112.3419 11.75536
-12.8537 113.9071 4.820324
11.59032 115.0098 -1.741035
5.815464 114.2815 -5.381384
-4.094832 113.9673 -5.786344
-7.745976 114.7964 -4.684034
5.127062 114.6227 -5.502197
-2.196892 114.4406 -5.900587
12.73827 114.4147 0.9454668
-14.29461 107.1634 7.010497
-14.64066 106.3433 6.879471
-15.76587 106.9596 3.209235
-7.039945 111.4915 11.02
16.04395 105.8264 3.688608
-14.74358 109.9074 2.49545
16.24788 104.5782 4.104754
12.78777 112.2144 6.293976
15.16863 108.8416 2.290496
-14.94608 107.5762 5.479918
-11.6917 110.9762 8.306091
-14.03119 110.6001 4.815086
13.60151 111.9526 4.430238
14.75829 108.5987 4.962017
-4.35023 106.237 12.19834
-13.65833 111.6848 4.647385
-16.52156 103.2614 4.099063
-13.33554 105.7989 8.46282
14.82288 108.3371 5.04275
13.43593 109.6418 6.883945
11.71888 108.501 9.150275
8.753691 109.4049 10.36883
15.45852 107.6768 3.691094
-9.543454 111.7788 9.537347
-12.35784 100.7531 9.282175
12.95923 108.5168 8.089131
5.759971 108.5065 11.81611
-7.250595 109.398 11.06104
-5.397783 101.1781 10.7853
-15.60663 102.7703 6.391403
14.26453 101.228 7.886007
12.7427 106.3845 8.803593
-10.56246 109.5063 9.632687
-5.773166 101.9109 10.88215
-1.735047 111.1499 12.07111
-13.66069 103.6706 8.338982
10.34673 100.4664 9.758709
-12.61121 106.8741 8.798912
-8.517131 109.0218 10.54411
-9.306223 108.977 10.25648
2.018222 100.3053 11.27133
4.964301 100.111 10.67363
3.070855 111.066 12.09671
-10.9777 105.0587 9.62376
-7.874232 101.7748 10.19661
4.438122 110.6888 12.03255
-7.449479 109.9182 11.05738
-10.74192 102.9998 9.557991
9.550436 101.9628 9.763176
15.97043 104.3087 5.218301
3.539729 107.8239 12.40214
8.399186 103.43 10.61671
7.232857 108.4484 11.27098
14.84525 103.9453 7.13856
8.926769 106.9836 10.53753
1.352196 105.5828 12.40679
12.04708 105.4929 9.235478
11.81102 107.4867 9.274569
-9.150876 103.5237 10.17154
-4.961699 103.2267 11.47757
-2.627506 101.9973 11.7002
-1.534247 102.8815 12.03276
-0.1304511 102.6593 12.02124
-1.82677 102.3538 11.88372
3.187016 104.0095 12.08536
3.899049 102.6739 11.64178
-4.29793 107.3873 12.29647
-0.9400791 105.0291 12.3557
1.218659 102.3798 11.92949
-0.7500829 107.6772 12.41636
11.48937 104.299 9.446239
14.46447 104.3438 7.54146
17.15268 101.0886 0.6352819
10.99279 102.9934 -8.688148
15.43238 107.2573 0.1298202
14.97362 108.2922 -0.406402
13.6035 110.8143 -1.486127
-16.60256 102.745 -0.423968
-15.14394 102.4576 -4.420228
-4.518677 112.7207 -5.924081
-13.32297 113.0442 1.22335
-14.84009 109.5067 1.02623
14.23579 110.5709 0.1517801
15.68186 102.0358 -3.647399
16.13921 103.1717 -1.677094
-15.8565 102.1618 -3.181039
10.89718 110.7487 -5.522781
-15.05452 103.7412 -3.782616
13.94355 111.4355 0.7780288
15.13751 106.2319 -1.82121
12.98225 112.4849 -0.9976116
16.14338 102.2634 -2.403987
-13.30097 103.2059 -6.548965
-12.83372 113.6338 0.06141791
11.4874 113.0514 -2.876093
15.86869 102.8735 -2.667094
5.219925 104.4998 -9.709912
-6.947885 112.4881 -5.533828
-13.58447 111.2011 -1.361194
-13.12447 111.3758 -1.892977
10.06939 112.967 -4.109123
1.054001 112.4872 -6.048414
7.581487 104.4804 -9.452131
5.333197 112.8893 -5.743491
-2.432929 112.866 -5.996542
-9.075136 103.4234 -9.537789
-14.27969 105.1967 -4.176832
-13.04683 106.3909 -5.105209
0.002434721 104.8146 -9.509602
3.273526 111.426 -7.773103
6.240967 104.6403 -9.592187
-12.16689 103.8425 -7.351706
-14.80302 103.8748 -4.142691
4.222748 111.911 -6.44585
-5.327423 104.7424 -9.56431
9.125531 111.3181 -6.512927
6.47865 110.7217 -6.430186
-12.04648 110.7533 -4.150994
5.567158 107.4728 -7.803026
5.626242 106.1066 -8.710238
7.182498 111.7403 -6.648736
-11.30777 108.5253 -5.531317
7.842304 107.7783 -7.283363
-11.76732 108.1816 -5.332234
15.37414 106.7942 -0.6776955
8.208042 106.9623 -7.70716
2.521412 107.0978 -8.270094
-2.388585 108.5158 -7.488716
-2.943528 106.2011 -8.740875
-3.510679 104.8686 -9.483586
6.529522 109.0105 -6.844176
4.137635 110.7533 -6.718178
5.157485 111.7868 -6.210686
-0.3798812 112.1903 -7.412932
-5.147567 111.8004 -7.347577
-1.450922 112.1157 -7.447695
-1.76194 109.7045 -6.878653
-4.902349 111.8072 -6.540384
-6.961268 110.673 -6.190815
-7.691098 109.9028 -6.32417
-8.284973 109.2185 -6.490293
-10.73362 109.8187 -5.306638
-11.01858 107.5621 -6.197618
-4.522905 105.9591 -8.843145
-6.328918 105.6999 -8.913896
11.25677 109.6714 -5.053883
-27.03367 5.852443 1.531993
0.5912945 96.28645 10.02242
15.27776 10.94004 7.047653
-1.677621 4.941085 14.36669
-25.76188 19.60819 -2.775366
16.67878 100.1571 4.919411
-21.15401 53.74236 -1.02315
-17.58592 98.18728 2.417773
-20.61199 76.62478 2.067487
11.84969 4.208652 12.41679
20.18351 7.389809 5.609218
-13.94582 100.3622 8.186842
17.93711 96.57858 1.524436
26.66697 9.041303 -1.793601
26.5496 6.463903 -0.740764
-27.03598 9.12346 -0.1223056
23.25244 7.376984 3.537575
-26.91528 5.3765 2.336731
17.65532 98.27075 1.329531
25.55327 17.39165 -3.919652
13.79523 100.1644 8.322497
-19.14644 37.85203 2.63208
20.88217 55.1628 0.1737767
-15.34215 61.44618 6.449517
21.57469 53.30703 -1.434589
-27.18206 7.525986 -0.7998586
-26.52782 15.96423 -2.355842
-19.33094 44.39692 1.73106
-20.46122 79.30846 3.551887
-11.48398 100.1948 9.287194
-14.4495 99.49281 7.938512
25.60908 20.85236 -4.871815
18.87814 93.01163 0.5669212
18.10098 95.84316 1.554728
-26.77996 13.02759 -3.684853
-26.14697 6.149314 3.31337
-26.0697 18.82234 -3.444948
21.71463 44.83243 -3.67478
20.69346 57.59846 1.063535
20.77165 80.74321 1.66381
-19.85954 89.15286 0.8247908
-17.98209 96.22937 2.023832
24.18481 25.88201 -3.473187
26.26932 16.19243 -4.510866
24.92845 8.046776 1.444788
26.72067 9.653537 -2.716369
18.66456 93.54234 2.135063
17.3291 98.06152 3.8283
-26.30871 17.37776 -3.543403
-27.12231 11.7076 -2.896188
-27.25648 8.054605 -0.4568796
-23.66598 31.35258 -3.322108
-24.75805 21.61028 -1.60009
-24.10664 24.24372 -1.578058
-20.1567 5.695566 7.489042
21.09999 46.18788 -2.337767
-22.40203 42.22553 -3.2778
-20.43624 72.61642 0.5583265
-20.76741 81.06863 1.550155
-20.44946 74.82387 2.443561
2.940773 98.7222 10.71188
-20.17281 87.46158 1.483491
-12.92286 99.89565 8.741861
-15.12499 97.57825 7.801769
22.5371 30.87911 -1.696248
21.28175 5.964726 6.900937
24.34315 20.44755 -3.016735
24.86794 7.565515 1.937778
18.1403 93.25784 5.005417
18.33285 93.5721 4.033025
17.69196 94.78194 5.095037
18.37948 94.18933 3.020002
13.75822 99.38734 8.385982
-26.62427 10.91905 -1.123088
-25.58836 6.861492 2.794836
-22.25715 40.6159 -2.35203
-22.8089 29.00557 -1.028743
-14.95419 5.973593 9.242202
-13.45812 5.6791 10.22387
-13.72723 7.543208 8.999279
22.24215 42.1665 -3.274132
21.53215 51.8396 -1.752433
-21.26796 48.61992 -0.8617696
-21.11669 52.7787 -0.6597381
-22.09838 42.9738 -2.417297
20.2312 63.43549 1.476277
-20.47216 73.41322 1.256614
-20.05705 65.08886 0.30789
-20.61539 78.90323 2.711083
20.65771 78.23024 2.325349
0.6826599 97.24284 10.34918
1.806247 97.00327 10.17953
-19.36422 89.26858 4.40582
25.00655 20.59271 -3.735076
-0.2916415 4.016604 14.40154
3.68971 3.836831 14.14197
19.81162 7.720835 5.489643
24.52941 22.01362 -3.385411
13.28457 4.316175 11.8072
19.75594 88.14584 3.78468
10.89314 99.56245 9.321417
17.01883 97.61294 5.034003
-24.62833 17.35478 -0.2460878
-21.98317 19.00215 1.596334
-26.29987 11.5304 -1.219163
-22.83959 8.434248 2.640487
-22.09724 32.1732 -0.5883907
-16.63145 8.137523 6.77461
-10.31412 5.710016 12.21478
21.01034 44.0345 -0.4881511
20.51385 47.49345 -1.182197
-20.99372 48.77147 -0.3220952
-20.33895 57.70968 1.047887
-20.22217 48.56977 0.8231708
20.27134 61.23745 0.1200862
19.60718 59.93587 2.983798
19.89445 73.08958 4.226561
-20.117 68.43427 0.9727915
-19.93745 62.46531 1.697288
20.42999 80.45138 3.839435
-19.60924 88.61491 4.030018
-12.60551 96.54036 9.168488
25.18054 21.9046 -4.253245
-1.574148 3.818333 14.37608
4.061282 3.286189 14.09666
5.326362 3.113013 13.91664
15.14535 4.340549 10.75507
20.8708 8.41676 4.013059
19.21749 8.147981 5.477729
4.539133 98.81134 10.51112
16.55034 97.02528 6.248046
-21.55025 41.10138 -1.050488
-19.36379 6.866262 6.32055
-8.02733 5.033283 13.46284
22.87184 34.87054 -2.529594
20.67145 44.93954 0.006883128
-21.17559 49.13565 -0.6589429
-20.30768 48.29195 0.6913918
-19.31471 45.3121 1.737435
19.92647 68.5288 2.532527
19.49109 67.53741 3.737017
19.83366 64.55246 3.021123
-20.20796 69.89434 1.597259
-19.57011 84.60576 5.828544
-2.189763 94.90799 9.641372
-10.25896 96.97704 9.351174
-10.57686 94.37361 9.537502
22.84223 27.37971 -1.889488
22.65301 28.28292 -1.721343
8.816915 6.274809 13.34012
5.28512 5.41932 13.93812
21.42181 19.60496 -0.5620353
13.4388 9.081082 9.672797
14.25814 5.164337 10.96956
-20.53949 6.814124 5.853762
-24.60606 7.547698 2.472821
-23.25403 30.31902 -2.221532
-17.21342 8.704734 6.008735
-17.57037 9.473341 5.308065
23.59316 32.76128 -3.705486
-20.42716 58.23539 0.7345915
-18.48896 57.71013 3.826877
-18.82115 44.23672 2.339644
-19.96555 52.24831 1.476779
-20.03922 61.57401 1.50739
20.82714 56.55667 0.5800228
-19.80524 67.02681 2.422161
19.32141 89.4537 4.455677
16.94671 85.64236 9.067202
-5.43077 95.25711 9.576063
-18.61268 87.84477 6.875493
-15.21791 90.89296 9.359734
-13.14362 95.40338 9.225782
22.57298 31.6334 -1.776968
1.657979 7.696728 14.28447
21.50316 17.37493 -0.5259621
18.16392 7.610425 6.71149
15.59965 95.00273 8.051855
-24.07681 7.87294 2.444345
-16.55716 8.658904 6.483995
-7.976065 7.71491 13.19978
21.42749 41.65944 -0.8155046
19.71925 55.21902 1.19971
-19.2366 65.1283 3.562732
20.04422 72.65845 3.644525
20.12254 82.92029 4.694487
-16.62583 92.83306 7.784067
-9.19143 97.70715 9.428265
-10.76433 91.44236 9.865591
-4.450614 98.36922 10.15058
-1.739971 6.133029 14.35676
2.376416 8.699459 14.22605
11.51189 9.378846 11.77108
19.39568 12.40669 2.599808
21.68194 12.80491 0.366892
22.62933 12.20032 -0.1943802
24.70697 9.91416 -0.2380397
-22.01642 38.5485 -1.372823
-21.10888 37.39323 0.05547972
-21.09047 32.71272 0.9068275
-22.41632 28.27312 -0.08943897
21.53568 39.65712 -0.7638614
-18.22323 55.75904 3.767677
-19.13715 43.09872 2.017129
-19.56331 59.62609 2.661069
19.71824 78.44699 5.643723
-14.64705 86.66086 10.12159
-13.05223 92.3575 9.711995
-15.87839 87.52627 9.566187
-16.2783 95.33001 7.280201
-17.74618 94.70299 4.99277
-5.813431 95.45911 9.565522
-5.237774 96.48952 9.657396
16.97574 10.52215 5.703478
19.3845 11.35067 3.100772
21.8983 11.42052 0.8505691
20.05241 14.94703 1.115612
-20.17571 32.80538 2.184526
-22.92957 28.59336 -1.122955
-2.112077 8.125731 14.3354
19.518 49.03682 1.001139
-16.54453 57.09109 5.121694
13.7087 70.88749 9.002424
-16.32664 93.13622 7.993436
-15.30842 87.72446 9.809286
17.32355 9.92457 5.711072
14.48732 10.10863 8.147097
18.83545 14.91379 2.228141
21.23725 22.20664 -0.4388888
-21.1336 29.87543 1.507374
-8.029572 8.749126 12.94657
-16.46366 59.96564 5.625685
20.11322 79.52877 4.794211
-14.49426 87.4101 10.11036
-2.907701 95.27124 9.656681
2.639334 10.08661 14.19682
16.49787 12.44506 5.260028
-20.53756 10.20617 2.835441
-5.000473 8.091058 14.09392
19.28466 49.25299 1.518251
-16.30007 60.25702 5.766336
-15.36601 63.29657 6.828392
-17.20672 51.15467 4.081393
17.22 82.4713 8.957891
19.71428 79.47594 5.707264
18.46281 76.82361 7.452497
-1.42851 7.886818 14.35627
-1.890737 11.28718 14.32964
3.815123 9.726866 14.10306
20.28656 17.5343 0.4510372
-20.93024 11.62454 1.941796
-2.610691 12.42241 14.29113
-3.668064 8.948925 14.24669
22.1908 34.12408 -1.367791
19.07058 44.93443 2.040569
-15.06837 61.98924 6.658007
-14.44932 57.40868 6.485003
-14.79895 55.90973 6.233743
16.58635 83.777 9.403294
16.35386 71.91412 8.452978
16.86393 16.11401 3.74477
-1.650865 11.75359 14.33066
-2.527672 15.43535 14.19778
-4.287803 16.52538 13.71044
-3.781582 17.46762 13.80845
-7.531564 9.849119 13.01545
-1.911393 9.255482 14.33712
18.61121 46.7556 2.605655
18.76955 80.52393 7.329766
18.34965 17.1646 2.143751
21.58098 17.94062 -0.6317928
-6.297789 11.21598 13.49519
-6.322927 17.82614 12.15864
-15.6598 53.23793 5.52429
17.27978 80.09018 8.872475
-12.6322 88.046 10.28139
-14.09509 8.12134 8.432421
-8.564573 12.91889 11.22593
18.6502 48.83549 2.719772
-8.427128 88.67723 10.12357
18.66571 35.46924 1.299842
16.71547 37.61227 2.339047
14.61435 47.95779 4.140302
15.51357 44.8008 3.419572
-14.20346 53.65289 6.62766
-18.3484 49.62054 2.923151
-10.723 86.9161 10.28095
18.42016 41.13573 1.847679
-14.2997 51.27859 6.555067
-17.81819 46.30134 3.426015
-7.955133 15.12666 11.25481
-14.00128 51.03923 6.702045
-17.86068 42.98378 3.645301
-17.64716 41.2353 4.069405
-15.74852 68.74462 8.063803
-17.09527 66.41933 6.702488
-11.11298 51.48565 7.033233
-15.61391 41.28468 5.630618
-19.94759 33.69377 2.311625
-12.57699 39.4854 5.693961
-12.13485 56.08239 7.502485
-23.10128 23.68241 0.2546595
-22.36638 23.6289 1.174057
-22.11437 27.76184 0.5476031
-20.46088 21.02885 2.484256
-21.28449 26.35845 1.934996
-19.96239 25.76732 2.991213
-19.97593 26.595 2.99084
-19.87698 80.15003 5.407178
-19.07069 80.49744 6.918267
-14.14451 84.64235 10.30997
-11.86953 5.67719 11.13274
1.679435 92.34469 9.772076
0.2628785 96.07407 9.959626
4.97486 97.7702 9.96313
8.658463 96.39834 9.501494
12.48912 98.63997 8.968169
5.035861 94.55709 9.628899
1.185511 92.91948 9.722592
-5.679392 91.90141 9.803372
4.587675 88.5687 10.10223
-23.3664 15.24524 0.5252922
-24.05849 11.2415 0.12242
-19.69202 14.90211 2.18283
-24.66367 14.94839 -0.2783285
-21.33537 13.87867 1.383709
-17.59094 15.78104 3.217113
-19.62813 14.31524 2.225774
-20.70956 15.58116 1.805164
-18.07157 17.01977 2.898213
-18.69731 21.96367 3.122833
-19.79061 74.07438 4.729286
22.13787 25.128 -1.141595
21.9745 23.53606 -1.001662
20.94561 24.02371 -0.2278964
18.79837 24.6006 1.224668
18.1833 24.13441 1.64339
20.16416 59.14678 2.167112
18.56476 56.76024 2.55476
19.39364 58.61414 2.679605
19.06661 54.2848 1.39715
16.96983 50.65558 4.160501
-21.53081 9.91608 2.346245
16.21214 93.6866 7.930573
18.30774 89.37538 6.871355
18.14504 88.71632 7.325311
17.24993 90.61744 7.87784
9.58565 9.132311 13.04918
10.65817 11.21099 11.96289
7.365612 7.996843 13.65491
6.200311 8.126512 13.83083
11.09897 13.41387 10.63534
11.42638 13.70837 10.11061
8.575916 12.72176 13.14327
7.897422 13.51111 13.34492
3.531411 12.32618 14.1272
9.010988 15.77595 12.28938
-1.314311 17.4796 14.22084
22.51408 10.57779 0.8494032
14.72216 94.17532 8.883243
-14.57933 11.01547 6.78785
16.62277 49.39416 4.039643
15.64823 48.81715 4.127939
15.59051 49.23255 4.22682
16.57701 44.20871 3.005354
17.08251 44.85039 2.957244
15.74211 51.61763 4.739367
16.30219 53.83368 5.016516
18.50701 70.83051 6.355455
-4.537235 83.1711 10.22039
15.61845 15.4023 5.126539
13.9268 16.11431 6.582129
13.37521 17.60126 6.743056
13.04854 16.49516 7.369679
11.89182 16.04535 8.760723
14.18588 20.28542 5.337496
12.79345 22.22356 6.292799
17.40813 20.8526 2.416993
12.74467 10.4381 9.839714
16.30032 22.64342 3.118745
14.56253 21.49981 4.766024
12.69895 11.72252 9.329529
9.069571 16.47099 12.04352
10.06132 17.392 10.62629
16.86464 28.8932 2.377257
17.89139 25.33909 1.804248
17.26312 26.81427 2.170135
10.71092 22.87096 8.348765
19.44129 25.72419 0.8033783
13.6766 24.38907 5.103558
14.38578 24.83863 4.432533
13.12471 27.40932 5.193518
12.09136 26.73316 6.203475
10.86374 25.76895 7.583361
13.62702 24.57765 5.120007
15.18342 30.10557 3.426157
11.67243 27.58266 6.472486
14.4838 32.08355 3.799862
9.460771 25.05504 9.360914
18.89845 33.87561 1.1561
9.644989 30.7524 8.035292
16.64733 34.8554 2.392396
9.824859 32.84605 7.543202
10.5611 34.76181 6.618634
9.680367 37.32233 7.174075
13.1183 35.29607 4.563223
13.54107 34.84402 4.298018
11.81445 36.27443 5.466003
15.81215 34.63824 2.871639
8.528403 35.11786 8.57474
14.61814 34.66504 3.595195
14.03532 35.97325 3.914432
-12.65175 61.25072 7.508978
-8.617489 32.85403 8.048117
-14.10879 84.27618 10.31352
-15.71303 83.48634 9.864855
-5.353159 82.94452 10.22152
-10.73168 18.4736 8.153308
-9.693334 22.54895 8.414917
-13.95517 57.58648 6.798162
-12.4009 61.44204 7.60025
-13.55044 48.49373 6.714941
-11.93377 41.15855 5.844779
-19.87416 32.34967 2.637499
-15.86937 36.05505 5.181119
-13.13826 37.87321 5.52703
-11.54816 37.45263 5.529281
-10.0888 37.56047 6.13927
-8.345708 36.80067 7.845235
-11.27388 34.37481 5.550436
-10.19152 34.1433 6.253264
-7.703595 30.60573 9.197289
-10.83265 54.85281 7.441521
-20.04144 28.25818 2.898933
-20.07858 79.11375 4.868596
-4.838057 92.55778 9.741334
-7.457253 89.57462 10.03632
-8.191189 86.11676 10.25591
-11.10324 87.93117 10.2352
-6.322552 89.36483 10.0456
-7.622894 86.81715 10.22347
-4.773937 85.97864 10.22079
-4.735942 86.1674 10.21474
-9.153541 82.208 10.25067
-11.63159 80.08129 10.19228
-5.959339 80.34737 10.11277
-2.264386 80.72341 10.11114
-18.10925 80.72517 8.141211
-9.80015 78.35265 10.01275
-16.32615 78.20041 9.379018
-17.09599 78.05599 8.898333
-5.557845 77.05062 9.843954
-13.30776 75.40241 9.732053
-14.84863 74.39694 9.442451
-5.46884 76.84917 9.823644
-9.129869 73.68217 9.47736
-10.1777 71.70728 9.199681
-14.59398 73.58614 9.361959
-16.95077 71.10643 7.946109
-12.98704 70.55417 8.954888
-16.73087 75.95204 8.889537
-17.01021 68.41301 7.28782
-13.75702 67.70667 8.293983
-4.924188 73.43058 9.473341
-19.49018 75.00309 5.587602
-17.75164 71.89674 7.441639
-17.48777 70.98553 7.501544
-20.19037 72.98614 3.171351
1.131441 90.60155 9.928985
3.442051 92.78549 9.733984
4.597033 90.55786 9.940999
-1.250413 90.29516 9.953011
6.024054 92.96988 9.715281
10.98935 91.48845 9.86959
14.06492 90.92282 9.794097
10.75564 90.33421 10.00533
-17.42084 24.73364 3.715421
-16.35951 23.93573 3.809802
-16.60555 20.60775 3.549088
-14.74063 21.50044 4.31245
-12.94895 19.39294 5.892964
-17.19493 28.43406 4.170665
-15.04947 17.27615 4.630134
-11.20435 20.52084 7.308908
-10.67235 18.38882 8.223037
-9.689395 19.84019 8.861145
-14.41171 15.3758 5.586579
-10.79107 12.68527 9.316036
-13.8819 12.80019 6.738487
-12.65052 17.20666 6.645944
-17.00111 14.10962 3.915642
-16.94633 13.15113 4.236384
21.85144 32.67204 -0.9777923
18.62327 65.67815 5.085159
14.81628 57.82419 6.252885
12.65535 88.02357 10.25695
12.07426 87.77252 10.27382
3.445291 90.88798 9.907816
3.337412 89.74502 10.00794
15.16807 84.78461 10.05444
5.485729 87.73621 10.16034
7.00672 86.98275 10.21391
8.975853 83.14055 10.2773
13.36445 84.02987 10.39538
15.69957 80.46983 9.813415
11.7534 80.81825 10.24164
7.410839 82.57919 10.23727
16.27236 75.36464 9.058527
13.60172 75.93866 9.804677
12.75241 75.71395 9.760602
5.008481 76.28902 9.767015
13.0645 74.42472 9.58419
14.87855 72.96774 9.209892
6.729063 76.99011 9.845346
6.596253 79.27605 10.04688
8.995352 73.03373 9.391964
8.551334 71.86691 9.246032
-1.619607 77.91338 9.90739
11.91026 67.02401 8.290208
5.430053 16.23946 13.86488
6.253543 17.57619 13.56336
4.975124 16.23244 13.95665
8.670774 19.27054 11.7563
5.614278 19.35922 13.6101
6.853996 22.43799 12.66188
8.586801 24.30335 10.62975
0.427449 17.66954 14.23748
-0.3920981 18.28819 14.22709
-2.547683 19.57651 13.92795
3.374638 23.69698 13.85549
-0.3396517 22.97651 14.0319
-1.561336 22.91586 13.86396
14.17799 45.14998 3.906092
13.01513 44.51391 4.392548
12.56569 43.44852 4.651125
13.426 39.09822 4.191706
10.20391 45.24539 6.276052
9.456778 38.99435 7.224126
9.15779 45.56013 7.081273
9.123242 21.75603 10.6031
9.408163 39.58712 7.220486
-17.78978 37.72408 4.237261
-17.64951 34.89202 4.411384
-15.43424 37.76649 5.421544
-16.43471 32.1171 4.720042
-14.77995 30.35775 4.648118
-12.40965 30.41347 5.115494
-14.3155 29.87087 4.633435
-11.81495 27.62964 5.590292
-12.26782 22.39373 5.908545
-11.71165 29.23949 5.532477
-13.51668 35.37352 5.241302
-14.29604 25.315 4.40201
-9.20507 24.52799 8.579949
-7.388533 20.08468 10.78577
-10.25835 25.60866 7.332006
-6.980186 26.19422 10.25833
-7.091732 20.83955 10.92093
-7.882551 27.25473 9.418442
-9.140854 21.14518 9.137979
-19.00597 81.27905 7.032914
-11.34438 84.12723 10.34059
-17.53456 82.33938 8.720333
-18.70208 77.97192 7.287779
-19.78365 78.32461 5.46948
-10.53959 13.24555 9.387857
-14.69036 43.91212 6.100861
-13.03557 46.18034 6.5295
-6.783079 37.16913 9.300182
-6.49788 38.03854 9.432253
-7.271708 29.30449 9.678438
-6.84327 29.89813 9.935391
-8.147511 54.64464 7.370276
-10.73793 57.21461 7.703315
-7.111241 49.22645 8.04962
-8.517286 48.18122 6.926723
-10.81667 45.31152 6.256696
-7.138212 54.23486 7.865849
-8.950082 43.52288 6.727831
-6.8009 45.05323 8.64344
-7.160275 53.325 7.853855
-6.389071 49.99292 8.652533
-4.302435 45.98183 10.07732
-4.140458 57.54309 9.353096
-5.948956 52.79878 8.828608
-3.02953 48.02056 10.5023
-3.556454 41.35983 10.90747
-2.744407 53.62896 10.08715
-1.709368 56.49789 10.16514
-4.907743 56.16133 9.175351
-8.064685 55.09415 7.426457
-21.0976 29.1559 1.701031
-2.281312 84.69422 10.2235
0.6045627 87.27425 10.16008
0.01666946 87.96375 10.12415
1.463322 88.01453 10.12324
2.991577 84.35336 10.22833
-3.121667 80.64722 10.11015
0.7672395 80.41507 10.08992
-1.015098 77.76279 9.893544
2.236478 81.85516 10.16697
-4.837815 77.79122 9.90884
-3.757591 77.74689 9.898906
-9.75549 70.34816 9.014543
-18.14828 73.57109 7.329321
8.300132 95.66967 9.525753
-15.35316 11.83476 5.895778
14.76911 53.00943 5.241338
9.813459 82.36911 10.2697
9.677048 78.53615 10.02802
0.9360816 76.44733 9.775025
1.543433 24.01455 14.02796
2.758687 23.12944 13.97321
9.138187 25.04648 9.762927
3.124249 21.24317 14.01538
-2.068553 26.40614 13.43453
-6.003776 21.64239 11.73448
12.1034 46.61441 4.949787
-12.63496 24.10372 5.362816
-9.18329 41.19504 6.635287
-5.536445 42.3064 9.722141
-7.935528 42.9022 7.675101
-7.802845 38.56139 8.248233
-7.951015 33.1987 8.689411
-4.060401 38.13548 10.95251
-11.55215 57.57484 7.684501
-4.046602 44.02734 10.3726
-1.437107 43.52609 11.82292
0.2422162 55.16369 10.91037
-7.074706 70.68104 9.149077
3.993243 82.1519 10.18811
-3.854558 72.35198 9.376586
-9.136171 66.77376 8.587687
-10.31058 65.00317 8.255916
-10.81805 63.90591 8.084053
12.926 54.14294 5.581884
7.133312 81.5442 10.19326
5.764186 78.3726 9.966279
9.990774 80.09332 10.15717
12.5337 67.31771 8.296222
17.66046 62.9375 5.33719
15.56025 68.50037 8.084599
16.43234 58.7261 5.277476
15.1749 64.8886 7.287958
15.78813 63.88348 6.806432
15.15901 68.70918 8.266695
14.20735 68.28259 8.375141
14.54374 70.82109 8.896111
12.17465 61.27011 7.2209
15.14753 56.57095 5.925491
10.87399 61.63486 7.364223
7.901353 66.18805 8.580292
14.12934 56.81998 6.230929
-1.539311 78.54903 9.959971
4.143963 71.79813 9.319507
7.072611 71.19051 9.196535
5.382587 24.42506 13.22185
4.38346 27.77658 13.26408
-5.411424 21.0507 12.33633
9.735922 49.70656 6.529414
0.3374273 32.87174 13.4065
-6.585867 32.40112 9.868937
-6.678295 31.83741 9.854984
-7.755708 33.38307 8.844762
-11.30231 59.42272 7.826433
-9.213275 60.64534 7.986859
-11.357 59.69696 7.822264
-1.355467 40.73544 12.16713
-1.593704 46.40167 11.39144
1.88572 45.29288 12.21969
1.141302 44.6373 12.31775
-0.6488551 51.96245 11.11378
0.6460664 39.53087 12.81821
-0.003046764 37.73566 12.9021
-1.006407 62.09986 9.599396
2.038845 77.10346 9.836411
-7.682804 68.81216 8.925207
7.233994 68.65963 8.908202
4.942479 60.70373 9.095497
5.849398 67.65982 8.923692
9.876863 67.25762 8.517436
10.12894 60.73456 7.282348
5.730696 63.81087 8.783836
4.955189 64.05155 8.941206
4.577349 61.89306 9.135301
7.021128 60.49759 8.322399
5.269593 60.52115 8.975697
3.807564 61.20628 9.423801
2.120681 78.2488 9.936725
-4.47076 70.03442 9.170797
-0.8236658 75.36098 9.672178
2.718127 75.74637 9.709383
4.069139 74.92085 9.627542
3.352693 77.13263 9.84242
2.298647 67.48985 9.148641
1.559503 66.21497 9.208936
1.678572 25.48952 13.94443
9.225733 47.49059 6.960962
-2.361144 39.51313 11.81722
-4.6203 27.00932 11.99579
-4.691559 33.75716 11.03464
-0.7790221 43.03823 12.13899
-0.2590337 55.01764 10.82633
-3.526971 59.88028 9.355757
-4.759674 59.65733 9.040995
11.13813 54.61863 5.980311
1.776494 74.178 9.557535
6.823382 27.98122 11.75534
11.41137 49.11321 5.424134
9.715996 52.33097 6.556036
9.379654 50.77309 6.784403
8.628276 52.7583 7.31342
6.578643 55.44901 8.530675
8.557386 58.68611 7.524827
7.583752 55.01073 7.981472
6.267167 51.68222 8.920928
8.087608 48.91605 7.773978
7.915114 43.3016 8.241518
5.897341 47.59852 9.621744
7.521577 42.94991 8.6386
9.163627 41.85769 7.266399
3.75638 48.64519 11.12723
4.717998 50.43201 10.25844
4.494645 45.123 11.10488
3.93026 43.57887 11.68316
1.636675 55.96441 10.79318
3.965827 42.18726 11.85504
3.096181 53.5756 10.78394
1.548769 58.55539 10.34528
-2.692466 27.90302 13.03155
-0.1044002 33.12884 13.31523
-1.245374 33.66087 12.96285
-2.386369 36.21339 12.20647
1.418151 34.65973 13.30551
-0.4434777 33.11237 13.24619
-0.5213357 29.36075 13.55076
3.060959 27.6118 13.64613
6.087472 29.36758 12.15248
1.712834 32.83802 13.43113
-8.858801 64.57354 8.399528
6.746809 34.23947 10.74277
6.491764 36.9183 10.56109
8.735393 31.46183 8.935866
6.20224 30.50667 11.88654
8.885282 29.44934 9.13507
9.919502 28.56951 8.1057
4.083698 40.40612 12.0135
3.371804 40.66751 12.3042
6.282726 41.30231 10.08186
6.371574 35.95855 10.84212
1.208939 62.43576 9.645849
-0.2366394 63.02749 9.543283
-1.711244 64.5042 9.281551
-2.988173 65.44247 9.128018
-2.539772 61.14225 9.464376
-5.613432 67.07134 8.92912
-4.807555 63.88845 8.926425
4.30278 55.24517 9.940588
3.211047 54.61512 10.59865
5.94403 58.71845 8.746618
5.109276 35.2085 12.01394
1.802915 36.25357 13.12821
-2.235403 68.8317 9.170336
-2.171164 65.78577 9.179214
25.96127 8.399653 -4.82942
5.698425 94.46094 -12.94813
24.38961 29.46608 -6.31684
-17.30546 97.60384 -2.478394
-16.25905 101.2882 -2.770922
14.6189 101.5849 -5.746243
-16.47436 88.65378 -7.48981
-14.65759 101.2354 -5.845307
17.7797 96.69511 -1.115972
23.16507 6.393445 -10.55731
17.13723 99.80857 -1.087883
16.22188 101.4301 -2.77183
15.96054 99.5101 -4.566904
-2.975319 1.497085 -8.652084
-16.92117 2.438581 -14.11868
-25.67766 10.40782 -5.094528
-25.21025 5.123271 -5.560524
4.187491 98.4019 -12.26834
-24.8449 20.98792 -7.107797
-16.50004 101.353 -2.077192
-19.64788 90.09198 0.5677361
-7.390314 102.3909 -10.64051
-17.99924 2.557165 -14.62979
-17.51036 93.03979 -5.126673
21.80869 29.9583 -10.96549
-20.15639 69.67532 -0.7946149
23.703 7.431858 -9.410398
24.20997 12.23737 -8.528866
23.81667 4.749517 -9.132456
10.55769 2.359504 -12.77844
-17.91371 62.17995 -7.56169
5.425229 101.5371 -11.23418
17.30696 98.27419 -1.881422
-24.85505 22.2366 -7.016849
-24.32822 4.936107 -8.150697
-24.31772 9.332347 -7.562604
-15.18897 101.0469 -5.103604
-15.44853 98.21159 -6.210639
25.88386 16.02385 -6.281654
23.13743 5.017003 -10.63619
25.22256 21.5567 -6.969343
19.66398 62.52439 -2.64116
20.0592 88.01104 0.256715
19.66809 89.9165 0.2583917
17.86721 96.18967 -1.401115
14.59935 100.7399 -6.208772
-7.534843 4.465257 -13.03982
-25.05312 22.84175 -6.551592
-23.97136 6.140151 -8.894375
-5.209002 102.8406 -10.60164
-18.47569 94.34802 0.0856724
-15.29875 98.9908 -6.051388
-13.08579 96.08891 -9.795296
-16.73648 99.42165 -2.808134
25.39608 16.43057 -7.023658
22.70791 5.013888 -11.52485
22.39065 46.08657 -5.122041
7.975314 2.060889 -10.40824
-23.07714 38.36821 -4.370482
21.22931 55.09029 -2.028306
20.65385 76.68443 0.4314348
20.48284 84.89772 -0.1981571
18.56587 93.46973 -1.476126
18.18762 93.0301 -3.493029
3.716799 101.9697 -11.00482
10.93446 102.2129 -9.111644
13.37167 97.21889 -9.162053
-23.982 31.5891 -4.295436
-25.56773 17.61091 -6.055672
-11.90186 3.315801 -12.45846
-22.71933 5.791975 -12.1389
-18.27765 3.214453 -14.68871
-4.911348 102.368 -10.84501
-19.32937 91.16296 -0.3569674
-19.7033 89.22211 -0.9359276
-17.31224 95.0904 -4.408771
-15.3382 92.16119 -8.510977
25.35115 16.13386 -7.069393
19.87786 4.737523 -14.69561
19.09554 6.468507 -14.80856
23.26744 37.06839 -4.985385
24.74021 27.36376 -6.018711
5.843697 2.183345 -5.729373
0.5231917 1.590556 -2.701623
-22.97215 39.75687 -5.32647
19.87097 65.18201 -1.808689
20.42128 55.92328 -2.537312
-20.29709 70.96783 -0.3250873
20.55583 74.647 0.4150441
19.95829 88.17716 -0.6060538
19.85067 84.9326 -2.929653
-0.9089125 101.6686 -11.10298
0.2314776 101.3901 -11.21925
-3.527661 1.159813 -10.04629
-23.96423 32.1814 -4.666881
-25.67749 18.93814 -5.792724
-23.41329 6.206257 -10.488
-20.39222 85.87679 0.1494344
-19.15752 91.02847 -1.790461
-19.64567 86.43495 -3.003168
-11.16567 101.7115 -9.203954
-16.30327 96.21043 -5.81251
23.8309 20.07087 -9.14282
21.81375 26.89908 -11.23128
17.47994 4.022329 -15.13289
22.58006 42.13626 -6.011853
23.57827 34.60601 -6.376511
23.33245 36.41999 -6.233651
24.63828 27.40484 -6.683356
10.73884 5.082731 -12.81952
7.677246 3.718481 -10.0104
4.880746 5.652968 -4.269123
1.943831 1.64331 -2.457997
-21.81814 49.22311 -4.736779
-22.62502 42.31019 -4.701139
-21.54617 51.19514 -4.732646
19.59877 61.89359 -2.510893
19.30122 57.24051 -5.630293
-20.25097 75.76523 -1.98508
-19.58041 72.52276 -3.629828
-19.17494 71.24193 -4.423848
-19.89927 65.75556 -2.333092
10.06487 83.70029 -9.546316
19.64109 82.50123 -3.782552
20.39227 72.2832 -0.1485577
18.34778 88.36452 -5.097954
6.134344 98.50012 -12.25803
3.981046 99.8096 -11.85198
10.57543 100.0103 -10.33156
-2.822311 2.265176 -8.102354
-24.08803 30.98265 -6.733191
-21.70777 11.57136 -13.01614
-24.75447 13.16544 -6.912158
-15.66452 3.448323 -13.21149
-23.14142 7.389546 -11.04151
-21.14008 7.332116 -13.86182
-18.55664 90.97459 -3.766985
-17.50652 89.31834 -6.187945
-8.225113 98.1862 -11.97921
16.95873 5.746558 -14.97329
22.35701 45.56239 -5.111948
23.7226 33.69695 -6.418545
8.601871 3.001726 -11.12238
8.415371 4.27127 -10.93787
7.746938 9.228648 -10.17459
3.025313 6.896838 -3.026134
-1.148108 4.421188 -4.16917
-22.18066 46.54198 -3.699404
-20.43759 60.55967 -3.327721
19.44016 59.01962 -4.946913
19.98037 66.46872 -0.5084243
-20.1586 76.53133 -2.387218
-19.63697 67.86262 -2.903143
-20.06587 64.5423 -2.231416
18.98445 80.59769 -4.93139
17.54997 85.33327 -6.443957
19.30906 84.30206 -4.226622
8.652552 100.2652 -11.15975
-2.192078 4.198987 -6.067958
-23.83963 31.249 -7.471269
-23.19823 37.92474 -5.382515
-22.84698 18.25265 -10.44363
-15.81511 6.406888 -13.1744
-12.34851 4.944803 -12.33549
-24.24535 8.715627 -7.750115
-18.47499 6.138876 -14.55084
-20.49983 10.21311 -14.0061
-1.438781 100.6975 -11.49589
-7.948178 100.2037 -11.42074
21.58802 27.79955 -11.37324
20.90362 49.4224 -5.772131
19.3635 47.81264 -8.415656
7.442956 9.107949 -9.729913
-21.36892 49.64494 -6.599173
-20.82048 50.88955 -7.301365
-22.66059 41.88714 -5.958777
-21.0299 56.12782 -3.559512
19.30607 63.8493 -4.803242
18.98102 63.65636 -5.445235
19.7166 68.32706 -2.585828
-19.2999 68.7812 -3.883617
20.15638 71.09161 -1.363609
-0.1355949 96.12272 -12.64013
-3.407417 3.299712 -9.833857
-24.64204 13.97008 -7.156895
-8.468794 3.743466 -13.11073
-21.74521 10.27102 -13.08611
-22.91122 12.52137 -10.94804
-9.277578 99.75552 -11.10287
21.80441 48.35971 -5.654757
22.63318 38.39081 -8.55981
24.70715 27.46205 -6.242101
3.047112 4.392886 -2.885295
-0.2999794 6.796583 -3.496567
-21.60886 44.20918 -8.414807
19.23502 58.93372 -6.064757
-19.11381 65.00711 -5.228648
19.33211 85.70154 -3.928001
17.85909 88.98755 -5.726923
16.40978 87.31508 -7.522125
-23.37259 18.95796 -9.39854
-23.23912 10.50256 -10.32459
-22.56047 14.03347 -11.51619
-0.4557605 99.87125 -11.78086
-13.58151 90.29609 -10.11759
22.12061 39.90297 -9.119212
4.228701 9.160625 -3.872484
-21.45487 47.9743 -7.118377
18.25298 61.25842 -7.0116
18.49319 84.80766 -5.419411
16.71994 83.92116 -7.195687
-23.24804 24.84587 -9.431184
-21.39508 12.15298 -13.25758
-19.80544 12.36211 -14.10056
-22.13048 15.92824 -12.1054
-14.31858 90.44066 -9.571595
21.34741 51.89089 -3.895097
19.26583 46.37463 -9.340187
18.33916 59.83464 -7.274567
16.38074 84.81258 -7.470731
-23.32903 25.15418 -9.289219
-22.23524 17.0053 -11.80844
-17.93549 12.86846 -13.98611
-2.399265 98.03354 -12.31193
-5.301084 99.75628 -11.90519
22.69833 41.31123 -5.232171
7.691082 10.73783 -10.12107
-22.10281 40.53809 -8.88283
-2.072226 6.037313 -5.822822
-23.90658 18.99559 -8.521778
-4.459715 98.18961 -12.32934
-7.141764 96.63078 -12.58211
19.85535 41.57102 -10.80414
-22.57925 39.48415 -8.304348
16.5375 60.67433 -8.476397
17.95108 75.26826 -6.321603
-2.680582 5.339606 -7.732916
-12.70009 8.346734 -12.2296
22.46121 29.5159 -10.27791
18.41962 67.15358 -5.450673
-19.4859 59.5386 -6.496799
17.57053 71.86926 -6.708451
12.84524 84.01126 -9.047277
-22.99518 23.86815 -9.876916
-3.759764 96.81202 -12.60592
22.98426 28.15597 -9.750697
-18.52592 42.58881 -11.30636
18.53485 68.96591 -5.319652
18.07078 66.59428 -6.00218
12.74096 87.17137 -10.06134
-23.00872 29.5555 -9.395793
-22.78281 22.8609 -10.28811
22.58039 28.86537 -10.18927
19.15143 53.94295 -6.529276
10.3046 8.872033 -12.42988
-20.37005 39.21923 -11.08991
16.34561 66.66274 -7.524873
9.943635 84.1394 -9.684431
-2.445824 7.363196 -7.081951
-22.51118 24.47726 -10.59259
-0.6325604 96.003 -12.65967
22.82211 30.98922 -9.647011
11.24242 6.391101 -13.07936
-18.32203 39.69044 -11.83249
19.42158 70.89841 -3.846897
-3.074491 5.245626 -9.006191
-1.801822 7.026676 -5.303474
-1.118033 97.27995 -12.45931
14.28954 49.99546 -10.70983
17.20275 71.13339 -7.027516
-17.03089 58.68504 -8.962863
0.3487664 7.752842 -3.208911
-21.51048 30.66426 -11.22429
-21.41349 21.78239 -12.37559
17.62713 52.50224 -9.791496
11.78138 11.97443 -13.0535
16.00613 66.09172 -7.800247
17.36894 66.14056 -6.757962
-17.84588 25.73059 -13.15841
16.85537 54.03698 -9.845942
16.49278 67.75288 -7.374768
12.89245 68.92627 -8.744968
-23.07768 31.81827 -8.968179
20.32691 30.17251 -12.09633
17.61417 58.75003 -8.240881
-21.13557 34.64497 -11.0825
20.36929 43.95786 -9.43612
18.79355 44.66948 -10.72171
-2.760633 10.55885 -8.334762
20.98726 44.71793 -8.445001
-19.19221 35.30635 -12.06222
-3.559032 7.395246 -10.13792
-5.937516 7.127447 -12.45118
-20.79824 33.93746 -11.42806
-3.962091 10.15096 -10.72156
13.57188 50.07449 -10.70013
-7.396167 12.167 -12.68087
13.30453 39.20548 -11.65276
-4.743528 11.16336 -11.5483
13.47558 46.38609 -11.08154
-3.702283 10.61698 -10.35649
-3.866609 13.24201 -10.52663
-4.620588 13.1242 -11.37646
-4.517529 16.61569 -11.19961
13.64473 45.77624 -11.14909
-3.072421 17.772 -9.295771
-5.759696 14.10511 -12.12893
-8.751468 15.49306 -12.52822
-5.970635 12.92426 -12.25776
-6.695495 14.14889 -12.46961
-3.042954 19.55344 -9.254223
-2.859045 22.25669 -8.916976
-6.526789 18.91644 -12.22146
-8.826267 15.10599 -12.54415
-10.70092 10.91061 -12.42054
-15.47808 11.79465 -12.82371
-1.692593 22.15684 -6.253877
-6.004273 22.71676 -11.87214
-10.24397 17.99482 -12.2864
-4.672362 23.92018 -11.11573
-12.98623 12.86255 -12.11316
-14.95623 14.89419 -12.53238
-13.30896 16.95608 -12.06
-12.53836 13.6121 -12.10868
-10.37176 20.7546 -12.16695
-11.86541 20.68997 -12.01571
19.79105 7.774067 -14.45266
24.1391 13.32791 -8.680141
23.74736 15.23224 -9.318006
15.72671 98.24799 -5.759426
20.39712 6.021756 -14.25688
16.08291 8.621134 -14.64539
15.49243 8.919397 -14.49884
15.91535 8.871956 -14.59716
16.57885 10.41748 -14.56716
21.51023 20.71876 -12.07114
23.09326 17.10522 -10.29837
22.31071 18.09432 -11.36747
18.03473 13.25664 -14.40456
19.57243 14.50881 -13.9261
20.07702 12.52469 -13.89777
20.31563 20.25751 -13.04575
12.5492 14.01148 -13.20694
16.17255 14.37972 -14.19219
18.99792 15.28992 -14.10263
21.03817 14.66665 -13.05855
22.65208 13.25937 -11.20767
23.37018 11.81186 -10.0381
22.13964 10.85564 -12.13932
20.53605 19.20364 -12.98455
21.11344 12.93932 -13.14588
21.1491 26.03966 -11.92366
19.0275 19.3016 -13.75312
17.4812 19.5015 -13.89111
-19.1562 86.6878 -4.040985
-18.5394 85.59696 -5.264013
-20.05777 83.88457 -2.618777
-17.04438 92.05255 -6.324686
-20.51743 52.6953 -7.190406
-23.57271 34.99482 -6.329211
-22.90932 32.89721 -9.114733
-20.16111 80.08444 -2.649514
-19.71716 78.61521 -3.665375
-17.09016 77.95772 -6.991129
-16.26284 77.71246 -7.563224
4.613048 98.7287 -12.19622
3.524925 94.29339 -12.85907
2.917783 95.24706 -12.77913
2.452518 93.79067 -12.81034
7.310463 96.61007 -12.55044
11.46047 93.03057 -11.48212
3.594471 91.94859 -12.70529
0.6385914 94.63474 -12.76719
2.780867 91.73566 -12.63334
7.862978 91.88207 -12.66348
6.157665 90.3788 -12.52531
13.08787 93.26647 -10.41904
13.55616 91.25093 -10.189
15.89486 92.53807 -7.800036
8.723824 88.09776 -11.60929
14.62871 88.25511 -9.1221
13.88358 89.49421 -9.840182
13.59793 88.99344 -9.969611
9.281082 88.84647 -11.76039
9.89737 88.17205 -11.40803
12.14989 89.042 -10.81141
-4.400177 85.31557 -10.56504
1.862244 89.13174 -11.96023
2.96938 88.41667 -11.7374
-20.31495 57.16199 -5.723698
-19.48992 54.56025 -8.063467
-21.40213 47.15851 -7.634864
-18.64627 50.10618 -9.870867
5.621614 7.391682 -5.675392
4.797281 9.263996 -4.422205
6.050581 10.16594 -6.861874
5.797727 12.97268 -6.468822
18.43274 79.61183 -5.668782
17.48583 80.27158 -6.605922
15.75029 78.00703 -7.830617
-9.754307 90.99098 -12.11056
-11.53236 90.63464 -11.37233
-10.49508 89.65298 -11.63359
7.327765 10.43199 -9.604439
9.013164 13.78693 -11.40939
12.06865 16.70864 -12.86031
12.95601 18.07305 -13.05296
11.59517 16.99036 -12.66551
5.723505 14.03761 -6.390128
7.609307 16.48456 -10.0284
13.19826 19.9135 -12.98526
5.967012 15.40635 -7.022437
8.554792 17.97644 -10.9879
-20.8937 44.47939 -9.369701
-22.2515 16.48925 -11.84267
-21.98271 18.89882 -12.00665
-19.59345 19.97526 -13.5299
-18.7132 22.60766 -13.41463
-11.7977 90.96821 -11.27195
0.5615173 92.3902 -12.66877
-8.788482 93.67768 -12.55757
-14.33999 93.83938 -9.211369
-14.23526 95.79456 -8.792239
-16.00584 91.20458 -7.884896
-8.323192 96.14523 -12.41477
-16.10541 95.82423 -6.351479
-5.437082 94.43811 -12.96354
19.88946 27.3681 -12.61527
18.79529 26.5813 -13.0886
19.11794 27.96401 -12.85949
-18.70271 44.46156 -10.92891
-18.39584 41.81578 -11.45575
-16.76967 52.05817 -10.38207
-19.09337 53.99296 -8.609249
-16.0396 51.43116 -10.7153
-17.81014 56.61947 -8.950917
-15.96213 56.24038 -9.939801
-16.99678 53.45234 -10.03816
-15.28905 53.80103 -10.53345
-13.65277 50.84754 -11.00341
-5.710031 50.46094 -10.48454
-9.128545 57.55351 -10.04042
23.91907 30.0568 -7.764577
-1.391322 7.752226 -4.659246
2.54299 7.886786 -2.976439
2.477728 9.875437 -3.087632
0.05380024 12.48998 -3.704845
3.406223 13.7852 -3.646964
4.277615 11.69242 -4.100359
4.924254 13.16158 -4.945795
4.960881 16.01415 -5.209027
-20.86329 30.89302 -11.78539
15.58642 63.63931 -8.39759
12.80722 64.06975 -9.138682
13.87139 70.1558 -8.642436
12.41007 75.0479 -8.915946
18.22654 59.30402 -7.526733
13.56516 59.01054 -9.676486
15.61846 59.85953 -9.082371
19.24581 56.12785 -5.968843
-17.01112 31.28614 -12.67419
-16.01358 36.72789 -12.27245
-15.71558 35.52308 -12.26955
-18.22075 32.30828 -12.61045
-16.76781 38.48393 -12.18171
-16.30672 41.13347 -11.85679
-14.11517 40.70638 -11.73638
-17.3813 43.60735 -11.46524
-15.692 37.67233 -12.1884
-13.72128 39.94255 -11.73175
-15.98238 44.61722 -11.53965
-15.49154 44.22553 -11.57702
-12.89033 44.87221 -11.31018
-10.93541 41.48104 -11.30979
-9.329101 37.25996 -11.44464
-9.786398 40.03796 -11.30861
-10.28378 34.38919 -11.63901
-14.01525 32.30117 -11.98748
-14.08186 30.85276 -12.0075
-14.82283 32.1135 -12.16229
-8.280716 28.91761 -11.88276
-8.024398 27.93181 -11.92553
-7.490929 32.59325 -11.59793
-10.03438 26.57606 -11.98729
-9.504552 29.83015 -11.85788
-17.12815 30.08133 -12.7711
-11.20356 25.22879 -11.95667
-20.90377 26.66131 -12.28705
-16.94182 26.48249 -12.91758
-12.65434 28.60288 -11.86008
-15.23717 23.95704 -12.43778
-12.83798 26.61115 -11.88325
-14.86024 17.31469 -12.43882
-13.88645 17.19236 -12.15992
-18.36352 16.80659 -13.83586
-18.64553 19.65705 -13.66987
-14.61849 20.41911 -12.2916
-17.08892 11.62541 -13.69613
-12.37988 18.65049 -12.02804
19.82187 32.58562 -12.09422
19.91733 34.61933 -11.83878
22.1005 35.34703 -10.01977
15.00282 31.29922 -12.54676
21.89152 34.62564 -10.34948
20.60095 39.76201 -10.81199
-21.32076 35.6951 -10.79451
16.7729 45.64233 -11.3644
19.67617 37.74575 -11.64298
17.13811 36.64329 -12.31412
18.27108 39.79274 -11.8317
17.79362 35.91407 -12.30794
14.77632 39.74391 -11.85002
13.69448 36.83183 -11.88599
-21.86213 37.34285 -10.03022
-9.378778 10.21138 -12.67647
-4.200546 23.55072 -10.76377
-5.379037 27.34124 -11.39058
-2.829171 26.65961 -8.966764
-1.647528 25.80084 -6.486727
-7.328062 25.54962 -11.99592
-3.1465 25.40717 -9.475178
-1.858564 28.82706 -7.134497
-7.312158 28.79359 -11.81465
-2.55145 29.37284 -8.538998
-3.96321 30.43482 -10.47981
1.815747 21.84302 -3.864045
2.864503 24.39552 -4.230971
11.15982 33.51869 -11.5762
1.494335 20.36286 -3.78598
-2.795458 15.18425 -8.634334
1.018724 16.45045 -3.59678
-0.1692827 25.59607 -4.779571
0.797007 29.26069 -4.54853
3.25754 32.44581 -5.02501
16.00627 96.51269 -6.188809
12.33756 96.94927 -10.16115
12.48115 19.91684 -12.77136
15.8661 19.66477 -13.68472
13.92883 22.54033 -12.98972
14.48559 25.01081 -12.94207
14.71948 19.60089 -13.42934
17.62685 27.88907 -13.13935
-16.37996 85.10535 -7.482868
-15.34923 84.50222 -8.136403
-15.55357 83.54976 -7.937206
-17.288 82.03874 -6.758994
-13.14281 84.17135 -9.007938
-0.3101991 92.30822 -12.66033
-18.7042 66.97067 -5.321651
-17.01774 66.32306 -7.376689
-15.47441 68.12247 -8.076381
-15.52761 66.98022 -8.181805
-14.45953 64.7207 -8.944286
-15.4636 63.60922 -8.764204
-17.79616 63.62956 -7.315885
-13.25312 64.55507 -9.277297
-16.14044 58.70073 -9.405866
-12.61501 60.97859 -9.939123
-12.20535 59.4383 -10.16856
-9.951076 60.14684 -9.981897
-10.95038 62.30991 -9.850847
-10.10471 58.27752 -10.12063
-7.507601 65.25771 -9.479021
-8.290309 66.72002 -9.376876
-7.478864 63.00343 -9.632932
-3.537666 61.0798 -9.584927
-5.879941 67.34959 -9.31225
-4.631696 60.01195 -9.836553
-10.8941 81.56388 -9.016879
-8.404223 58.86121 -9.925227
-8.852991 70.04049 -9.12629
-5.463713 68.56503 -9.234148
-0.9685289 62.97828 -8.613254
-0.817386 74.7067 -9.144876
-0.8889906 65.42551 -8.791012
1.976356 62.18676 -7.837245
1.944634 59.67561 -7.447775
0.25721 60.83799 -7.877015
-1.203363 57.60665 -8.343376
0.8150604 55.46838 -7.002064
2.823968 59.72233 -7.575689
-6.253122 57.08215 -10.09602
0.2788268 55.46523 -7.178511
-4.227357 54.95398 -10.04185
2.716862 55.58097 -7.036314
-0.2672386 52.47063 -7.160724
3.958861 57.65451 -7.715437
-3.389604 52.35133 -9.781696
-9.123482 55.82172 -10.16502
-8.623817 58.64549 -9.944654
4.83548 59.01255 -8.314862
-3.274608 50.96355 -9.727792
-2.353711 51.02987 -9.009128
-3.883201 48.8208 -10.0674
15.68473 77.18307 -7.917499
-7.0434 93.87933 -12.89562
-11.40191 53.44667 -10.59288
-12.24245 52.66088 -10.75582
-10.41032 49.93506 -10.68961
-6.646827 48.37828 -10.66566
-7.571221 52.2895 -10.42952
-6.919835 47.91873 -10.70826
-9.594869 46.14296 -10.91239
-8.218575 48.0117 -10.73641
-13.83868 48.03765 -11.21039
-1.072677 19.20922 -5.133187
-2.259855 18.08066 -7.274247
-1.492755 19.69333 -5.668532
5.30188 18.50468 -5.962519
4.91338 24.90799 -5.917507
13.30911 61.59039 -9.376854
12.02358 62.40467 -9.440292
12.97744 74.87334 -8.861375
12.26962 77.29572 -8.840258
12.12355 76.77079 -8.884441
13.52168 72.18398 -8.771918
10.02697 75.64175 -8.990844
9.385915 71.0729 -8.946687
8.827287 71.02735 -8.957608
9.170508 83.83445 -9.709626
6.884721 85.78293 -10.62181
10.15129 70.2568 -8.925303
6.389441 81.96127 -9.58918
6.18964 84.03701 -10.07042
1.912301 78.57253 -9.345364
1.733105 87.09289 -11.25062
1.313676 80.04723 -9.50501
0.9122576 79.68678 -9.464098
0.4144118 82.23568 -9.858107
-1.644887 84.73526 -10.46038
-2.907118 90.00207 -12.2519
-3.385585 81.66481 -9.684886
1.373886 78.42833 -9.336668
0.9191141 78.09352 -9.314081
-3.567479 80.48611 -9.500906
