# .PCD v0.7 - Point Cloud Data file format
VERSION 0.7
FIELDS x y z
SIZE 4 4 4
TYPE F F F
COUNT 1 1 1
WIDTH 1659
HEIGHT 1
VIEWPOINT 0 0 0 1 0 0 0
POINTS 1659
DATA ascii
-14.27119 71.54221 3.237718
-2.050803 110.0326 8.770476
-9.645185 64.15526 9.015886
-2.278987 68.84337 8.289916
-5.706861 69.94232 8.252418
-13.10524 76.19582 5.760395
-3.762035 76.23389 8.148296
-15.06438 90.31878 2.037652
-0.7571585 87.75177 7.594601
-13.80352 98.40389 1.079077
-13.63729 95.58834 3.41121
-14.67391 92.82011 2.381126
-2.50349 91.09259 6.722713
-13.18819 99.6714 2.442185
-10.95862 100.235 5.207602
-12.17677 128.7475 -0.6586717
-11.15424 128.8657 2.569284
-13.58711 66.42453 5.264419
-13.07479 101.6929 1.358535
-12.57557 103.5999 2.313965
-3.186032 99.56725 7.637034
-4.593405 98.69173 7.242097
-5.488801 99.99604 7.33122
-3.627292 72.20741 8.143275
-1.215643 61.84023 8.85321
-12.38094 70.52255 6.967997
-6.696681 70.47335 8.349113
-13.16378 78.29918 5.725893
-1.49549 74.98463 8.14625
-1.855803 78.91719 8.220999
-5.165223 75.06977 8.113828
-14.10266 80.71152 4.361017
-14.09638 81.42809 4.529651
-13.37408 95.44028 3.851243
-13.0042 98.73519 3.304929
-5.081703 97.442 6.987524
-2.496459 94.08258 6.934593
-5.89405 91.95142 6.7445
-4.354192 93.97809 6.832732
-2.507898 99.99157 7.833361
-5.109982 72.45541 8.136804
-12.52194 71.10404 6.776218
-13.92863 76.63624 4.522269
-12.31206 77.02811 6.596762
-4.850041 72.94621 8.135104
-14.85735 84.9258 2.947104
-14.63906 84.65335 3.538513
-14.32418 88.57076 3.750939
-13.41658 97.71375 2.795274
-3.510825 91.49664 6.695299
-3.174213 95.81148 7.037109
-3.13336 100.679 7.901551
-6.208414 99.9257 7.18593
-4.704656 70.44975 8.141455
-12.47236 71.85233 6.718515
-12.88766 79.1786 5.976686
-6.66671 78.38519 8.197631
-13.94995 87.11084 4.65348
-13.45387 93.15749 4.366481
-12.9647 94.17046 4.653691
-11.86655 97.46044 4.925843
-3.768304 88.61877 7.442715
-6.357176 90.55883 6.907159
-8.685164 98.18078 6.37677
-8.019366 97.41715 6.521126
-5.55916 73.16726 8.125581
-12.69929 71.45612 6.56642
-6.295542 79.28077 8.240944
-3.846765 88.92181 7.393343
-5.008989 92.44955 6.753901
-10.37286 95.07711 6.090476
-9.846822 100.0661 6.005061
-9.090733 76.18793 8.020833
-7.572405 73.30273 8.099682
-11.97642 72.62739 7.048803
-10.94294 72.85073 7.637821
-10.7212 74.65748 7.580942
-11.70146 74.7515 7.01023
-12.70546 74.35385 6.142219
-4.630994 77.8082 8.190305
-6.454741 91.74838 6.772728
-7.941618 91.36854 6.840188
-8.430923 95.40347 6.438792
-9.538692 94.45325 6.352883
-10.16936 100.2783 5.793755
-5.124288 105.1158 8.162214
-6.668204 105.0886 7.634923
-9.969984 102.3213 5.968867
-9.760317 104.2306 6.168704
-5.633987 74.4096 8.102695
-10.4733 76.361 7.684783
-9.179668 75.7627 7.965688
-9.821415 78.93243 7.968219
-5.811417 89.24392 7.269145
-7.334748 87.60236 7.522261
-9.038849 86.27477 7.666585
-14.33295 91.1285 3.58214
-8.717895 96.46184 6.368402
-7.034266 94.69525 6.648865
-9.089197 104.6377 6.531
-11.64806 76.74642 7.095848
-10.82617 78.13234 7.62938
-6.091993 97.3746 6.834271
-8.119815 97.07516 6.492076
-7.190361 103.5622 7.382857
-8.536831 103.8879 6.838874
-10.40168 106.9109 5.377717
-8.318165 106.3416 6.876129
-10.88928 106.6551 4.920819
-10.53571 102.5389 5.521753
-11.42755 104.4856 4.485935
-10.99284 101.2701 5.169763
-9.880183 106.3228 5.925897
-11.62906 106.9683 3.712066
-12.24265 104.7577 2.978328
-12.03061 100.7486 4.013792
-8.788873 109.3972 6.146406
-10.78417 107.8858 4.890216
-10.99844 109.8217 3.705354
-5.987169 106.6666 7.91813
-6.416446 107.2038 7.709723
-7.095183 113.0058 6.335387
-8.301867 111.6141 5.831655
-8.806615 114.1235 4.732293
-9.566326 111.8857 4.648524
-5.62601 110.338 7.683895
-11.63978 111.1963 0.7150525
-10.50561 111.3788 3.64246
-3.862595 114.0365 8.030294
-5.115942 110.0046 7.974044
-4.972056 113.9087 7.4907
-6.393277 126.1014 8.444895
-5.753178 120.9633 8.12324
-6.785169 124.9848 8.032962
-8.25559 123.6038 6.736572
-10.10495 122.911 3.931001
-10.04324 120.7536 3.670452
-2.607172 117.7756 8.534272
-3.643451 86.87275 7.672541
-4.57656 86.93632 7.658727
-4.071779 83.32797 8.198072
-8.396276 82.49468 8.137695
-5.020054 86.46275 7.715652
-9.57514 85.23095 7.722462
-3.911435 77.97833 8.203398
-3.033684 78.33878 8.218492
-3.090374 79.94456 8.203767
-13.01546 145.9335 -4.586654
-11.28314 133.4251 4.787954
-11.15594 130.9432 4.383803
-10.77502 132.586 5.557581
-12.24474 63.52367 7.867254
-14.55779 91.32461 3.1395
-14.1371 89.11102 4.023362
-13.579 90.89214 4.611186
-12.35992 88.11614 6.095221
-11.84029 88.63953 6.4076
-13.16098 85.59345 5.672366
-10.67917 127.4502 3.95503
-12.4783 138.6289 2.620257
-11.73551 134.9454 4.133429
-12.20921 135.8772 3.102366
-9.757476 139.3959 3.110391
-8.052911 137.1822 5.168446
-10.42451 139.2002 2.899281
-9.998714 135.5164 4.841945
-8.386978 139.9797 3.480333
-8.546711 139.3378 3.73771
-11.11506 142.9046 0.7296869
-9.523406 135.9389 4.954707
-10.53487 142.5885 1.09638
-8.382701 140.8374 3.035931
-13.19263 64.97575 6.335361
-12.74036 66.2541 7.038472
-8.675678 68.57386 8.594622
-12.32819 64.74334 7.628132
-9.526847 67.58841 8.617622
-4.001923 110.5902 8.285211
-10.81248 128.4115 3.768278
-7.589625 132.3042 7.865036
-10.46099 130.3992 5.979457
-10.43904 130.2892 5.971164
-10.68871 71.36779 7.893404
-9.975753 67.0086 8.603531
-9.290494 70.61267 8.300265
-8.448462 71.01919 8.351898
-9.44756 78.1778 8.037933
-10.15858 79.60603 7.879532
-7.716718 79.33624 8.23584
-8.351006 80.49159 8.261022
-8.93204 82.2917 8.0777
-9.446079 81.35885 8.033782
-10.52426 83.37192 7.728227
-4.947383 81.45911 8.19457
-7.524676 83.92439 8.055452
-13.22767 82.45027 5.819583
-10.37528 145.922 -3.08304
-3.02441 123.044 9.13301
-3.915985 126.3629 8.97825
-9.228562 121.9948 5.368478
-13.50142 144.7289 -1.122333
-3.191873 84.76703 8.032933
-13.24437 145.544 -2.411196
-13.72607 144.1333 -0.7524232
-11.90437 143.2413 0.3280553
-13.36949 145.805 -3.503951
-12.43532 91.57512 5.644042
-13.51804 91.78794 4.469781
-9.205365 88.65578 7.265712
-10.22803 90.89817 6.730676
-12.62102 87.62905 5.948916
-7.331593 88.61212 7.415044
-7.829468 89.48386 7.197354
-7.308823 138.5175 4.785957
-8.995173 133.2718 6.748997
-10.64581 144.2639 -0.01565723
-8.6433 144.4334 0.7573252
-10.43338 144.9192 -0.5978093
-8.512269 131.0689 7.715704
-9.952619 129.8533 6.612079
-8.338011 127.2073 7.366712
-10.10261 127.0207 5.180298
-8.261918 128.3872 7.678446
-8.270597 131.2952 7.809521
-6.660435 131.9701 8.531816
-5.085082 125.8609 8.844499
-4.501698 128.149 8.869147
-5.906486 77.31804 8.16109
-12.64362 83.87672 6.401221
-12.51815 85.56586 6.347358
-11.99217 83.92477 6.860197
-7.833411 124.2512 7.134863
-10.6598 87.47305 7.19802
-7.902411 133.0268 7.424923
-5.391886 127.0209 8.734504
0.6549919 103.3679 8.706796
14.06999 67.56112 3.187591
1.36857 91.1834 6.767882
0.4133528 93.00718 6.895053
7.376384 120.142 7.16413
0.9700354 119.6532 8.898721
9.815852 121.6549 4.35164
7.272106 112.2493 6.394384
11.50256 127.197 0.3810229
13.68232 64.25231 3.776366
1.112692 67.97831 8.761693
4.108649 62.74291 8.151139
5.134489 60.45333 7.96559
5.309958 78.12939 8.217911
1.182877 120.8117 9.012888
0.2591802 80.95795 8.14133
2.452122 76.19538 8.19116
2.91562 122.5545 9.095483
4.085364 115.5523 7.909063
6.364336 122.7383 8.146914
2.264448 96.62216 7.227167
4.075308 124.6589 8.963703
9.69221 116.1596 3.522052
5.061511 125.9935 8.756213
9.507909 60.46867 9.046195
14.36232 96.75945 0.4802617
10.43963 146.427 -6.587231
1.008211 116.8323 8.650123
9.414817 132.163 6.865905
7.83416 116.336 5.630871
8.405374 137.3934 4.892631
9.00511 115.4956 4.423122
6.676245 139.2192 4.65295
6.943851 141.7113 3.183288
10.11353 142.8542 1.108836
12.50944 146.0878 -4.898828
7.693685 144.0287 1.561776
3.460643 119.7655 8.568923
0.6000268 69.62476 8.628296
1.130526 112.9113 8.580143
13.33168 101.384 0.644089
13.04667 105.0722 -0.6139262
10.8096 114.7356 -0.5676724
11.19758 64.85316 8.555238
15.91658 140.3834 -0.08628178
10.66187 115.0743 1.740478
7.429747 144.6093 1.031599
6.445273 118.3406 7.033099
14.21657 75.24503 3.789639
14.668 74.90936 2.083089
5.596763 117.9321 7.401412
11.79621 110.5924 1.04499
10.30327 116.2846 2.001776
14.43601 96.44032 -0.233516
15.12868 82.66917 1.997437
15.39288 87.42791 0.6539456
13.54833 61.06269 3.538349
11.40963 125.2913 -0.3068334
8.566495 118.893 5.962022
2.546013 115.5695 8.41259
12.85976 60.13832 6.499359
8.243705 119.3951 6.1734
8.197254 145.7649 -1.742057
10.09806 115.8076 3.01101
4.187864 120.4868 8.497883
0.6817035 100.671 8.153196
13.194 145.9839 -5.483143
11.5706 125.288 -2.098189
10.61811 119.3083 1.294059
10.86042 140.2893 2.421197
5.508588 115.9827 7.187783
5.942995 124.7501 8.507838
10.36925 146.3536 -7.370627
12.34211 132.7054 2.135499
14.17516 145.9223 -6.315786
10.57337 118.939 1.128546
10.49265 117.7725 -0.9843977
11.14909 123.0794 0.8529636
8.105906 60.53025 8.563935
13.17376 60.83448 5.210241
10.47631 60.30465 9.2058
7.397752 114.0443 5.968408
7.106101 113.8444 6.195727
8.871756 110.2995 5.806554
10.69172 112.3326 2.799905
11.7138 110.5347 1.463103
10.8498 112.1528 2.545235
14.03906 98.25583 -0.07550786
12.76982 79.65881 6.397387
11.20698 75.76394 7.291005
13.98864 145.9266 -7.292893
13.06829 133.1088 0.6948065
11.78358 127.5097 -0.6661766
13.63181 143.0297 -0.03442395
1.588868 119.0133 8.795765
2.207106 118.9661 8.735817
0.4007248 109.4487 8.798822
7.179888 146.9861 -6.734213
0.8379794 70.94518 8.457474
13.87138 66.14182 3.557284
8.961991 106.8694 6.44419
0.7186835 100.9128 8.199055
10.38515 119.4918 2.495294
1.758269 64.68044 8.859312
9.121111 121.0327 5.261694
5.721977 64.01182 8.019205
7.507402 61.5295 8.325359
12.08536 64.08682 8.067549
12.40177 64.70055 7.49679
10.19495 64.77268 8.889264
5.058991 113.1093 7.559037
10.01978 111.4323 4.403062
8.061334 99.58189 6.69146
13.20044 103.8741 -0.9862146
15.37333 90.49792 -0.1447604
2.038441 81.08152 8.141873
14.98061 80.88575 2.071285
16.23808 144.5667 -2.548351
11.00276 146.3054 -5.318286
11.69589 143.9114 -0.05493651
10.49692 146.0014 -3.388348
7.820034 146.3105 -3.762955
11.51711 126.2885 -0.409991
13.11608 132.5342 -0.07918864
15.27514 137.1437 -1.112333
14.07228 136.257 0.3563332
12.87653 134.0952 1.340602
15.17817 138.346 -0.05167834
16.60881 143.4211 -1.549175
0.6897478 111.334 8.668959
10.46308 146.3961 -6.837698
2.077282 67.18187 8.621398
1.526477 66.6665 8.787345
13.96144 68.27959 3.648761
12.32247 108.6767 0.8805001
0.3212182 104.9724 8.907013
8.744414 123.3276 6.249351
10.50559 122.465 2.992642
11.45359 124.3044 -1.783504
2.655353 60.85265 8.711629
3.005575 63.08431 8.494942
4.123831 124.0907 8.972353
5.042688 119.3048 7.981359
11.87919 67.66825 7.792142
13.65437 64.90387 4.024226
10.98963 63.15549 8.802382
10.40239 66.90261 8.598805
6.804186 65.43043 8.179167
5.593168 111.6031 7.475672
3.09325 112.5195 8.35502
5.518522 110.1087 7.783708
7.533413 112.0457 6.269101
8.277835 111.193 5.97329
11.76185 108.6366 2.598622
10.23476 112.5134 3.506913
2.281211 94.9007 7.010142
3.63042 103.2378 8.350599
13.90349 98.79694 -0.3527369
13.59311 99.64957 1.228568
3.644954 89.09941 7.279165
15.28952 85.87154 0.9399353
14.86946 84.81241 2.957515
0.5994185 80.07683 8.166077
4.029044 82.327 8.167006
2.020334 83.23516 8.253431
14.70826 75.57885 1.99647
14.37744 72.08054 2.821155
14.35405 72.83428 2.992892
14.05099 145.7581 -3.67091
13.70911 134.6686 -0.0003194454
12.32862 132.6246 2.13401
11.96071 130.1976 1.268063
11.71288 128.6608 0.6344001
12.19415 133.7433 2.549109
12.08104 136.8332 2.529847
10.55507 134.5324 4.979472
12.07733 135.4311 2.482763
12.02677 131.1386 2.00621
12.31091 128.4069 -1.881507
14.10363 144.5623 -1.207384
3.814603 113.3842 8.078183
0.8901094 111.7065 8.648067
0.7299849 68.56697 8.747949
6.703908 69.07156 8.188854
1.870408 65.3063 8.786928
12.08753 110.1191 -0.5486751
11.78866 109.7976 1.947824
12.86394 105.8938 0.0903082
12.63341 107.1261 0.7712189
12.80276 103.2382 1.709885
1.837152 106.2 8.949881
10.26976 124.1832 3.810801
10.19592 121.7338 3.603015
10.56821 120.3244 2.061514
7.23882 125.6286 7.825978
6.743573 120.1335 7.4972
12.26359 67.11801 7.509542
7.083345 64.79971 8.232825
11.26815 108.8339 3.652141
3.594419 93.80534 6.862106
0.47732 91.7312 6.761466
0.5916964 101.2806 8.278247
3.326679 104.3206 8.578193
15.17835 88.09204 1.871933
14.59833 95.76259 -0.1523229
12.93194 103.2592 1.227454
1.336502 89.53528 7.117183
14.87027 86.678 2.94565
15.38823 89.08757 1.037812
1.319992 77.78491 8.212267
1.100882 73.96867 8.178064
14.44544 79.11038 3.678272
11.08273 145.8583 -2.98502
11.15983 126.5677 1.879789
10.28208 135.4521 4.795847
11.52249 137.1784 3.257201
13.24225 136.0863 1.184061
9.533445 134.2552 5.787488
11.14905 141.7846 1.456141
2.162128 110.9059 8.646859
11.42584 68.2279 8.005918
13.548 68.09299 4.840402
7.072603 108.9224 7.223423
11.87093 107.0513 3.283823
10.21629 109.0644 5.078937
9.514643 109.6175 5.567122
8.277957 109.3108 6.504025
3.512896 106.5692 8.719603
3.132872 108.9259 8.698501
6.169693 106.1924 7.856954
6.306717 105.8661 7.80371
9.193379 105.6625 6.416841
8.973681 106.3509 6.410854
11.16438 105.5823 4.735371
9.936945 105.3295 5.962217
5.88932 105.1171 7.928021
4.163241 103.0817 8.210033
7.594004 125.1542 7.450967
2.394339 65.96747 8.585162
2.188582 99.16349 7.697314
2.436326 88.81744 7.400026
15.29811 89.93987 1.310094
15.02232 92.70396 1.570813
14.72756 93.11401 2.230349
14.67032 88.18443 3.293098
2.864389 77.56391 8.215082
2.567231 74.77771 8.176032
1.398861 75.94098 8.178269
11.78941 145.8026 -2.921902
12.38297 135.6349 2.039938
10.79836 131.4526 5.43565
10.82232 145.2975 -1.227314
13.3875 142.7716 0.1663032
4.117167 70.46499 8.119269
8.953394 69.1619 8.537786
1.676229 106.4537 8.965376
8.137749 104.5479 7.03922
4.336652 64.19231 8.082483
5.870702 67.08432 8.050783
3.69395 96.46036 7.048495
2.56602 99.57356 7.734424
2.096611 90.57323 6.816518
14.35406 95.9297 1.602023
14.19339 94.18597 3.127337
12.57232 105.0518 1.992335
12.66883 104.2528 1.885707
14.01533 88.45226 4.388762
14.86378 89.54446 2.746018
13.93488 86.9577 4.60988
13.44936 86.04635 5.392421
13.90516 77.54889 4.630889
12.1175 74.06941 6.805165
10.94782 130.8766 4.994586
10.37644 133.3463 5.546888
11.06918 133.0562 4.770425
10.49022 145.8585 -2.902636
12.66454 141.4275 1.047117
10.43636 141.7185 1.667556
12.96284 138.376 1.71952
4.841232 70.64306 8.099671
8.813317 66.87101 8.652316
8.662879 68.85399 8.554868
11.50084 71.35419 7.560482
7.604609 70.34554 8.358376
5.416279 95.39261 6.794361
3.020754 102.3484 8.296933
4.628703 102.5684 8.0158
3.72509 104.1045 8.468474
5.913461 98.34536 6.971213
12.55266 94.63634 4.896187
12.11972 102.0448 3.586104
13.07435 87.19962 5.601126
13.74901 86.70551 4.955026
11.91669 89.92419 6.159548
12.22169 85.89205 6.535953
14.43754 84.37204 4.003243
11.48416 127.5797 0.6755815
13.88828 140.9793 0.5383275
14.77547 139.0354 0.3723458
6.060679 72.36256 8.180174
4.537744 95.01858 6.860793
8.391088 103.9305 6.923664
3.580005 92.48683 6.773451
6.048193 92.07859 6.768048
13.90561 92.65949 4.017488
11.99534 96.29391 5.092708
12.55588 103.9869 2.3804
9.310703 85.2013 7.774266
6.798551 89.19669 7.266378
13.20662 85.316 5.692543
12.91679 86.41907 5.985933
8.616074 129.7277 7.753374
6.202884 132.4162 8.671327
5.315001 67.13736 8.060159
5.520955 96.65642 6.85089
9.622643 99.31517 6.108195
8.539146 99.25047 6.51554
10.153 99.97686 5.814236
8.894748 98.38088 6.318802
8.819551 105.2662 6.712963
6.798661 104.0796 7.553146
9.205918 103.181 6.525613
9.271362 101.0828 6.386784
9.88662 98.31765 5.932596
13.04676 97.94166 3.502631
11.56563 102.6555 4.425794
10.32509 99.0886 5.764008
11.71284 101.161 4.368475
4.732831 87.8393 7.591552
3.881552 87.2291 7.667299
2.411841 84.42947 8.125748
3.751678 87.98322 7.579403
4.557837 89.25125 7.233551
4.240522 86.16241 7.769513
5.647516 89.97635 7.032355
6.36197 90.86802 6.862376
4.412475 90.2033 6.931625
12.81421 93.42873 4.999834
11.15437 130.5916 4.232797
9.137758 130.7223 7.417341
11.04154 129.5326 3.776253
12.12919 71.70361 6.991979
12.11009 75.80016 6.710687
11.98101 101.3725 3.948497
12.71477 98.02546 3.955551
3.184804 80.82634 8.144038
5.042828 82.39264 8.154118
4.87351 77.06635 8.213905
11.10677 86.00156 7.193883
9.14837 86.68821 7.588364
6.553595 86.32021 7.712684
8.744926 87.95455 7.434215
10.09669 97.42754 5.891032
13.37157 93.74495 4.347145
11.02591 84.19159 7.382943
9.654132 125.8913 5.419287
13.46634 97.77261 2.817878
8.454842 91.06924 6.857548
7.513609 94.84764 6.592133
9.29017 94.63533 6.399743
8.721044 92.83725 6.641522
9.340553 89.90406 7.016028
11.41783 90.18032 6.374667
11.96508 83.01197 6.918136
8.414262 128.9527 7.733361
7.999135 92.06139 6.771912
12.22562 91.34145 5.788697
11.34747 77.26382 7.347981
3.510022 114.7541 8.110208
10.71622 124.988 3.003978
10.09874 124.4225 4.201838
10.67672 128.0572 4.223398
9.426353 126.0141 5.803126
9.086495 127.086 6.554235
1.826204 63.48125 8.897909
4.735912 125.369 8.827188
6.328955 126.2325 8.442649
3.550151 77.94608 8.216558
4.607522 76.46262 8.205482
8.268937 77.4338 8.227103
6.285373 80.98387 8.145541
10.64906 105.62 5.316012
12.94495 83.8063 6.092444
14.42049 82.86901 4.072993
13.73437 79.84653 5.102587
13.96502 83.68116 4.848353
11.07851 145.0062 -0.8541874
9.854611 144.913 -0.4647906
6.394472 145.7881 -1.058799
7.848232 144.8943 0.5466983
6.921145 142.916 2.542432
7.397199 145.6732 -1.224964
7.474061 141.139 3.276975
9.765093 139.6077 2.981453
10.09113 136.4426 4.410914
9.007808 137.8634 4.24818
6.035854 137.6279 5.767521
9.534681 140.0011 2.891583
7.558514 139.9699 3.870131
12.73856 74.17751 6.131299
11.7732 141.9172 1.20818
7.211544 69.71482 8.292304
6.973184 93.84772 6.658148
6.542664 95.22318 6.680328
11.08029 126.135 2.205794
12.09047 72.71714 6.943536
12.31928 69.91808 7.085666
7.610733 96.09036 6.580822
10.73215 77.56619 7.66861
14.21323 77.25842 3.948282
12.70836 77.36858 6.350241
11.07986 76.51733 7.465355
5.975656 77.4258 8.220461
8.308161 78.28487 8.176674
7.554006 75.0163 8.157519
11.21799 80.92859 7.451565
7.725489 76.32239 8.209411
9.649861 79.70266 8.022198
6.892901 72.76037 8.203284
8.687184 74.38792 8.094562
7.669618 73.0589 8.201962
8.762949 72.40152 8.247786
10.05699 71.74474 8.164777
4.146552 73.89228 8.182288
8.483613 84.60158 7.951088
7.535244 127.3484 8.052733
4.748197 128.8699 8.913981
4.676358 126.4441 8.843187
3.42058 124.2012 9.079375
7.361994 143.1945 2.210491
8.692761 78.57218 8.14569
8.087911 80.33362 8.22765
7.067314 81.23663 8.142351
8.707913 82.59014 7.985669
10.76477 75.09811 7.548297
8.27862 72.88516 8.214951
6.668898 128.6649 8.459054
6.468995 130.3944 8.61982
5.722743 128.5703 8.676507
7.376501 83.16707 8.131036
14.00798 61.7056 1.703358
14.43907 69.25468 -0.6520511
13.49341 71.8654 -3.942145
14.15757 62.17494 1.090807
13.76757 61.44485 2.717564
13.71168 82.30041 -6.148055
15.00875 78.72283 1.104294
14.14991 61.81765 0.1316119
15.08949 80.17702 1.31178
15.21891 91.84782 -0.9306265
13.74684 91.74338 -6.359932
14.33993 65.44728 1.619515
12.98201 106.1007 -1.444783
11.98503 110.3538 -1.444303
12.61309 107.8274 -2.385261
10.14886 117.1825 -2.769342
9.776116 114.7387 -4.249436
12.50142 127.7253 -3.04437
12.98276 130.0592 -5.100565
12.99346 66.34006 -4.049045
13.58632 131.9813 -4.867784
13.47287 98.14494 -3.715039
15.00839 81.65796 -2.577802
13.31341 130.475 -3.6461
13.01727 105.8144 -2.059919
9.761877 119.2901 -5.667203
14.62234 89.46383 -5.073974
12.43444 98.84464 -6.688508
13.4574 61.26595 -2.938829
13.46728 68.68894 -3.480768
13.98154 78.54452 -4.607702
12.6335 129.8239 -6.293695
13.42602 132.2578 -7.704574
9.815878 116.7293 -3.72331
13.08004 60.1581 -3.545285
10.11076 111.8716 -5.376627
10.32139 120.357 -4.173462
11.55425 125.2092 -5.725753
14.26408 66.95477 2.382055
14.89694 76.12256 -0.1483997
12.94177 96.88276 -5.845519
10.77082 109.3757 -6.162998
13.15324 131.1811 -6.614956
14.36795 96.55662 -0.9056544
14.60441 84.77592 -4.889447
14.00586 59.41735 -0.6891579
13.97746 92.83456 -5.365552
13.15099 104.6406 -1.866607
12.5523 107.8657 -2.802809
11.74293 107.9641 -5.557307
10.30521 112.7171 -4.476458
10.19307 119.452 -3.639363
10.25763 119.1484 -3.104531
10.16973 120.4459 -5.839826
11.01361 121.4728 -2.016494
11.4104 123.6684 -5.664852
12.53321 127.2534 -3.963174
9.030327 115.4953 -5.504967
13.04971 129.5372 -4.165135
13.11372 64.33192 -3.669035
13.22777 59.89573 -3.303274
14.02875 59.81494 -0.1547883
14.31084 64.16853 1.190584
13.60685 69.83105 -3.367579
14.56143 69.73726 1.380481
14.41249 67.24429 1.788055
14.84203 75.4156 0.4156146
13.67 75.2011 -4.297045
15.05699 79.07635 0.4588921
14.87241 76.05374 0.5172751
13.83382 61.70827 2.523667
14.46626 82.6646 -4.721561
15.20341 81.25401 -0.6225871
15.42576 86.41138 -0.5881848
14.38906 85.23487 -5.544194
15.09112 90.838 -2.692752
13.66881 89.32285 -7.070294
12.7819 95.79767 -6.69992
12.11205 101.3561 -7.257654
13.29382 99.89738 -3.655896
14.91701 91.63154 -3.227735
12.27841 103.8318 -6.734642
12.0863 100.3513 -7.387542
12.88909 106.4534 -2.40486
11.5945 108.8999 -5.112732
11.08886 108.6559 -6.208266
12.07195 108.2591 -4.599049
11.985 110.0216 -2.158824
11.05061 109.5725 -5.569682
11.51217 111.3543 -2.871614
11.93145 125.6397 -3.796603
11.00156 124.5899 -6.307199
12.3448 127.7154 -5.376894
13.77476 66.09468 -2.528615
13.71204 65.81738 -2.673093
13.34938 70.73454 -4.035048
14.33118 68.04868 -1.003833
14.18395 67.17148 -1.50864
14.54977 69.64193 0.09835171
13.88351 69.85001 -2.798569
14.51832 69.59328 1.743348
14.69315 73.72665 1.822628
14.11588 73.75509 -2.969076
14.85403 75.30709 -0.262825
14.65706 76.29719 -1.792591
14.39215 78.03719 -3.396411
14.73309 77.7365 -2.09479
14.98679 78.12722 0.7320172
15.3774 85.80756 -1.605555
13.98668 80.54456 -5.186729
15.12023 81.2152 -1.542666
14.8609 82.8843 -3.626801
15.13136 83.2867 -2.643824
13.76501 87.63686 -6.890918
14.87187 89.47078 -4.39243
13.64181 91.08042 -6.780015
15.30659 88.16294 -2.448153
14.78349 88.70274 -4.751995
14.5961 92.85429 -3.581125
12.4702 96.53341 -7.1829
13.68724 96.24538 -4.098249
13.46236 97.34711 -4.076468
13.45466 100.7155 -2.250496
12.76016 94.25536 -7.375197
13.17639 100.2297 -4.122604
12.91472 104.8699 -4.406807
10.67505 121.5552 -5.332923
11.29916 124.6969 -5.957365
12.4255 129.0168 -6.057383
13.91477 62.88572 -1.949163
14.34351 64.91283 -0.1482941
14.76602 74.20821 -0.01103727
14.38859 80.70491 -4.299177
15.07983 90.23374 -3.241862
14.30125 92.00783 -4.985471
12.95165 104.3631 -4.531394
13.05526 99.74563 -4.630585
13.28788 98.85068 -4.033761
15.41004 89.08588 -1.572003
13.22008 130.1122 -3.719336
15.01985 84.54389 -3.600512
13.71457 95.82764 -4.2935
14.15768 94.04562 -4.163336
-13.26426 63.61488 -3.314071
-14.42422 88.97948 -5.535984
-14.39142 65.86514 0.653761
-13.61246 132.3141 -6.943883
-14.10766 61.28326 -0.2283975
-10.10747 115.3574 -3.049382
-13.69889 87.5372 -6.932417
-13.55265 89.71207 -7.139247
-10.85091 109.8693 -5.720238
-12.18234 98.97643 -7.185286
-10.06376 114.8797 -3.379654
-15.22881 82.5771 -0.2005965
-14.30481 88.15944 -5.900945
-14.26913 134.2721 -9.004374
-14.94177 93.42308 -1.370682
-15.37833 88.1268 -1.195713
-13.95344 73.1809 -3.171992
-13.84549 59.99387 2.141749
-10.42107 116.599 -1.410337
-13.7448 132.8269 -7.522589
-10.32919 118.4816 -2.387329
-12.98279 129.8355 -4.703433
-12.42159 105.818 -5.443993
-14.23056 74.43768 -2.740506
-15.29629 84.60879 0.874626
-15.28285 88.44331 -2.434783
-14.46707 94.56201 -2.642571
-15.41048 88.36804 -0.1363772
-14.30128 96.23876 -1.781723
-13.93108 60.8344 1.889853
-14.41693 67.15199 1.771168
-14.6969 73.81314 -0.4807121
-14.68859 74.17276 1.889704
-12.59717 107.9287 -1.875789
-12.49202 127.7273 -2.181898
-11.30869 123.7347 -2.867178
-14.86612 76.74579 -0.5320194
-13.96808 59.69803 -0.804134
-13.90096 132.1649 -3.239363
-10.51892 119.6167 -2.439611
-13.14903 103.7608 -3.391509
-14.50971 69.18502 1.310147
-10.44762 119.0734 -2.183912
-10.30563 116.6657 -1.827789
-11.05148 115.0265 -1.481899
-14.4868 94.84769 -2.350724
-12.67781 102.0447 -5.696749
-11.92372 110.3594 -1.87677
-11.48012 109.6566 -4.602627
-11.42321 111.0815 -3.201349
-10.90838 122.9445 -5.528738
-11.27503 125.3598 -6.170693
-11.72369 123.5318 -3.93979
-9.442064 117.2221 -4.745957
-10.87486 121.2851 -4.635701
-10.38271 120.3354 -3.675833
-10.86766 115.7583 -1.640122
-9.161998 115.9362 -4.988258
-12.70104 128.4708 -4.497596
-13.66908 64.36223 -2.565927
-13.2795 66.20508 -3.479887
-14.15892 67.79863 -1.6586
-14.42542 66.42287 0.9522426
-14.36707 73.4466 -1.977976
-14.77451 74.84587 1.154873
-15.01058 78.53822 -0.2004693
-14.14274 78.79892 -4.246549
-14.86615 79.24669 -1.970993
-14.48149 83.10247 -4.720294
-15.28816 83.64579 0.04417671
-15.33412 85.66051 0.7029681
-14.98768 85.05365 -3.806677
-15.36909 89.92215 -0.8415935
-15.28073 91.43116 -0.2155387
-14.93841 89.90697 -3.886573
-14.92089 93.93473 -0.6487197
-13.7503 98.22554 -2.404707
-12.47689 98.29288 -6.594872
-12.16863 102.849 -7.055042
-12.80968 104.512 -4.995476
-12.947 105.6821 -3.215807
-11.90891 109.1209 -3.967595
-12.73972 127.1565 -3.1624
-11.93174 110.1996 -2.300024
-9.726386 113.4659 -4.939248
-11.42721 122.7393 -4.137139
-12.50825 126.1795 -3.564261
-14.05359 61.58073 1.279566
-12.9219 130.3237 -5.889414
-14.01421 63.94195 2.911146
-14.00795 60.94716 -0.9340598
-14.08427 65.01549 -1.547558
-14.52568 70.13889 1.612157
-14.42619 67.15131 0.09913281
-14.08323 65.83118 3.164514
-13.52561 72.38294 -3.909899
-13.47253 74.77478 -4.524304
-14.75731 74.13512 0.2507257
-14.65015 74.25716 -1.016017
-14.5327 71.32955 1.915676
-14.60337 76.15275 -1.831377
-14.93539 77.65261 -0.7409537
-15.13363 81.18846 -0.877876
-15.07366 80.03117 0.949572
-15.00183 80.96832 -2.032378
-14.11273 81.60067 -5.257762
-15.28978 83.84783 0.664493
-15.018 85.1319 -3.662969
-14.07285 86.18738 -6.233337
-14.96841 86.91571 -4.048594
-15.09684 89.64658 -3.371081
-15.24915 88.60294 -2.728097
-15.18607 92.23696 -0.633754
-14.43359 90.21027 -5.250449
-14.07322 91.85519 -5.580977
-14.27456 94.22349 -3.590172
-14.68519 91.33025 -4.185686
-14.12622 94.94748 -3.548548
-13.80191 98.78612 -1.597654
-13.91142 96.95773 -2.709073
-13.09709 98.7249 -4.697612
-13.08621 101.0986 -4.266936
-12.79024 105.875 -3.979141
-13.17582 104.0507 -2.552382
-12.9478 129.4503 -4.47655
-11.35772 107.4558 -6.641046
-12.62775 106.7158 -3.941863
-11.38529 110.6317 -4.015142
-11.00082 113.4854 -3.094438
-11.21638 122.4866 -3.966664
-14.19963 70.53458 -1.950369
-14.47278 69.88253 -0.6282197
-14.19683 75.12769 -2.960467
-14.54623 70.71595 -0.3537324
-14.66441 84.39354 -4.556692
-15.20222 86.05057 -2.903636
-14.40529 90.05334 -5.366939
-13.34928 101.7384 -2.146401
-12.94338 103.7362 -4.63213
-13.02975 101.2197 -4.498933
-12.71332 103.3795 -5.598603
-14.24629 63.38998 -0.1522537
11.77369 64.00173 -5.26347
12.91304 64.83694 -4.033953
7.841315 131.6824 -12.93256
12.05034 132.4141 -10.59683
-10.63313 77.90483 -7.945059
12.47562 73.51474 -5.607052
5.587653 117.0528 -9.738985
12.7011 90.03424 -8.431314
13.48352 85.42149 -7.06498
14.31599 144.5441 -10.91353
11.72461 58.80764 -5.010159
-9.986237 89.69411 -11.94076
13.08337 59.26803 -3.529799
-7.9669 115.8121 -6.880252
12.21535 64.20541 -4.839217
-8.448201 122.236 -7.997165
-10.28961 139.2431 -13.78981
6.48888 144.3046 -11.94926
-0.6250876 145.7269 -11.61457
8.792126 113.5144 -6.563567
6.212013 147.1929 -8.108596
11.37735 60.61468 -5.343002
3.92487 109.973 -10.75426
4.248783 109.0488 -10.44243
-8.140056 115.1345 -6.302709
-12.4157 85.4654 -8.399717
5.49495 118.3588 -9.72921
-6.171206 145.8237 -10.54158
9.29356 119.7964 -7.107892
6.071984 118.7248 -9.377719
-8.385789 146.3325 -8.174786
-13.48935 133.8751 -9.721913
15.46578 144.9544 -10.21466
-10.90305 106.5544 -7.701245
-7.382767 109.7374 -8.627738
-8.319408 121.1912 -7.562953
5.660728 117.263 -9.685803
6.255699 126.8718 -10.80352
-1.943812 109.1864 -11.46366
8.484134 128.3056 -11.14841
-7.023828 114.7976 -7.890393
13.00562 144.9001 -10.50552
-5.918111 58.16647 -6.633483
2.800941 146.08 -11.42985
5.412028 114.1502 -9.721063
7.221742 129.9182 -12.42593
-10.7951 91.38228 -11.13705
13.35415 135.8788 -11.21366
5.573823 130.0662 -12.88738
-4.567593 58.582 -6.693657
-7.203108 126.3292 -10.63655
-4.842134 105.5378 -11.04083
-10.30594 58.30297 -5.987927
-13.04532 145.0514 -9.498781
6.495487 147.0805 -7.842129
-8.952294 116.8788 -5.905028
-6.892292 107.6546 -9.727442
10.23742 122.3597 -6.829261
-9.190898 114.603 -5.369022
11.95484 144.803 -10.65089
2.799067 131.454 -13.6738
6.99138 105.9044 -10.58286
0.9790945 64.20412 -7.315536
-13.25397 83.17149 -6.913124
-5.583385 125.9708 -11.10862
-12.60009 74.44579 -5.579834
-2.546282 117.0533 -10.14894
10.60745 109.2556 -6.515129
7.894585 134.8214 -13.66861
-11.60389 98.40036 -8.593883
-12.63832 93.86333 -7.741204
-12.08012 98.26649 -7.59171
-11.49263 96.68686 -9.218816
-8.050652 95.92419 -13.22335
-11.4963 128.1512 -8.931458
-3.858771 121.3271 -9.571324
-4.161813 124.6813 -10.56557
7.219264 118.9359 -8.700502
11.95451 58.75736 -4.793424
-8.433337 106.1457 -9.758158
-1.201768 148.1974 -10.34993
1.980366 125.6041 -11.12389
-3.427796 148.5181 -9.766358
2.777941 117.8083 -10.20986
-3.305797 148.5996 -9.793637
-6.625893 112.9616 -7.760016
-7.144835 118.2356 -8.07963
2.655274 142.2544 -13.42576
-11.03798 126.6967 -7.743584
-11.33098 127.6049 -8.526014
-6.563271 132.1294 -13.59974
-10.61952 124.6865 -6.832298
-11.78469 62.22273 -5.042313
-14.03175 143.8399 -11.76363
-9.030734 146.3008 -7.84515
-14.46905 137.913 -11.80059
-15.8428 145.28 -7.940028
12.95275 60.30032 -3.717795
-5.83685 122.0722 -9.920483
-8.454054 116.0869 -6.246134
-8.365293 115.263 -6.044015
-11.14392 133.8002 -12.14926
-9.111073 146.1437 -8.234228
-5.407992 147.1 -9.589057
-7.494124 146.3231 -8.745451
12.92471 63.98642 -3.945636
12.60767 61.22937 -4.184933
11.61673 60.67879 -5.14454
10.63888 60.78828 -5.918389
12.7249 70.77924 -4.908811
-13.29794 82.76715 -6.77368
-11.13052 83.99717 -9.141153
12.26448 88.74302 -9.035276
11.56293 101.8572 -8.278046
10.36918 106.172 -8.43647
11.65798 98.84992 -8.49099
11.45107 100.0875 -8.696379
10.8421 107.2625 -7.426084
9.837472 110.4621 -6.61848
9.91743 109.0774 -7.350348
4.878482 106.6892 -10.50914
5.870974 110.0958 -8.836099
6.245248 108.9607 -9.305199
5.064 112.2827 -9.867664
11.72631 129.3172 -9.46749
7.296089 126.3597 -10.56927
6.169227 128.6409 -11.96287
7.219924 131.6116 -13.1465
8.868816 117.4322 -6.294393
9.893131 120.8331 -6.643463
9.044071 122.2035 -7.715659
10.54524 123.0161 -6.635783
11.17738 127.1078 -7.958853
6.914558 145.64 -10.34488
14.65074 141.9349 -13.19955
13.94135 135.0664 -10.32057
14.18229 139.8917 -13.05301
12.89599 131.7998 -8.863853
-4.410839 126.7103 -11.65323
-3.584394 120.4615 -9.571728
1.56362 143.7419 -12.64554
0.0956192 132.2164 -13.91031
-3.292741 116.276 -10.21279
0.04929157 60.42431 -6.916792
-6.614024 107.7736 -9.765808
-6.663939 109.1564 -9.092761
-10.72185 96.95525 -10.49862
-9.849197 108.1402 -7.893098
-9.782528 109.4986 -7.210913
-8.672785 58.04202 -6.537916
-10.91845 61.27333 -5.705272
-6.120121 112.5854 -8.441616
-12.03014 93.1492 -9.046204
-7.037418 126.9953 -11.10709
-10.13046 124.7785 -7.832775
-10.71301 125.2409 -7.23311
-7.771735 130.3632 -12.49495
-13.55988 138.1384 -12.3771
-6.239151 116.7224 -8.724221
-9.803778 121.4718 -6.380106
-6.689063 122.4952 -9.995376
-14.35609 143.5419 -12.09872
-15.62296 145.098 -8.682816
6.859019 114.912 -8.125581
8.422002 113.3499 -6.753612
12.91254 140.8614 -13.72464
14.07342 142.543 -12.91719
-6.799346 113.4612 -7.550383
5.127049 145.6029 -11.27888
5.784833 146.1043 -10.53821
5.584292 144.2475 -12.22572
3.377308 146.0022 -11.46596
2.668523 147.7075 -10.52139
-11.06017 145.5144 -8.893894
12.8287 64.18788 -4.086629
9.72561 58.32703 -6.291944
4.441139 60.02037 -6.85747
11.27552 79.02428 -7.82409
-10.94331 72.9782 -6.848485
-12.24814 82.05283 -7.84711
12.20596 89.70168 -9.160755
11.88364 85.8979 -9.117148
12.33125 95.13171 -8.011169
11.4368 98.69367 -8.936908
11.15878 97.44109 -9.742702
9.32318 102.2828 -10.79257
6.955609 107.3466 -9.95221
6.884352 110.5803 -8.479128
-4.590279 111.0467 -10.10655
3.750436 107.6849 -10.84847
6.578008 111.9896 -8.001964
8.524363 107.3031 -9.235322
-4.018632 111.5541 -10.39937
1.558193 114.4815 -10.79049
12.59933 132.1121 -9.695086
6.967651 132.5006 -13.5415
7.479884 118.2115 -8.417973
6.199884 121.8579 -10.25203
8.718334 123.2876 -8.763184
8.097621 126.3473 -10.58769
7.154215 119.5885 -8.775829
12.34217 145.8514 -8.711336
7.743798 146.7891 -7.494347
11.94085 143.5448 -12.12178
10.88113 146.1706 -8.053155
13.6186 133.5381 -9.099016
-5.111442 125.7999 -11.07302
-1.371154 122.3466 -9.946825
-0.3941785 123.2602 -10.48951
-4.22386 120.7157 -9.593747
5.010476 129.1379 -12.52366
4.375906 131.6997 -13.65337
4.152281 116.8083 -10.35615
2.404499 118.6386 -10.025
-6.397748 59.29576 -6.740993
-12.22371 64.30056 -4.763105
-12.97906 70.45812 -4.457314
-7.328928 104.927 -10.86791
-8.461124 107.9362 -8.911241
-8.902341 106.8984 -9.163015
-7.805312 108.1879 -9.145521
-7.391675 111.3593 -7.912933
-9.973012 105.5133 -9.010114
-6.658988 59.22656 -6.729459
-11.28337 65.21298 -5.767373
-12.2701 96.22762 -7.733208
-12.00163 99.59792 -7.570472
-6.026238 124.864 -10.41143
-10.06647 126.8949 -9.808156
-12.12607 129.1532 -8.085613
-9.683004 126.5998 -9.837543
-6.405996 129.9409 -12.65714
-14.4211 136.0435 -10.74897
-11.59635 135.7499 -12.1127
-10.08079 134.4554 -12.72106
-7.113583 135.8687 -14.07291
-13.12675 136.2855 -11.62962
-9.184645 133.0968 -12.89639
-7.845663 133.5319 -13.54717
-6.653069 134.2386 -14.0214
-7.761411 116.9051 -7.71194
-7.493715 121.854 -9.220788
-7.817107 119.2226 -7.678878
-7.034352 119.8502 -8.389854
-7.032888 124.4079 -9.915215
-12.00659 144.9923 -9.917377
6.803428 116.9944 -8.850304
13.80354 140.1559 -13.29073
-7.636197 112.7027 -7.195062
7.984355 145.5027 -10.03214
10.18809 145.3394 -9.997416
0.5144858 147.136 -10.89769
-11.69633 144.9529 -10.08561
12.85019 67.07206 -4.315288
11.43485 64.94533 -5.657987
11.11929 66.49822 -6.035345
7.070753 60.89835 -6.845971
12.36434 75.10879 -5.998941
-13.04712 75.19625 -5.181154
-12.43236 75.69234 -5.983798
-13.26102 86.6074 -7.447175
-13.28813 84.21848 -7.075963
-12.6572 87.89508 -8.366158
13.18638 85.98691 -7.535346
13.17812 82.82384 -6.986381
12.92602 84.1339 -7.576849
12.7177 82.10229 -7.447647
12.08489 78.87583 -7.091189
11.95619 76.902 -6.806156
12.09856 92.34568 -9.155236
8.838635 100.0359 -11.83028
8.523313 103.6186 -10.85322
7.128552 103.8534 -11.45631
8.289259 105.2384 -10.28374
9.192358 106.1453 -9.331639
-4.818368 104.6828 -11.45696
-2.729006 109.7047 -11.12862
2.621413 105.9032 -11.74199
2.574455 107.3268 -11.72349
1.587127 108.9813 -11.75182
5.05931 111.3289 -9.787236
-4.264277 114.8406 -10.01213
-3.545646 112.1267 -10.52026
1.873293 110.2248 -11.50379
-0.8502522 116.3434 -10.34631
3.99977 115.2505 -10.46753
9.082101 133.3425 -12.83681
9.71034 121.48 -7.166986
7.879184 123.9121 -10.27346
14.00071 142.8419 -12.68382
-1.511696 129.6585 -13.08097
2.265554 122.9999 -10.00047
2.464523 124.4324 -10.45996
3.895783 124.572 -10.31881
-0.937669 123.42 -10.55587
-1.778087 120.9173 -9.533019
-1.452956 121.4511 -9.587543
-1.503937 118.8301 -9.785726
-1.711213 116.0012 -10.37088
3.245307 131.8822 -13.78846
5.733658 131.823 -13.54457
-3.446689 132.1389 -13.88042
-0.8077191 130.9397 -13.54288
0.09813509 129.0649 -12.88427
-6.188538 61.75112 -6.966322
-4.450607 61.50927 -6.996297
-5.734295 61.744 -6.983175
-6.417501 63.00351 -7.071761
-13.10467 67.02783 -3.91102
-11.96606 65.92214 -5.17441
-8.585973 65.01791 -7.078481
-9.154105 102.3901 -10.86068
-10.57132 61.69659 -5.991203
-11.68986 63.26607 -5.220206
-10.93184 96.31973 -10.32622
-9.951228 94.58733 -11.88223
-8.914852 96.32156 -12.60279
-11.67432 96.53889 -8.894554
-11.71612 100.3195 -8.104673
-6.953361 125.5414 -10.44461
-9.043087 123.2791 -8.089092
-11.41184 128.4066 -9.156949
-8.712761 126.5625 -10.1591
-14.22764 138.0455 -12.00747
-11.55226 130.4204 -9.990497
-9.525864 131.2856 -12.1188
-12.37122 137.8519 -12.69146
-8.539443 138.9856 -14.1313
-7.703967 137.1177 -14.12593
-10.30238 137.3401 -13.14867
-7.617651 115.3736 -7.173348
-7.230531 122.3537 -9.718724
-12.7306 142.4511 -12.96885
-11.56785 140.9254 -13.6054
10.09172 140.49 -14.11077
12.56905 140.8213 -13.7645
12.0871 138.7108 -12.98028
5.564729 145.0825 -11.50373
5.292201 141.9884 -13.69592
9.092365 142.7087 -13.02229
10.10366 142.4021 -13.23516
9.519173 140.4205 -14.18076
6.72259 143.0544 -13.05069
9.455582 141.2392 -14.02425
-1.90453 146.5675 -11.19325
5.836535 138.917 -14.47448
-0.4107006 146.3732 -11.28629
12.45492 71.95982 -5.400501
11.94859 65.05742 -5.168983
5.694004 62.57322 -7.085571
6.753043 63.65548 -7.167939
9.536748 72.0389 -7.529115
0.1321347 59.50224 -6.820345
-12.80943 75.59249 -5.543307
-12.6488 76.52645 -5.947564
-12.95172 79.5645 -6.418179
13.15932 87.14761 -7.66856
12.69868 91.05442 -8.356553
12.73243 75.9967 -5.762236
12.14652 93.20853 -8.896248
9.147485 96.54306 -12.39106
-4.111151 105.0997 -11.43548
-5.127109 110.4502 -9.640359
-7.67495 98.22224 -13.05004
0.4650395 109.3394 -11.69898
11.68153 131.5752 -10.58774
7.067592 133.3309 -13.71488
10.29164 129.9501 -11.00546
10.22562 126.7319 -10.0087
9.621939 125.6629 -9.961332
10.86364 128.3328 -10.08564
9.489935 126.4388 -10.23424
12.86199 142.3362 -13.13227
11.17811 143.5449 -12.10592
9.308637 146.3831 -8.060433
3.486872 121.4336 -9.887633
3.213374 123.1245 -10.01904
1.767098 122.868 -9.981467
-1.549351 120.5784 -9.543156
-2.511089 117.8014 -9.984643
3.248187 114.8254 -10.69411
1.634284 127.8457 -12.34072
-4.290003 131.5164 -13.64819
-12.22097 70.4347 -5.437077
-10.42384 101.2875 -9.932552
-9.900088 102.1747 -10.29192
-10.83 100.8287 -9.509624
-8.339118 61.76245 -6.778538
-7.893533 63.44056 -7.032602
-7.48946 59.84948 -6.751401
-9.592271 97.6534 -11.78856
-9.407108 91.82201 -12.60469
-10.59713 91.51591 -11.38039
-10.50068 88.94597 -11.31828
-8.438535 89.09192 -12.96836
-11.51276 89.88849 -10.16799
-11.2261 100.2101 -9.055499
-9.796282 140.6425 -13.87757
-12.45757 143.1772 -12.49785
-15.08028 140.3507 -12.74737
11.11841 133.0468 -11.67234
3.613077 142.9848 -13.13986
-1.134274 146.822 -11.05854
10.0843 70.2394 -7.126733
10.99013 69.94941 -6.503366
10.26262 70.89019 -7.121789
9.235913 66.01389 -7.050772
9.083273 63.70306 -6.852026
5.703367 64.78073 -7.338363
8.983536 66.73087 -7.220582
-6.680429 73.72478 -8.256179
-10.61323 75.70914 -7.426872
-11.63626 70.06776 -6.010173
-12.41544 77.76408 -6.425329
-10.78129 81.616 -8.857446
10.33165 84.67822 -9.962346
13.12689 85.26012 -7.511663
11.69608 75.31195 -6.667389
11.54682 93.75784 -9.877618
10.16101 97.80051 -11.11806
8.076588 102.9181 -11.40511
7.668037 100.9595 -12.31041
3.644108 103.9252 -11.93053
-1.399225 108.6962 -11.67917
0.5336915 107.8676 -11.95601
-0.5219351 109.0326 -11.71837
9.821994 130.7064 -11.63975
9.791224 132.3574 -12.23874
10.25963 131.6314 -11.70687
10.20831 133.6026 -12.33833
-0.1469518 124.2732 -10.94742
0.3493856 125.1071 -11.23045
-0.9412154 126.3736 -11.85207
2.297972 125.1153 -10.79829
2.217663 117.2429 -10.2953
2.153092 128.4724 -12.56782
-10.39105 70.04411 -6.893045
0.2796811 70.51895 -8.010977
-9.659974 101.2258 -10.80895
-9.218645 64.22521 -6.825998
-10.58875 98.63256 -10.33009
-8.654003 98.35808 -12.42052
-4.673262 100.007 -13.40913
-0.570441 99.92732 -13.44866
-7.673591 100.3993 -12.51118
-7.386024 100.3141 -12.66189
-11.99516 90.94546 -9.410461
-9.810487 129.8281 -11.33747
-12.46261 139.1765 -13.20601
-12.61771 144.0752 -11.59624
9.990498 137.1178 -13.01277
2.181565 141.3676 -13.74233
8.558552 68.99438 -7.556069
7.272695 69.78791 -7.809591
8.167397 73.01818 -8.019784
4.189014 60.47089 -6.904778
3.223519 60.96423 -6.965191
-2.31559 63.23072 -7.199639
-1.600328 60.23992 -6.890976
0.40796 64.57079 -7.354999
1.890202 61.9284 -7.073107
0.2571128 65.71809 -7.477423
-4.302905 63.51277 -7.198408
-6.775895 64.53707 -7.223107
7.304856 71.0342 -7.952838
3.526006 65.11912 -7.402457
6.865417 64.91471 -7.312886
-12.36633 74.45423 -5.858416
-13.13104 78.17739 -5.817345
-11.37781 85.51322 -9.445064
-10.35346 85.0643 -10.0779
-8.35068 82.17549 -9.855375
-7.444867 80.64835 -9.688015
-8.82116 80.96307 -9.493398
10.14144 88.85611 -11.76611
7.818417 95.98616 -13.39042
3.683239 102.2196 -12.75898
2.615593 103.6305 -12.23098
3.82176 100.9966 -13.23787
-0.9316566 109.3554 -11.60603
1.928652 106.4067 -12.0168
8.60639 135.2238 -13.36189
12.82749 133.6391 -10.56649
1.183627 116.5948 -10.37495
-7.979585 96.55304 -13.18481
-4.859599 103.1375 -12.27576
-2.833214 147.7157 -10.54949
-3.949737 144.0059 -12.50664
9.309948 72.03075 -7.637813
-2.344316 61.04874 -6.972071
-5.430463 62.55162 -7.069744
2.688421 61.56828 -7.030943
6.606628 66.77406 -7.554936
6.986963 68.39204 -7.729258
7.853817 64.68714 -7.222414
-11.52454 72.10824 -6.266529
-11.09155 87.92345 -10.46674
-11.55999 79.19091 -7.684502
7.714036 93.99741 -13.62328
10.96099 93.08752 -10.85482
2.031924 100.8009 -13.21682
0.03053618 104.9542 -12.4325
-0.9555008 110.0538 -11.47042
8.970106 135.8314 -13.24878
-0.04146313 115.1882 -10.60436
-1.688865 103.9368 -12.48349
-2.489908 104.9898 -12.05288
-8.840359 145.2304 -9.913048
-8.562563 144.576 -10.79945
10.34969 76.92347 -7.897703
-6.388618 65.81616 -7.397126
-9.17575 83.75523 -10.10344
-10.23799 80.48161 -8.74377
-10.25011 77.29727 -8.037784
7.610264 96.05057 -13.46243
0.4686405 102.3819 -12.83989
1.217476 103.4733 -12.58849
-2.522183 112.8392 -10.72532
-5.24533 99.47252 -13.47672
-2.092863 103.1856 -12.58143
-4.637106 100.7743 -13.23353
-5.803704 99.87833 -13.26445
-4.940229 97.57738 -13.93964
-2.884477 100.8953 -13.22283
-2.721785 99.45929 -13.59588
-10.11552 143.3127 -12.47781
-0.4377076 65.07141 -7.406121
-1.599072 65.87461 -7.484404
2.009652 67.28259 -7.646341
0.8101517 68.35123 -7.76549
-3.669189 72.21774 -8.175858
0.7914164 69.90173 -7.93953
3.862508 66.22619 -7.522248
3.853183 67.19306 -7.629376
1.982235 68.73019 -7.805257
3.260418 68.63319 -7.788934
-6.877244 63.87683 -7.141782
-4.799909 66.68668 -7.534713
-4.815776 65.20018 -7.363485
5.930197 98.19785 -13.68346
1.549169 99.95245 -13.45667
-8.452676 94.57196 -13.13409
1.568637 99.08774 -13.64703
-3.739646 66.05778 -7.479154
-2.74909 68.91352 -7.813432
-1.761522 69.90086 -7.932511
3.598772 63.17633 -7.19152
4.894803 70.06613 -7.913045
-6.910807 65.12743 -7.289949
7.133479 93.20199 -13.8749
7.79522 95.22054 -13.4932
7.481297 97.29659 -13.31577
6.141958 98.94969 -13.45978
3.900548 97.65326 -13.96835
-3.101363 95.91832 -14.1834
4.750463 97.64929 -13.94205
3.185338 96.96207 -14.07751
2.223662 99.60989 -13.54326
-2.634638 98.26335 -13.84115
7.355653 71.90438 -8.082989
6.910844 69.70354 -7.81678
7.790069 93.34862 -13.57755
4.971178 100.9989 -13.15017
6.040826 100.9904 -12.97831
-4.992833 90.57516 -14.22758
1.16977 97.22969 -13.98088
-3.026811 94.00648 -14.31341
4.20895 95.57051 -14.22139
0.02084602 97.6329 -13.91657
-0.8306517 96.45851 -14.08819
4.463976 92.64621 -14.37956
3.80575 91.88583 -14.33749
2.637062 93.16475 -14.32863
-2.141647 92.60432 -14.32228
-8.519535 145.8213 -9.149065
-8.511455 127.1367 -10.44737
8.158254 144.6783 -10.91967
10.14967 79.16492 -8.621469
11.40454 82.37214 -8.621925
10.01286 75.92941 -7.848434
8.92453 75.90967 -8.23346
9.11471 75.16294 -8.031283
8.159299 78.51071 -9.049381
6.351464 78.54794 -9.198383
6.563369 78.6998 -9.231827
8.159942 75.56352 -8.427508
7.189472 79.54769 -9.469248
7.801628 74.77359 -8.369053
7.971491 76.90946 -8.674198
4.053168 74.0606 -8.407216
4.871317 73.82461 -8.351823
4.375984 75.46008 -8.608427
3.582159 72.58153 -8.228964
3.285313 76.01406 -8.735798
3.601329 71.03928 -8.043829
1.175487 74.02907 -8.455102
-1.523909 72.41258 -8.2338
3.194444 73.90795 -8.409142
2.503621 75.98501 -8.748159
-5.428783 73.9529 -8.335344
0.6502578 73.69349 -8.409837
1.321175 78.11871 -9.18785
1.736683 77.64297 -9.077394
-0.6019059 76.13961 -8.790919
1.457986 120.8114 -9.6587
0.9502941 119.6188 -9.735015
-8.781904 103.9978 -10.52025
-6.739493 137.2854 -14.28184
-3.330344 133.1445 -14.13527
-6.680015 135.5114 -14.14154
9.138538 138.8362 -13.97371
8.777406 136.9346 -13.53076
6.495413 136.2954 -14.32129
7.426081 135.4347 -13.96147
5.919619 133.3171 -13.63058
6.749134 138.6614 -14.4514
6.228002 141.1402 -14.05512
4.404427 138.1301 -14.54598
4.116079 133.3275 -14.05054
2.162916 132.3229 -13.93964
5.087939 141.6222 -13.84648
-9.724708 70.14462 -7.300421
-5.985478 72.60486 -8.14739
-8.88951 71.18053 -7.682536
-9.212895 67.73049 -7.232496
-9.355276 92.57855 -12.63203
-9.940963 91.35871 -12.08088
-7.430859 94.1703 -13.66481
-5.074822 93.47725 -14.34435
-8.082363 92.8912 -13.49153
-4.319179 90.19277 -14.15358
-5.320896 85.54218 -11.88873
-4.677048 90.97117 -14.31017
-7.454876 88.29984 -13.09225
0.3757672 91.09727 -14.20537
-6.176932 84.8064 -11.34241
-4.902442 91.77949 -14.3753
-1.725014 86.11671 -12.26194
-1.612983 87.23093 -12.90647
-3.674848 87.47285 -13.05079
-3.688937 85.11077 -11.63194
-2.857968 85.11525 -11.65435
-8.945237 79.90607 -9.175741
10.91785 82.33141 -8.959043
9.387036 80.88496 -9.326308
6.937028 81.46698 -9.900628
8.014807 83.55035 -10.26313
6.838508 86.1851 -12.24407
9.512832 84.70622 -10.41738
9.551001 85.33336 -10.68042
10.35493 84.1378 -9.691034
9.161347 87.21678 -11.73962
9.206444 90.37106 -12.76109
4.768476 84.81356 -11.42186
9.550582 88.14479 -11.96078
3.719893 89.59497 -14.02209
1.497212 86.18188 -12.32181
4.287448 86.32178 -12.45383
4.382616 87.48245 -13.11859
0.2049728 84.86267 -11.53876
4.399446 84.28289 -11.10167
-0.8096863 82.78086 -10.55205
1.323653 84.78362 -11.49081
2.962912 84.22284 -11.14713
9.311152 100.8677 -11.22507
-1.427877 114.7834 -10.59731
-2.41868 145.4115 -11.76269
-1.835489 145.0761 -11.93937
0.1290703 142.8083 -13.07191
-4.59267 144.8216 -11.89535
-2.725211 143.7187 -12.67584
-4.160532 145.4301 -11.63556
0.9417533 140.4392 -14.03031
-3.459557 142.2867 -13.44869
-6.21104 141.7758 -13.70842
-7.583757 143.1772 -12.6744
-1.93963 140.3739 -14.05284
-7.044279 143.6353 -12.31202
-8.882406 141.2006 -13.81615
-7.745707 138.5785 -14.22127
-6.887438 141.225 -13.89958
-3.90298 139.7624 -14.2271
-5.873962 140.1005 -14.16345
10.5206 65.14668 -6.30603
-8.853858 87.66172 -12.0869
-8.778671 83.32088 -10.06909
-7.281408 86.90468 -12.41764
-3.735229 80.97549 -9.869233
-5.392033 80.65231 -9.740543
-8.114093 77.8733 -8.864767
-5.399333 78.26884 -9.139527
-11.63098 76.904 -6.944228
-10.19538 76.6619 -7.917829
-3.496967 100.7486 -13.30223
1.061713 100.1514 -13.39436
-2.005013 97.59616 -13.94211
8.615285 88.40612 -12.61329
7.969479 89.60413 -13.3474
6.604284 88.5062 -13.43138
