# .PCD v0.7 - Point Cloud Data file format
VERSION 0.7
FIELDS x y z
SIZE 4 4 4
TYPE F F F
COUNT 1 1 1
WIDTH 1659
HEIGHT 1
VIEWPOINT 0 0 0 1 0 0 0
POINTS 1659
DATA ascii
4.800805 146.7355 2.902279
-4.912736 146.6133 3.062276
1.945424 150.6306 -4.714452
6.560552 146.7401 0.1328887
-5.148025 146.0756 3.539052
0.05418887 144.6413 6.536894
-5.452652 148.814 -0.2862559
-5.012864 146.6835 2.87395
0.2867469 145.6639 5.771735
2.660937 145.7468 5.424997
-3.051126 149.8374 -4.727108
4.369413 150.272 -2.850568
1.766186 147.6612 5.088076
6.172957 147.2206 -0.3530526
-5.953832 147.7401 -0.2015975
-6.221024 147.0273 0.9366093
2.110239 145.7653 5.535797
5.611176 147.9269 -0.2932794
-5.506834 148.4488 -1.915208
-4.866774 148.5344 -3.973078
5.745101 147.8792 -1.681334
-10.95124 121.3455 2.230111
-11.54412 127.0272 -2.405227
-11.85652 128.9035 2.335066
-10.96685 121.0119 3.006148
-10.66023 122.0314 6.755702
-3.18423 121.9989 13.28772
-2.968956 144.7364 6.488783
-11.12294 124.7583 -1.447169
-12.10381 133.4634 5.485084
2.32514 123.0468 13.44932
3.397095 138.2658 9.995431
11.08698 124.705 -1.520396
-10.75013 119.8005 4.964558
7.651855 140.5552 7.760943
11.47043 125.6961 -0.728571
-11.89948 127.6205 -0.7539396
8.894224 132.5389 11.38668
-11.90097 135.7293 7.034738
11.99691 128.0321 -1.04401
11.70707 126.8344 0.9697999
0.2639081 142.0412 8.213266
-9.87453 121.2355 8.458598
-12.23581 130.4872 2.111612
1.734937 137.9357 10.27268
-11.77286 128.001 2.42666
10.67194 121.1164 6.411739
-11.3495 129.5349 6.390091
-10.31462 138.3832 7.581499
6.341321 143.894 6.393656
-10.38345 139.1362 7.197855
-10.97707 131.3504 9.257672
11.91829 130.129 2.994828
-12.03059 128.4663 0.5423788
-11.82694 127.3483 -0.6146175
-11.91741 132.276 5.850381
11.91815 127.8908 2.7989
11.25913 123.2193 1.624732
-10.86013 120.2612 4.399875
-9.795262 120.7963 8.499211
10.78177 122.2321 6.356709
11.21536 122.3533 3.075594
-1.465197 123.1079 13.4815
11.8755 137.8789 6.759133
8.00245 141.2717 7.27555
-4.38924 139.6215 9.179485
-8.859939 122.6899 10.26184
6.507781 123.3056 12.31601
-11.58529 125.8316 1.41349
12.05193 130.9753 2.895165
10.69399 123.2934 -1.335289
-11.45446 124.611 2.616512
-12.23968 132.3394 3.947614
-11.84039 131.0087 4.960809
-10.60431 128.1723 7.36643
-10.44555 128.625 8.625599
-10.28225 129.4406 9.851477
11.87055 130.0921 4.007865
-9.504634 121.7688 9.205351
11.07642 121.729 4.685707
-2.739569 120.5235 13.12607
-1.182817 121.5005 13.34343
-11.13777 137.8434 7.357288
11.98897 135.8537 6.61332
7.74037 137.7399 9.120529
9.439703 138.8952 7.754427
5.003571 142.0535 7.911269
-8.240623 122.8467 11.02932
9.587504 120.6578 8.864313
11.71593 130.7122 6.369955
-11.50652 126.7472 3.546485
-11.85298 132.7256 6.539451
-10.10662 127.66 8.456576
-9.65926 129.1847 10.77928
-8.149817 128.9484 12.0947
-10.43254 122.7547 7.446062
-5.434489 121.1019 12.59471
2.996498 122.4192 13.36323
4.295038 126.0868 12.99219
-11.64811 136.9005 7.191515
-5.58079 138.7829 9.32811
12.07205 134.3374 6.441432
6.199222 139.4923 8.804137
3.531029 140.6957 8.811365
2.682257 141.0396 8.725364
9.117567 135.5544 9.589788
-9.504505 124.2403 9.360985
8.17923 123.0854 11.08846
5.614368 120.7206 12.44289
-2.116152 123.0641 13.47506
-5.498613 123.637 12.88376
-8.195001 124.0582 11.06706
-12.48094 137.1262 6.533287
11.7578 133.1208 6.717029
-7.724014 128.3488 12.13211
-10.82572 121.7542 6.069478
6.038779 120.9392 12.26226
-3.08077 125.3811 13.33583
-6.478947 125.9309 12.13402
-1.977954 125.8467 13.3666
-1.588252 124.5365 13.49972
10.07913 135.1143 9.123232
-11.37238 125.765 4.081203
3.892312 137.4002 10.36188
-8.159255 124.7986 11.04207
-5.987784 127.4491 12.37568
-11.12614 125.1669 5.343522
-11.27842 122.8856 3.531145
6.527011 138.4771 9.20217
4.299012 135.7637 11.16966
-3.15571 128.5497 12.96771
-6.22646 128.7701 12.7597
-4.102421 130.6024 12.91421
-6.771193 125.2267 12.07722
-2.579239 126.6662 13.19021
-9.526868 127.3899 9.43416
-4.225081 131.9391 12.7041
0.9016387 139.9885 9.256371
-0.1029153 138.5374 9.981809
-1.071374 139.082 9.704268
3.38478 142.199 8.150995
-0.8705052 142.7633 7.823016
-3.425041 142.0248 8.235344
-11.00466 121.7169 2.008471
3.879081 144.0144 7.018121
11.39147 123.9315 2.408204
11.15706 123.6989 5.207675
11.41939 124.5051 3.405967
-10.50875 136.6587 8.145763
-11.00904 132.0185 9.328828
-10.37671 133.4196 9.693327
-7.057506 138.2714 9.131747
-6.086258 138.1291 9.51141
-4.725743 136.7898 10.53354
-5.368528 138.2229 9.658687
-6.816743 131.861 12.47224
-4.464428 133.1286 12.32591
-1.879369 138.2928 10.09031
-2.774528 136.1251 11.13343
-2.917099 138.5524 9.89342
10.75577 123.3007 6.556797
9.624825 125.9119 8.922539
9.01792 126.2267 9.883073
9.838138 126.6583 8.654607
11.47057 127.6943 3.683121
1.453418 126.2241 13.38557
3.319811 125.7875 13.26393
4.469255 126.3043 12.92323
11.22989 127.0682 4.930763
11.6229 131.5594 6.187808
1.170869 125.6092 13.45675
7.402407 126.6524 11.41153
7.639908 125.9594 11.34179
11.13481 129.1079 6.213603
10.80555 128.6057 7.425076
-2.54031 127.3509 13.0963
11.86596 133.9777 6.726541
11.31277 131.5082 8.286438
8.810064 127.6699 10.66648
7.950001 134.852 10.56864
1.892565 127.8122 13.11115
8.561363 131.708 11.87661
11.01886 129.8538 8.076546
7.711619 133.2248 11.6436
7.928343 127.3046 11.32883
9.937113 129.6275 10.72804
9.144091 129.769 11.67956
5.857833 125.9119 12.49913
7.039426 130.6272 12.69393
2.670028 128.5697 12.99574
4.956373 133.589 12.12195
6.960097 130.4611 12.74191
-10.2541 125.8285 7.764804
-8.763551 131.142 11.89768
-8.684723 130.0625 11.989
0.1134164 139.0109 9.743718
-8.544749 136.6709 9.344314
-7.620363 133.4173 11.56417
-5.515345 133.9801 11.85536
-5.679148 131.5358 12.73478
2.393908 136.7559 10.85592
1.275947 130.6352 12.82522
-1.248943 130.6816 12.82067
5.559767 134.2061 11.74798
0.5104837 136.9683 10.77824
4.415651 137.0213 10.48141
1.648661 136.2595 11.12749
-1.018047 136.348 11.08491
0.1463709 135.2724 11.5169
5.726673 131.1901 12.75036
4.44543 132.2212 12.64702
3.098542 138.8759 9.713823
4.187152 134.4527 11.80934
0.9700489 131.482 12.69923
-12.29118 128.6123 -2.824395
-12.60266 130.3905 -0.03988166
-13.08069 133.2509 1.696387
-12.51923 132.9072 3.16926
-13.34699 137.9316 5.841572
-11.05508 140.4675 6.384288
-8.352703 142.4199 6.511466
-9.089223 142.1056 6.509644
-8.476784 143.3372 5.914095
-6.750702 145.1064 4.925775
-5.180575 145.2087 5.216948
8.93209 143.5594 5.795669
13.33119 138.7829 5.628218
8.635535 142.2724 6.450478
5.302125 145.2168 5.094387
7.545451 144.7353 5.236475
6.320247 144.6615 5.619629
12.58495 129.9415 -1.800858
12.43216 129.2411 -1.571876
13.1212 136.3205 4.997074
13.17361 133.7345 2.005273
12.55801 132.7965 2.732995
9.548889 119.6901 -0.7627071
0.2013943 134.8275 -8.227468
1.152589 128.0285 -6.787177
0.7259665 124.1638 -5.518222
5.727002 126.6355 -6.324057
11.25457 126.5601 -2.965963
10.01079 123.192 -2.490681
8.222534 125.1454 -5.084038
8.242552 124.8324 -4.902151
1.723693 137.6617 -8.710568
10.40098 123.6476 -2.184709
0.01062941 125.5734 -5.992869
8.481451 123.44 -3.970441
-0.1413536 137.2155 -8.487342
2.518181 142.8572 -8.26042
0.3968648 119.445 -4.601315
10.99308 126.8946 -3.782617
4.095563 143.1236 -8.314492
1.559642 120.017 -4.47582
-0.004432639 144.4731 -7.768374
1.483671 139.1132 -8.697466
0.3118781 136.1733 -8.397192
2.983288 126.1611 -6.224704
2.295121 135.0679 -8.515031
3.285917 139.3656 -9.061883
1.335326 139.5394 -8.66188
1.82373 146.5611 -7.273836
4.219958 141.9201 -8.846837
3.80413 126.4174 -6.322157
5.375902 125.4035 -5.902568
4.463326 120.7035 -4.381651
-0.05781442 128.8028 -6.98488
0.4028875 143.8965 -7.827457
1.029819 145.6037 -7.486249
6.830602 122.7506 -4.451504
3.769967 122.6052 -4.979753
6.654576 121.8766 -4.135565
2.029578 125.563 -5.999037
5.40031 127.3855 -6.689261
5.517261 123.3445 -5.025808
0.09103095 131.7149 -7.678581
11.74981 129.29 -4.455622
7.312525 127.2253 -6.491282
7.527645 128.2088 -7.030212
8.6044 126.9465 -6.008243
3.49493 133.8525 -8.614221
11.15691 128.0991 -4.601329
3.795023 137.083 -9.096169
2.746427 130.0519 -7.494648
4.221637 132.6524 -8.550675
5.696211 146.6426 -5.713676
4.652667 143.2611 -8.281291
5.394466 145.9295 -6.682367
4.760453 140.1433 -9.245086
-5.789656 140.8729 -9.13632
-5.87463 141.9712 -8.765631
-5.688586 136.8232 -9.245562
-7.034121 128.9013 -7.473326
-5.491879 129.3949 -7.674931
-5.709088 144.3176 -7.591237
-5.632389 128.2178 -7.066545
-5.405072 141.9136 -8.80639
-9.241648 128.0119 -6.374833
-3.250332 131.8303 -8.096558
-5.774252 138.1041 -9.309469
-4.612322 129.1292 -7.394865
-1.578184 133.2772 -8.081683
-4.110857 119.9615 -4.207959
-0.8307585 119.5619 -4.58196
-0.6954046 129.893 -7.288805
-0.4195817 133.5399 -8.014631
-6.018746 122.7093 -4.701568
-6.941311 124.784 -5.316845
-1.994335 146.7417 -7.281586
-8.253947 120.3251 -2.58469
-6.634802 121.1133 -3.869534
-6.788069 119.7321 -3.279517
-10.02942 126.6104 -4.927365
-7.828058 123.2828 -4.268062
-10.64685 125.5951 -3.27177
-6.161371 127.2185 -6.550769
-1.636454 129.7036 -7.282281
-0.4706711 135.4601 -8.302203
-11.58665 127.4708 -3.351935
-9.955126 122.9284 -2.359865
-11.09155 127.0635 -3.753558
-10.03209 123.2593 -2.510783
-1.346388 134.9315 -8.329053
-3.20576 136.5147 -8.893357
-0.9037359 140.6623 -8.582282
-1.720738 138.2862 -8.761703
-1.559543 119.5762 -4.535798
-2.378572 133.1223 -8.178564
-3.773094 126.4882 -6.359072
-1.109859 144.3376 -8.313452
-4.062962 142.3068 -8.634134
-7.956316 124.1329 -4.475188
-5.989171 126.6884 -6.344796
-8.51194 124.7751 -4.603371
-1.073802 140.3327 -8.541505
-2.940424 122.6137 -5.017151
-2.847613 146.9049 -6.876853
-3.601658 141.7986 -8.768662
-3.588897 124.443 -5.605772
-6.206553 126.5864 -6.273664
-1.535277 124.2329 -5.547638
-2.43587 145.4749 -7.674924
6.600214 118.3407 -3.039225
9.644911 119.3943 -0.4578231
8.047544 119.182 -2.231852
0.4447467 117.7659 -3.611388
8.253308 117.235 -1.542284
1.160887 119.0956 -4.171106
7.050049 117.6267 -2.603051
9.567895 116.4146 0.1693841
2.86974 118.1751 -3.740944
2.377408 117.448 -3.61544
8.022243 116.6655 -1.709204
-10.29246 115.1608 1.709993
-7.541735 116.9197 10.216
-7.67575 119.8063 10.87667
-9.291816 118.2916 8.668138
-5.981928 118.965 11.7627
-4.934054 118.5856 12.19881
-10.53032 118.368 4.751716
9.621501 116.2371 7.701905
-7.589547 118.6984 10.63312
4.375806 118.4652 12.34881
10.33638 116.2134 5.819432
4.552778 116.7817 12.09816
-7.809007 117.8558 10.19033
10.42628 118.3578 2.456623
5.473784 119.4832 12.14675
-10.27368 116.818 5.885409
-3.394937 118.4451 12.74692
-10.47641 115.2553 2.36383
7.89746 118.8957 10.43937
10.51694 118.156 4.341954
-9.492495 118.8809 8.5446
-0.6742681 118.1629 13.06687
1.591758 119.8512 13.20548
4.680724 119.0101 12.34363
9.836174 117.4545 7.414971
9.912744 118.7752 0.7218007
-3.202248 117.2319 12.67096
10.52773 115.3336 4.937836
-2.762416 116.879 12.71566
9.079326 117.7913 8.771288
-9.263165 115.4942 8.274515
-10.14998 117.0462 1.633657
-10.18363 118.5726 7.030087
-4.20947 115.8156 12.15375
10.45105 116.8346 4.547025
10.46473 116.1774 4.219424
-10.2879 117.1276 2.221702
-5.926642 117.4434 11.44866
-8.819027 115.8996 8.897971
-9.207605 117.221 8.503498
-5.481197 118.9143 -3.750593
-5.84578 116.4291 -3.159123
-3.461429 115.2813 -3.542187
-7.650881 119.0573 -2.485462
-1.877032 118.3571 -3.779525
-4.940377 118.175 -3.736704
-4.380348 119.3837 -4.088973
-7.325228 115.6789 -2.298938
-9.247103 116.2673 -0.2874297
-7.320392 116.249 -2.251212
-3.49091 116.5478 -3.670359
-0.6509564 19.95157 -4.455847
-12.63223 26.46416 -5.590484
-8.995307 18.9426 -4.218981
-3.066033 20.23391 -4.499912
-11.40297 61.84047 -1.070186
-10.78487 111.1713 -0.5406651
-12.27869 43.54949 -4.510542
-11.63157 60.95026 -0.8259947
-11.80655 41.25288 -5.409467
-12.47037 47.5282 -2.361293
-12.16399 44.208 -4.247305
-13.54002 42.17336 -4.066313
-11.4858 99.41762 -4.361896
-12.88727 91.85062 -3.591938
-11.93374 97.13927 -3.931238
-10.23641 112.2058 -0.6362473
-10.20915 112.473 -0.4824862
-12.16456 93.34397 -4.486899
-12.64837 99.79375 -1.717297
-11.22275 50.20387 -2.216315
-12.68403 76.62016 -1.674237
-11.72457 70.06336 -1.626387
-10.68343 53.43586 -1.936638
-11.56722 48.7696 -2.612301
-11.97272 59.42456 -0.4826093
-13.15843 83.07812 -2.760331
-13.04916 90.17352 -3.557307
-12.6385 33.38066 -6.131196
-7.919093 19.84122 -4.393501
-13.008 24.59817 -5.085673
-12.46073 105.1427 -1.207147
-11.66862 53.0251 -1.189466
-12.28358 49.24101 -1.720056
-13.6308 88.99609 -2.776314
-13.37177 87.70559 -3.12279
-12.69485 23.04172 -4.879799
-13.34622 27.79854 -5.485617
-13.17421 42.14344 -4.404727
-13.64418 32.0755 -5.608366
-12.46492 69.60873 -0.7486101
-11.3178 25.89899 -5.580605
-12.63167 98.82112 -1.85678
-13.61143 90.12882 -2.665184
-13.02154 93.48698 -2.853461
-12.4267 97.12606 -2.820648
-13.7402 31.26649 -5.543663
-12.40545 103.9341 -1.958419
-13.88699 86.26644 -2.227266
-12.67491 29.01597 -5.89758
-13.17615 70.41354 0.08848787
-11.26094 106.9778 -2.731301
-12.31734 75.82619 -1.778449
-13.73967 82.491 -1.769234
-13.65261 85.56326 -2.561517
-12.33549 76.86694 -2.152493
-12.01636 98.16525 -3.51875
-12.67305 79.02496 -2.355889
-12.84946 29.62081 -5.882286
-11.239 23.82136 -5.208043
-13.63753 37.74274 -5.340704
-12.48773 71.83801 -1.034323
-4.169396 67.15121 -3.219719
-3.959139 114.9501 -3.498468
-6.465246 96.94116 -9.469247
-3.431373 68.46396 -3.37232
-0.8018192 24.20321 -5.288936
-12.44392 89.56119 -4.489065
-0.2742337 26.20197 -5.645776
-1.71242 20.86898 -4.632084
-0.01358431 27.01383 -5.772251
-4.77468 37.94362 -6.145646
-2.849252 70.34669 -3.578695
-11.53611 73.32458 -2.105259
-0.5550492 104.4795 -7.307774
-11.50203 95.95876 -5.101915
-1.307148 94.66168 -9.958173
-7.38826 91.01033 -9.408484
-1.497799 112.5941 -3.810758
-7.216603 74.43201 -4.019399
-11.02102 99.38394 -5.117201
-10.52094 59.68625 -1.55216
-2.539849 85.57916 -7.666149
-4.394298 24.7681 -5.384666
-1.844065 81.24344 -5.624701
-4.452055 109.4861 -4.747558
-0.8444275 110.7025 -4.375138
-9.126174 109.4749 -3.417083
-10.53035 51.81915 -2.280993
-10.5279 50.68337 -2.512308
-10.19286 40.16823 -5.818288
-0.526798 65.05226 -2.954301
-1.481413 41.93661 -5.376154
-11.55359 33.77556 -6.343054
-8.809175 25.45874 -5.485065
-9.962657 110.0813 -2.330128
-9.995913 42.89175 -5.156911
-8.212378 34.453 -6.328763
-4.697347 114.1255 -3.471115
-6.760883 113.6459 -2.959827
-10.46797 102.775 -5.198781
-10.36944 103.6898 -4.949886
-9.598541 114.753 0.001035215
-6.562479 114.4028 -2.902842
-0.5808056 106.9389 -6.029913
-1.082131 51.36149 -2.761432
-11.22576 74.11757 -2.420131
-3.158208 113.742 -3.602184
-3.188186 56.50795 -2.328238
-2.977355 114.9912 -3.536704
-6.113305 37.22057 -6.229425
-1.624806 79.1529 -5.019794
-4.130151 84.80347 -7.136025
-11.88023 91.71161 -5.273621
-10.58014 23.22174 -5.09417
-1.43203 49.52607 -3.127496
-10.27792 51.63192 -2.37725
-9.17617 50.27779 -2.857679
-8.951508 44.43969 -4.693937
0.01589609 39.58687 -5.889321
-11.30324 67.34946 -1.682723
-0.7215426 60.29361 -2.41676
-1.594051 66.73772 -3.180876
-3.455658 53.95515 -2.42621
-1.280037 59.61096 -2.377896
-0.04640818 24.36446 -5.320456
-1.523561 27.22276 -5.804271
-10.09385 25.60083 -5.50383
-1.826715 22.16258 -4.892797
-0.2738927 34.00406 -6.336663
-0.5236443 34.85789 -6.346949
-8.00954 32.43578 -6.251305
-1.332721 102.0835 -8.462124
-3.949459 103.8769 -7.647496
-10.75536 97.53507 -6.037813
-10.39522 93.80178 -7.205976
-0.7707874 91.32076 -9.912758
-11.95618 93.36456 -4.870099
-5.617233 111.2759 -3.937072
-1.084325 107.3731 -5.810811
-5.119519 77.84698 -4.642599
-0.5283511 81.2472 -5.635384
-12.01002 81.57914 -3.622595
-11.59499 77.07585 -2.800877
-0.7885017 70.7618 -3.618852
-1.86094 77.17078 -4.542409
-10.38832 69.70132 -2.609533
-1.830674 86.35481 -8.122802
-4.212892 86.07745 -8.020173
-11.63857 90.16792 -5.685534
-9.197352 21.97762 -4.843923
-5.591316 50.13208 -2.944293
-9.038818 53.57973 -2.369043
-10.35498 46.20913 -4.055723
-8.632199 43.40767 -5.001285
-0.562624 38.25674 -6.112754
-9.152685 42.1812 -5.342667
-5.041346 69.30659 -3.468448
-1.690959 68.50274 -3.375034
-7.068295 66.61497 -3.140404
-8.68891 64.64243 -2.70985
-9.027332 61.24303 -2.294182
-10.95555 28.967 -6.014081
-0.2619272 29.70529 -6.093756
-6.17723 23.22651 -5.094876
-2.820935 31.27685 -6.202308
-10.90171 40.09859 -5.801204
-1.994221 100.9041 -8.900199
-9.394322 99.32248 -7.214627
-10.00085 109.1846 -2.903127
-9.657966 92.44505 -8.048424
-1.348857 90.0569 -9.716103
-9.491362 94.82703 -7.975311
-8.862973 113.8117 -1.478557
-2.611533 109.8905 -4.63682
-3.179203 104.9767 -7.050812
-0.8207396 74.71999 -4.097695
-11.12548 77.15761 -3.148414
-10.40396 81.66364 -4.847256
-11.01479 82.59319 -4.638781
-2.926574 68.45959 -3.371009
-1.817284 84.96339 -7.282199
-2.564229 91.24747 -9.942029
-11.04149 86.35143 -5.848456
-7.852003 23.95528 -5.229349
-7.75889 51.71052 -2.628851
-2.729075 48.66285 -3.344763
-0.9659627 44.35903 -4.692167
-1.757259 42.42437 -5.254478
-10.49003 43.73111 -4.923421
-10.18805 40.67044 -5.715425
-7.626496 42.21608 -5.322517
-10.67157 70.19897 -2.457584
-10.33608 62.38975 -1.870733
-8.313212 57.6348 -2.275562
-8.650572 62.54146 -2.505538
-9.249273 59.87457 -2.141541
-10.58812 30.08418 -6.133399
-1.733508 28.6354 -5.986896
-6.661303 26.91366 -5.736103
-7.608839 25.54873 -5.506591
-2.830529 24.23674 -5.290732
-6.623313 34.28881 -6.326124
-2.333753 34.15044 -6.332765
-5.404874 33.92925 -6.316999
-8.174537 35.58043 -6.324822
-10.41899 38.16703 -6.150142
-1.315901 96.66766 -9.781442
-8.671824 104.9127 -5.743523
-10.12515 101.9903 -5.810499
-8.803369 108.5947 -4.097779
-1.725007 96.13689 -9.842645
-1.268984 92.78095 -10.00584
-11.59283 92.86845 -5.583772
-6.139034 93.60184 -9.879545
-5.245913 113.3758 -3.460284
-5.590784 107.6808 -5.444167
-8.335979 109.4102 -3.976646
-6.862287 83.01256 -5.981841
-12.16398 84.53662 -4.164926
-3.031163 69.41836 -3.477283
-6.067176 68.92932 -3.422697
-6.735184 68.06689 -3.33386
-7.753126 65.45696 -3.038878
-5.604034 66.15155 -3.114189
-10.87405 71.38824 -2.438527
-10.40174 74.30367 -3.073555
-8.139867 74.1117 -3.904054
-2.458153 85.3843 -7.544522
-11.76967 88.22161 -5.333717
-10.21936 91.92423 -7.537637
-9.699874 91.24731 -8.02636
-4.196001 46.4153 -4.032868
-2.316326 50.03064 -3.010526
-1.682473 41.20337 -5.556712
-3.317291 62.58557 -2.595765
-4.162982 64.5811 -2.881687
-6.98845 61.79863 -2.538373
-3.563077 27.16843 -5.789384
-2.681075 29.93512 -6.109933
-6.90456 33.26429 -6.289363
-6.743182 27.18135 -5.77585
-4.167275 35.76752 -6.326685
-6.010832 36.13659 -6.303236
-4.395396 103.7699 -7.709364
-4.539723 95.72573 -9.916162
-4.414432 99.10607 -9.422764
-8.730056 98.32746 -8.103991
-7.123947 98.80356 -8.851611
-7.83697 100.187 -8.162956
-10.47466 97.30109 -6.512853
-9.204086 102.5707 -6.434341
-8.570393 104.2269 -6.20932
-4.633427 76.8037 -4.436652
-4.969612 78.54858 -4.820743
-4.389514 79.54615 -5.092369
-7.581633 83.84927 -6.30772
-9.491383 80.85726 -4.970195
-4.199582 75.17953 -4.159786
-7.307269 71.99392 -3.744647
-3.673927 47.72794 -3.608491
-8.372506 39.32488 -5.954654
-6.036308 59.30408 -2.379971
-7.513694 31.09556 -6.19176
-5.364896 32.53345 -6.262248
-8.537071 37.33748 -6.229862
-6.594416 98.13762 -9.201802
-9.238349 97.30543 -7.876489
-6.607493 100.9145 -8.514961
-5.929173 81.43735 -5.62071
-6.386398 80.74717 -5.402715
-6.178449 73.75232 -3.946876
-5.820521 78.55485 -4.804711
-4.426805 60.4271 -2.430592
-7.945743 36.01907 -6.309311
-8.775241 79.65224 -4.83678
-8.131303 80.21344 -5.194718
-5.849275 83.68431 -6.383956
-2.844995 86.13213 -8.00238
-7.187894 77.33315 -4.467031
-9.446567 77.97308 -4.240338
-8.593568 55.36809 -2.343385
-8.558292 54.61544 -2.294609
-8.182793 52.77206 -2.449156
-5.051286 53.56931 -2.43149
-5.647913 87.39023 -8.631526
-8.524706 87.85577 -8.082226
-8.108489 85.70406 -7.261746
-8.928225 87.46643 -7.677457
-8.187288 92.61729 -9.185055
-5.556815 88.7896 -9.424534
-3.561362 94.22749 -10.01034
-6.96506 95.286 -9.509609
-5.606698 91.77749 -10.01549
-2.287014 44.31279 -4.710423
-4.874409 44.65984 -4.606518
-4.205648 41.55933 -5.475598
-5.600452 40.3484 -5.754475
-7.826313 59.6527 -2.403917
-5.199945 57.63128 -2.292793
-3.94125 106.8417 -6.026739
-9.373256 63.21983 -2.358953
-4.923624 102.3827 -8.339923
-8.301871 82.61652 -5.666363
-7.994538 72.55263 -3.758969
-6.632047 51.43309 -2.689594
-3.177696 52.41053 -2.584113
-8.02646 95.26167 -8.95817
-6.95987 104.258 -7.0213
-3.983815 104.7817 -7.142279
-4.892203 79.07021 -4.954069
-3.65008 59.83834 -2.397682
-4.807155 57.85516 -2.290848
-4.193192 58.58896 -2.325981
-5.724592 107.9977 -5.277845
-8.151896 105.8215 -5.69097
2.009234 71.55953 -3.702093
2.854477 47.17687 -3.79745
10.2638 26.9584 -5.784357
1.005915 67.83807 -3.304149
7.985811 71.00335 -3.586284
7.467075 24.81863 -5.412899
10.27425 31.40339 -6.163214
1.321903 97.26859 -9.702062
6.148501 20.45047 -4.569258
2.682506 57.24039 -2.320951
9.967237 62.12534 -2.067419
9.723795 60.19586 -2.024248
4.514475 103.2097 -7.956335
11.42674 72.93603 -2.238076
11.79069 80.21084 -3.520623
1.859611 34.17355 -6.345483
0.6587521 114.9409 -3.504537
11.37157 75.5863 -2.650314
10.89278 68.9492 -2.178191
11.02103 99.81154 -5.19075
10.37687 105.025 -4.563136
11.43837 94.57957 -5.601648
6.618378 114.6292 -2.787349
9.247609 114.1898 -0.8908012
10.32479 106.0256 -4.222636
10.16251 98.68329 -6.617396
1.421217 109.9288 -4.647019
6.406635 90.29443 -9.678718
2.985924 21.81234 -4.829355
0.6088863 42.53147 -5.221802
10.91976 86.07578 -5.813333
0.272693 47.96506 -3.556603
4.969612 44.55955 -4.632699
0.3802229 55.20769 -2.375883
4.51914 78.05706 -4.772115
0.4699309 56.919 -2.32396
0.1797501 67.87473 -3.307759
0.3573866 45.53285 -4.321146
3.680213 66.72551 -3.198575
1.368949 92.59923 -9.976114
0.9345351 80.59209 -5.44308
1.563204 115.1265 -3.504498
5.636996 93.86281 -9.941416
3.752644 77.43964 -4.620417
0.4377582 72.40237 -3.796785
1.278831 78.06657 -4.764605
10.01239 43.38451 -5.020522
0.4867786 100.4876 -9.018282
8.162264 60.38063 -2.338565
2.905299 97.13302 -9.74476
10.99706 77.97379 -3.463485
-0.006085014 111.5985 -4.082507
6.179723 113.2668 -3.232455
7.312283 20.94576 -4.666683
6.566915 23.22851 -5.109113
3.784184 22.96989 -5.057732
2.704503 32.15696 -6.256961
2.379333 26.14384 -5.640367
1.556872 27.69516 -5.871997
10.24929 39.26753 -5.910119
3.093773 33.2178 -6.31563
1.526213 36.08867 -6.318284
8.933822 41.1246 -5.578315
8.122433 43.6043 -4.944282
2.066149 44.7912 -4.55742
11.13504 46.30761 -3.898438
8.935577 49.45916 -3.022169
10.4936 52.00093 -2.231425
7.395119 59.68867 -2.364124
9.382727 67.65091 -2.854914
1.467695 60.43205 -2.423963
8.495428 63.27011 -2.566362
9.942652 69.21323 -2.781614
11.42723 70.08917 -1.907529
10.45626 73.769 -2.960985
11.54172 77.49203 -2.982485
11.05363 78.0422 -3.444997
1.964779 81.90305 -5.860833
9.640294 82.48873 -5.329526
1.761923 87.34197 -8.69747
0.5211619 88.09991 -9.030277
9.775219 90.04873 -7.905898
7.448388 88.48801 -8.841097
10.39844 93.42968 -7.201659
-0.3214803 96.95199 -9.742295
9.713183 94.77766 -7.839803
9.237711 99.45521 -7.328293
11.08116 103.0121 -4.519109
10.35838 104.7294 -4.69691
1.859038 103.3213 -7.890914
8.884254 112.5761 -1.89887
6.634583 112.6523 -3.306087
2.290883 106.2915 -6.37707
2.782827 114.2736 -3.568456
5.338177 22.33572 -4.934531
1.175337 21.10381 -4.68709
4.106651 20.99044 -4.670419
9.747644 26.21629 -5.662363
2.013078 24.48939 -5.346875
2.089139 27.27301 -5.815136
9.86357 37.60222 -6.236207
0.6793972 40.45036 -5.719663
2.707483 36.76598 -6.283352
10.0372 39.78836 -5.81876
10.49088 46.33506 -3.980838
9.555902 53.88562 -2.342796
0.2243813 59.73485 -2.379388
7.745589 55.22058 -2.360632
10.43672 66.23815 -2.193474
9.187898 69.62289 -3.152424
9.529169 74.83891 -3.572016
2.354283 72.10567 -3.762044
2.172669 84.1914 -6.839709
7.776615 86.90276 -8.018496
1.151508 83.67358 -6.586486
3.769327 86.69581 -8.393397
9.85393 88.73927 -7.658725
2.830128 94.6595 -9.982253
10.42175 96.04887 -6.859553
1.812781 101.112 -8.827664
9.18815 108.4276 -3.960359
9.177824 109.2661 -3.542746
1.353608 108.4915 -5.262117
5.470728 109.9473 -4.431613
4.663449 21.87654 -4.844044
5.299921 24.37136 -5.329449
6.570948 32.8872 -6.304513
4.805121 39.51949 -5.895534
2.893065 41.98307 -5.365106
0.6131181 46.14848 -4.123292
1.024026 42.85021 -5.135755
8.903782 52.40847 -2.563185
3.270175 49.94803 -3.010915
5.449071 54.20919 -2.387197
0.8169512 58.16064 -2.317671
0.6443481 55.52419 -2.362208
4.900214 56.15861 -2.351336
4.042021 57.55844 -2.313594
3.12165 58.24155 -2.306274
2.183463 65.20921 -2.972404
0.6435639 70.59255 -3.598994
1.939073 68.54908 -3.373317
3.0529 76.05373 -4.314716
2.247944 74.23002 -4.02562
5.096699 82.04253 -5.840371
0.4007307 84.10758 -6.817065
2.661807 78.83691 -4.964705
5.109222 87.85681 -9.052262
4.071746 91.1639 -10.0071
0.01448748 95.54583 -9.892571
2.110194 96.33501 -9.834695
0.3200367 93.82085 -9.983156
4.165793 102.7224 -8.247797
0.7077082 99.42686 -9.307788
0.04585996 104.1184 -7.493099
8.582348 111.9693 -2.499676
1.559357 107.3342 -5.821774
7.395074 108.658 -4.661727
3.958773 23.48194 -5.157235
5.233042 27.41945 -5.840416
4.050733 24.75926 -5.401034
8.56905 36.66212 -6.309353
1.982405 41.07072 -5.582606
8.135301 54.25914 -2.318643
8.168047 51.06182 -2.708148
3.509724 53.48418 -2.479079
7.321703 59.17561 -2.31214
7.382318 61.65092 -2.540452
4.880905 63.21639 -2.696385
4.981803 64.54463 -2.861042
7.026829 68.49057 -3.366899
9.848684 82.00957 -5.174296
4.564324 82.68338 -6.046951
6.417815 84.18583 -6.622091
6.142896 81.80944 -5.737985
5.252009 81.55253 -5.707117
3.679811 80.75565 -5.496244
2.920841 89.57679 -9.713531
7.794171 108.1881 -4.774142
4.662648 109.6977 -4.632498
3.890673 106.5396 -6.188484
5.375924 106.6529 -5.98034
5.65287 27.59257 -5.867417
4.177588 30.5176 -6.154032
7.738095 35.48529 -6.370602
2.389993 40.28714 -5.749893
7.124001 41.71527 -5.440094
3.947567 52.87589 -2.542792
4.980866 62.15688 -2.570018
5.819265 66.84416 -3.215529
4.135389 68.91853 -3.399529
8.732374 84.78026 -6.52308
8.141944 82.15708 -5.597688
4.190425 79.31201 -5.094413
3.823118 88.87685 -9.516093
9.443744 89.01006 -8.064742
10.07468 90.35817 -7.633445
8.595043 105.0184 -5.922297
5.332416 105.359 -6.718074
1.946528 33.27213 -6.31904
3.949442 41.51135 -5.47803
8.002001 39.50268 -5.893544
9.528456 42.02713 -5.396684
3.786714 56.6493 -2.337493
5.878181 65.91941 -3.097929
3.642143 64.33731 -2.836932
5.343184 70.19196 -3.556122
2.424389 93.4059 -9.992375
7.713674 88.33738 -8.702296
9.846805 90.97676 -7.905942
5.031262 104.8142 -7.066627
6.641216 44.29377 -4.720399
4.737296 68.39924 -3.352263
6.158402 70.17301 -3.558276
3.475025 95.56916 -9.921025
9.452486 102.2316 -6.312714
3.805846 44.2366 -4.732592
5.802409 44.90303 -4.523645
4.788283 69.79304 -3.505782
6.663283 95.09979 -9.631702
5.221357 94.44888 -10.01551
6.351378 102.1719 -8.132889
7.160973 100.9634 -8.242676
5.109994 98.81062 -9.399957
8.376531 100.6855 -7.693924
7.046227 96.30049 -9.342577
3.731403 100.6951 -9.008428
6.364112 48.73801 -3.294395
6.466706 97.97413 -9.232069
5.871525 98.75079 -9.27352
3.26085 48.49283 -3.392761
3.512536 51.07429 -2.787678
5.807622 47.68296 -3.636495
3.756663 75.63939 -4.238842
6.915013 75.21983 -4.134601
7.177521 78.43916 -4.861434
7.276147 77.74734 -4.694585
7.393538 79.27585 -5.054394
4.487846 74.97722 -4.127404
6.903263 76.56696 -4.401205
4.680891 73.33814 -3.902231
5.778607 70.98443 -3.64338
10.32823 34.52848 -6.399281
10.69245 33.90379 -6.409801
11.3854 82.27512 -4.305497
6.692536 32.27707 -6.263844
7.465303 30.48238 -6.144984
5.943655 34.05041 -6.357557
5.986822 56.33042 -2.35461
1.988037 59.24583 -2.340701
4.179757 104.7146 -7.18795
8.128399 95.54457 -8.977175
8.469091 73.88454 -3.741126
3.80621 71.02148 -3.646381
7.009727 35.24723 -6.369525
11.46518 109.099 -0.9481871
11.59644 97.27765 -4.655298
12.74519 25.16518 -5.314425
14.04389 31.064 -5.351004
14.46424 34.78975 -4.998051
12.97834 91.33099 -3.565625
12.98968 71.36307 -0.3325665
11.21304 20.71008 -4.621233
11.916 24.68375 -5.403798
12.41298 21.56936 -4.594719
13.304 45.5089 -2.673992
12.35041 49.64609 -1.44573
12.27524 53.94914 -0.4746688
11.89754 51.14986 -1.363377
12.61642 63.27005 0.02945987
12.61382 68.23154 -0.4359613
13.22648 71.2319 -0.0004149104
12.09096 97.44289 -3.55369
12.32418 74.812 -1.670405
11.58974 98.49593 -4.367486
13.70093 83.29681 -2.070535
13.30804 76.51089 -0.8434833
12.33827 89.01662 -4.651796
12.5631 70.30503 -0.7544702
12.66951 94.84709 -3.087974
11.71146 100.5845 -3.881733
12.02574 105.6333 -2.288955
12.14167 106.6628 -1.427048
13.36347 81.70292 -2.199103
10.81251 108.7869 -2.25715
14.06617 87.14668 -2.170892
13.26006 33.22447 -5.939138
13.36321 35.97313 -5.826428
12.83663 43.53565 -4.174592
11.77263 43.08553 -4.890827
11.59713 50.92881 -1.735969
12.46423 41.10093 -5.225335
12.2902 34.91325 -6.262763
10.86199 50.46996 -2.383878
13.2209 38.88487 -5.45994
6.040923 18.70059 -4.25797
12.78301 42.47137 -4.638981
5.313481 20.17511 -4.517832
11.09705 20.59018 -4.598381
9.122828 20.10704 -4.51058
12.24187 45.18944 -3.811831
12.04501 48.17666 -2.518809
11.53128 70.19622 -1.828053
12.49451 80.07018 -2.825972
11.98241 77.77451 -2.753665
12.58979 87.38374 -4.164352
12.83083 87.98344 -3.902838
11.65688 94.97187 -5.131253
12.38842 90.29473 -4.585795
12.25002 57.46503 -0.2251091
11.46644 54.00985 -1.252971
12.47713 72.04762 -1.08988
11.05895 104.7322 -4.056832
11.57271 107.3216 -2.136984
12.42385 64.5474 -0.3016759
2.119387 19.24458 -4.335846
1.65849 19.79333 -4.435728
-15.78217 36.1281 -1.568205
-12.14846 72.6432 10.73172
-15.77429 31.85264 -2.509762
14.71157 20.62255 -2.050259
-14.56824 43.2274 -0.887162
-14.90364 41.48616 -1.277789
-15.17142 23.8099 -1.120731
-13.12929 19.20454 2.635005
-14.09243 22.62213 2.013099
-14.27827 48.15859 0.9969068
14.99175 78.49496 5.162672
14.83222 20.82988 -1.246433
-14.2998 45.00756 -0.2506444
-14.29333 66.59609 5.636162
14.53472 21.94203 -2.800964
14.5588 92.17212 7.225703
15.66834 28.99863 -0.2039012
-15.10355 79.91404 3.864576
13.51547 96.56998 7.554605
-14.14499 95.91418 1.494075
-11.86926 96.66494 9.285406
14.21026 19.37095 1.210175
-12.01778 110.2402 4.184129
-10.51181 113.8019 6.382505
-10.49648 114.9549 2.200687
14.24182 68.02258 6.413331
-9.516643 114.307 8.150878
15.40582 86.77226 3.235105
-14.17577 77.90878 8.284568
11.43012 21.81824 3.285028
12.61096 20.93021 2.964345
2.803391 23.00061 3.419469
-7.827862 19.50893 3.216229
-10.87103 82.49426 11.83741
-13.88934 52.67992 2.134497
13.89057 55.73838 3.242826
13.86359 57.50783 2.571472
14.87924 21.51036 -1.826044
-10.59789 113.7643 6.02701
14.05166 48.84156 1.003104
14.85232 37.51378 2.658795
-13.75519 25.88278 2.853328
-8.845231 64.88996 10.84992
9.971114 29.1488 4.193254
-11.5504 110.069 6.716003
12.07027 109.7313 1.853745
-1.678566 114.3306 12.77776
11.07235 111.8763 6.385906
-7.526835 113.1796 10.30436
10.56346 115.1514 4.811959
-8.691247 63.31669 10.61296
15.28564 83.65431 2.805501
8.641895 57.72702 9.527626
-8.166303 115.2419 9.542027
13.23852 101.2817 0.7233645
15.09819 23.9452 -0.6430795
14.91677 41.70914 -0.6346017
14.35915 93.74476 0.5985564
14.47554 73.61707 2.562022
10.08905 112.5892 7.962734
12.26475 109.3618 3.736164
10.25702 114.8709 6.46927
-15.77039 29.71977 -1.670984
-14.90743 22.49195 -0.07065763
-10.97507 20.62215 3.191603
-10.19156 21.17136 3.279631
-6.749716 21.00665 3.275279
-14.34263 41.5917 3.00246
10.85964 46.06238 6.515875
-14.59745 72.40318 6.081097
9.144184 61.72714 10.13921
-14.24731 76.07533 8.103086
14.35743 73.44717 7.339708
15.01103 93.44018 3.471334
13.53098 98.92599 1.290041
-15.41384 89.79952 3.859813
-15.1631 81.65743 5.430723
1.439769 112.8226 12.86338
-12.16745 109.5622 4.476761
-11.00893 113.2944 2.635904
3.819572 20.8525 3.252339
-0.2331778 19.98568 3.217618
13.76968 36.29637 4.174354
14.92214 25.22339 1.144816
12.35698 108.437 1.613036
8.826709 114.2206 8.945645
11.52186 111.5034 2.006552
10.58053 114.4633 5.263245
-15.6863 30.55371 -2.4878
-15.32151 26.42745 -2.310149
-15.59841 29.60275 -2.55581
-15.13131 24.13488 -2.069545
-14.74722 20.85578 -0.1054581
-14.439 21.17729 1.111227
-2.581188 22.18587 3.361197
-14.77049 41.9951 1.366385
-13.87724 55.23557 3.646728
15.43397 36.69309 1.314849
-13.90186 56.95862 4.051227
-14.6235 71.505 5.270134
13.89061 56.94025 3.924452
13.73371 54.69588 1.913207
-14.80125 76.73827 5.957238
14.24466 69.25933 2.721404
14.12468 62.63876 4.122005
14.65276 72.24194 4.939129
14.73562 73.89021 4.198807
14.852 76.18649 4.407223
14.94983 77.68023 4.094085
15.09012 80.20073 5.042031
15.0796 90.82153 1.581795
15.1999 91.03231 2.575478
14.44747 94.17635 1.30767
14.51047 95.30445 2.430735
-14.5894 94.24581 1.86641
-13.80169 99.03927 2.977176
-13.25228 102.4963 3.906775
-15.25806 82.04882 3.802127
-1.834474 113.5148 12.79607
-12.29683 109.2983 3.059052
-10.60497 114.4702 4.781719
-11.47841 111.8153 2.85777
11.28807 19.88857 3.170958
-2.849962 23.80963 3.539047
12.45025 20.7554 3.036684
15.38521 25.97351 -1.155736
13.58796 100.0755 3.768174
13.05784 105.2271 1.432405
6.829258 112.7627 10.84168
10.09623 112.2122 8.143784
3.595564 115.1911 12.40172
9.798886 111.1468 9.013116
12.41198 108.2942 4.350762
-15.21906 25.30213 -0.1173611
-15.57324 28.6226 -0.01370583
-7.489058 23.8921 3.565256
-15.86208 35.24929 -1.504138
-14.68283 42.61965 -1.026945
-14.14813 50.27603 1.910649
14.78447 40.86751 1.954367
15.00864 41.22812 -0.1799441
-13.30057 53.44767 5.497461
-14.11074 62.42429 4.271146
-14.14083 64.66628 3.469994
-14.31153 67.16076 5.613267
14.44198 43.75726 2.136372
13.83345 56.2669 2.4447
14.20263 65.02013 5.474002
-14.62224 72.36411 3.813765
-14.98334 78.11552 3.744942
14.38589 69.05295 3.426028
15.02185 80.96213 2.274091
15.26515 82.75913 3.407822
13.44892 98.21502 0.5053172
-14.97469 92.44402 5.94453
-13.2052 101.8081 5.065991
-6.105204 114.2687 11.11125
-9.401924 113.9562 8.437295
-5.552029 113.7073 11.46799
-12.95936 103.1863 5.085238
-12.19984 109.5094 2.365966
-13.04526 105.5331 2.481263
-0.9431894 20.60977 3.245496
15.58525 29.68394 -2.817428
15.90564 33.77796 -1.908196
12.74153 105.9719 5.243264
13.02259 105.1734 3.703103
4.122929 113.2938 12.24185
4.319057 112.2729 12.21666
8.301843 111.8448 10.04848
-14.90015 21.61734 -0.3872947
-15.03745 23.80309 0.0865117
-15.00356 26.40202 1.353989
-14.80748 40.57706 2.088101
-14.28653 47.55844 1.721645
15.52554 35.42347 1.311383
14.29124 45.51 0.2452585
-14.10749 63.23716 5.460858
-14.22645 65.48467 3.721148
13.98697 49.82883 3.736019
14.2083 48.43552 2.358827
14.0849 62.00639 3.640396
-15.19567 81.03443 3.62917
15.34473 84.38126 3.014562
14.96632 83.83203 6.8217
-13.78448 98.14363 1.790512
-15.26655 89.57001 1.794615
-15.37304 87.04377 2.533702
-15.36315 85.10888 3.852941
-10.35569 112.6083 7.332958
-4.623874 112.0805 12.15331
-0.4727868 114.2083 12.83302
-12.6527 107.5868 4.283555
-0.5187883 20.92852 3.263729
11.73428 109.3757 6.682332
6.202632 110.982 11.56112
7.025171 104.5998 11.79855
-15.50776 36.55378 1.115029
-14.40926 29.09207 2.725537
-14.1497 27.8774 2.94471
-2.052366 21.32716 3.292065
-15.19953 39.46651 0.9265828
-14.4673 44.84706 1.188776
14.98374 39.32884 1.9584
14.60134 43.05979 1.533604
14.39835 45.17712 1.276766
14.31856 45.76493 2.584864
-13.38567 51.35466 5.423161
-13.45835 59.08013 6.393565
-13.30309 60.86017 7.267599
14.35623 47.79459 2.427485
13.4457 60.46788 6.853932
13.572 53.76849 4.887016
13.31054 55.00108 5.812898
-14.58519 75.52019 6.900759
-12.17643 85.62409 10.81186
-15.00808 82.35384 6.626005
-14.82682 81.9154 7.14304
-14.19251 80.7196 8.691037
15.08211 80.58526 5.666502
15.34861 84.1833 3.946911
-14.86835 94.12144 5.213774
-13.65834 99.82094 3.520392
-15.42212 87.39119 3.451286
6.493755 110.3451 11.51553
7.068227 110.7996 11.13331
-15.86199 35.38791 -0.3177518
-15.12642 32.65181 2.374281
0.9130211 21.08889 3.270838
-15.22777 39.99571 -0.04352647
-14.30626 42.15701 3.123135
-14.22958 45.81423 3.109818
-14.11232 50.53373 2.387265
14.0351 38.54888 3.871843
-13.79252 52.32901 4.085887
-13.68591 57.94925 5.457814
-13.9477 63.52853 6.272949
13.069 58.70029 7.125661
12.59047 56.67167 7.400885
-14.3359 74.68703 7.617239
15.41376 88.43905 3.443257
15.30576 84.68348 5.203729
-14.38357 95.52805 6.188535
-12.20302 98.27402 8.737899
-0.3852673 113.1918 12.83919
2.020989 111.1038 12.94679
7.667119 109.5571 11.02714
-15.20562 36.34233 2.102388
-14.99345 38.06355 2.263931
1.203184 22.1502 3.34737
-14.58837 43.19024 1.509796
-13.92135 49.64585 0.5192353
-14.23895 47.56896 2.71969
-13.59537 55.75372 5.173578
-13.5647 62.00874 7.008222
-13.53505 65.08477 7.546466
13.07408 57.47002 6.769784
-14.13138 74.15755 8.187307
-14.32875 76.35976 7.876567
-15.29472 91.29866 4.404518
-13.94486 97.91634 5.740942
10.39932 107.3763 9.63747
7.766336 105.3879 11.47461
11.49549 106.0265 8.465473
-14.63536 36.40652 3.126964
-11.95111 36.03418 5.052992
-12.40953 39.15654 5.149819
-9.898629 46.49652 6.691826
-13.15062 51.2625 5.748911
13.60002 60.7244 6.474427
7.510882 61.68197 10.20719
15.10706 84.8388 6.200273
13.27163 84.28814 10.02912
9.7939 96.69128 10.43094
-13.15119 43.0799 4.855953
-12.2722 45.30526 5.779515
-13.41414 48.89222 5.429267
-8.504528 45.70702 6.49069
-13.20753 48.36098 5.688545
-12.36586 52.6109 6.976017
-12.23697 52.76851 7.116812
-13.41488 55.94281 5.679289
10.97883 56.52998 8.778931
-13.73484 95.98737 7.45017
13.62672 93.46763 8.40534
-11.77323 37.32213 5.232569
-12.02782 40.02633 5.357433
0.1283856 48.60152 7.367264
-10.22933 43.76711 5.997802
-13.24246 55.58459 5.986873
13.51497 84.65351 9.682796
11.86533 86.5376 10.96765
-12.45034 98.54024 8.409489
-12.6856 99.83698 7.648491
13.29826 98.78089 6.667395
-7.947983 41.44196 5.678113
-12.31303 59.27265 8.270887
-4.998636 58.03803 9.571273
-11.89572 59.45856 8.650795
-10.3903 58.81202 9.433118
-10.62384 62.6016 10.08549
-9.389066 61.48343 10.12072
-9.973961 63.57775 10.47958
-12.46413 61.74128 8.564086
-4.946848 63.02552 10.53558
-6.542491 58.22178 9.611357
-8.722224 97.37036 10.66513
-13.04927 41.42228 4.932628
-11.10137 46.58273 6.604686
-10.58566 47.46721 6.99773
-9.247443 52.25596 8.464757
-9.943919 38.95297 5.415187
-9.322885 43.43717 5.94394
-7.397124 63.67547 10.66304
-8.961679 54.97696 9.058331
-12.14611 95.02661 9.497968
-5.329408 96.15823 11.12041
-10.59672 100.6208 9.792272
-12.03703 49.91285 7.007963
-8.660315 51.60012 8.304806
-4.447958 59.03765 9.762297
-10.96738 55.67875 8.676806
-5.341146 57.30812 9.432078
-10.50327 54.88885 8.719743
-8.766712 50.05595 7.872345
-7.64079 53.67368 8.737715
-7.391313 51.7257 8.294139
-13.03674 95.25799 8.641669
-9.336211 98.53976 10.5084
-10.58014 49.60176 7.692369
-8.27788 43.53713 5.981589
-2.473802 57.51984 9.462952
-5.674071 53.09986 8.575933
-3.850513 55.65912 9.100411
-13.56049 94.59455 8.208591
-9.229685 46.54681 6.721653
-8.647868 48.57965 7.404131
-7.574224 46.68369 6.790934
-6.484507 60.64413 10.06994
-6.687345 55.20966 9.042976
-6.504101 51.57322 8.23078
-2.645402 51.149 8.060702
-4.585265 46.08331 6.655269
-3.41317 49.22145 7.546028
-3.595204 50.50138 7.900058
-4.989849 62.71756 10.47418
-0.5244238 51.50735 8.142091
-5.583415 64.70567 10.87734
-6.961545 65.76737 11.11639
-2.607801 59.28876 9.808044
-1.72138 53.79603 8.686338
-1.140785 52.1044 8.290272
-4.385198 68.06277 11.51248
-1.823651 58.92912 9.737064
-2.658742 60.33592 10.01065
-2.254626 60.22913 9.989757
-2.308272 56.63324 9.287757
-1.44716 50.90109 7.989929
-3.381382 65.70555 11.06983
3.912465 62.76561 10.47467
-0.3314964 46.93517 6.904114
-1.638994 61.74162 10.28346
2.347698 46.37662 6.747481
2.338749 50.88977 7.992573
1.220241 49.33743 7.57124
-8.192096 22.30208 3.396937
-9.141089 21.07314 3.279827
15.50385 27.39311 -0.4230317
14.05655 23.05652 2.086421
14.59127 22.39331 1.049409
15.03933 22.82687 -0.8793235
13.63747 26.6198 3.06301
14.28075 69.34198 6.783983
13.69191 63.68225 7.054857
14.53225 69.77702 4.912259
14.78867 78.81275 6.520222
14.64243 75.63122 6.712992
14.90748 94.24067 4.541357
15.1402 92.78367 4.619704
14.94352 94.04595 4.60005
13.40942 99.89488 5.827842
14.107 97.95755 4.240104
10.82572 104.4429 9.470605
14.3064 97.10126 4.476072
13.36661 100.8232 3.623295
14.28194 96.82745 3.388637
11.35818 99.46645 9.193122
12.52792 95.06796 9.199898
12.34552 98.27182 8.582409
9.979892 95.53484 10.4205
13.27902 87.55001 9.731147
10.50475 99.6296 9.760992
12.60938 101.4305 7.249793
10.79034 93.04565 10.51978
14.90067 91.27144 6.574785
14.692 89.68771 7.274698
15.38939 89.55182 3.987062
15.14183 29.3751 1.793292
15.55883 31.67656 1.215378
15.21513 32.67774 2.0885
13.99529 30.42986 3.402653
-14.62581 74.42023 6.44057
-14.52171 73.92614 6.845658
-13.95062 73.61259 8.567747
-12.18053 68.67257 10.20504
-14.01586 69.68479 7.686436
-9.350203 75.17542 12.24583
-11.88289 71.99181 10.74675
-9.848766 71.3485 11.79717
-8.573978 72.75573 12.15297
-9.974338 66.91352 11.0861
-12.1633 68.33515 10.1621
-11.65204 64.66295 9.905833
-3.624971 68.42884 11.56404
-2.098835 68.78493 11.60796
-13.03841 67.839 9.168819
-14.0175 68.59387 7.494936
-13.14179 63.79556 8.166964
-13.01963 65.45567 8.655429
-3.375995 67.74252 11.44713
-9.032003 67.79453 11.44012
-11.86929 65.81458 9.978116
-0.1929184 66.76225 11.25439
-8.902596 65.31186 10.95474
-2.326071 71.23218 11.94826
-15.03545 83.04462 6.577349
-15.40683 87.13013 4.320974
-15.14694 86.41941 6.247127
-15.36493 87.72551 5.337379
-15.25499 90.50831 5.343373
-14.1087 87.61995 8.673697
-14.75797 88.49739 7.37747
-15.09328 90.74446 5.948079
-14.35151 79.89978 8.18694
-13.50752 87.67958 9.425782
-13.61496 88.37286 9.193494
-14.25437 91.80447 7.893776
-12.14288 81.54414 11.12692
-13.04637 83.55106 10.31316
-11.49478 89.36383 10.77195
-12.90592 92.27673 9.419871
-11.34958 91.13053 10.57418
-12.32772 77.6077 10.90393
-12.02261 76.28665 11.09765
-7.370474 83.8167 12.3028
-9.510079 87.05476 11.78041
-10.39085 80.33935 12.08349
-12.03551 83.24002 11.15858
-11.94791 81.96606 11.24962
1.761693 110.2695 12.98291
8.726954 107.1069 10.91346
9.028974 106.233 10.83678
5.46205 107.9291 12.36104
0.0002619902 104.0821 13.13288
2.776719 103.7391 12.8793
9.90042 100.5057 10.23851
4.750522 107.0599 12.66873
4.739122 105.8656 12.63562
4.715142 106.1161 12.65775
4.392189 107.3173 12.7832
8.235607 102.7567 11.24666
4.270427 101.1688 12.09537
5.131104 101.9252 12.07191
3.142397 106.0229 13.04891
12.99585 102.2677 5.592271
1.276314 102.3818 12.79432
9.430726 102.9121 10.63099
12.49154 104.6344 6.605678
-0.3864388 109.4511 13.07904
10.19398 103.9794 10.12008
12.3005 102.7048 7.525563
-5.890219 23.9845 3.572655
-6.872512 24.28634 3.614211
-6.360853 24.6667 3.664586
-3.243618 24.03969 3.570475
13.39968 50.81338 5.318465
14.96494 79.97152 6.334588
13.78386 83.70789 9.382698
14.38018 79.59814 8.136347
-11.61554 111.2448 5.072639
-11.24021 111.4937 6.269909
-12.25366 107.8199 6.105393
-3.483356 111.5133 12.63698
-7.366021 111.3951 10.82097
-10.94119 108.5989 8.662059
-9.095572 110.2447 9.976497
-14.42496 26.89271 2.362849
-11.04066 23.12259 3.494037
-11.96027 25.95579 3.665426
13.22649 49.61449 5.723298
8.367277 49.92304 7.820065
12.3178 48.05857 6.47499
11.55116 47.6181 6.767453
11.56408 41.98114 5.600356
12.38582 41.62351 5.318529
13.82629 43.60022 4.021307
10.39082 43.98372 6.025462
-15.85015 31.80298 0.07542881
12.9015 39.86208 4.909659
11.41688 37.5872 5.255194
13.13676 41.02859 4.882346
12.93492 37.24839 4.842431
14.76468 33.64115 2.707988
13.00969 42.75325 4.93223
9.295046 40.20971 5.542761
15.17628 33.78488 1.917199
14.56086 36.67871 3.222192
11.01428 40.22553 5.524387
13.75803 34.71375 4.060091
9.202943 38.21893 5.354488
-0.1234607 108.7562 13.13855
-3.060797 112.1369 12.66432
-4.250951 110.5632 12.53133
-1.192567 106.8063 13.25966
-4.789195 108.3 12.58264
-0.9973138 25.00056 3.695139
12.98118 87.4756 10.02544
-8.113215 35.69671 5.114569
-7.298899 39.55523 5.476624
-13.41267 62.29755 7.308741
-5.839382 41.32375 5.679665
-3.655162 44.91922 6.362508
4.681236 45.41537 6.472835
-2.776314 45.23503 6.446704
-10.69683 90.87179 10.85865
-10.96834 94.52635 10.22157
-4.137835 99.28469 11.7139
-4.950531 99.84896 11.69246
3.371136 94.78095 11.17463
-4.765543 101.7224 12.11422
-0.366294 100.0699 12.32117
4.572753 46.72002 6.829999
4.280102 51.39014 8.139683
-0.9101361 56.56026 9.269466
3.330216 52.25093 8.341895
5.769753 58.2065 9.605133
2.248048 55.51368 9.058085
1.839237 58.40641 9.633506
4.222034 55.22932 9.011349
2.519668 59.27025 9.800197
5.427196 62.80722 10.47652
2.064504 60.61349 10.05783
6.404021 59.38576 9.818824
0.3863204 64.43658 10.81419
6.233916 61.28223 10.16259
11.59339 59.2696 8.831185
-0.5809265 68.76196 11.59384
4.261467 56.90726 9.35033
8.514506 60.66468 10.03441
6.842688 55.8827 9.172287
1.840601 66.57184 11.22214
3.33175 67.27156 11.35189
5.166439 53.95536 8.751232
9.908771 56.90381 9.236278
3.681336 53.43677 8.620354
11.02451 54.16153 8.337237
11.55298 50.74376 7.552571
6.04612 53.39535 8.643916
4.45566 52.87684 8.503264
6.916654 49.37896 7.631844
10.06919 52.1968 8.33775
3.335036 51.67696 8.201164
7.181607 22.97674 3.399833
14.27689 66.98038 6.022498
12.81429 63.01193 8.450034
14.67827 72.85182 5.536508
14.34761 73.10776 7.308627
11.8667 74.11397 11.05396
13.59784 99.09161 5.906425
14.53696 88.37827 7.913123
-12.79664 104.8462 5.454361
-10.08291 102.4456 10.23225
-13.15411 101.5724 5.531734
-12.96487 102.8182 5.352313
-9.401362 99.88766 10.44544
-5.758904 100.5548 11.6847
-11.90879 74.28181 11.03326
-9.161785 76.68182 12.34474
-7.7953 68.44013 11.64754
-6.843508 69.54404 11.78878
-13.53786 65.8222 7.635647
-1.328433 71.7321 12.00077
-0.0212163 72.99078 12.12494
-2.685399 72.47805 12.08912
-10.3029 78.74406 12.14225
6.522246 21.76841 3.304947
11.22911 94.91295 10.03972
9.93931 97.69861 10.16519
4.719059 98.76163 11.51472
12.49696 88.07931 10.31898
8.694036 99.42736 10.74383
9.71217 99.1303 10.2459
6.592366 99.52647 11.32805
6.173365 96.41312 10.9939
4.291192 102.1233 12.28674
12.57674 51.24957 6.746152
11.80048 76.53396 11.25853
14.51999 80.16943 7.871793
14.35456 80.4777 8.377492
13.83729 80.20837 9.187062
10.88472 75.82266 11.87404
12.2314 76.80041 10.9644
11.11568 78.41419 11.74561
12.67028 78.19044 10.64818
9.648897 77.0164 12.25889
12.59844 79.75384 10.75897
-9.308193 26.3854 3.860135
5.969337 47.66501 7.106692
9.284443 43.20933 5.850475
10.66221 46.88957 6.787345
-14.64348 32.06215 2.925257
-10.9012 33.85567 4.851952
-13.23424 34.176 4.40903
-12.37112 29.31465 4.128133
-14.48797 32.47217 3.243677
-10.72229 30.38146 4.431695
-8.959239 32.35297 4.694868
-7.149073 30.20297 4.439661
-4.380525 32.56589 4.686275
-9.192404 27.8311 4.003563
-7.302127 27.36814 3.943889
-8.369171 30.3771 4.468515
