# .PCD v0.7 - Point Cloud Data file format
VERSION 0.7
FIELDS x y z
SIZE 4 4 4
TYPE F F F
COUNT 1 1 1
WIDTH 1654
HEIGHT 1
VIEWPOINT 0 0 0 1 0 0 0
POINTS 1654
DATA ascii
-7.3316 61.27051 6.625887
-7.957829 64.79247 7.454492
-3.037618 66.96917 7.965833
-4.315039 67.6721 8.135826
-0.9462392 75.61623 9.600914
-12.34654 74.95393 9.499277
-11.4209 77.61395 9.862956
-12.72922 78.68707 9.992731
-2.81609 80.04764 10.09203
-11.15526 81.93065 10.19908
-6.13884 91.14541 10.06939
-4.016523 86.40221 10.17492
-6.44124 84.3821 10.29703
-4.134117 84.60175 10.30954
-7.647519 95.66819 9.477597
-2.89715 97.1656 9.944278
-7.786629 96.91747 9.30427
-10.20953 97.47623 9.196661
-1.623075 108.5839 12.26135
-21.35527 11.89109 -0.9090084
-20.35828 12.59736 -1.240157
-20.57847 26.25111 -0.8251605
-24.46547 17.30253 -3.324536
-23.80305 21.91025 -4.564134
-22.86522 29.08108 -2.935857
-18.21696 35.81703 0.7319434
-18.29082 38.92898 1.02701
-20.42176 39.79525 0.1627844
-17.50012 41.78259 1.791883
-16.58661 32.46426 0.317371
-15.50944 45.92321 2.50954
-14.81693 11.76777 -3.797412
-13.48978 18.29368 -3.998706
-13.00931 24.34921 -2.265861
-10.71614 10.44729 -6.761586
-4.394931 12.93589 -7.215407
-5.383816 28.59857 -3.220038
-2.669493 31.40443 -2.845093
-5.83614 26.9239 -3.671629
-9.063989 32.83234 -0.9551838
-4.962832 23.83596 -4.447437
-4.923004 27.0203 -3.686472
-12.57372 34.94388 0.03136396
-10.67496 33.10273 -0.4384599
-11.94356 30.74475 -0.8765453
-3.48733 32.07908 -2.486729
-4.398579 39.90606 0.2744252
-4.726966 35.98759 -0.9233704
-12.38982 45.56207 2.628769
-6.712265 47.48404 2.947906
-4.470538 45.04398 1.884208
-17.71349 49.86692 2.471345
-18.83177 46.29618 1.596658
-15.5789 47.66938 3.517893
-19.6916 62.13819 0.170965
-15.92729 60.42555 5.710968
-19.41597 66.67563 3.21119
-13.10047 67.13309 8.135837
-20.04914 71.89997 2.754299
-18.07597 77.15869 7.755184
-14.4585 82.18457 10.12255
-17.39519 83.29762 8.661532
-20.30814 79.13001 3.637804
-19.61711 79.77009 5.624071
-16.09608 91.03189 8.658277
-15.11332 94.95441 8.252151
-16.88364 101.0859 3.345688
-16.32204 103.2634 -0.4440129
-5.412439 54.89917 4.892397
-2.706098 102.5637 11.69853
-13.82931 111.6582 2.513796
-3.819747 64.01369 7.242541
-6.799472 63.04911 7.032339
-2.819464 67.95255 8.196177
-3.966338 74.78643 9.479915
-7.537385 87.77229 10.1021
-4.895272 100.4237 10.58653
-8.967404 96.07545 9.398121
-5.225471 113.7169 11.3957
-9.549755 109.4129 9.930257
-22.05449 14.70687 -1.069847
-23.05812 29.63463 -3.761026
-19.59077 34.51511 0.4598111
-20.23543 43.34977 0.1196507
-21.79561 41.0714 -1.822415
-6.773701 11.33169 -7.15681
-10.81364 25.00572 -2.593103
-10.77921 31.49458 -0.9602517
-4.407769 19.83343 -5.555103
-7.151597 30.48962 -2.432524
-5.68981 37.97992 -0.1243856
-8.983053 38.1246 0.2469879
-7.392518 38.81917 0.3251588
-3.07111 41.56094 0.5321476
-20.115 47.24054 -1.57118
-18.47517 59.37829 3.301089
-19.87029 67.67193 1.687282
-19.70086 71.48643 3.932068
-18.4531 73.48674 6.682635
-18.7835 75.02836 6.531501
-18.78071 72.60143 6.102859
-19.06027 80.0929 6.660172
-19.00303 81.64266 6.7907
-3.431452 104.2697 11.94556
-12.91313 112.3195 5.542538
-11.27086 108.3587 9.304524
-6.66761 59.73346 6.257337
-8.544035 68.03487 8.231304
-3.67424 100.3179 10.84579
-9.978798 115.666 8.870464
-13.25067 15.94223 -4.681184
-5.445965 12.62741 -7.180846
-4.138476 18.91676 -5.952201
-7.419692 34.58485 -0.8185896
-4.847662 42.45502 1.141027
-16.41019 59.76279 5.353161
-18.57691 67.08437 5.148638
-18.01179 70.49458 6.695401
-18.55892 81.97585 7.427371
-7.45798 65.42863 7.612301
-9.50606 75.85926 9.634179
-7.780818 11.96167 -6.935331
-7.520849 34.31496 -0.8781084
-17.36836 67.52276 6.609584
-16.53472 62.93665 5.987325
-7.609197 110.1233 10.65933
-6.551047 72.29662 9.08961
-20.72149 44.40642 -0.02126977
-11.52284 110.6726 8.403075
-8.47489 73.00211 9.208503
-8.057619 105.7031 10.64337
-21.32487 42.53124 -1.020205
-5.860562 69.95335 8.646647
-9.662443 106.0061 10.06747
-18.6866 90.08507 5.462551
-9.461722 105.2847 10.08379
-17.42448 88.69698 7.991196
-18.60575 90.78226 5.21111
-17.1413 91.52229 7.468046
-19.01243 90.61209 4.014984
-17.89465 96.15167 1.57463
-17.62415 94.18833 5.276333
-3.705185 11.61604 -7.318621
-9.673994 92.25835 9.650685
-16.64249 80.49933 9.185992
-18.04712 78.55409 7.936587
-8.70316 76.85242 9.773571
-9.761902 83.94837 10.27503
-7.108154 80.47063 10.12212
-17.7114 30.04282 -0.02873695
-12.85857 14.93246 -5.128664
-11.42188 13.03906 -6.081254
-7.010105 51.35152 3.980167
-6.260991 105.9173 11.3567
-5.177839 103.0084 11.20793
-5.934709 83.17788 10.26753
-22.49677 28.07574 -1.750393
-21.83139 25.50159 -1.346328
-18.47948 25.55752 -0.537564
-4.319539 15.8862 -6.837805
-9.688576 15.46859 -5.966179
-8.255709 13.16439 -6.681191
-6.459461 23.28415 -4.466701
-8.440052 23.00478 -4.03162
-4.094266 21.3672 -5.152199
-11.56356 22.09691 -3.330475
-10.86265 23.49689 -2.897138
-7.351705 19.87205 -5.054655
-10.20107 26.09045 -2.742924
-9.484405 16.51 -5.683347
-12.25298 29.08581 -1.251222
-16.84229 97.25456 5.25612
-17.02579 98.02197 4.405644
-15.35947 97.02867 7.458371
-8.966556 78.01863 9.904922
-5.054179 87.67332 10.07681
-4.870829 101.6757 10.94789
-11.32981 103.2615 9.292445
-10.04299 102.2336 9.558908
-6.797641 99.88719 9.988438
-9.781797 100.9686 9.508594
-14.5195 103.4406 7.363091
-10.38331 102.6418 9.507669
-5.19514 96.21838 9.602436
-9.953296 38.70925 0.4522897
-8.578796 111.5761 9.940088
-12.54427 109.501 7.85521
-6.998697 20.52704 -4.98589
-8.796165 113.5996 9.594416
-14.99005 104.675 6.652818
-9.544566 40.97502 1.145236
-6.320378 75.07055 9.521931
-19.63971 45.31731 1.030233
-19.24243 45.98862 1.193125
-11.71809 106.4427 9.247616
-14.21121 103.9176 7.699679
-15.09785 102.3344 6.866572
-13.5335 99.10677 8.380719
-15.89701 99.80183 6.029651
-14.69132 100.1225 7.473946
-16.81928 97.05382 5.447148
-16.8429 28.58558 -0.3193838
-10.85341 12.84499 -6.266385
-19.66428 29.86282 -0.2261663
-21.83262 27.78091 -1.174109
-11.97301 101.1495 8.953058
16.51449 28.62974 -0.9529971
6.625431 68.29986 8.28359
13.79363 9.162349 -1.088922
13.12756 48.96238 3.928047
15.26749 8.50129 -0.7332798
-0.629397 33.13381 -2.752712
9.94543 8.536831 -4.043213
12.51249 14.2271 -2.917436
12.07745 12.08928 -3.140564
10.98925 34.62582 -0.8396466
12.40616 39.43963 1.042929
14.36614 35.90205 0.1500728
2.287638 117.8353 11.83635
-0.07150482 56.63318 5.075402
3.300949 8.77813 -5.98004
13.82531 41.87584 1.740505
10.87057 85.80552 10.30122
0.3755502 85.24327 10.29332
0.2750721 90.37483 10.33585
-0.8442714 92.37714 9.334852
-0.07956246 96.48804 9.976897
-0.1119469 102.637 11.88311
0.4449624 8.002017 -7.432384
2.317849 116.9364 11.84226
3.516995 21.36432 -4.487387
13.63779 49.49826 3.765012
0.8296758 58.27986 5.604064
5.420485 60.02197 6.228974
11.53356 68.18458 8.354982
18.94471 55.29226 1.465424
12.42556 54.68156 5.571098
23.46005 29.31601 -4.669659
3.29035 49.61245 3.128349
5.572494 32.58469 -1.335975
20.59525 49.15426 -0.9603904
21.5784 43.55639 -2.449609
10.76386 88.57382 10.05837
12.51108 76.41997 9.773206
3.622127 81.15576 10.1806
10.09694 79.85426 10.08993
11.4557 82.68629 10.26893
11.57153 118.5345 7.484644
6.461893 79.34274 10.03666
19.54679 89.48878 2.664841
20.1213 72.18017 2.528403
18.07403 12.17645 -1.254196
13.8954 83.83399 10.20748
18.0673 95.45933 1.301399
-0.09331376 107.5431 12.31832
9.091929 66.54131 7.878097
3.866084 102.0715 11.33177
21.79033 41.19978 -1.890832
1.238886 110.879 12.00118
2.308838 114.4742 11.82439
20.43339 54.5305 -0.6766497
19.6364 63.39923 1.172161
12.07704 65.40024 7.705809
16.53787 77.94807 9.070739
11.70847 87.79663 10.16012
12.2322 117.8326 5.619726
1.349083 8.700837 -6.772414
7.0263 7.878277 -5.040063
3.239138 29.61356 -3.05192
1.830183 39.45871 -0.3961249
0.387755 38.35057 -1.076835
12.38638 11.12492 -2.899332
21.22581 10.57403 -0.1586415
23.83961 19.38762 -4.912927
22.79633 32.31105 -2.540344
11.25845 52.48976 4.652923
1.151328 56.23212 4.977843
1.395879 63.92898 7.2045
9.542568 70.39731 8.74256
9.169469 82.48036 10.23547
2.944873 84.98863 10.33707
9.476883 88.44038 10.01525
7.967124 92.14019 9.560308
3.218697 100.0289 10.82786
7.84573 93.99656 9.163796
21.16674 44.04527 -1.790434
4.733438 117.907 11.51627
14.69777 106.5377 6.449221
16.55764 12.23787 -1.402433
13.44008 54.40656 5.210513
22.1543 9.987309 -0.7740421
19.6788 64.39053 0.561372
12.38378 70.22642 8.791589
20.40048 74.52486 1.620043
19.78754 83.56059 5.134151
14.90472 85.14112 9.962723
12.29571 93.83213 9.391799
12.49736 114.2547 5.297786
11.78111 116.248 6.650681
8.510679 8.538631 -4.559383
13.0999 16.60201 -2.203829
0.9579436 27.26575 -4.50848
-0.8133116 20.27808 -6.357049
13.26069 33.06899 -0.3176744
0.3374198 33.59109 -2.593978
12.34195 40.07675 1.225813
0.964275 44.85488 1.184985
14.3032 19.12264 -1.620132
15.19267 28.77495 -1.504626
23.61584 22.45952 -3.751097
14.44672 31.7497 -0.844435
23.08768 27.88957 -3.495392
22.99107 36.50793 -3.698347
21.7791 44.73357 -2.940832
11.2964 49.57775 3.635361
0.753185 46.66201 1.773023
1.285973 59.99805 6.126955
10.90548 57.27216 5.706682
2.006763 63.24044 7.027688
0.5994899 72.86811 9.181061
7.253656 74.22326 9.402432
10.65189 79.94479 10.11305
2.171704 80.8323 10.15599
9.802825 85.91589 10.28829
9.273917 90.7224 10.13637
2.499246 102.2353 11.64678
1.760579 97.01237 10.04275
13.55406 44.66705 2.417084
21.40621 44.75299 -2.269198
19.69972 51.82867 -0.564196
16.81932 101.5923 3.347639
14.62033 109.8431 2.275765
2.495598 112.2735 11.84587
13.92837 53.95535 5.091782
19.68613 57.61257 0.08028147
20.94985 9.311259 0.390302
19.84056 66.425 0.7603081
22.62335 12.58037 -1.574663
12.58647 70.44553 8.816625
12.3803 67.84807 8.218715
20.23734 78.61603 3.911034
14.40434 79.12586 9.941521
20.30345 84.65099 2.873654
14.37126 84.76894 10.08267
19.20259 89.76913 4.010452
11.6692 90.55551 10.06635
17.04452 100.9859 1.065433
10.44502 116.198 8.512571
1.207673 9.861475 -6.80401
7.14589 9.941964 -4.962652
13.34836 22.57319 -2.316389
12.82365 28.15296 -1.807468
0.2763477 17.63802 -6.531098
0.3703101 34.6317 -2.270934
12.62013 38.79022 0.8801644
0.380855 44.89521 1.141696
14.12321 16.64067 -1.570506
22.68718 11.77602 -1.143948
21.79298 14.39417 -1.750851
17.99705 14.50206 -0.8906589
21.31456 16.56069 -1.772648
16.98319 14.75989 -1.230232
18.3392 14.19974 -0.7714068
16.51362 21.71878 -0.6602027
22.16089 21.3261 -2.53019
15.49308 26.37785 -1.520052
16.50986 29.91845 -0.8235703
22.16077 33.39735 -1.633549
23.08987 33.51505 -3.402184
14.82711 39.5472 1.170375
17.76063 43.10671 1.514415
22.85003 38.27578 -3.746775
21.70081 44.05965 -2.854059
12.18237 47.58736 3.728455
8.600431 47.62183 2.960675
2.252616 45.06791 1.499154
4.629808 42.57265 1.217607
2.492908 56.96642 5.271044
8.14791 57.49118 5.668506
5.067028 49.41291 3.264164
11.40632 61.5865 6.948473
2.887494 63.32034 7.053066
8.607486 64.92001 7.504489
0.6304696 70.29143 8.70155
10.266 68.30048 8.320608
8.991772 77.14089 9.799499
2.948792 76.53043 9.726793
6.676926 84.62872 10.3161
3.834893 79.77769 10.07488
8.23711 84.88598 10.30896
11.24408 82.4624 10.25848
5.841291 91.43593 10.19362
1.622305 90.4035 10.37288
2.391883 101.6712 11.49604
4.591403 92.82572 8.99585
7.208432 94.32177 9.165815
14.86654 43.09305 2.028809
19.09367 45.35657 1.147244
16.04444 48.28342 3.379812
15.78087 43.17163 1.998068
19.78262 47.1768 0.2537763
17.80655 50.17317 2.666627
19.90167 50.8059 0.6607454
17.65254 52.30391 3.48359
19.26053 52.08423 1.636924
3.732428 104.4647 11.91937
-0.08039173 105.9801 12.29758
9.184224 117.2471 9.636134
4.210591 108.1571 12.13665
2.440084 114.5724 11.82805
3.157532 114.6153 11.80126
5.581275 111.5131 11.43907
4.50995 113.8776 11.61742
13.72434 56.67924 5.542918
18.25594 56.84196 2.594557
17.96716 57.44431 2.990539
18.8627 60.0491 3.267146
18.24979 64.17873 4.639522
14.95665 61.30635 6.329782
16.44724 63.92459 6.331294
17.1054 69.22673 7.24501
18.80907 63.68544 3.478189
18.78678 70.01612 5.537669
14.28136 68.25244 8.226573
16.36253 71.82224 8.294772
15.27455 67.10021 7.675993
17.45418 74.8281 8.034519
19.87329 74.76859 4.329366
18.70652 76.41267 6.859831
20.02585 86.79407 2.85763
19.62682 86.20885 4.890225
19.45848 85.67713 5.495158
13.54845 82.58366 10.21356
13.52951 87.55138 10.12645
19.00063 92.08631 0.9407201
14.33841 92.4112 9.253743
14.88924 93.69784 8.759387
13.45644 89.35567 9.972424
17.27107 99.91959 1.39232
13.22363 112.1237 5.043921
2.021102 9.810275 -6.394568
0.270331 13.19163 -7.20928
2.665556 9.602385 -6.147796
13.02587 23.74482 -2.762498
11.3148 29.1823 -1.942639
2.012371 21.13057 -5.19694
4.754432 37.82846 -0.1499099
5.831586 46.70871 2.545087
15.42506 19.12851 -1.434791
22.58081 17.36054 -2.964397
16.63054 23.62992 -0.7461755
22.55284 22.9369 -2.868788
15.25385 32.91994 -0.7370834
21.65829 27.55879 -1.099989
22.58351 37.50805 -2.627652
16.30438 35.5052 0.2223837
20.37988 42.09573 0.1840584
8.641271 45.59108 2.372284
2.193427 48.60493 2.628823
1.33382 54.14552 4.328034
8.957221 40.39048 0.854916
9.940487 57.67714 5.7999
0.7488384 66.63045 7.879044
6.66783 71.16824 8.898378
7.766173 70.98396 8.862504
5.527334 73.91205 9.356768
11.11182 75.45173 9.618026
5.093129 85.26968 10.31252
5.55751 85.88211 10.2819
3.842352 94.79676 9.359479
18.522 44.54031 1.674689
19.15312 50.14365 1.857157
1.182088 109.0252 12.22481
12.85737 108.4925 7.954036
15.58004 107.233 2.703783
8.676183 114.4838 9.649527
17.8361 56.17142 3.170503
17.40871 53.92791 3.979944
16.09442 61.43304 5.84713
18.67866 63.20936 3.651019
15.14619 64.47078 7.04566
19.69421 70.10929 3.499609
20.13951 75.73665 3.673702
17.47249 73.47552 7.814493
14.45245 80.25145 10.00413
18.88682 81.47576 6.954443
15.46885 79.94776 9.7147
18.83453 85.2077 6.830812
17.96287 92.05553 5.939607
13.42353 94.06221 9.257741
16.79555 101.5833 3.508399
9.386529 113.0319 9.29905
10.81825 17.91516 -3.847768
1.098577 37.31559 -1.28891
1.488208 41.68854 0.2210315
10.76301 15.75045 -3.957814
6.914444 10.74729 -4.998213
20.87516 11.12993 -0.8379828
16.68809 24.13331 -0.6827538
15.72455 32.94823 -0.6218557
21.98032 28.71013 -1.412924
21.12037 36.56488 -0.3289071
19.62141 45.71645 0.2425049
20.50287 44.58284 -0.8257234
7.266788 50.59158 3.738024
6.344176 50.23079 3.58269
5.667916 70.11757 8.675539
5.672594 67.76608 8.158954
4.332172 65.20422 7.538603
6.800246 63.10791 7.033604
2.952619 75.73544 9.620347
5.466241 89.38399 10.1488
6.720457 88.20137 10.00664
4.856491 92.4415 9.352571
4.59273 92.58443 9.213172
2.507687 109.052 12.22951
11.86052 57.54812 6.308931
16.99129 67.68063 6.951539
19.64108 79.91991 5.608216
19.0142 74.71864 6.128924
17.33963 94.90137 5.516007
10.93655 95.86861 9.279648
17.04077 86.42935 8.750371
18.25593 87.49823 7.277275
7.742411 112.3436 10.27507
9.75217 23.6847 -3.296854
19.09979 20.60176 -0.8382276
19.48061 30.50302 0.1612401
18.12114 27.17312 -0.1489285
20.53296 42.66173 0.1006157
7.633805 54.16737 4.748516
5.595335 49.87722 3.435399
5.860136 88.62035 10.04327
3.860297 102.7136 11.51194
4.80859 105.6356 11.85779
18.92633 72.96882 5.933898
18.17939 77.05574 7.631258
17.68345 94.48618 4.832321
10.3146 113.9237 8.564374
20.69374 30.58556 -0.3189967
4.670291 54.79145 4.770389
7.820539 109.4713 10.67766
7.065053 107.481 11.12914
6.446942 102.8782 10.76918
3.688012 39.83106 0.2396861
19.18489 33.95306 0.4309803
6.3669 105.4896 11.26338
9.675553 97.60931 9.242889
3.322209 36.18108 -0.9731386
19.97928 34.38056 0.268721
13.21234 95.86086 8.988102
9.050756 41.76455 1.266349
3.831812 43.61035 1.392705
5.727886 36.00475 -0.4918686
7.684117 105.8841 10.81301
10.68281 98.47257 9.260036
5.87251 36.56992 -0.3176929
11.68883 107.2678 9.201584
6.981269 34.37186 -0.8408286
10.25269 37.02844 -0.09421952
12.31602 102.3831 8.878532
14.44419 98.68311 7.849257
4.140832 31.45207 -2.079048
10.0161 33.57077 -1.318724
10.43695 34.9489 -0.7922701
8.349592 35.54733 -0.5666113
4.116172 33.75335 -1.438253
3.973418 30.99885 -2.299619
0.8810416 22.8409 -5.5124
1.49458 29.57587 -3.784584
3.383007 23.48002 -4.15063
2.952349 17.71705 -5.378659
4.91949 22.26616 -3.965504
7.8569 19.48025 -4.284068
6.858828 20.9132 -4.110738
10.06467 15.93609 -4.152874
8.262773 19.73428 -4.189592
7.419729 28.46472 -2.598516
7.362982 28.75943 -2.505318
9.39936 26.72867 -2.938281
8.704096 31.35503 -1.941299
5.779412 29.46001 -2.174933
5.718975 28.49938 -2.435398
6.055531 27.02837 -2.817707
3.780431 29.04395 -2.842653
8.845755 67.8176 8.178087
4.588831 75.21976 9.552871
7.322508 75.17085 9.557469
4.358955 77.7753 9.871415
18.06422 20.05083 -1.123479
19.62282 39.08222 0.7385304
9.212004 59.39323 6.162831
6.794228 61.57831 6.657218
4.888062 59.2116 5.999031
4.449771 61.2697 6.535735
4.972188 61.67545 6.651168
4.096382 81.87531 10.22019
4.70422 99.3987 10.42231
5.244091 98.94315 10.30698
3.198921 99.456 10.64437
4.744767 96.62702 9.611814
16.52947 53.59499 4.34753
18.39898 66.98453 5.388835
2.772346 16.26784 -5.731737
5.007793 11.21751 -5.462536
4.646302 10.50095 -5.598481
3.730752 7.949612 -5.904724
19.29849 22.02229 -0.8188028
16.71646 23.10241 -0.7013457
21.94195 25.33775 -1.48324
21.84956 24.2654 -1.747241
21.13904 37.55285 -0.3753816
15.15472 59.05573 5.808761
11.19845 109.0904 9.175941
19.62418 41.12893 0.6854771
5.578575 64.21365 7.300641
17.51018 87.06503 8.219264
11.89973 109.9661 8.322897
12.45182 108.9551 8.236071
14.45489 108.1562 5.697978
15.63037 105.2611 5.186617
6.17109 45.69995 2.28156
6.773373 45.63787 2.29463
7.360126 99.55074 9.832399
10.98826 101.7367 9.24882
12.00778 104.4059 9.09219
9.196723 104.22 10.06664
13.95131 103.4523 7.959501
15.24901 100.9254 6.838746
5.067287 25.56801 -3.19756
3.87363 17.9514 -5.080136
1.780927 62.2174 6.753828
15.04199 103.9543 6.710653
-17.5105 43.79665 -10.78109
-20.72445 46.84113 -6.672982
-0.6723637 13.48659 -12.16298
-3.724011 7.157887 -12.19851
-0.5462639 35.24946 -12.49938
-4.865075 35.3264 -12.53048
-15.48301 8.946575 -11.53271
-11.58142 18.90309 -12.0552
-13.38497 24.81238 -12.91815
-11.29138 32.49744 -12.4655
-10.68692 45.7296 -10.99578
-4.44972 77.54429 -8.710149
-9.990173 54.60427 -9.40766
-25.52865 19.11285 -7.120563
-2.627945 45.72357 -9.205754
0.7293494 76.20925 -8.946806
-2.061638 79.83499 -8.51958
0.5480669 67.10148 -8.518087
1.269694 92.56264 -12.70587
-11.94955 45.0113 -10.5894
-17.58393 20.12796 -11.65848
-5.939674 114.4837 -5.19246
-5.759603 48.92735 -9.582878
-2.694902 65.30654 -8.324781
-16.10069 9.023355 -11.42841
-6.551221 69.70026 -8.825732
-5.688559 76.62031 -8.885167
-8.806127 71.05125 -8.763173
-19.60981 63.0259 -2.16447
-11.88828 117.9733 0.8215771
-19.535 86.14092 -2.990781
-2.284633 67.36799 -8.532363
-2.674212 75.00465 -9.001671
-20.20146 52.37987 -3.121258
-10.25087 80.95747 -8.627653
-22.92167 39.22978 -5.685959
-20.29329 72.87434 -0.2475952
-5.819344 72.36415 -8.627353
-6.380022 85.73984 -10.20517
-6.528029 94.10314 -12.8058
-23.42438 26.06449 -9.324083
-11.10598 118.5386 -0.9911968
0.6768025 11.11026 -12.16481
-18.65783 91.78726 -2.525057
-19.3181 69.0555 -3.479481
-20.59906 81.84824 0.0468033
-12.53739 114.2651 0.3322546
-18.09282 94.5137 -1.846729
-17.35 94.70437 -4.190025
-5.905808 68.51634 -8.704242
-7.70114 80.32698 -8.553876
-2.899499 102.7912 -10.43911
-5.663554 107.7758 -7.463768
-2.064075 117.6394 -5.977867
-25.98219 13.7107 -5.974508
-17.36331 64.76319 -6.026099
-17.14248 84.75628 -6.656627
-19.03238 91.26387 -1.49427
-2.289276 97.41544 -12.35153
0.9172888 14.54643 -12.19178
-8.374037 7.102791 -12.21214
-11.19848 24.83211 -12.2141
-1.756071 35.77921 -12.48601
-9.425723 35.10837 -12.55306
-13.75858 12.34282 -12.61824
-17.47076 9.694317 -11.60938
-15.33709 17.14694 -11.67844
-17.5673 33.08644 -12.14727
-12.33062 38.00964 -12.31857
-13.67027 41.29698 -11.41183
-6.159945 52.28588 -9.636296
-6.247567 64.42565 -8.202684
-9.254024 64.55454 -8.283206
-0.8063131 71.81758 -8.636505
-9.25277 73.00809 -8.74583
-1.640527 73.57967 -8.79649
-8.63954 75.6603 -8.988741
0.4222301 80.34629 -8.485776
-7.454839 86.62859 -10.81413
-0.3483689 86.54093 -10.7002
-0.1282416 91.82049 -12.60892
1.183613 97.86874 -12.24966
-18.29488 49.46141 -8.267463
-12.84181 111.4687 -1.994998
-0.1461328 115.8749 -5.818824
-5.810129 105.8288 -8.712615
-24.85047 12.16395 -7.754443
-12.35696 51.76886 -9.110473
-19.54188 62.38132 -1.088169
-17.67163 74.17808 -6.452717
-18.89331 82.16624 -4.826962
-18.31778 93.04701 -2.571125
-14.56648 100.2965 -6.25894
0.2467746 97.96952 -12.21457
-2.719176 9.77529 -12.12622
-1.366609 11.22867 -12.13327
-13.17656 18.10205 -12.60566
-2.046345 22.67672 -12.43296
-10.46902 28.03655 -12.46509
0.2666552 31.13008 -12.47304
-11.71088 33.61056 -12.64126
-2.185197 41.00813 -10.83145
-9.193846 44.48615 -10.2139
-11.76824 12.64254 -12.07586
-13.92837 24.12445 -12.47233
-24.29763 17.42964 -8.598284
-25.1661 23.0738 -7.530066
-24.3063 28.54081 -7.626525
-14.22873 39.82518 -11.87227
-22.98528 37.01401 -7.384727
-21.2068 46.34771 -4.851733
-12.55299 41.37473 -11.34723
-9.446965 47.62242 -10.1105
-0.4516183 55.85489 -7.969464
-8.852538 68.42167 -8.652418
-8.973733 73.90346 -8.808968
-8.394028 75.74016 -8.98878
0.3455938 79.44243 -8.525978
-4.499257 86.76601 -10.85357
-5.787504 84.3907 -9.303184
0.9411137 91.97784 -12.63587
-4.264381 90.53826 -12.3966
0.8803837 98.60732 -12.05166
-12.95247 48.32113 -9.559397
-19.93593 52.63182 -4.533031
-0.1776126 108.0904 -7.606558
-13.28007 104.7916 -5.514855
-6.591339 116.43 -4.880332
-1.971985 111.515 -6.239315
-23.04717 12.9616 -10.57079
-22.17444 14.42132 -11.26023
-25.61081 13.26393 -6.6158
-11.3269 58.30185 -7.181697
-10.26443 50.68835 -10.52598
-20.02261 70.27026 -1.007925
-19.52143 62.05021 -1.201379
-19.68466 70.32025 -2.630832
-12.33078 81.54545 -8.604352
-20.59917 81.39645 -0.0626863
-11.01145 85.99538 -10.06418
-19.1433 85.32137 -3.99255
-17.20568 93.44534 -5.209789
-8.706532 95.52918 -12.2661
-6.13929 93.7197 -12.84033
-12.67154 114.4698 1.358359
-12.03571 117.6411 1.339838
-13.24965 16.87156 -12.58583
0.4057977 21.52169 -12.38659
-9.881699 25.26299 -12.48968
-1.002866 31.95126 -12.48256
-3.032953 34.53038 -12.53117
-11.2671 33.41318 -12.41743
-11.07485 38.37789 -12.11484
-7.163545 34.89257 -12.55342
-2.604319 39.31408 -11.68476
0.4256512 43.43362 -9.56195
-9.373906 41.69837 -10.90758
-8.868443 47.72336 -9.710579
-20.20486 9.887259 -12.03769
-16.05931 22.48639 -11.83412
-18.38764 10.4111 -11.78854
-15.76235 28.2522 -12.28658
-14.7896 29.47501 -12.36691
-24.36416 28.25031 -6.797916
-12.80606 37.24152 -12.35128
-22.64398 40.89785 -6.157519
-22.27414 42.4546 -6.34555
-12.13852 39.08754 -12.0975
-15.45985 40.4336 -11.75143
-14.50901 35.95225 -12.4071
-14.13991 47.68906 -9.601026
-13.39081 45.9524 -10.36269
-1.399083 46.82026 -9.283088
-7.866149 49.2595 -9.408663
-5.733227 45.41011 -9.444002
-8.987426 58.0946 -6.961153
-1.826429 53.96532 -8.539929
-2.478927 59.69145 -7.494067
-1.260412 62.93539 -8.051096
-2.920734 66.91496 -8.467809
-1.104575 68.60517 -8.703225
-5.276727 69.82676 -8.832317
-6.497078 69.90003 -8.834002
-3.997117 75.19826 -9.035416
-5.531915 78.41146 -8.638346
-1.992022 84.15044 -9.146769
0.2754635 94.69608 -12.72441
0.131068 98.71 -12.01712
1.298081 100.4851 -11.4291
-21.48418 48.4008 -4.663882
-0.8695718 107.8018 -7.755289
-15.82623 101.8614 -3.111972
-8.260608 114.9216 -4.304658
-9.117931 118.0343 -3.466527
-1.377945 110.8029 -6.463026
-20.68988 14.3505 -11.84358
-19.47713 60.43037 -3.117972
-13.22373 55.77625 -8.052271
-18.9007 65.38632 -3.921825
-19.55555 61.6169 -3.037623
-19.57569 62.42449 -1.812816
-10.9288 67.56054 -8.472636
-16.94006 58.96935 -5.899174
-20.23483 72.58585 -0.6190383
-9.951373 74.18287 -8.830709
-13.60269 77.92663 -8.466212
-12.92081 80.0053 -8.483794
-14.283 80.51263 -8.170303
-20.42516 81.70388 -1.205273
-13.38687 82.67169 -8.53869
-9.762624 88.89651 -11.5171
-19.96568 86.46197 -1.427648
-17.8292 89.21727 -5.489551
-17.16094 86.33558 -6.622978
-17.31252 93.23116 -5.116935
-16.62206 94.99654 -5.588719
-11.89374 90.04301 -10.96759
-17.54086 96.29305 -2.249116
-17.0714 98.16965 -2.325428
-11.67688 116.7285 -0.1819169
-12.22912 116.1751 1.550656
-11.33505 116.5686 -0.9853718
-8.705942 115.2725 -4.004333
-10.05702 113.4064 -3.714823
-7.037311 9.16881 -12.10994
-5.038556 15.23105 -12.01685
-10.91701 28.74636 -12.37028
-8.088302 33.15242 -12.45409
-6.80845 33.85799 -12.5302
-9.599496 37.1463 -12.32711
-5.875006 44.8377 -9.585313
-8.922449 10.2973 -12.07269
-16.41211 11.33218 -11.49597
-17.05283 16.98228 -11.65639
-23.91631 16.49103 -9.077773
-15.10548 27.18489 -12.37696
-24.67991 24.05664 -8.144026
-24.57455 20.97021 -8.253363
-23.04382 31.73026 -9.2022
-22.59639 29.4026 -9.850954
-21.26008 44.21385 -8.097075
-20.43298 45.38069 -8.284148
-19.1812 40.34491 -11.27571
-15.11522 46.67172 -9.903265
-13.20468 47.81891 -9.63152
-5.47961 47.06803 -9.226414
-7.199576 58.09169 -7.03926
-5.051462 70.82343 -8.749927
-4.925913 80.12371 -8.52829
-1.093358 90.64146 -12.41558
-3.101793 104.8923 -9.318499
-17.90446 49.98573 -8.070228
-19.75333 49.14282 -6.226731
-10.99368 97.08073 -10.88697
-12.56533 112.7808 -1.23818
-12.20509 112.9084 -1.808834
-7.729358 111.5703 -5.542694
-1.486658 107.8084 -7.75099
-23.13415 16.21889 -10.08916
-13.60016 59.2087 -7.513826
-15.21293 58.65026 -7.15406
-18.14941 61.84124 -4.854422
-17.35035 58.84874 -5.628854
-12.94416 50.76398 -9.029359
-17.15013 64.56394 -6.239782
-12.14752 67.30556 -8.502676
-19.29802 61.10426 -3.612474
-20.10666 78.46033 -2.315171
-8.643801 88.19933 -11.52142
-18.41929 84.52041 -5.324959
-11.18839 91.93997 -11.4978
-5.269255 96.52097 -12.58061
-11.88935 116.8462 0.5291872
-5.61382 16.14582 -12.00589
-0.824954 24.76348 -12.45485
-6.863202 11.27612 -12.05113
-14.04804 14.54755 -12.50462
-16.80693 25.70026 -11.79659
-22.37842 28.80975 -10.0485
-21.46508 27.91411 -10.68727
-22.19541 40.17798 -8.564766
-20.28835 39.31608 -10.92955
-19.48985 36.81414 -11.63412
-4.902075 50.59883 -10.2024
-2.237251 88.9175 -11.88402
-6.032389 103.0139 -10.34499
-5.656499 100.813 -11.403
-19.75161 50.98274 -5.108899
-16.99689 50.71338 -7.920762
-13.92825 102.2182 -6.123349
-4.031278 113.178 -5.77785
-18.8204 13.91302 -11.83201
-13.93952 55.26869 -8.864565
-16.80559 62.25767 -6.229932
-15.18125 59.37086 -7.086429
-18.23338 85.31425 -5.445893
-16.11615 81.80965 -7.398035
-14.57855 80.32059 -8.075223
-16.41236 83.72621 -7.241183
-9.051018 95.67495 -12.14268
-13.16791 96.24093 -9.498157
-4.488993 14.17248 -12.0302
-3.332052 18.119 -12.1892
-6.370524 17.8957 -12.0372
-3.75524 44.49301 -9.421638
-9.680749 11.06585 -12.05602
-19.50071 18.42155 -11.72759
-23.69662 27.98607 -9.019428
-17.3171 28.5692 -11.8917
-22.62622 38.62971 -8.121814
-21.34684 36.27213 -10.45917
-20.636 33.96768 -11.03877
-18.41831 32.95978 -11.97281
-17.79733 33.93575 -12.1418
-5.68599 53.12377 -9.032332
-3.559268 49.77139 -10.1183
-7.998086 108.1758 -6.891899
-3.768577 105.5308 -8.963622
-18.1251 47.51175 -9.299499
-19.78465 52.33543 -5.893017
-15.81353 95.46592 -6.718405
-4.057943 111.5312 -6.150528
-15.339 71.81638 -8.06121
-16.12351 85.01303 -7.506877
-7.874823 97.23531 -12.15494
-5.845579 14.90524 -11.97936
-7.508385 21.10935 -12.17424
-19.65431 18.26145 -11.71826
-19.24954 24.51497 -11.57198
-20.35281 23.15001 -11.35498
-18.95727 27.59789 -11.61939
-15.99267 23.27753 -11.87507
-20.392 30.64542 -11.1673
-10.39862 108.9669 -5.721935
-8.275353 111.0073 -5.59893
-6.363109 102.5332 -10.579
-16.11671 54.4823 -7.284287
-18.84714 51.31284 -7.17863
-12.74481 94.47773 -10.31656
-14.54744 71.39438 -8.358901
-16.79302 67.81802 -6.960244
-15.67519 83.41422 -7.71834
-7.939083 16.57549 -11.93974
-4.194862 22.33582 -12.43574
-5.858296 21.44312 -12.3294
-6.825529 44.19628 -9.865234
-8.85124 45.50756 -10.05077
-22.03253 16.98775 -11.13397
-16.58254 21.29981 -11.72924
-9.804407 107.7694 -6.589048
-2.108945 108.8307 -7.205698
-6.267931 99.75845 -11.73012
-14.17251 97.96914 -7.834717
-11.33502 97.27223 -10.62492
-11.98886 98.28464 -9.806042
-13.91957 94.35747 -9.313537
-12.7255 64.91457 -8.254179
-14.40475 68.12222 -8.285039
-7.74414 18.51754 -12.01087
-9.051387 15.98493 -11.90543
-23.70361 19.37128 -9.240008
-6.220867 111.7229 -5.786448
-6.447572 110.1233 -6.286477
-10.62454 99.14736 -10.46548
-12.46786 61.17362 -7.685855
-8.19681 16.41885 -11.93088
-11.66857 103.5068 -7.748032
-13.57746 105.0435 -4.993063
-13.73646 103.1476 -5.877233
-14.62022 102.7577 -4.871821
-12.36565 108.5097 -4.481068
-10.18462 99.33915 -10.64021
-12.56899 107.0162 -5.080323
-9.150967 105.2212 -8.33145
-7.175424 76.50692 -8.936424
-1.934021 85.82122 -10.22597
-5.218087 58.37103 -7.182405
-3.941588 60.42526 -7.585001
-7.060843 58.73465 -7.016793
-1.889928 60.57497 -7.663462
-4.45117 62.7671 -8.051899
-5.724377 34.28841 -12.54424
-3.185789 37.37228 -12.30281
-5.459619 37.2347 -12.33178
-3.605508 40.15565 -11.3064
-16.26534 31.60338 -12.30493
-4.675181 68.33351 -8.677108
-19.32494 73.36513 -3.961093
-19.43978 76.26823 -3.821214
-15.24741 73.05399 -8.112304
-17.83059 75.198 -6.226637
-15.23481 72.2331 -8.123051
-11.05624 90.0135 -11.35108
-17.19199 88.60058 -6.478696
-11.91037 93.33636 -11.06643
-14.09291 86.49011 -8.965166
-16.69732 89.09858 -7.039829
-14.89116 92.64263 -8.721226
-16.57888 91.6575 -6.872235
-2.58734 27.87994 -12.45224
-7.516849 33.03925 -12.45728
-8.031931 27.93885 -12.4676
-7.086442 25.34959 -12.56986
-18.86353 42.17743 -10.92145
-18.55505 42.71941 -10.84466
-6.602518 54.46885 -8.343475
-10.87542 112.4257 -3.620638
-2.844241 113.9019 -5.770344
-17.99327 77.64363 -6.010734
-14.9224 78.49791 -8.026867
-6.998407 73.20611 -8.701216
-13.14219 52.94815 -8.81586
-16.07306 51.02105 -8.061636
-16.85025 15.69126 -11.66923
-6.406629 28.6984 -12.42118
-3.616247 26.45523 -12.47688
-3.115616 46.75093 -9.264935
-4.191169 51.33017 -9.997736
-10.8893 108.1584 -5.778461
-6.649557 112.1183 -5.592314
-5.49868 22.23818 -12.41719
-3.093302 78.13197 -8.658998
-7.453585 62.24564 -7.9794
-7.430434 37.31961 -12.30011
-8.650813 39.50803 -11.7522
-3.578695 53.69121 -8.676851
-18.09443 73.15204 -5.977084
-4.637408 30.39264 -12.42272
-15.90681 49.21091 -8.790013
-18.51309 66.68803 -4.794737
-6.84294 41.94212 -10.56282
-9.530692 22.84967 -12.18058
22.49872 13.36256 -11.64451
24.09377 21.35426 -5.325066
12.93323 109.7104 -3.242215
1.547006 6.870772 -12.29471
21.67413 44.68364 -5.75058
20.60839 49.50232 -3.484943
12.48807 55.93799 -7.810809
13.65235 106.3598 -4.170077
17.74154 96.47818 -0.8886209
24.17049 22.75836 -6.214212
11.93336 63.07586 -7.958347
13.75083 55.93973 -7.667366
19.54651 62.84704 -1.221001
10.69564 72.82585 -8.751861
18.1832 8.469191 -12.28582
18.47354 93.37012 -1.374589
19.14299 55.0846 -5.300784
22.97265 36.00326 -7.626845
9.460052 83.96285 -9.127839
8.116133 85.88075 -10.28702
1.716406 82.3768 -8.62079
10.60941 67.31591 -8.55205
11.66768 118.212 0.2075609
15.19472 107.6502 0.1719036
11.59093 92.82198 -11.2841
16.85844 73.34462 -7.156565
15.94544 17.38259 -13.25754
0.5471178 112.7115 -6.020968
13.95993 39.08474 -11.94493
12.92965 43.08355 -11.0226
12.78979 27.86416 -12.48722
23.17074 9.217052 -11.62144
3.486835 25.59568 -12.46847
2.187618 15.18182 -12.2305
4.178736 34.62424 -12.45579
4.960634 22.73641 -12.42514
1.240987 32.72885 -12.48924
11.12651 52.30874 -9.776052
10.48085 52.03701 -9.187693
3.052135 99.9231 -11.65336
2.609339 98.39212 -12.12925
0.6040127 118.4012 -6.111721
23.34471 33.5818 -5.971095
20.52676 83.81139 1.166603
4.730439 110.7546 -6.29432
3.432624 42.23484 -10.27023
5.640153 63.29051 -8.127125
1.817755 117.0408 -5.892615
3.394981 67.31915 -8.532482
2.809507 118.3717 -6.05382
14.21096 78.32706 -8.285365
9.452551 85.77871 -10.20255
5.644445 80.56065 -8.511086
2.52186 75.7841 -8.966034
10.7817 109.656 -5.176333
7.906263 16.31276 -12.21302
14.6771 9.543659 -13.25287
9.796829 21.91989 -12.2885
5.864111 44.18171 -9.35146
1.839457 103.4241 -10.1111
25.36887 10.87972 -4.862873
25.53867 12.12114 -5.04425
23.8294 29.80717 -6.543987
23.27004 33.66716 -4.825873
21.29021 45.4725 -7.005875
21.09991 46.70658 -3.863189
12.08802 58.3413 -7.398704
17.41131 11.57134 -12.5092
19.23423 62.73033 -2.607926
6.051005 67.46168 -8.529571
9.186134 71.39278 -8.687334
13.59762 61.99574 -7.717833
20.64211 80.76949 1.73232
20.1418 86.63209 -0.01043663
13.95105 84.1927 -8.610787
4.573313 101.0848 -11.26269
8.996777 86.71867 -10.77547
3.220534 83.20329 -8.817159
8.352899 88.61068 -11.69168
4.463139 74.54056 -8.970698
9.80785 73.48969 -8.811936
9.264472 72.41873 -8.668476
8.805179 79.71606 -8.541919
3.567915 80.79324 -8.4948
12.34219 115.4605 1.252679
9.635527 92.88242 -12.2023
7.254938 118.0399 -4.67
1.807611 59.95188 -7.582534
15.88207 10.41079 -13.68845
13.57933 10.82833 -12.85577
10.45495 42.47565 -10.98971
13.05098 26.16937 -12.3432
4.632706 8.597656 -12.28467
3.251562 43.05568 -9.782593
8.441364 56.72873 -7.322043
5.296663 118.2296 -5.517183
25.12971 14.45169 -5.196339
24.10339 22.54003 -5.406114
23.8507 28.74601 -5.659159
16.0922 20.61479 -12.51596
23.11242 36.6612 -4.594127
15.15451 33.43803 -12.43078
14.36908 39.95701 -11.7719
21.19673 46.14109 -5.417233
12.60469 46.53936 -9.233666
19.8408 54.48013 -2.567057
14.184 51.79531 -9.006975
20.09422 58.96938 -1.404705
13.78462 61.55163 -7.659219
20.01937 60.6725 -0.8286255
5.085747 62.18218 -7.917969
9.103161 69.80377 -8.798057
20.14489 70.43308 -0.07664908
11.32409 73.14272 -8.844804
13.68961 77.07043 -8.477206
19.92516 88.14253 0.5596033
11.32517 83.68291 -9.032989
18.39273 94.17318 0.07438066
16.80558 99.61533 -2.003494
12.02368 95.55479 -10.6287
16.39721 101.6141 -1.753959
13.86407 111.5781 2.244399
14.85526 109.2418 1.710393
5.794074 84.83106 -9.575541
6.22542 82.29974 -8.644105
4.448507 80.31795 -8.490566
6.640022 78.50974 -8.589119
5.531903 89.16573 -11.99416
5.724805 88.10085 -11.58881
7.626435 71.6378 -8.653948
1.675087 81.15536 -8.504621
13.18526 113.2282 2.240355
6.91725 91.75067 -12.63619
3.799524 95.37772 -12.71455
2.384677 109.5713 -6.886155
3.874995 54.34153 -8.485055
10.44538 8.615127 -12.65209
12.11208 8.322342 -12.86531
10.30193 41.91076 -11.22474
1.747193 32.92411 -12.48903
1.255331 21.63611 -12.38749
1.715446 25.74837 -12.45895
5.382124 9.217767 -12.275
4.883386 10.92685 -12.18392
10.9439 46.76315 -8.915756
2.805683 49.10818 -10.0766
4.558835 99.80984 -11.72598
24.15675 12.32771 -9.525313
24.03071 24.00716 -5.160734
15.74901 17.50215 -13.37911
23.7929 30.49302 -7.403135
23.22507 35.07485 -4.90549
13.8003 36.13345 -12.53357
14.04635 41.14056 -11.46599
21.06376 47.55369 -6.660989
21.00442 49.60498 -5.582798
20.82026 47.51638 -4.014119
20.45897 49.26519 -3.199253
19.14496 53.03511 -5.284693
18.85301 52.86795 -6.748158
20.48944 52.31476 -2.03111
11.64147 57.06926 -7.325535
22.09918 12.4592 -11.73401
21.41755 13.28112 -11.85217
12.61696 65.1233 -8.30905
13.37272 60.46468 -7.647142
19.89021 66.83537 0.512394
19.43122 62.20158 -1.829967
2.212937 58.0769 -7.499843
8.770961 63.12352 -8.06214
10.0936 60.72248 -7.68787
9.640298 68.75098 -8.642614
2.640907 65.66106 -8.362003
20.00083 73.69104 -2.095828
13.77285 68.4805 -8.46579
11.07749 80.75793 -8.635925
11.20207 76.56448 -8.821576
15.5209 75.42677 -7.951242
19.9832 82.27457 -2.683748
20.20318 75.49902 -1.506904
17.57992 75.65657 -6.460665
12.26479 85.29362 -9.425428
15.24191 82.94117 -7.909229
13.92025 80.44966 -8.272081
18.89803 92.45477 0.5776153
17.98777 92.25209 -4.147882
17.35193 98.37711 -0.8112769
10.57784 86.4034 -10.38094
8.668851 95.60188 -12.27493
16.48302 102.7945 -0.2899921
2.557891 104.9686 -9.285201
7.55152 83.88641 -9.05447
4.638734 79.25114 -8.526719
5.037506 77.01358 -8.832895
3.86387 86.80737 -10.86865
4.32465 76.27531 -8.901845
11.81676 114.9583 -0.9322804
2.569455 91.97803 -12.65569
4.185666 97.01196 -12.46997
9.169965 94.63894 -12.24789
1.823851 113.1219 -5.915244
1.235145 53.65655 -8.701804
10.83888 20.62111 -12.29341
11.23893 8.46342 -12.74797
12.93573 13.51764 -12.53718
1.413597 39.28194 -11.66844
5.955409 40.57339 -11.41561
12.99841 36.96738 -12.22995
6.556001 33.47537 -12.44676
13.80714 26.69257 -12.67768
13.32487 29.29492 -12.58778
1.032196 28.54489 -12.46544
6.897957 13.74919 -12.18116
3.075589 44.96161 -9.085773
9.724049 45.17 -9.326095
10.97982 55.3765 -8.621579
4.811645 48.2738 -9.967935
2.101877 100.6304 -11.37357
25.33209 14.11557 -6.3447
25.37473 16.93657 -6.282731
24.2212 27.56947 -7.874593
19.34433 19.44172 -11.97247
22.47961 28.4202 -10.30167
16.76236 28.43713 -12.20928
22.48428 39.2272 -8.246708
17.01567 32.87121 -12.1817
19.9474 44.17235 -9.802642
20.73227 44.55734 -8.889519
21.77029 41.4618 -8.728962
20.94448 50.50534 -5.069275
16.29778 49.36901 -9.481637
16.5873 52.26316 -8.09929
15.94353 51.9837 -8.713362
12.40728 57.65628 -7.458307
13.50267 63.82764 -8.022226
19.1382 68.77904 -3.896791
1.96488 59.54079 -7.512662
12.56512 65.96629 -8.385367
14.6237 74.10405 -8.366769
20.21525 81.48692 -2.030562
19.90571 87.5271 -0.877093
20.34027 74.89184 -0.6786985
12.73551 90.2574 -10.51927
11.92738 91.69936 -11.07716
12.79514 82.11289 -8.605205
18.90514 90.74258 -2.545809
15.7389 103.7035 -1.969577
15.59007 105.7572 -0.5301031
14.7138 100.4704 -5.927492
14.76123 107.2698 -1.522637
4.917501 73.56516 -8.827741
6.913035 96.57189 -12.48596
12.84337 17.434 -12.34105
9.530509 16.02394 -12.20433
12.95069 23.99708 -12.29595
12.38988 10.98095 -12.65668
4.426386 38.73424 -12.02028
1.371589 31.62759 -12.47781
10.90677 41.00146 -11.48627
9.905786 43.02328 -10.58244
13.44121 28.52767 -12.51038
4.435005 25.57496 -12.47479
2.420832 18.08914 -12.30192
5.690409 11.07893 -12.19541
6.071507 12.84293 -12.17358
7.063221 15.39436 -12.19908
9.98632 47.6103 -9.023046
6.533776 49.77848 -10.10578
4.463216 102.0644 -10.82953
24.00303 20.17982 -9.195627
19.11202 18.0845 -12.00495
18.72562 12.18677 -11.98227
17.85883 30.72555 -12.05278
18.09407 34.08096 -12.08832
17.4587 42.56858 -11.15507
16.12633 39.14785 -11.98323
22.52921 41.16809 -6.661133
22.10567 39.0607 -9.113213
17.57983 47.64374 -9.589804
18.10629 49.98736 -7.917866
19.48489 48.94855 -7.810166
13.96021 67.60048 -8.377927
19.27429 77.54769 -4.233144
17.60063 76.21254 -6.439518
18.65669 73.4539 -5.184939
15.45128 70.94482 -8.000829
19.2516 78.67806 -4.292918
13.71885 96.54639 -8.866478
7.079691 98.40982 -12.02155
8.716237 103.9671 -9.191499
6.695184 114.1196 -5.068211
10.18019 23.25402 -12.30562
4.464612 15.85517 -12.23447
11.09239 42.9915 -10.85114
9.066241 39.33881 -11.88828
6.345962 36.81918 -12.31886
11.81378 33.25808 -12.39871
4.969915 29.17561 -12.47941
3.785338 25.40354 -12.46851
4.086587 45.29939 -9.020553
4.195494 48.39882 -9.980762
19.53866 32.95392 -11.6109
22.06558 43.34526 -5.991841
22.39998 35.11164 -9.444839
19.63202 51.20452 -5.676758
15.44941 66.03344 -7.682067
16.35714 71.16486 -7.517454
19.21685 84.63552 -4.041846
15.23903 78.30078 -7.894506
8.157935 115.6303 -4.221017
8.240153 24.65204 -12.46547
12.55915 11.64247 -12.61932
7.143532 34.1604 -12.43442
7.38224 31.65312 -12.45315
5.954564 44.95792 -9.086672
7.827936 38.52045 -12.06852
8.055636 18.79192 -12.27922
10.32568 18.13801 -12.25951
9.525681 16.80605 -12.21923
5.302462 26.31768 -12.48793
19.35706 32.72849 -11.67066
21.74597 37.56934 -9.939548
17.04704 68.01956 -6.738312
10.17302 99.22496 -10.69823
4.333824 30.03024 -12.47196
22.86105 35.70196 -8.318846
19.21029 35.83921 -11.80024
21.00542 32.34159 -10.91571
21.00834 28.13239 -11.14987
20.62533 24.58474 -11.57479
6.206854 37.39568 -12.26204
9.121842 32.77695 -12.42929
11.91294 31.22916 -12.48554
4.422549 29.61686 -12.47432
15.67639 36.99275 -12.19532
18.28699 36.07867 -12.04958
2.729936 116.5678 -5.82061
16.99976 23.16433 -12.31204
16.75289 56.60769 -7.150846
7.997774 59.02164 -7.104523
7.575497 59.83233 -7.36346
3.859835 57.9507 -7.326304
2.890368 58.26395 -7.415231
6.457156 69.2998 -8.798632
11.99471 113.1698 -1.917706
14.83419 105.0173 -3.067679
15.12421 102.7907 -3.989354
10.13673 112.0676 -4.358366
12.22715 109.7456 -4.01535
3.832485 108.284 -7.391848
25.37504 15.91603 -6.874366
22.11525 28.33797 -10.54704
23.53326 24.83724 -9.721457
23.92393 22.58353 -9.416553
19.65203 24.02534 -11.8373
20.21592 21.41203 -11.82622
17.81554 11.79386 -12.25087
16.78369 61.78686 -6.157843
17.92547 62.29908 -5.002019
15.63696 58.3632 -7.241363
17.19347 57.85142 -6.304015
18.18373 63.8712 -4.867451
8.264925 66.15141 -8.400762
6.66679 64.90887 -8.312701
16.90929 86.16604 -6.861658
15.9946 86.28167 -7.650471
16.1545 87.66767 -7.594156
18.67687 90.63303 -3.266218
18.05543 89.58174 -5.037039
17.16279 92.9183 -5.554808
17.20657 96.52004 -3.274676
8.012656 86.50221 -10.72187
4.55017 111.1678 -6.201491
24.64529 16.12212 -7.888436
23.27453 13.33982 -11.32319
24.27786 13.66613 -8.44173
23.69611 18.67807 -9.435341
23.01066 15.11572 -11.22983
19.72629 16.47289 -11.97642
20.80996 18.69821 -11.84654
22.19017 20.60854 -11.33506
17.84857 55.46882 -5.639235
18.69644 57.06774 -4.236131
16.15778 55.87021 -7.608055
19.65012 81.85429 -3.401718
14.30153 105.1062 -3.943909
13.50078 105.4152 -4.87371
10.72133 103.3791 -8.509936
11.11967 100.5565 -9.574457
15.05 98.30769 -6.530231
13.81349 98.40569 -8.034904
9.019888 99.87611 -11.01276
14.59447 98.01617 -7.300696
9.966349 102.589 -9.36307
9.392735 102.819 -9.550281
5.96352 102.1545 -10.78855
9.341902 108.0084 -6.621059
8.050591 103.3743 -9.794796
11.03267 109.9764 -4.880765
7.63621 72.17762 -8.629533
16.43194 47.03997 -9.854616
20.08261 74.04828 -1.817724
19.27906 70.67472 -3.805734
18.23007 70.76404 -5.694574
10.53367 112.4322 -3.882768
9.205623 114.2408 -3.967208
6.50071 108.0973 -7.194728
7.995265 116.0895 -4.252966
7.548779 23.58328 -12.43449
6.21046 50.64708 -9.780363
17.76282 64.70914 -5.56699
18.08509 78.378 -5.810947
8.031723 29.6126 -12.49283
22.34429 31.7545 -10.09835
16.14801 22.64797 -12.49212
3.989492 53.7374 -8.677114
6.756213 53.35566 -8.886662
8.343889 50.92787 -9.55375
19.5242 69.97586 -3.081647
18.1329 89.9926 -4.769045
22.4244 36.60795 -9.019543
15.69768 54.92043 -7.827635
13.4199 102.0951 -6.769711
15.83957 96.15954 -6.341471
6.888465 106.8493 -7.881415
7.697896 105.557 -8.605201
7.088785 107.6819 -7.333678
18.27724 82.82551 -5.590803
9.936591 28.31777 -12.51016
2.978923 48.31116 -9.893244
-6.857092 153.2599 -4.150663
-4.297991 155.9504 -7.170043
-4.825069 152.3977 -0.3851053
0.4521896 155.2834 -8.820009
1.978697 154.5626 -8.859075
4.272123 151.7709 0.3765078
-3.345975 156.8179 -7.608986
-1.137252 152.6114 -9.671609
4.26544 152.5882 0.08891498
-3.961646 154.2015 -8.323878
-3.165475 153.2328 -9.121776
-4.384212 154.5884 -0.3224351
1.544803 153.7813 -9.219984
1.04043 151.635 -10.08148
2.19502 152.9934 -9.442561
2.365478 152.2178 -9.782907
-4.446278 152.7692 -0.1777004
-5.064078 154.7719 -1.620919
-1.719848 151.9102 1.375762
3.76229 153.4011 0.4475578
5.640316 154.8864 -4.940557
-5.204735 155.4302 -6.217494
-4.940131 152.9149 -0.7425361
5.043108 153.4395 -1.128895
-10.01632 131.5275 -9.994853
-8.579251 131.027 -11.11154
-0.8719568 119.8065 -6.386817
-5.629601 149.2712 -11.13694
-4.876678 148.5241 -11.91478
-7.464523 137.1541 -12.44325
-5.022676 149.759 -10.81459
-2.301315 119.8561 -6.366858
-12.61387 119.99 3.660259
-14.80661 133.359 4.012793
-10.29782 125.6593 -5.639611
-9.614821 146.002 -11.7073
-15.08205 136.5514 -7.292559
-14.51717 133.5771 -5.272013
-11.21121 121.5205 -1.599564
-10.97923 131.1317 -9.358699
-8.901652 134.5211 -11.28828
-7.275136 118.8189 -4.757026
-6.403149 140.9251 -12.78425
-5.73674 148.4594 -11.76748
-12.42011 141.2401 -11.56528
-9.84567 120.0386 -3.023602
-12.81003 121.443 3.333647
-14.93626 135.2012 2.182326
-15.00954 136.4438 -0.1718813
-9.081791 130.1886 -10.74684
-10.001 127.7598 -8.682584
-6.770215 124.4424 -7.123763
-6.617538 121.1073 -5.759326
-8.376669 145.3203 -12.32631
-11.9933 143.6475 -11.56391
-13.23781 123.9793 3.826097
-14.66068 132.6114 3.344338
-15.40555 137.9732 -7.538196
-10.19985 128.5469 -9.79786
-10.79847 140.2659 -12.05699
-10.46535 137.2322 -11.72837
-10.31541 121.1186 -2.860775
-9.740011 143.4405 -12.25893
-14.58874 132.4424 2.031876
-8.468931 124.5828 -6.365375
-9.348671 139.464 -12.39444
-11.08261 126.6656 -5.517053
-8.665313 123.1533 -5.468268
-11.79716 126.7744 -4.538303
-11.81553 128.5511 -5.990286
-12.22328 127.6388 -4.576351
-12.27759 127.0527 -3.847202
-13.47296 126.1017 1.252133
-11.05178 120.3527 -1.38907
-12.73534 124.1006 0.2010092
-9.489858 122.5175 -4.442229
-15.34237 135.6057 -3.097504
-14.36256 133.2117 -6.186489
-13.72362 130.2837 -3.082928
-14.87758 134.1858 -1.591899
-14.83019 133.9541 0.1590323
-12.72134 131.6402 -8.25596
-13.54201 130.8644 -6.284634
-14.1011 133.7576 -7.562598
-14.08882 129.8578 0.8939391
-14.09985 130.5938 -0.6631939
-14.45596 132.3114 -1.452138
-13.96142 136.7091 -9.17952
-12.6866 128.2089 -4.092144
-11.91216 123.7717 -1.669245
-15.16713 136.0951 -6.624475
-13.10217 133.1445 -8.673007
-13.42385 136.153 -9.586845
12.93861 122.3903 3.343859
7.609928 145.6046 -12.25505
10.14968 120.4287 -2.776213
14.96915 137.4829 0.9973598
5.927186 122.3951 -6.502306
14.8057 133.9991 2.677358
13.05256 124.7607 0.7385218
2.950259 120.836 -6.641232
12.14079 119.3885 1.505939
15.50504 138.3831 -6.933254
6.819738 148.0621 -11.90979
12.18859 119.2014 1.786018
12.25633 120.857 1.217056
4.15758 118.8619 -5.967964
3.950711 149.8186 -10.85664
10.66187 131.0938 -10.20188
10.46033 118.9389 -2.084762
15.20158 137.331 0.06978285
14.83725 133.6615 4.014986
7.107155 139.7749 -12.76513
9.688247 142.8209 -12.25381
4.346333 146.4534 -11.94163
4.526971 122.6973 -7.09451
5.570989 148.8208 -11.38048
7.393301 124.7362 -6.985604
11.34922 120.8562 -1.0634
12.99833 122.6838 3.32438
14.72846 133.7104 0.9026849
7.829991 135.7396 -12.14921
14.90021 136.7154 -8.072235
12.93385 141.9803 -11.38263
10.45085 145.3787 -11.73255
6.960382 120.1957 -5.271214
5.587111 121.5078 -6.319165
14.2401 130.2764 5.08606
11.12259 122.1132 -2.105599
14.39301 131.6257 1.363765
10.67315 132.8842 -10.37205
13.7458 136.8679 -9.495417
8.424928 141.3643 -12.56163
8.895612 120.9308 -4.218184
6.457297 124.8964 -7.619462
9.749368 127.69 -7.563115
10.95574 128.6519 -9.65883
12.96478 131.0414 -8.229113
12.85283 130.3723 -6.502546
8.639457 135.4863 -11.80383
7.439031 122.7277 -6.005008
11.40409 131.6259 -9.837032
13.505 131.606 -7.310609
14.56883 135.2203 -7.939692
12.77016 125.894 -1.44645
11.716 127.3012 -5.166566
12.02716 125.6681 -3.066911
14.21832 135.6906 -8.620029
12.93682 129.1549 -4.459665
13.66294 130.643 -4.080766
14.01911 131.6686 -4.180229
14.53696 132.7127 -0.1890347
14.00081 129.5738 0.455436
13.89398 129.9581 -1.271669
12.23566 124.4885 -1.603762
14.12938 130.3822 0.3518038
11.6123 140.7062 -11.87463
5.729931 145.7855 -12.18659
10.12512 134.2127 -10.90768
