# .PCD v0.7 - Point Cloud Data file format
VERSION 0.7
FIELDS x y z
SIZE 4 4 4
TYPE F F F
COUNT 1 1 1
WIDTH 1664
HEIGHT 1
VIEWPOINT 0 0 0 1 0 0 0
POINTS 1664
DATA ascii
-11.56677 125.6729 1.392684
-12.98932 133.3294 1.58788
-10.7431 119.8247 5.110487
-12.90361 133.0027 1.595932
-12.18091 129.1428 0.7684417
-12.21929 130.1692 1.79947
-11.41182 123.8148 2.574463
-11.41718 125.5277 3.796383
-11.45558 126.5043 3.740938
-10.99059 121.041 4.292946
-10.46148 117.9595 5.114243
-13.17371 132.7383 -0.2081857
-12.83678 132.5665 1.501256
-10.60783 117.6291 4.415096
-11.05453 121.71 4.942208
-11.55415 126.9727 3.298128
-12.29427 130.4789 1.729748
-12.35067 129.9798 0.785743
-11.45724 125.5132 3.501636
-11.22768 122.8082 1.960284
-10.81771 120.2704 5.041972
11.29573 124.8001 4.627698
11.20403 122.6911 4.114362
10.63643 119.0813 4.810284
11.34705 125.3858 4.329474
10.71258 119.4443 4.170158
11.49033 126.2449 3.489293
10.51324 118.072 3.610645
10.49306 118.6298 2.833487
11.17422 122.0061 3.145329
11.48627 124.8511 1.7696
11.34423 123.3484 3.338531
12.09203 128.9803 0.8454028
13.02421 132.5455 0.09603903
12.91803 130.8729 -1.62035
11.72816 127.7409 2.022184
11.79775 128.0462 1.670342
12.15374 129.4649 1.068152
11.99915 128.3487 0.4635997
11.10813 121.5606 3.603086
11.03581 121.1475 3.453863
11.36238 123.6373 1.797739
11.52644 125.3094 1.627011
1.497894 130.7991 12.91067
6.755828 135.9174 10.49696
0.2603449 132.8727 12.44361
-0.3289025 133.6438 12.18248
3.240863 134.7477 11.75183
0.1662152 132.3738 12.58458
7.110511 135.509 10.59786
7.577236 137.2577 9.44581
7.272329 135.5982 10.48656
6.947391 137.504 9.565168
4.007635 130.4914 12.96533
5.113783 136.7203 10.50268
6.462114 135.3552 10.91175
1.327995 133.663 12.18298
0.7227293 134.3271 11.9283
3.64128 135.996 11.13029
6.354772 133.8253 11.77727
5.050184 132.2598 12.60248
5.055349 133.6736 12.07636
1.497775 132.7088 12.49893
5.582368 136.9813 10.25036
-0.2090411 135.9418 11.27257
-2.812674 136.5267 10.94004
7.865766 141.9267 6.997635
6.604951 140.1566 8.342584
9.504519 143.5985 5.197621
10.22372 142.6971 5.422744
9.940468 143.8713 4.818898
9.886641 143.7794 4.902337
9.147773 141.0337 6.84243
-3.553007 136.7023 10.77714
5.624721 140.4455 8.514966
-2.903396 137.6249 10.36714
8.321823 141.8322 6.830286
-1.031268 134.2934 11.93815
3.092941 138.0004 10.14035
9.074879 140.7168 7.043975
6.154234 138.7427 9.17924
7.457889 139.601 8.308105
2.093435 135.7968 11.32908
6.102306 138.0255 9.569798
4.075505 137.2735 10.40254
-0.6885799 136.5053 11.0199
2.754565 137.4599 10.46449
5.791149 133.0171 -8.971577
3.359103 130.3995 -8.145878
1.788618 128.7894 -7.404262
2.710395 127.9339 -6.9925
3.444905 128.0573 -7.040853
9.362128 144.3873 -6.506776
-0.5957035 136.9599 -9.184526
7.800436 141.4354 -8.656531
-6.069492 142.0327 -8.696729
-2.465685 140.6622 -9.060624
2.369582 131.5119 -8.494361
-0.2101719 144.2546 -7.836968
-4.718657 140.0915 -9.278136
-1.790363 134.7692 -9.046659
0.570093 132.3306 -8.675952
-3.514789 140.1723 -9.199636
-2.494993 136.8815 -9.194798
2.592239 133.705 -8.944511
4.756877 132.3798 -8.790474
0.7242214 131.8917 -8.575901
8.471744 143.6879 -7.387554
6.185708 139.7602 -9.26311
7.072192 138.0634 -9.16013
-2.386168 135.2232 -9.08932
1.233936 129.9067 -7.911095
2.24468 130.9936 -8.324745
-0.3261106 132.3692 -8.682924
1.369046 132.0075 -8.609988
6.460838 139.0479 -9.22783
-2.54876 136.167 -9.156389
4.546023 133.6578 -8.992835
6.475986 137.6056 -9.260941
3.522184 136.901 -9.214839
5.678375 138.2691 -9.305803
3.402694 142.7052 -8.504629
-6.076103 144.5874 -7.306249
-3.486595 142.7945 -8.472166
5.084673 135.3572 -9.162406
7.00142 141.5668 -8.786317
-4.86476 142.3497 -8.675959
-1.700547 137.2314 -9.203927
1.232683 135.5788 -9.111709
2.555886 133.0912 -8.849665
3.394369 134.4296 -9.046729
3.240791 133.7126 -8.961051
6.117886 139.1433 -9.269515
2.130355 140.8102 -9.030783
-4.265426 143.3637 -8.222923
-2.288843 141.6897 -8.815975
6.935668 142.9767 -8.195593
5.289073 141.9202 -8.822698
4.842885 140.9648 -9.144941
-4.601888 140.9609 -9.116575
-0.7036607 136.0836 -9.142008
0.9540252 135.0298 -9.067905
3.878748 135.1442 -9.117513
3.264353 143.2703 -8.251395
5.360928 142.6375 -8.528165
1.606469 136.6333 -9.175962
3.036076 139.8553 -9.188898
2.059407 141.1903 -8.949641
3.148049 141.5365 -8.898116
-0.6551461 141.1308 -8.937257
-3.004957 141.5007 -8.885909
3.499946 143.0791 -8.338776
3.545979 140.0783 -9.184424
2.324858 139.4266 -9.196651
0.5969927 141.9019 -8.747595
-0.8491768 143.8913 -7.989076
-1.070112 138.816 -9.207106
1.032055 140.2689 -9.095134
-1.352258 140.0677 -9.122074
1.009507 136.1756 -9.148559
2.978793 138.8051 -9.246454
10.39602 119.9945 1.0095
-2.50179 119.8172 -4.095494
3.95317 118.8687 -3.935913
-0.06993876 120.1284 -4.152389
11.41371 125.615 -1.255677
11.05591 125.8558 -2.697179
9.081444 124.8203 -4.434752
-10.48201 122.6657 -1.270764
11.13099 124.8081 -1.553382
-4.785732 119.1972 -3.983022
-10.33245 120.2594 0.6144105
8.902359 125.4016 -4.935897
11.30668 123.7868 0.8172615
1.00982 125.8998 -6.163689
-6.361153 125.2198 -5.663654
-11.49015 125.3465 -0.08109894
10.61698 121.2509 0.5229064
-10.76379 125.3952 -2.981032
-10.72462 121.6205 0.6141425
-9.880451 125.0878 -4.002379
-10.81121 125.7025 -3.108771
-8.187891 125.0839 -5.069061
8.271354 124.8022 -4.887808
11.16861 124.4391 -0.8590686
-0.9033906 124.0207 -5.463066
-3.400718 126.1508 -6.258021
-11.54819 126.2063 -0.8770655
-11.23897 123.5881 0.5305945
10.93313 122.2166 0.7552528
5.276604 125.3287 -5.85339
6.031559 123.7234 -5.109362
2.818506 123.8561 -5.417172
-10.5422 122.5893 -1.039595
-1.573936 123.7468 -5.366797
-6.478766 126.0718 -6.015618
9.925342 124.2754 -3.428266
0.6278805 125.2509 -5.916313
9.702317 121.5428 -1.725906
7.998045 123.696 -4.418184
0.009320883 126.0666 -6.227936
9.03087 119.548 -1.416567
1.285416 122.9816 -5.122689
-10.31761 125.0038 -3.486117
10.30471 121.2525 -0.3943056
-9.896766 121.6926 -1.552785
-10.68113 124.4299 -2.427279
-9.327662 124.5391 -4.0708
-0.1100722 121.9953 -4.813694
-0.1348937 124.1341 -5.503464
-3.00179 123.4774 -5.263586
-3.237916 123.2306 -5.185729
-3.464059 124.1505 -5.505939
10.23433 121.802 -0.9493122
7.852358 123.7017 -4.484026
6.054615 120.6512 -3.953968
9.85 119.5828 -0.1967738
-8.78107 123.7632 -4.047067
-6.908273 123.349 -4.677698
-10.67173 123.7333 -1.788876
9.49937 120.3531 -1.255855
-9.993126 121.428 -1.141999
3.235878 120.7839 -4.476655
3.703299 122.9586 -5.139546
5.310821 124.0512 -5.375935
4.140887 120.1641 -4.29079
-1.186736 119.4181 -4.142271
-3.731725 122.5903 -5.007067
-10.76789 122.8183 -0.6491979
9.597512 120.0155 -0.8514866
9.69528 121.6147 -1.78107
8.669283 123.2858 -3.816622
-5.847461 119.5288 -3.689955
2.979871 121.2509 -4.610422
1.721305 121.3512 -4.628662
0.9661008 121.0451 -4.560317
0.8374121 119.3061 -4.159596
5.078513 119.7441 -4.046992
-3.435303 119.5906 -4.119413
-1.443676 121.921 -4.797417
-0.2210477 120.5005 -4.342903
-6.325959 122.1767 -4.38835
-3.490494 119.9409 -4.22799
-6.020394 122.3594 -4.568876
-8.906847 122.2798 -3.093105
-6.551812 120.6868 -3.734137
6.378141 122.2763 -4.403631
3.521928 120.405 -4.366282
-4.883523 120.3945 -4.266469
6.430135 120.3229 -3.663535
5.025127 121.1047 -4.410169
6.289152 122.6529 -4.596787
-10.88456 124.1538 6.243073
-10.46141 124.5502 7.379513
-10.1921 127.5646 7.878278
-2.915997 121.4975 13.23068
-10.41692 127.1384 7.241865
-1.325473 127.7782 13.11277
10.04832 127.1432 8.018094
-8.980562 127.559 10.20284
-3.644461 128.2574 12.90664
0.635967 126.3738 13.39337
5.740077 120.6039 12.32577
5.727001 122.7247 12.7839
-10.9295 126.5082 5.932599
7.294725 127.4259 11.71465
9.990338 126.1245 8.369787
10.40761 127.7366 7.552303
-10.63443 127.8306 6.934145
11.18337 126.9146 4.987237
10.91905 127.1618 5.937084
9.239999 127.6765 10.031
4.014655 127.3442 12.82663
-11.20761 126.5392 4.897271
-10.42414 120.8714 7.100762
10.52479 121.1233 7.001472
-0.7364944 121.0573 13.3197
9.339078 121.1322 9.301374
10.91391 124.7726 6.168462
-6.357247 127.2536 12.13623
-2.524378 127.0159 13.18019
0.3134708 127.1069 13.27129
3.961017 126.9628 12.88608
9.832485 126.7495 8.514738
6.419996 126.9084 12.01579
6.870021 127.6808 12.10034
-10.54249 123.6256 7.227312
10.60293 125.6235 6.931304
10.98246 122.8583 5.727166
10.71147 123.4718 6.747262
9.12067 125.5311 9.796292
8.897344 124.4432 10.28733
-9.107507 122.6097 9.954435
-4.350679 121.6696 13.0259
7.949103 123.283 11.30434
-3.419041 127.4101 12.95662
2.761906 126.8415 13.18142
5.378373 127.7307 12.5599
-10.93559 123.147 5.976692
10.04256 122.2865 8.321297
8.712436 122.22 10.43313
9.022491 121.4648 9.801916
-6.18611 120.7066 12.1247
-3.805037 121.0907 13.02505
0.8064988 121.0714 13.32353
4.133637 120.8914 12.89214
8.328053 120.8677 10.55368
5.322408 126.2507 12.61205
7.730821 122.1929 11.3863
9.598125 120.6254 8.849992
-9.560239 123.5681 9.316066
-9.232272 123.0468 9.805656
-10.56369 123.12 7.136233
-10.63201 125.0805 6.90254
-9.681874 124.0493 9.085193
-8.202108 120.9649 10.68822
-4.867212 123.4597 13.12697
-3.781665 123.5501 13.39324
-5.49543 122.5598 12.86228
-0.8440975 122.2488 13.4296
-0.6224048 122.1169 13.41897
-0.59234 125.0064 13.50161
-1.879502 124.0053 13.52647
3.887151 121.1021 12.98723
-10.17578 125.7909 7.87747
-5.168807 121.9932 12.88081
-4.752123 122.8813 13.12946
5.445399 121.6646 12.71306
7.043452 122.3628 12.00519
3.595983 123.5914 13.41227
2.626358 123.1966 13.46069
-4.036433 126.9673 12.87747
1.529202 126.0454 13.44775
-1.526392 125.4803 13.46314
-0.8335814 125.5401 13.46225
7.535999 123.5676 11.68958
-6.090941 126.1745 12.31001
-2.965775 126.1855 13.25478
5.936585 123.8469 12.70567
3.208709 123.5972 13.44193
-5.048172 125.6905 12.84182
-9.087752 123.7074 10.00828
-6.231179 124.0564 12.55631
-7.567277 125.5011 11.47808
-6.923905 126.0278 11.85329
-5.080484 123.9618 13.02178
-7.213883 124.7059 11.83707
6.167469 124.9391 12.4996
8.365209 124.4686 10.86273
11.14107 124.3043 5.298172
-2.830791 124.5298 13.4996
15.44285 89.19365 3.735791
-14.88543 80.57618 6.716325
-15.28479 85.4256 5.648208
13.11174 78.36079 10.17366
-9.679008 113.0058 8.377586
-13.34969 78.65025 9.876167
3.06614 77.91389 12.49638
-15.32631 90.97913 4.147456
-6.225331 79.1087 12.51181
-15.35156 85.96169 4.984974
-14.50714 77.45497 7.467367
-9.689664 98.83612 10.38339
-13.41901 101.5306 3.496816
-12.94352 104.0852 5.145629
-12.70592 106.6106 5.133918
-11.93218 107.6926 7.268935
-14.7599 79.99966 7.090557
-7.736498 79.87271 12.5102
2.574507 78.32529 12.5027
3.82701 80.55961 12.50169
-9.438738 104.4244 10.67655
-14.95271 79.39926 6.32161
14.62709 79.80638 7.462328
-1.310227 77.70497 12.49941
14.60692 78.06584 7.230077
-11.34474 111.5358 5.907948
-13.08711 78.25024 10.23597
-13.31276 78.35667 9.909518
8.236107 78.4537 12.50303
-7.585076 110.6638 10.8398
-12.84677 84.5026 10.46586
14.92257 77.44262 5.234478
15.12062 83.11877 6.192605
0.8216426 115.1854 12.84731
-12.12583 109.6048 4.932616
10.85473 114.0774 4.072829
10.46605 117.0728 3.92463
13.11859 104.5352 2.753667
13.19521 103.5063 3.519944
12.33107 109.0036 2.62379
11.24504 112.7308 3.393521
-6.734984 111.2227 11.21014
9.761192 115.4052 7.496006
4.892015 78.61423 12.50489
14.0282 78.38993 8.835537
14.05558 78.41982 8.796894
12.62349 78.62492 10.7392
15.1917 81.09709 4.329499
15.04444 79.19111 4.908681
11.20484 112.737 4.715128
10.45661 115.0612 5.633594
5.811516 115.9503 11.29995
-13.9107 98.01428 5.814811
-13.93563 83.97349 9.158798
-14.87445 86.04395 7.217716
-11.65407 79.3148 11.46174
-4.627821 79.33827 12.50924
13.40903 100.9503 1.972528
-12.88104 100.6333 6.972708
-2.613239 115.8228 12.68936
-13.0175 105.058 3.848476
11.71797 103.3764 8.427389
-10.24627 115.7584 6.125227
-10.40308 115.899 5.462437
-10.39546 114.7476 6.058016
-11.08599 111.6907 6.533867
-11.10571 112.4896 5.71667
-11.91225 110.0952 5.3188
4.76285 78.26396 12.50173
15.40778 89.88612 3.269171
12.81848 78.96707 10.54659
10.68485 79.12309 11.97666
14.21233 79.4305 8.581083
15.20484 81.69147 4.852556
14.73219 82.05592 7.447403
11.41121 112.2073 3.340115
10.1097 113.9746 7.244125
8.887383 114.8593 8.896619
7.103544 115.8289 10.41636
-14.13787 79.84184 8.631953
-15.39695 88.1852 4.692281
-14.44621 81.1351 8.117982
-15.01383 82.91948 6.681811
-15.01838 88.95756 6.642004
-15.05548 87.45293 6.622815
-10.07487 78.72164 12.1969
-5.724025 78.03958 12.50041
-3.647922 78.44788 12.49777
14.72825 94.53521 2.693454
15.03475 93.41199 4.129208
13.51673 99.26492 1.433331
-13.2994 101.2801 5.107362
-14.33362 95.70237 6.211595
3.31487 114.6242 12.48542
-12.53716 108.2546 4.396251
13.09967 102.9332 4.448518
13.16383 104.3592 2.275493
13.01531 104.8842 3.981325
-7.854507 114.8478 9.847029
-8.252014 114.8572 9.495587
-10.04694 114.9119 6.952052
-11.61689 109.2988 7.058459
-7.677528 113.0803 10.21029
-9.363931 111.6877 9.223147
-9.230103 111.8923 9.278679
-11.97721 108.5218 6.715497
-10.64948 108.2981 9.187272
-11.24128 107.7723 8.5122
-10.19083 105.974 9.990005
-12.08933 104.4213 7.667205
-9.493301 106.8371 10.46491
-11.8025 106.5212 7.819019
-9.344931 105.0688 10.71615
9.680582 80.42239 12.29928
4.531703 78.00959 12.49621
6.996716 79.20747 12.49333
3.884926 79.28916 12.49998
7.002149 79.84869 12.48427
-3.201503 80.45477 12.49523
3.321465 79.90937 12.49516
15.33426 86.32079 5.316401
15.09593 84.70186 6.4323
15.36262 83.94875 3.323951
15.3733 87.43793 5.035343
15.29727 90.25626 2.458574
15.43913 88.47738 3.524274
13.18632 80.30318 10.09224
13.88655 80.74633 9.180995
14.97145 80.98004 6.154298
14.98042 79.97009 5.788438
12.34095 81.86761 10.97524
12.20936 80.97588 11.08515
12.23577 108.0306 6.172798
12.422 108.5296 4.356207
10.50839 114.8349 5.539899
10.8843 112.9477 5.879514
7.202952 115.6242 10.3255
-13.71227 79.53168 9.308876
-11.69557 79.15319 11.43039
-14.77804 92.90984 6.245872
-15.02212 90.45274 6.351771
-15.28138 91.51831 4.586071
-6.726355 80.59103 12.48485
-12.12748 79.57505 11.14606
-2.875938 78.64133 12.50126
14.16246 96.58308 2.128464
15.0069 93.33788 3.234763
-13.40077 101.4749 3.896778
-14.05682 97.98681 5.119268
-13.9134 98.82913 4.46727
-14.67927 95.35526 4.786098
-3.392148 115.0105 12.45742
2.341283 115.5983 12.72552
4.77679 114.8845 11.87324
-12.82645 105.0888 5.240057
12.95161 105.8675 2.634067
12.74719 104.3998 5.779987
12.92456 105.2388 4.531905
12.03976 104.9696 7.668962
13.15845 100.1523 6.461784
12.55999 104.9761 6.300338
13.40889 99.94566 1.352971
12.70083 103.3795 6.275274
13.14278 100.915 5.967003
13.59388 99.99845 2.909506
13.12585 99.6356 6.874417
11.6993 99.59187 8.907471
11.44754 100.8623 9.015593
13.61736 99.54167 5.448993
10.02897 101.5422 10.14325
10.82562 100.8044 9.627777
12.94081 99.05273 7.529001
13.19292 98.75052 7.232807
13.32485 101.6998 1.675266
13.59994 100.1673 4.055536
-6.723753 114.6254 10.69195
-9.825051 115.5889 7.397577
-10.69562 111.9539 7.236309
-8.928706 110.7208 9.964087
-6.751228 110.634 11.34528
-7.485696 113.3785 10.30034
-12.65066 105.627 5.788068
1.401218 78.38715 12.50191
-1.57067 79.51537 12.50259
-0.6006333 80.06902 12.49831
15.2096 85.30636 5.703921
14.19317 82.97671 8.81437
14.40134 87.36034 8.268788
14.1906 86.60769 8.641012
14.33957 87.81541 8.325151
15.00035 89.76675 6.617419
15.28387 88.97043 5.811456
14.93908 90.69447 6.601937
15.29036 91.3781 3.364193
14.10245 90.51096 8.325147
14.54887 90.35776 7.691513
10.83153 85.66278 11.61053
13.08993 91.32488 9.320579
12.83003 92.70679 9.413227
15.42252 88.18449 3.990067
15.16506 92.47227 3.61312
15.18126 92.49024 4.729209
13.86173 81.81274 9.240058
13.56179 83.04105 9.697168
15.09571 85.32101 6.269808
11.49684 82.94009 11.51471
11.08721 82.8216 11.72441
9.786572 84.53163 12.05661
8.12199 85.21378 12.16457
12.27955 84.24812 10.91492
13.8141 83.78017 9.341146
14.13015 85.57006 8.819783
12.85385 105.8455 4.678355
12.06693 108.3387 6.515514
11.40913 111.8869 5.269258
10.56966 113.3557 6.546247
-14.9108 92.27473 6.317419
-14.98364 93.70255 5.283547
-15.05525 89.8198 6.357584
-14.93825 88.4594 6.893389
-14.63155 88.79282 7.544388
-14.65506 82.68568 7.589987
-14.36358 82.31315 8.248963
-15.04034 82.84748 6.592578
-14.27362 85.83964 8.591765
-12.45121 85.32136 10.70804
-6.544405 81.07685 12.48748
-4.750686 78.65631 12.49789
13.7308 99.22761 2.649308
-13.52318 97.61965 7.178309
-13.2662 97.99963 7.551353
-13.67272 98.60707 5.986449
-11.99275 95.99847 9.343134
-13.793 99.23224 3.40929
-14.13952 95.36997 6.939831
-14.31151 95.35907 6.490367
-1.014668 113.5626 12.82225
-2.908635 114.1007 12.60119
2.635645 113.127 12.69773
1.043528 112.6457 12.85792
-0.5888854 111.9815 12.92974
4.750659 112.8287 11.998
-13.19617 103.1725 3.771262
-11.74775 103.3376 8.392669
10.25827 104.1683 10.05006
13.20932 101.8154 4.973953
10.15406 98.18417 10.16144
13.52495 100.5064 4.464826
-3.575862 113.7303 12.42514
-6.282324 111.9102 11.33416
-6.362689 110.8303 11.49391
-7.957096 113.0165 10.02327
9.575759 79.66102 12.31922
9.573556 81.85242 12.27166
7.603172 81.01352 12.52423
8.462592 82.21349 12.42321
14.14906 87.39865 8.675239
11.6621 84.48054 11.3242
9.46299 85.36904 12.01248
12.51981 88.78103 10.14681
6.726334 88.52313 11.67573
12.72752 86.06641 10.43536
7.682105 85.9325 12.0461
9.956352 88.62785 11.41452
14.32134 85.53394 8.526271
14.76475 81.57958 7.289657
12.45836 108.1006 4.794181
12.01484 107.6077 7.063444
11.7394 106.6277 7.891204
7.834788 110.5115 10.7416
11.67033 105.1933 8.286285
9.362419 113.0566 8.778086
-14.95035 92.66811 5.910709
-5.006477 79.61758 12.5087
-10.46995 85.82169 11.76951
-7.253716 81.51096 12.48544
-8.258611 82.11543 12.4832
-9.902143 81.26707 12.23242
-13.43192 100.8241 4.886636
-14.47241 92.36526 7.408742
-12.75014 93.80537 9.272359
-2.74914 113.778 12.64196
3.210433 114.1027 12.52374
-12.54342 102.6136 7.049022
-13.04316 103.1999 5.07458
10.21592 103.6776 10.10779
9.466468 105.6693 10.57612
9.170595 102.3658 10.78898
10.20899 99.28354 10.04166
11.16628 106.6067 8.85324
13.83043 97.7771 6.242812
14.44913 95.07959 6.191451
14.09301 97.58228 2.960245
13.95504 98.5372 3.712139
7.491636 93.93317 10.93783
-5.31102 110.8567 12.00207
-4.861118 109.9284 12.3807
-2.9924 111.8334 12.72584
7.037333 81.90916 12.47147
8.637935 85.74693 12.04133
12.09095 85.24258 10.97388
11.47934 87.55071 11.06226
9.248728 114.1416 8.550159
8.351658 114.1671 9.481123
8.547458 112.4065 9.72436
10.35817 111.2142 8.277895
-11.84649 100.1532 8.591637
-10.36036 99.37668 9.966329
-13.63485 96.63779 7.440518
-12.16804 96.97893 9.094284
-1.512529 112.3592 12.89726
2.059359 112.2843 12.8542
10.02537 107.3853 9.964838
11.06384 108.1653 8.676195
-11.67966 104.1223 8.419386
-9.993563 105.0835 10.23678
10.45433 101.2464 9.89435
10.01579 98.95029 10.19988
10.86546 97.05334 9.890258
12.62895 97.28494 8.51545
-1.33238 80.58209 12.49691
-4.495243 81.38331 12.49082
7.067764 85.39799 12.11693
8.086454 111.7961 10.2481
9.975094 111.5952 8.596545
10.56843 110.827 8.184857
10.73876 111.2234 7.64262
-2.151324 110.2828 13.0219
-11.26683 101.79 9.164433
-11.33312 101.0598 9.07933
-10.87165 104.9627 9.412305
8.482892 100.2026 10.92559
12.71758 96.54429 8.626671
14.37422 94.61854 6.717394
0.2172064 80.07294 12.49795
-4.892119 82.49345 12.46974
-6.394372 83.13739 12.43303
6.668358 83.76404 12.34056
5.974264 87.47248 11.91038
11.50565 90.01127 10.65081
8.925815 88.3345 11.62744
7.04142 113.6561 10.54805
9.465371 109.9986 9.773835
11.34187 109.7773 7.454046
-10.78969 100.2305 9.634903
-6.988801 105.1263 11.8203
9.208647 101.1469 10.69805
8.749265 92.08438 11.04943
12.80325 93.63387 9.241924
13.91611 92.89988 8.231223
14.42115 92.87529 7.304518
15.13449 92.52884 5.246894
14.60449 94.0598 6.367168
0.8395245 80.82323 12.49841
-3.000071 82.63081 12.46532
5.642629 84.23752 12.29106
5.80115 111.935 11.58973
7.006306 108.4838 11.59837
10.80615 107.3367 9.200809
-10.78316 103.1331 9.540599
-9.048128 104.6709 10.8908
-8.353285 105.0877 11.21391
-5.112833 105.0214 12.4828
-8.52499 100.2718 10.88943
6.589317 100.1609 11.43301
13.06266 95.68601 8.495107
14.82413 94.47182 5.372939
2.163245 80.19662 12.49846
3.710134 81.48846 12.49419
0.1108986 82.00473 12.47978
0.7671633 83.14967 12.42053
0.3374338 83.03071 12.42911
1.968191 85.88732 12.07417
5.630329 86.36993 12.0208
4.896634 86.86292 11.98564
10.08981 108.4454 9.701108
-9.14423 104.862 10.84591
-8.408772 101.0312 11.03949
-10.53786 101.8444 9.852048
4.102068 81.88288 12.48016
0.7202868 85.29668 12.14382
9.815431 108.79 9.828875
9.188128 109.3563 10.18469
8.162287 108.802 10.95209
6.51108 108.4206 11.85241
-8.010275 106.3832 11.33399
-6.681048 108.5481 11.74821
-4.883027 108.1483 12.55855
-2.695488 107.6581 13.11857
-3.22353 108.4112 13.00775
-0.1412263 108.9205 13.13747
-1.968242 109.4368 13.07605
-10.34997 102.5597 9.960245
-6.537568 101.7156 11.68049
2.30435 84.614 12.24463
4.808962 110.5362 12.30279
6.149683 107.6352 12.09543
-7.119318 106.9543 11.71458
5.220077 107.9278 12.45636
6.052844 107.9344 12.10664
9.05455 106.1994 10.72565
4.506165 108.3654 12.68187
9.498865 107.0038 10.43308
-10.22568 108.3949 9.601536
-9.521725 110.2852 9.625633
-8.417482 107.9025 10.9788
0.9364996 86.74239 11.99603
8.336639 108.0084 10.99378
7.477443 104.9663 11.61817
7.664025 104.4072 11.54208
7.419882 104.3419 11.64518
7.164537 104.8024 11.75776
5.496233 106.0329 12.38758
4.292612 106.7218 12.82922
-13.38436 80.24009 9.915086
-10.03825 81.82832 12.18336
-12.20867 81.26302 11.08369
-10.7707 83.36474 11.84769
-9.259803 81.94299 12.34212
-13.96979 81.91839 9.101571
-12.49784 84.74308 10.71122
-12.12754 84.01176 11.06083
-13.67779 83.99827 9.522671
-13.088 85.12569 10.12089
12.19184 92.78732 9.877522
9.628302 89.24957 11.39323
8.711097 92.90629 10.94264
3.426426 92.80223 11.02746
9.185572 91.76041 11.05301
6.373169 89.48906 11.45206
7.241818 95.09282 10.85818
10.36197 93.29858 10.64775
6.952816 90.33181 11.35115
9.928802 93.93588 10.67773
6.337497 90.54417 11.32175
10.53426 97.09467 10.05321
8.480112 95.4876 10.75002
4.004955 90.65889 11.32868
4.355332 92.89431 10.99587
7.554188 91.80838 11.1539
5.530859 92.79721 10.98079
5.404335 93.50564 11.00996
8.871531 90.48911 11.27264
11.06962 89.05322 11.03286
7.947811 97.92365 10.85034
3.124662 92.08124 11.09372
0.8542022 93.0755 11.16359
8.108046 96.29198 10.79059
6.351005 98.51627 11.19608
2.980515 101.6232 12.44188
2.945974 98.99109 11.83607
7.219814 97.02871 10.90569
5.261955 97.90937 11.26739
3.138026 102.3834 12.57934
1.754195 100.6363 12.37186
-0.197826 97.79385 11.86743
4.668227 92.06877 11.10838
6.937555 98.4258 11.08695
5.762817 97.75739 11.16599
3.917775 101.8214 12.3096
2.456404 98.37466 11.78714
3.448986 90.50447 11.31712
5.107796 90.50346 11.32128
7.066016 101.5565 11.53412
4.61919 103.543 12.45163
5.200797 106.3492 12.49866
3.720597 105.6621 12.91099
-0.7944261 102.9467 12.91854
4.098771 99.25224 11.7129
3.140682 89.32022 11.42927
3.382923 98.67061 11.70979
3.862937 102.5624 12.47542
5.384631 101.8515 12.00583
6.767417 102.9711 11.7744
-0.9454742 103.3841 12.991
3.462542 88.91753 11.55031
2.458121 88.37654 11.72168
4.704218 89.4683 11.42749
4.570194 87.8293 11.85168
2.123808 87.72826 11.89119
-0.01706639 85.96986 12.07144
1.396056 103.7787 13.04251
14.60961 92.07819 7.144973
-14.06427 91.6646 8.143921
-11.38547 92.25993 10.37419
-14.92753 92.12373 6.332317
-14.3171 93.29443 7.415739
-11.65679 94.94199 9.848505
-12.39308 91.68046 9.916393
-14.17324 90.87821 8.055477
-13.15772 88.99095 9.677836
-13.93476 91.1133 8.352116
-12.84238 90.97414 9.711671
-13.07858 90.2614 9.533431
-13.52984 87.88668 9.377584
-13.05837 86.81209 10.11718
-12.12661 87.80341 10.66249
-10.26517 90.01104 11.14961
-11.90484 86.691 10.93203
-9.484224 89.12616 11.45269
-10.90023 84.03697 11.79201
-4.951028 84.07385 12.33375
-4.03263 86.11122 12.06573
-3.512324 85.80632 12.09653
-2.139251 83.57131 12.39348
-0.5857654 83.62486 12.38289
-4.605392 83.25426 12.42323
-5.769697 83.24631 12.42511
-7.34159 84.36232 12.29819
-8.043542 86.37357 12.03952
-7.09583 85.41502 12.15418
-9.986509 85.90636 11.85368
-6.492507 82.44506 12.48194
-8.518107 87.83118 11.73207
-2.804901 88.26819 11.7466
-10.46276 89.21331 11.19545
-7.595613 88.59231 11.65474
-7.822368 89.24647 11.49033
-8.6727 90.27003 11.32988
-1.165537 87.87552 11.87374
-5.35624 90.9264 11.3445
-3.296339 86.58544 12.00525
-0.7964732 87.489 11.92086
-3.900434 88.47707 11.67637
-0.9732069 90.64039 11.35167
1.453056 89.49877 11.35228
-2.81656 86.33639 12.0395
-1.70922 86.447 12.02431
-7.454712 92.17914 11.06781
-0.3410698 90.19314 11.30149
-1.717309 90.27663 11.3265
-1.84453 89.92925 11.30096
-4.210383 91.79057 11.14312
-6.443456 92.15629 11.07578
-3.486151 91.12138 11.35287
-3.408764 89.28454 11.42209
-7.215289 92.09997 11.08262
-1.92233 91.08214 11.39622
-0.816123 93.58164 11.22472
-1.773238 91.3717 11.29077
-0.418846 98.52427 12.0006
-0.7393996 95.53539 11.49682
-9.945369 94.00504 10.65672
-8.864836 92.10114 11.02467
-11.34606 96.86519 9.673156
5.66216 110.6554 11.89063
2.9098 111.033 12.81887
0.1126762 111.5768 12.96262
4.149091 106.8614 12.85833
-0.4052619 106.4856 13.26816
-0.6428124 109.5694 13.11293
2.042064 110.6101 12.95792
3.753105 108.3448 12.9053
2.941517 107.1877 13.10968
1.844136 105.5114 13.19693
1.529094 109.0876 13.11461
3.803457 106.2411 12.92885
0.6116374 106.5707 13.25925
-1.987692 108.5538 13.1701
0.6940672 109.9002 13.11024
-2.111764 105.9209 13.20299
-1.560654 105.8848 13.23616
-3.415347 105.428 12.96616
-6.552723 104.1814 11.93191
-4.627246 104.8143 12.60851
-0.2599542 103.7998 13.08654
-6.169337 100.2725 11.53944
-6.800242 104.0415 11.83995
-7.601778 99.82865 11.15091
-10.83039 98.24136 9.756347
-8.654787 98.46761 10.76288
-8.07466 97.86169 10.85201
-10.88886 95.79061 10.06276
-3.05325 97.66934 11.55732
-5.882906 106.3117 12.24808
-4.442271 99.40023 11.69164
-5.499939 97.8926 11.24156
-6.868094 99.25846 11.23049
1.271728 100.1294 12.29417
-3.162276 100.6809 12.18586
-3.756515 101.037 12.15604
-4.971908 103.5397 12.3491
1.0149 100.5564 12.40263
-4.5418 102.1257 12.23995
-1.873735 100.7321 12.37956
-3.492703 101.5257 12.32801
-0.7549572 101.6183 12.65468
-2.317929 101.7704 12.56551
-4.740361 98.59543 11.48468
0.3740823 94.93346 11.40476
-5.991825 97.3689 11.10886
-1.778271 96.66637 11.57321
3.239376 95.69891 11.31598
1.534302 97.32253 11.69816
3.898402 95.75784 11.25605
5.753952 96.31514 11.07008
1.955513 95.01965 11.32132
5.356567 95.27029 10.99691
3.182522 95.51045 11.27909
2.52476 94.85504 11.25058
-4.551613 94.03532 11.03675
-0.3102611 97.27176 11.75902
-3.313412 96.06964 11.33053
-1.041869 95.05577 11.41658
-5.647567 96.33157 11.09021
-4.097674 95.02756 11.13953
-4.158357 93.8449 11.07793
1.826011 94.02116 11.23995
-1.976388 94.80544 11.30387
-1.350525 94.36208 11.30003
-14.78221 84.87701 7.497639
4.949429 87.68641 11.88286
-12.4638 96.92538 8.800076
0.3988892 102.7902 12.89845
-7.700064 95.95178 10.87618
-8.869736 95.07153 10.72133
-2.455595 92.9877 11.10848
-9.686321 117.4784 7.68939
-2.781412 119.2422 12.94349
10.43474 119.1639 6.299961
10.5982 119.1652 5.550028
-10.34772 118.6423 6.30161
10.01903 118.019 7.177907
-2.787861 116.0974 12.66719
-1.643265 117.2793 12.93316
9.921221 116.9485 7.084273
8.531202 118.1117 9.544264
-9.129752 119.0878 9.096044
-0.2526426 120.3543 13.25512
-10.49511 119.3793 6.189736
-10.14395 119.0156 7.168483
-9.113722 117.9365 8.829087
-7.641698 118.7858 10.60697
-4.030564 118.2063 12.48878
5.175994 118.1924 11.95239
-9.979701 117.3993 7.113778
-10.03558 117.4127 6.915802
-9.805491 119.6655 8.189668
-8.845571 118.9271 9.42129
8.588176 116.2726 9.143886
10.08049 119.9032 7.510539
10.08397 119.4327 7.529988
-7.700453 116.8305 10.02009
-7.273358 120.1796 11.3019
-7.964387 119.0219 10.39745
-1.043299 116.994 12.95147
-3.85005 119.6581 12.72152
1.128824 120.633 13.28667
0.2339724 115.9519 12.87035
4.514313 120.28 12.67415
7.173376 116.6196 10.4557
-6.100668 117.1524 11.27021
9.679153 117.6606 7.80892
-3.476234 118.7505 12.70646
-4.854781 120.0631 12.50651
-1.809808 117.9586 12.98936
-5.168698 117.3572 11.81837
-0.2609428 117.3807 12.97725
0.4804433 117.1958 12.963
2.448864 119.401 13.00442
4.156259 118.6124 12.45389
6.180574 117.0777 11.20451
3.111458 120.1408 12.98735
7.180481 118.2127 10.79999
6.815614 119.8768 11.50837
-8.323757 117.4247 9.601406
7.051474 117.8415 10.78845
-1.405398 117.4726 12.9823
2.626225 117.7332 12.79028
8.795101 117.1541 9.045438
-5.695748 117.589 11.55308
7.058909 116.1112 -2.443644
5.860982 118.6409 -3.469055
-4.558925 117.2765 -3.657155
10.40888 118.4304 2.45386
-10.24976 119.8799 0.6563393
-10.49404 118.0888 3.495083
-3.97353 116.5318 -3.603876
6.031072 117.3322 -3.142109
-9.518667 117.095 0.1704145
-0.7437286 118.8755 -4.419162
-6.79946 119.0528 -3.036338
1.566249 115.6374 -3.582844
-9.361133 118.0237 -0.3273448
-8.679926 119.1806 -1.609384
9.714359 117.5758 0.4895689
9.659987 119.1794 -0.3520915
5.955759 115.6123 -3.062964
3.169335 117.0047 -3.690571
6.412003 118.0121 -3.085087
7.616611 116.8903 -2.014642
4.47405 118.8226 -3.717366
-0.09146087 116.0277 -3.411552
0.7477253 118.5349 -3.662976
-2.542963 118.7056 -3.929119
-8.331131 116.1656 -1.397799
-9.512377 119.2422 -0.5285334
-10.30412 118.5347 1.812937
-9.929015 119.1288 0.2506109
9.316644 118.3678 -0.3913334
5.386745 116.7466 -3.33036
6.558437 118.7151 -3.113225
2.449841 117.5424 -3.881339
-0.3320535 115.7534 -3.503707
-2.342818 116.3676 -3.535959
-0.001903458 118.1385 -3.665627
-6.474282 116.8559 -2.862056
-9.231818 117.4651 -0.383421
-5.538238 116.5548 -3.275659
-8.88531 118.5407 -1.137682
2.419631 116.655 -3.584142
-3.600047 116.4183 -3.626399
-7.843772 116.6753 -1.817889
-9.684023 116.9293 0.508909
-14.91197 77.06274 4.667061
-7.304911 85.81271 -7.589396
15.33353 85.22689 2.570932
12.24358 99.5789 -2.709447
14.84236 78.42934 2.510958
9.59535 115.4697 0.1969564
-12.4581 108.668 3.639465
14.84189 92.56909 1.495902
-1.160625 76.53336 -4.390913
3.414303 78.36866 -4.807925
13.52559 93.79428 -1.57871
-15.4194 88.28603 3.126738
13.03236 101.8624 -0.1415233
14.81838 77.44499 2.887203
12.47294 107.2606 0.2194488
-12.56499 82.31065 -3.307349
10.66263 114.0557 2.03915
10.10583 114.9314 1.036942
-10.78174 113.7553 2.119053
6.986301 115.6857 -2.528992
-9.788204 114.4911 0.1149125
-13.36403 88.55495 -3.165771
-7.47616 77.95048 -4.69713
-10.17388 77.56789 -3.870113
14.04386 89.75117 -2.05568
5.875562 113.3949 -3.302903
-14.77602 77.1823 2.769855
-7.918473 114.9137 -1.957842
-14.99117 78.5632 3.561624
10.59706 115.1747 3.325697
-14.44147 91.00062 -0.7177747
9.473933 98.92743 -7.311954
-14.91413 77.80437 3.590681
-0.94816 115.3163 -3.669049
-10.74239 114.4149 4.549159
-11.25892 112.7581 3.684305
-10.46108 115.5466 2.51738
13.90178 77.10063 0.0352447
-12.93527 106.1422 3.5581
11.73694 110.637 1.713221
5.50149 110.9689 -4.066433
1.418837 114.8133 -3.500939
-15.16205 81.27841 5.271243
-13.91562 98.18331 2.621468
3.087119 114.8058 -3.51796
10.53154 114.8996 2.30272
9.878207 114.116 0.02807284
11.97223 110.1408 2.180585
-11.07814 76.52272 -3.031707
-13.08906 77.49247 -1.406052
-14.49966 77.58179 1.708408
-14.9478 77.81824 5.222884
-15.13594 80.58624 4.829687
-10.67722 114.8616 4.070937
-10.27934 115.3661 1.724228
-10.76759 113.5376 1.764637
-5.946156 115.5261 -3.09144
15.17711 84.21513 1.636066
14.83081 81.46967 1.153888
13.84572 77.15548 -0.09905399
13.49345 77.60342 -0.930518
11.80879 77.34162 -2.713222
12.66038 92.69132 -3.792067
14.42942 90.83025 -0.8141924
2.955575 78.69444 -4.892648
-14.61571 94.37553 2.053757
12.34577 97.76202 -2.814137
3.050638 113.7744 -3.628211
11.69484 110.3346 1.054651
7.276477 115.4326 -2.342976
11.06659 112.8538 2.136475
10.80791 113.1133 1.449677
9.146755 115.075 -0.6209803
-9.237436 78.07954 -4.325429
-14.59762 92.00069 0.02348724
-13.30626 77.96128 -1.260934
-15.28771 82.91682 3.967691
-13.51599 77.87643 -0.9365187
-14.62602 79.19203 1.359966
-15.17926 81.8536 2.92192
-11.65471 111.4148 2.96697
-10.98607 113.6318 3.756611
-9.917713 115.9572 0.8766503
-6.880949 115.8061 -2.593053
15.27459 83.08434 2.936022
15.27258 85.15873 2.033462
11.05118 76.91407 -3.156703
15.13904 90.26099 1.481514
14.16691 92.4459 -0.7995792
15.27604 86.51773 1.702329
15.18246 89.93536 1.576799
8.621883 78.1282 -4.5237
5.507214 77.4109 -4.521368
1.661741 77.57938 -4.601046
-13.85548 98.65675 2.760645
-13.62078 96.25063 0.0473143
-13.37266 101.8405 3.406821
-14.71162 92.39819 0.7717082
12.91155 105.5815 0.6446908
13.07184 103.692 0.2293543
2.826733 115.0796 -3.530921
-3.213157 114.5256 -3.539886
12.65432 107.5236 2.043647
-12.60729 107.7966 2.075925
7.51854 113.6798 -2.535952
10.00352 112.7095 -0.6890773
11.20612 111.2511 0.6077678
-0.7271136 76.63991 -4.41196
-3.406446 76.79823 -4.443255
-10.38077 77.18119 -3.674129
-15.38458 85.05648 3.472577
-13.57835 78.73681 -1.101251
-12.20216 79.03874 -2.873286
-11.06737 77.65686 -3.327636
-7.683259 78.34142 -4.743655
-7.838186 80.04108 -5.23357
-9.255083 79.62213 -4.723091
-11.68686 80.17375 -3.566411
-15.20288 81.56779 4.824595
-15.33456 83.75004 4.31748
-15.2217 83.52457 2.319914
-14.47839 81.94871 -0.1329681
-14.70951 81.02337 0.7962061
-12.21233 80.44421 -3.223157
-14.09567 78.15227 0.1173239
-13.95194 80.33133 -0.8936263
-12.47832 108.623 2.728603
-11.27868 112.2068 2.107197
-11.5257 111.8271 4.234864
-9.880718 112.9235 -0.7428832
-7.27511 115.343 -2.388736
15.33086 85.07623 2.607819
14.81271 84.11051 0.1784801
12.54881 79.78531 -2.709974
13.23886 80.13501 -1.931197
13.96212 79.8476 -0.7321806
12.14328 79.59074 -3.068742
15.07466 88.70285 0.7347956
14.43723 90.12214 -1.013849
12.91076 94.12196 -2.77712
15.1351 85.00988 1.016328
11.63595 84.60244 -4.625419
14.41698 85.51723 -1.217883
14.96585 86.99145 0.2264162
13.8038 86.53684 -2.455595
14.06783 87.54617 -2.098491
12.72268 87.74947 -3.990525
12.49615 88.61707 -4.372926
9.079786 77.13698 -4.152502
3.02127 78.64304 -4.879816
4.333935 78.72704 -4.900064
3.843876 79.9436 -5.212779
1.552868 79.10941 -4.997886
0.3081546 78.04802 -4.725607
-13.48349 100.714 2.477795
-13.24333 99.54085 0.408563
-12.7541 97.2843 -1.873136
-13.12638 104.8638 2.522334
-14.63888 94.91718 2.669958
-14.06765 94.29564 0.1150533
13.13296 99.94469 0.004851773
12.86687 98.6799 -1.15667
12.23636 100.8393 -2.665141
12.31861 96.7493 -3.172322
12.66661 106.1996 -0.0695537
12.65661 102.417 -1.490827
11.52477 105.1271 -3.217
4.532251 115.0698 -3.41842
3.35245 112.6817 -3.751106
1.416716 113.3551 -3.667258
-4.543185 115.0348 -3.417398
10.67142 108.6661 -2.470323
10.65356 109.8377 -1.75399
10.3557 111.6454 -0.8255714
9.836423 111.4261 -1.73533
13.04431 105.0003 1.207868
-12.95173 106.1493 2.365052
6.194296 114.0758 -3.1145
9.079494 113.613 -1.377646
9.446118 113.2102 -1.148867
-5.958 79.11329 -5.012428
-15.40918 88.75785 3.050447
-15.22401 86.52283 1.275087
-15.10566 89.89947 1.27287
-15.41333 86.93816 4.107276
-15.35345 89.77732 2.594214
-13.07061 78.84982 -1.796402
-13.81876 82.45895 -1.656132
-12.91 81.37547 -2.616414
-6.847332 79.11508 -5.014507
-9.834345 81.30669 -4.965644
-5.98948 80.40704 -5.356009
-5.341508 79.02592 -4.989078
-4.447415 79.81407 -5.198989
-13.81653 82.64332 -1.725485
-13.45872 81.56964 -1.9307
-14.51737 84.38695 -0.6915781
-15.16533 85.80851 0.9702812
-15.05042 84.19881 0.8960702
-14.16081 85.81544 -1.696417
-12.07254 110.0155 4.332637
-4.849558 113.8259 -3.499921
-3.961919 113.4752 -3.606637
11.24593 78.17853 -3.349342
10.75825 82.21124 -4.741852
12.48025 82.30948 -3.411739
13.86752 91.56962 -1.960608
14.00551 95.70013 0.8888586
13.97293 93.77788 -0.486872
14.89894 85.97229 0.004292863
11.44159 85.60133 -5.143515
13.92627 89.59048 -2.275143
12.20426 90.72806 -4.838591
13.37274 91.65509 -2.811244
6.165778 81.08113 -5.520486
8.847381 83.33774 -5.757339
5.796154 80.16047 -5.271557
3.872322 80.183 -5.278429
8.758745 78.14848 -4.489238
3.080056 79.5176 -5.097751
1.818208 79.15472 -5.008938
-1.54015 78.28223 -4.787712
-13.09683 100.8679 0.01910839
-13.33091 102.32 2.855369
-13.08817 104.5966 3.590434
-12.85224 106.6078 1.846934
-12.91312 103.6987 -0.586297
-12.89697 102.3354 -0.7186115
-12.63987 106.9974 0.6456842
-12.80825 101.3714 -1.149142
-10.80111 104.1498 -4.542075
-12.54482 107.544 1.024509
-14.43019 94.92104 1.755073
-14.36762 93.9775 0.8388935
-13.69149 92.61677 -1.854601
10.98797 98.41505 -5.455964
-0.3866492 114.6892 -3.496204
9.733111 111.1979 -1.977609
-12.79495 107.0429 2.308573
-2.72915 77.54794 -4.606007
-14.5907 88.90936 -0.910737
-15.27914 84.9542 2.152625
-14.94288 84.66817 0.46256
-14.54622 87.59954 -1.024053
-12.12309 109.9511 3.868447
-6.141906 113.25 -3.281906
10.6059 80.67435 -4.429224
14.36385 82.48565 -0.6203346
10.3968 81.94122 -4.882153
11.34747 83.63923 -4.622587
13.67976 83.55824 -2.155302
13.89422 83.1621 -1.697739
13.57003 92.1825 -2.334297
12.94106 93.21262 -3.093507
12.9937 94.69071 -2.357672
13.17437 95.43117 -1.622426
13.12839 98.49392 -0.4017504
13.73686 89.9304 -2.520898
9.572283 81.08833 -5.014422
9.047235 82.41647 -5.448668
-13.27609 101.8115 1.298218
-13.09779 97.16338 -0.9099988
-13.50351 95.99006 -0.4639987
-13.25081 103.0169 1.744814
-12.8587 106.0882 0.8403875
-10.34704 104.7771 -4.686121
-9.443731 105.5071 -5.11352
-13.90981 94.93587 0.07812613
-13.72541 93.98129 -0.9783244
-13.16002 93.61733 -2.482874
-13.11958 92.10719 -3.141962
12.43628 96.41219 -3.006657
12.27427 98.0079 -2.932121
11.91644 99.17616 -3.513394
10.4659 98.86704 -6.139458
11.90933 100.3128 -3.486121
0.01539902 113.6585 -3.623385
9.360829 111.946 -1.957467
12.70299 105.2386 -0.7999021
10.34712 108.9211 -2.698281
11.58649 107.6035 -1.850923
-14.53907 88.30211 -1.073924
-13.96167 87.52017 -2.25392
7.962979 80.35925 -5.286201
14.21265 82.89381 -1.11411
14.4214 80.45056 0.2051579
12.80163 90.78078 -3.906476
12.78232 92.82201 -3.558778
7.806256 80.98637 -5.457129
7.408188 82.48702 -5.74728
7.066878 83.21833 -6.020003
-11.8401 104.4894 -2.893043
-8.667647 105.6515 -5.570163
-9.943988 91.40765 -7.844269
-13.61862 92.63284 -2.004197
-13.69372 90.01158 -2.608109
-14.72409 89.81099 -0.2974434
12.85788 95.69197 -2.268327
8.936534 97.2851 -8.135561
8.397753 100.5622 -7.737599
9.719518 97.05145 -7.459065
11.21591 101.3378 -4.609785
4.039544 110.6947 -4.297148
12.6229 105.9292 -0.5997285
11.644 102.8082 -3.652342
12.51865 104.6628 -1.626275
14.78049 82.14758 0.7774709
11.73049 89.76125 -5.586625
-13.1602 102.1736 0.6549827
-12.68245 101.5168 -1.499086
-12.60111 99.80082 -1.742274
-12.44062 100.0849 -2.157164
-10.60765 102.8393 -5.105282
-11.14766 101.0262 -4.784675
-9.854068 104.8887 -5.069665
-10.78782 102.136 -5.056856
-11.27683 100.5506 -4.634611
-10.53043 99.4623 -5.910278
-12.00475 96.22338 -4.029754
-12.64899 98.43734 -1.857026
-8.552327 106.2718 -5.365136
-11.99412 92.03364 -5.044107
-11.10411 91.09662 -6.46975
-13.26292 90.16591 -3.253815
-14.28567 91.4733 -0.9571441
5.028201 96.29633 -9.82415
10.53685 99.71454 -5.81401
10.57202 100.8458 -5.605215
10.34894 108.6092 -2.880058
11.18287 89.41603 -6.314867
-10.18272 100.1978 -6.204678
-8.622739 105.4583 -5.650225
-4.444046 106.8796 -5.968703
-7.914358 104.0534 -6.729409
-8.740417 102.9664 -6.710646
-10.25275 98.86871 -6.461132
-11.12546 108.4577 -2.011716
-12.81999 90.81116 -3.858539
9.040459 97.91667 -7.937281
9.526561 100.6357 -6.762576
8.752641 99.01057 -7.895792
6.754168 99.53628 -8.829243
7.018768 100.8741 -8.350734
10.82692 100.3731 -5.360507
11.49116 102.5959 -3.920119
11.27699 101.2446 -4.522169
11.02724 104.951 -3.943072
12.53986 103.7267 -1.848549
8.349121 102.7459 -7.006473
10.19126 107.5723 -3.640927
10.01769 108.0536 -3.524196
11.62493 108.8481 -0.8210177
9.351237 105.3511 -5.232219
10.51975 105.3029 -4.317018
10.9055 90.6736 -6.741131
-9.748344 97.72298 -7.321836
-6.297777 109.0092 -4.735661
-10.62067 94.3285 -6.835783
-8.716975 85.28598 -6.761446
-9.863979 90.36354 -7.876912
-13.8735 87.13131 -2.393335
-12.23041 89.13345 -4.772868
-13.31575 89.89938 -3.20891
-14.89908 88.40768 -0.1125683
9.629371 98.52831 -7.242929
-5.670858 99.11519 -9.183022
7.291718 106.6381 -5.608214
7.853092 105.5507 -6.041984
7.861814 107.3261 -5.169257
9.157178 107.4254 -4.46654
-6.688102 107.293 -5.460114
-13.05192 84.20376 -3.091336
-4.929181 107.1581 -5.780837
-12.33567 85.4612 -4.10881
-12.14595 81.92495 -3.558131
-11.39682 82.61549 -4.365432
-11.39876 84.37196 -4.719307
-10.42197 82.03484 -4.848528
5.020844 99.62744 -9.242634
-11.56022 87.4881 -5.515453
-10.33543 85.39585 -5.925097
-8.616054 84.41897 -6.361713
-9.164122 83.40528 -5.665774
-8.381431 82.31177 -5.585268
-9.840219 87.89854 -7.374545
-0.9000928 84.76895 -7.09801
-11.32478 83.29397 -4.568581
-12.77031 83.25851 -3.272103
-7.989317 87.62072 -8.234206
-9.056813 86.24768 -7.0097
-7.951454 82.51561 -5.711812
-5.684062 80.67016 -5.418072
-6.540178 80.96584 -5.485271
-6.064837 83.08962 -6.043052
-5.531777 82.53475 -5.871855
-2.507029 82.44405 -5.932733
-4.201776 82.66132 -5.970133
-4.476464 83.67049 -6.38729
-3.20558 84.12186 -6.68347
-1.315216 83.31848 -6.304636
-1.344868 83.81905 -6.547748
-0.3403198 85.80822 -7.767767
-2.427149 82.48552 -5.947407
-0.1208616 82.78394 -6.079241
1.282019 82.76733 -6.061859
-2.668707 80.05123 -5.256721
-8.508718 83.24819 -5.786279
-8.968277 85.3516 -6.663473
-9.030562 84.50154 -6.219397
-0.7202726 81.70302 -5.70865
-0.3303267 81.26265 -5.582029
-2.040465 82.51086 -5.961977
1.093383 81.56497 -5.671684
4.519745 80.89619 -5.473459
-14.98214 78.4626 3.528419
4.18021 112.6059 -3.758402
4.77585 112.3368 -3.771236
1.955062 113.3856 -3.664506
3.225297 111.3221 -4.115258
-9.984492 111.9304 -1.230713
12.64804 85.15315 -3.789342
12.2199 83.67679 -3.91768
10.5273 83.85799 -5.233113
9.437671 84.44513 -6.0011
7.985526 84.02461 -6.363844
11.64445 83.11306 -4.298005
9.791888 85.94281 -6.499187
8.24697 83.65662 -6.074536
8.151685 86.60083 -7.685421
5.401405 86.48645 -8.268373
4.186691 82.60973 -5.950976
4.377433 85.98985 -7.897046
1.161999 85.36584 -7.472991
4.686308 83.61998 -6.360809
4.526989 85.10986 -7.255056
4.167199 83.63551 -6.385914
-11.81362 109.752 0.748108
-11.53067 109.8998 -0.0436887
-11.64539 108.2102 -1.241989
-10.97691 110.0282 -1.035942
-12.16628 108.4919 0.402963
-8.011247 108.6558 -4.505777
-11.19712 109.8427 -0.8059565
-5.58161 111.9919 -3.744477
-7.84555 109.3714 -4.212184
-10.59537 107.5817 -3.206818
-11.83129 107.0306 -1.808548
-9.292301 111.2996 -2.370231
-10.73772 107.7884 -2.935788
-6.529119 108.1714 -5.089657
-9.096553 111.8635 -2.240559
-6.048379 109.9022 -4.437711
-7.546491 110.1078 -3.990562
-5.804508 107.4426 -5.541134
-5.913447 110.5736 -4.183441
-7.345332 111.9017 -3.319146
-4.477744 111.0568 -4.136214
-6.195141 112.2202 -3.582085
4.853024 86.94304 -8.597962
11.02539 87.64446 -6.198166
9.941335 86.36829 -6.60194
11.41683 86.99373 -5.600051
-0.7442188 113.1869 -3.688795
-4.470253 107.8032 -5.506306
-2.099272 111.9403 -3.961962
-5.117922 110.1783 -4.412909
-3.624245 111.0771 -4.183983
-2.454092 110.2453 -4.49585
-3.635645 105.6558 -6.689026
-4.048172 105.0038 -7.030048
-8.665141 113.3366 -1.893172
-8.312053 113.4912 -2.107569
-12.3413 99.19676 -2.496897
-12.11251 96.58073 -3.686751
-11.5371 96.27249 -4.98638
-12.98026 96.39454 -1.619307
-11.77676 95.65186 -4.669865
-12.16427 94.66563 -4.164899
-12.04258 96.97042 -3.721765
-10.46449 96.66975 -6.668118
-11.03383 96.67402 -5.823501
-11.13591 94.93583 -6.015648
9.30572 92.71623 -8.389174
10.77572 94.44347 -6.65131
10.14052 92.27703 -7.622361
10.41933 92.48267 -7.302219
11.1582 95.26952 -5.939455
11.40092 94.92896 -5.585902
8.361303 111.6038 -2.892067
4.182643 107.5678 -5.644003
7.471639 109.6202 -4.216775
7.402758 110.4169 -3.828536
3.597236 108.5438 -5.184514
4.820593 109.7185 -4.614292
5.843903 108.5861 -4.994596
2.776513 110.6393 -4.346698
-1.061525 109.4103 -4.841407
-2.051459 110.3209 -4.468445
2.831727 112.4966 -3.803212
12.09701 89.22621 -4.998234
-11.44417 97.93772 -4.735965
-5.296979 91.01073 -9.978045
-9.099564 98.1606 -7.832548
-8.228698 100.2277 -7.952384
-9.256561 95.67374 -8.133286
-7.44852 97.14304 -9.059051
-7.553012 102.2752 -7.620729
-7.599966 98.65741 -8.668051
-1.920276 103.0749 -8.013279
-4.882916 101.7096 -8.633682
-6.464505 89.73987 -9.580555
-8.567034 96.35204 -8.576033
-10.86487 95.04128 -6.397497
-2.057645 97.30049 -9.711346
-4.633973 97.58691 -9.671909
-5.606338 102.3408 -8.256029
-4.67506 100.7396 -8.947396
-2.71136 102.5237 -8.28074
-4.777963 103.5553 -7.763933
-6.075956 99.54069 -8.988247
-5.328736 100.2553 -9.031415
-4.362346 101.2329 -8.852517
-2.520307 99.25534 -9.36153
-5.136935 104.4714 -7.263132
-7.556368 104.9 -6.512085
-7.209454 105.2569 -6.39722
-3.740358 105.8171 -6.600611
7.679651 100.3315 -8.230481
-0.9563941 104.9776 -7.056025
0.607249 107.2771 -5.858576
6.632517 104.8815 -6.761774
6.435996 104.028 -7.298992
-3.548681 108.3942 -5.262165
-0.09091977 107.7907 -5.596076
2.697562 103.7458 -7.688583
-0.6497108 108.9619 -5.032058
-3.217669 108.2444 -5.348464
3.810116 104.3692 -7.379939
1.692845 105.3752 -6.850531
1.562311 107.5515 -5.720137
-1.957092 108.6927 -5.149859
6.537656 101.9198 -8.185755
5.948642 102.9145 -7.92955
6.631608 108.2903 -5.011851
6.945155 101.1912 -8.273927
5.650708 102.4379 -8.219924
6.273108 102.2947 -8.145365
2.815925 104.7508 -7.17118
4.873675 100.4673 -9.041263
2.226464 100.741 -8.964821
4.05899 100.0298 -9.236403
4.603139 103.119 -8.0067
2.315529 104.1639 -7.473444
5.274899 104.7444 -7.091894
2.837704 106.3642 -6.339452
2.5081 96.89106 -9.762294
1.561423 98.67517 -9.472285
1.598257 99.7881 -9.225574
3.33145 102.2395 -8.443599
1.725214 101.5512 -8.670137
-2.030938 101.4564 -8.694149
-0.1139052 102.2559 -8.366347
-1.217322 99.6683 -9.237489
4.924907 104.5838 -7.217577
0.374569 97.33118 -9.684824
1.220187 102.7204 -8.171616
-1.309037 98.58824 -9.483759
-8.653674 89.94307 -8.736913
-8.512801 90.82855 -8.960858
-9.224604 89.74398 -8.401796
-6.469465 90.26915 -9.631537
-5.713083 90.62746 -9.867724
-8.414162 92.24434 -8.952529
-7.951367 86.88402 -7.907636
-3.060034 86.97698 -8.521492
-5.547997 85.91113 -7.897954
-8.979035 89.27578 -8.452531
-4.202881 87.71302 -8.969763
-4.219607 87.18497 -8.675026
-6.151689 93.88242 -9.905164
-4.754979 88.29273 -9.25769
-10.42431 92.72705 -7.256396
-10.71343 92.39734 -6.908682
-7.862057 92.37289 -9.262947
-0.6756517 93.87398 -9.989243
-4.258917 89.0907 -9.72205
3.561945 88.53494 -9.388429
-3.305991 92.05361 -10.03303
-1.740179 90.72479 -9.872099
1.693291 89.65467 -9.670098
-1.846824 88.61388 -9.336329
-0.18733 88.18149 -9.123942
-1.553667 87.93358 -9.024235
1.266288 86.70801 -8.343588
0.2716164 90.73907 -9.843709
6.073429 86.14695 -7.974002
0.4534555 86.37569 -8.131063
2.060437 90.53515 -9.847082
0.6722991 91.17834 -9.907122
