# .PCD v0.7 - Point Cloud Data file format
VERSION 0.7
FIELDS x y z
SIZE 4 4 4
TYPE F F F
COUNT 1 1 1
WIDTH 1665
HEIGHT 1
VIEWPOINT 0 0 0 1 0 0 0
POINTS 1665
DATA ascii
7.409237 151.7287 -8.693876
9.650383 149.4994 -10.08164
-6.655648 151.8775 -8.838497
10.88129 151.7677 -6.136081
-8.770813 150.4316 -9.538496
-6.761437 152.6022 -8.04568
-11.41067 150.3877 -9.022389
4.178775 150.931 -10.26726
5.485464 151.698 -9.485927
-2.440762 150.2381 -10.60156
-9.104302 149.3217 -10.35779
-7.370555 151.1977 -9.249066
-10.34362 150.1149 -9.441275
12.6684 151.0715 -7.863381
2.078569 148.933 -11.03831
-5.206567 149.9895 -10.67119
7.983977 152.0566 -8.000704
0.7722734 151.3732 -10.10911
6.754377 153.7385 -5.535822
-2.202274 154.5039 -8.863734
5.410923 154.8273 -6.510646
-3.906413 153.371 -8.901221
-3.769696 155.2544 -7.945422
-7.506015 152.8994 -4.528574
7.258804 153.1951 -4.68398
0.4972307 153.4161 -9.384618
-2.905221 153.5516 -9.080324
4.691394 154.7817 -7.497795
2.091164 149.7831 2.1744
7.694863 147.6111 2.150178
-4.378451 152.279 0.1752781
-14.05544 129.7945 5.489377
-13.09222 123.1191 4.108346
-14.86735 134.7364 1.673809
-14.56793 136.5603 4.903382
10.94106 149.6023 -0.7601439
7.458824 146.4505 3.216425
-2.126323 150.7567 1.534695
-9.929036 151.1711 -2.998585
9.176141 150.2911 -1.100309
6.327866 147.9538 2.535894
-9.909369 142.2567 5.723315
9.631279 150.0931 -0.9406428
2.775917 149.909 2.030369
-5.517715 136.4184 12.43797
-6.749435 134.5253 13.54537
-1.947644 138.9641 10.19832
-11.61772 136.3203 11.08002
-2.929716 135.7923 12.65202
-8.443909 132.7936 13.84857
8.147644 147.9654 1.657054
-3.767816 151.7494 0.7586603
-1.175909 141.8372 7.857942
-5.955921 153.2709 -2.575417
-9.741481 130.3019 12.96885
11.5689 151.6041 -4.377928
10.9071 151.5678 -4.335532
5.46239 152.7218 -1.313181
-8.683853 151.306 -2.854262
-6.599537 137.435 11.71343
9.852162 151.4193 -3.621788
5.090122 148.9997 2.392453
-14.42217 131.5214 2.096329
-13.50469 126.0823 4.237501
10.81254 151.5281 -4.119351
-11.48853 142.4723 4.685176
7.202304 151.5273 -2.008206
-14.35126 130.622 7.695126
-13.63043 126.8897 3.928633
-9.452377 143.5228 4.805823
-4.057971 139.9913 9.266145
9.032879 151.4724 -3.33759
-14.34932 131.2783 1.637212
-14.60496 131.8916 4.196656
-14.82033 135.4942 3.619637
-14.84504 135.3288 4.295023
-12.61049 138.6328 6.966969
-9.906437 136.0392 12.42447
-10.44201 136.8077 11.54761
-11.26463 132.5784 12.90769
3.986775 142.499 7.245916
0.8705587 145.8846 5.055277
2.101206 145.7406 5.107335
0.3576615 144.0935 6.254475
2.828648 151.8062 1.180904
4.074459 146.8607 4.098211
-13.08637 128.3229 7.450185
-11.1686 151.1248 -2.859651
6.440252 148.6871 1.972358
3.902301 148.0967 3.430425
4.967236 150.2052 1.112484
-0.9152282 147.5072 4.048392
-8.073213 140.0515 8.636126
-4.430082 140.1971 9.060368
-13.81945 129.2293 6.00933
-14.11082 132.7272 9.762428
-13.80111 131.0262 9.843581
-13.6673 130.4269 9.78127
-11.73513 130.7669 12.15113
-13.45107 135.2475 9.794733
-10.63992 148.2929 0.3266262
-8.295777 135.9641 12.89332
-0.5180896 146.8583 4.453117
-12.45027 128.3926 9.579967
-11.00138 148.8097 -0.1703062
0.4946211 148.8252 3.056334
-13.17623 126.1248 5.724355
-12.00875 126.8304 7.962289
-13.97769 134.2881 9.480573
-12.5912 132.2158 11.79382
-11.65594 131.2729 12.35915
-8.271804 147.9072 1.485734
2.014684 146.0242 4.929774
-9.938883 149.4478 -0.4559646
-9.894087 149.8706 -0.8445102
-7.556279 150.886 -1.372604
-9.976239 145.3223 3.039723
-7.847589 146.4831 2.882195
-5.98693 138.7023 10.47375
-7.690588 146.4655 2.960352
-8.400058 144.0492 4.743353
-3.104036 143.6664 6.393862
-3.606014 143.9454 6.137373
-5.142408 142.4207 7.025161
-4.755206 142.3101 7.178673
-1.753203 147.9643 3.811579
-7.40203 142.918 6.065417
-6.122566 143.856 5.648917
-3.506193 139.4562 9.770535
-5.877398 148.2915 2.524201
-7.74222 145.3314 3.887505
-6.08368 145.0727 4.730834
-3.486678 145.3581 5.233724
-3.481678 141.5967 7.917638
-7.108207 139.4243 9.593917
-4.21045 135.9086 12.66068
-14.76736 132.4658 7.049759
-13.35302 135.4477 9.744733
-14.78401 133.9725 7.243615
-12.99721 134.1083 11.13347
-6.959625 144.9265 4.510888
-2.733657 144.3876 5.932551
4.962553 153.8963 -1.142577
-4.773889 153.8301 -0.8182634
6.289375 153.6535 -3.653938
5.861421 154.0711 -3.220526
-1.075502 153.7704 1.758922
3.698204 154.2382 0.4575925
-2.572401 153.7848 1.185291
-11.17826 114.2309 7.733193
-11.80384 117.6998 6.851779
-14.68564 107.3798 5.873888
-17.09028 59.14549 -7.127232
-20.42247 77.12889 -0.5970405
-16.29505 52.02017 -8.725558
-16.90992 54.46914 -7.945291
-17.23625 60.45385 -6.860217
-17.1545 100.4363 1.462855
-12.31606 115.7622 4.963705
-12.29659 119.9865 6.454499
-20.24441 82.32571 3.946289
-20.10508 86.98642 1.771611
-20.15749 84.9122 3.320302
-20.23053 86.15892 1.841089
-18.76012 68.19693 -4.578826
-18.09354 95.38234 0.8495618
-16.91883 101.1576 3.153743
-19.1926 88.3403 5.120423
-20.2884 85.6075 2.070725
-19.8988 73.64248 -2.430171
-20.58197 77.67701 0.6559677
-20.49385 79.91827 2.792303
-20.63837 78.98395 0.7964827
-16.62341 86.74131 9.033445
-18.56064 93.5491 1.58119
-19.05894 90.11963 4.324111
-19.65006 75.86403 -3.356411
-13.63178 104.2103 8.191277
-15.71107 102.6597 5.975306
-17.43987 87.79423 8.192833
-14.18074 110.8659 2.443969
-12.35406 112.1939 6.794953
-12.30177 111.532 7.158519
-12.65644 120.2293 5.032279
-12.4102 122.2029 6.84038
-16.28049 96.45646 6.673288
-20.44163 80.24368 3.199169
-10.05697 126.7169 9.973344
-10.28829 127.7637 10.85837
-19.26105 90.77739 2.355124
-18.51967 93.71084 1.228415
-19.60875 89.36375 2.315753
-16.55024 95.14089 6.777039
-16.99574 101.344 1.514541
-14.57104 101.3519 7.492985
-15.12742 104.3735 6.566561
-16.1288 105.2997 1.832859
-13.29774 111.839 5.077128
-12.16052 117.6934 5.911718
-19.94606 86.02645 3.78988
-18.63112 89.06692 6.153396
-19.10658 89.96766 4.277931
-19.06516 87.19829 5.92245
-16.63769 91.86764 7.908069
-19.51604 90.02743 1.462557
-17.54196 96.43727 3.707259
-18.58916 93.32258 2.269889
-17.20284 99.17108 3.016424
-15.9187 103.4219 5.34107
-15.41677 104.2346 6.114848
-15.66863 103.4934 5.875697
-12.33898 109.3803 8.107754
-15.09571 108.1316 3.955909
-13.1686 112.6689 4.548842
-18.11018 92.3472 5.376977
-18.42874 93.9366 2.174199
-15.57436 100.8601 6.468328
-16.59908 99.52451 4.930116
-14.10626 109.2076 5.635198
-16.91196 97.61261 4.896451
-18.91873 83.66453 6.878311
-13.0708 12.52801 -11.95829
-13.80816 20.37987 -11.91071
-13.10796 10.94358 -12.04383
-14.29531 17.22868 -12.14057
-20.30444 80.18729 3.797098
-14.02577 32.23143 -11.75998
-18.88373 49.08381 -8.284669
-14.3629 24.59531 -11.96553
-13.15816 18.92956 -11.76568
-13.56369 23.462 -11.77316
-18.03029 45.13212 -10.10427
-19.24987 81.27731 6.39696
-18.07416 82.2192 8.014634
-19.3811 67.48328 -3.186146
-20.43593 75.15309 1.643176
-19.57331 81.50766 5.766721
-20.16593 78.43311 4.110779
-17.53261 82.1516 8.540357
-15.15583 26.01541 -12.1338
-17.59174 44.63089 -10.41087
-16.74533 35.6614 -12.22281
-15.03231 39.63167 -11.71574
-16.56001 44.60408 -10.55766
-18.53655 51.84308 -7.52848
-19.45266 53.38239 -6.457113
-18.92955 57.7234 -5.606642
-18.5504 64.37281 -4.942967
-18.26612 60.11691 -5.868237
-20.11901 69.50993 -0.8845979
-20.34405 74.58253 -0.5155761
-20.40721 76.72385 2.721653
-20.59037 78.18326 1.688043
-16.54108 44.96111 -10.42704
-16.06526 40.80069 -11.68424
-18.98511 50.82113 -7.612227
-18.41303 53.16505 -7.216655
-18.21436 59.62548 -6.001264
-19.61685 59.52247 -4.381001
17.66531 45.17518 2.111673
18.99688 43.12642 1.155917
8.489514 51.49363 5.457572
-1.695695 74.01038 9.064089
-2.27475 74.66328 9.177175
0.7474865 135.2038 12.85055
3.819348 67.97694 7.992754
3.181957 64.56085 7.600963
14.42432 37.86604 2.850522
3.616704 70.20702 8.419588
15.50955 33.21608 2.264573
7.733932 51.7292 5.891843
19.78326 22.64089 0.1622188
12.57455 40.47627 3.721244
9.249571 49.81181 5.132313
7.331434 61.66193 6.575922
2.280108 70.5215 8.463155
-12.81021 94.29987 9.323326
7.988993 136.2642 12.68916
-6.971263 80.59318 10.04218
9.345819 140.5105 7.730504
-7.316772 122.4266 11.41354
-10.71001 82.86491 10.19659
21.59959 16.70216 -1.099354
-12.14714 82.01489 10.18359
8.185424 132.6158 13.86873
12.16028 41.77734 3.953165
18.9822 22.30748 0.6144568
18.24138 25.6694 0.9779604
4.379827 139.6935 9.54992
-11.44073 106.7017 9.389041
1.637234 68.48844 8.120371
20.88527 22.9897 -0.5358999
22.19592 16.86409 -1.547023
16.48875 79.70266 9.242563
16.58801 68.61622 7.447271
16.37188 55.09865 4.485406
16.59903 60.3087 5.513498
10.77999 51.10201 4.039788
12.14934 43.27895 4.024671
10.98389 44.44199 4.503135
20.55769 18.40504 -0.3523605
2.645893 65.15093 7.696316
0.7180212 134.7596 13.05113
-6.457077 87.58752 10.10437
1.124584 135.8982 12.46843
10.66327 129.1539 11.95124
-10.01352 81.51128 10.13272
9.32619 118.847 9.858466
9.962085 109.6969 9.661336
22.68794 14.11105 -1.909536
9.232563 129.0852 12.47534
15.92937 54.60669 4.711324
14.76424 91.62265 9.297198
14.06009 88.07459 10.00301
12.60603 85.40076 10.26897
16.24972 77.38891 9.16201
14.13832 80.35731 10.08453
14.12304 35.96912 2.909462
10.24292 46.05796 4.810303
-6.354958 79.47217 9.92425
11.7312 90.46249 9.878469
19.12172 21.63229 0.5428928
17.56837 29.81476 1.298688
14.1612 42.54514 3.018978
21.55761 23.10819 -1.020442
9.603176 56.53185 5.196801
-1.742524 75.78648 9.392537
8.770073 53.49626 5.106204
3.328553 76.91832 9.679354
7.313409 136.835 12.29618
17.798 25.93024 1.205815
10.04259 99.10908 9.31106
-0.8724595 117.3442 11.85072
1.146603 122.0605 12.05466
10.61056 85.18596 10.25517
9.779269 130.6712 13.16008
-5.763051 132.9023 13.77262
-2.967103 132.9344 13.60138
-3.652424 125.7675 12.17912
9.853026 136.1941 12.32389
9.958214 137.826 10.69586
-11.6449 86.76827 10.17689
-15.69888 86.41581 9.539095
-11.84544 84.17097 10.2373
-11.53643 85.76389 10.22011
2.538976 133.0809 13.51046
13.7845 61.91725 6.72161
14.95173 69.24346 8.250484
19.25089 36.0867 0.7805889
19.98791 28.06746 -0.009193347
18.40334 39.74167 1.120737
17.63277 47.41724 2.066955
22.26584 21.04891 -1.585576
10.7545 73.69019 9.284995
19.11604 30.38995 0.5199342
-3.500686 76.44957 9.483375
9.237401 53.42728 4.848274
9.83097 136.7152 11.90433
14.59247 42.3459 2.775151
14.77452 41.9355 2.773751
15.41783 46.05491 2.252466
12.06335 48.8757 3.324929
9.721096 97.69256 9.274804
5.340959 108.2147 11.8396
-8.098472 115.2535 10.00549
-6.186498 125.8692 11.56666
13.99723 83.0378 10.17538
-14.46881 90.39825 9.608473
9.186498 131.3148 13.54679
-3.943634 130.5619 13.32638
7.179943 123.8328 11.48645
7.636477 138.2022 10.96806
-12.62673 87.1565 10.17087
-10.9587 88.90574 10.03448
-9.254544 87.35738 10.12954
-0.5141648 135.2458 12.82954
15.85424 62.12695 6.396345
17.25185 56.75401 4.644393
15.67366 76.59895 9.356977
15.15548 79.20477 9.760416
11.77713 83.20786 10.24096
18.42666 35.27961 1.005474
19.92044 27.59098 0.03844939
15.70096 37.5648 2.335407
16.58152 47.19538 2.790447
13.6857 68.81313 8.424715
16.40202 39.80216 2.186598
11.64535 45.84597 4.108212
10.33426 93.5256 9.484823
-13.28776 100.9789 8.359326
8.463227 108.0155 10.55448
-12.29661 107.405 8.808429
6.902354 120.678 11.26654
-9.557621 122.179 10.18848
-8.071533 121.4581 10.99229
-9.056197 117.339 9.73787
15.02002 83.95494 9.962887
12.44545 94.59634 9.331753
-12.20576 98.06934 8.943721
9.470147 129.9064 12.92119
-9.759651 126.596 10.07161
8.191829 127.0715 11.15209
6.852123 134.5439 13.55769
5.823756 135.0849 13.2224
5.218349 132.9282 13.67262
3.082741 131.8032 13.54245
6.288739 139.8336 9.293463
-10.85789 86.40417 10.18505
-8.972947 86.81409 10.15224
15.57577 58.13689 5.456954
13.35032 61.83012 6.728986
11.86591 61.60725 6.748695
13.17252 67.8722 8.206605
14.60832 55.79882 5.340132
15.01735 51.15827 4.198167
16.03783 75.94688 9.128593
13.32885 83.34488 10.25313
16.7939 32.73669 1.675488
15.50772 39.01216 2.598518
16.1926 68.83923 7.736965
11.98316 95.89656 9.197283
11.79522 99.39668 8.996473
-11.37842 98.87393 9.075256
9.762266 105.9367 10.03486
9.356264 112.7263 9.339581
-9.241608 113.1528 9.349837
-8.974955 125.6814 10.30553
-10.6894 115.2681 8.199471
11.80076 83.98126 10.23601
14.96227 89.17818 9.606978
13.73938 94.17389 9.141949
-12.59238 94.77695 9.270271
-14.59673 94.5715 8.689342
3.301033 128.6059 12.49651
5.479822 126.7651 11.78875
6.974593 133.2186 13.83234
7.137668 131.9603 13.8475
-0.6603459 88.00278 10.08937
-6.829767 86.57111 10.15322
15.21962 56.99462 5.157162
8.482403 59.93161 6.082746
9.099089 62.8399 6.907728
17.38926 51.12571 3.413616
15.01353 72.54482 8.979201
13.56845 82.64268 10.21287
16.14394 48.35719 3.235034
9.768135 95.28167 9.336183
12.57754 100.8314 8.726367
11.09813 103.5072 9.380228
-10.31364 100.8829 9.404409
-9.487494 104.0686 9.975825
-11.49701 95.4978 9.254052
6.595212 109.0001 11.26371
10.18488 111.3935 9.121536
-10.60674 110.4599 9.145434
-9.608788 108.1218 10.11205
8.171502 116.4513 10.05389
-10.41464 124.8337 9.466526
-7.49452 119.9486 10.92779
-7.163814 117.852 10.68414
12.00022 92.99867 9.538467
5.196311 129.6092 12.95582
-6.923717 126.4961 11.19051
-3.721564 128.3641 12.29228
-11.89745 91.38785 9.76778
-4.846128 85.35426 10.19164
-0.5790804 86.25497 10.18073
11.92346 59.57733 6.420904
11.23272 55.09592 4.854791
7.936317 57.20008 5.677326
9.709363 56.97139 5.299623
11.03459 65.395 7.565012
11.53323 64.73747 7.426061
10.69571 55.06684 4.731515
12.49012 48.24224 3.18059
13.37661 80.56837 10.09696
11.76697 99.94851 8.989063
-12.74802 105.7625 8.690784
-7.299342 105.6785 10.92795
-9.343819 111.1065 9.655597
5.062253 123.7862 12.07828
5.410489 124.6768 11.93802
6.756489 122.2884 11.60285
-4.967119 119.7859 11.5745
-8.591816 121.3308 10.74501
-8.386523 117.6119 10.13524
-3.136651 94.84716 9.540298
3.933738 128.0816 12.26231
-0.7713787 85.54237 10.1988
13.34926 53.83488 4.914534
8.809314 64.63651 7.334733
9.959369 61.52979 6.643075
11.8923 50.36847 3.645485
1.732979 82.07245 10.16343
12.65202 79.93691 10.09548
5.117497 80.61676 10.09821
4.157518 80.71678 10.1016
-0.4118154 80.0178 10.02025
2.729178 79.89464 10.03277
-11.2194 105.8312 9.451728
-5.909663 104.6801 11.29803
2.717208 125.0224 12.2169
-5.058774 120.7184 11.6888
2.599944 126.8463 12.18357
4.226804 129.6062 12.94559
-7.968829 82.30096 10.15565
-2.25819 81.65904 10.13133
-3.240566 80.96607 10.08205
-5.057433 82.1678 10.14517
4.535649 82.50593 10.19322
2.856294 81.30337 10.13027
6.307808 82.82471 10.21086
7.510484 61.49618 6.528814
9.493547 85.67337 10.23288
14.00813 80.44739 10.09075
10.86467 77.66494 9.865039
8.051815 77.93362 9.869461
12.2246 76.75803 9.771719
11.19763 74.43088 9.413289
7.706609 74.64963 9.387805
3.940577 78.04652 9.844729
-0.5393316 78.18837 9.808043
-5.165384 102.3957 11.06918
-6.116397 117.2237 11.03911
-2.752937 120.6118 11.95145
-7.355751 115.134 10.39611
-1.288383 122.4221 12.07933
-3.54639 129.3312 12.78853
0.7923882 129.3468 12.80118
7.999449 84.19723 10.24199
9.488296 86.04606 10.21851
7.146254 86.97124 10.18222
8.239141 87.07672 10.18001
3.087336 82.82427 10.19715
-3.865723 103.1957 11.63396
-9.371079 107.8327 10.21786
-2.42346 117.094 11.84964
1.911459 121.5011 12.01608
3.929739 119.7633 11.77366
2.249136 129.9571 13.05447
-1.025704 130.7157 13.2981
1.160224 83.96067 10.21682
9.13603 87.57915 10.16051
3.46231 82.78756 10.19751
-11.09001 99.57885 9.153682
-3.874314 105.7139 12.08276
-9.399656 111.6741 9.511805
-5.98771 113.3459 11.10693
-6.221557 118.071 11.06479
2.525643 118.5562 11.837
5.243098 118.0049 11.35916
3.138839 115.971 11.81655
-4.126284 116.3034 11.68831
5.665092 120.5594 11.5421
-5.628712 115.0143 11.23229
-1.835431 129.0475 12.65423
5.852148 84.66988 10.23787
-5.529657 101.9614 10.86227
-5.37293 105.3616 11.60585
-5.425489 116.619 11.2951
6.973613 119.0698 10.9387
-6.609099 109.0754 11.26067
-3.045847 113.3651 11.81803
-6.178948 99.66654 10.17309
-6.233339 103.0389 10.88616
-2.088598 103.7939 12.0343
1.974825 113.8348 11.83341
1.722742 98.47897 10.55544
-1.85583 101.404 11.47023
4.678238 113.1586 11.61185
3.401036 113.4255 11.78048
4.85074 111.5093 11.7137
7.523165 109.8698 10.75363
2.1325 110.7237 12.02721
0.6433411 107.5265 12.29078
2.623796 109.1334 12.1641
-0.2891546 111.8737 11.94244
-2.49602 111.666 11.937
-0.2157004 105.8966 12.27722
-1.633876 113.3592 11.849
7.342633 106.5402 11.01303
4.127586 104.3726 11.8208
3.57272 105.9317 12.18322
0.2019313 102.3158 11.80273
20.34585 17.82886 -0.2067593
16.62106 36.59195 1.890706
6.432111 55.63966 6.388155
9.055976 65.29246 7.491195
1.515234 67.84464 8.033449
-3.898314 131.0056 13.45914
-9.303394 94.36158 9.448653
14.46444 76.19474 9.609201
10.07406 73.61397 9.260732
9.070171 95.4674 9.337899
-9.891692 94.88033 9.394991
-9.841434 93.99059 9.469542
-8.085313 94.75325 9.463376
-7.334002 96.26206 9.522098
-10.14524 99.10394 9.31809
-2.623693 97.7317 10.19493
-5.830959 90.75199 9.825729
-4.129227 93.79376 9.535655
-4.190222 89.03242 9.998677
1.808044 97.2551 10.1221
-3.91285 92.6973 9.617873
-1.434811 93.76113 9.526777
0.87471 93.09177 9.56519
4.324209 95.13982 9.430798
3.739118 91.6368 9.715919
8.291857 94.76752 9.378753
11.31691 92.78102 9.567927
3.032917 95.48232 9.50094
3.900357 96.19466 9.603583
0.03313849 100.2684 11.23252
-1.760376 99.29111 10.83434
2.703972 91.38857 9.746991
8.554404 93.65291 9.47572
-0.8714234 99.52022 10.98255
2.063252 102.9502 11.86973
8.752929 91.5517 9.728784
6.02251 95.84544 9.433095
-1.571375 102.8591 11.88925
8.801234 89.64108 9.971223
3.540766 89.67527 9.954591
1.293087 88.64675 10.04325
11.42697 89.57324 9.992108
8.718402 107.695 10.47844
-3.704834 86.83954 10.14628
0.1815876 89.71384 9.937764
-2.886055 88.51598 10.04325
-2.16375 90.93645 9.801759
-4.028694 91.42744 9.749078
1.441028 90.66132 9.833321
2.937866 87.02825 10.16495
11.68627 65.47315 7.599402
-1.785638 125.6969 12.23951
-3.261052 124.3882 12.24825
-2.402467 126.9696 12.16295
7.968443 74.78704 9.415502
5.514328 69.61008 8.340362
8.992582 71.39006 8.825748
3.014939 73.9129 9.150712
0.6975979 77.12605 9.671031
-0.3493961 75.75005 9.415386
1.1146 124.4544 12.21357
5.885113 121.5017 11.67012
-1.659999 106.8742 12.32094
-0.09317762 108.8043 12.21384
2.288668 108.6434 12.21336
-2.379201 102.4476 11.70381
8.969636 101.3385 9.768671
4.254552 103.9375 11.70261
8.706227 102.0661 9.934038
6.475972 100.2608 10.16778
5.307031 65.7776 7.565311
9.692793 66.41447 7.759717
7.313911 67.2504 7.880068
10.62401 67.14861 7.954893
11.88925 66.94106 7.951363
10.25021 68.00035 8.137451
13.65171 72.0273 9.017114
0.2155267 92.50526 9.620882
0.1091288 123.0059 12.12829
4.829777 74.33798 9.276489
4.134121 72.98204 8.999101
0.7844225 71.61455 8.65145
-2.263687 106.8704 12.31722
8.801951 100.6025 9.694441
7.287679 101.5045 10.24808
17.85438 18.35942 1.617693
1.053663 63.35276 7.761576
14.0721 32.5975 2.895932
12.21303 37.20628 3.712127
-9.493274 78.30086 9.780983
-15.59987 82.60429 9.769118
3.479115 58.65453 7.18257
-13.11114 82.21645 10.20867
3.836601 58.9695 7.155329
5.788486 52.59478 6.421175
6.2055 53.82971 6.415954
5.37976 53.75588 6.570436
4.056312 61.25106 7.261983
22.76843 9.933617 -1.330722
19.07555 17.64252 0.756528
0.3120658 62.89897 7.820322
-9.686205 79.0003 9.881949
12.2517 33.61227 3.655746
15.35173 28.46422 2.360547
-9.332275 78.32777 9.782696
4.414676 55.62132 6.852301
2.932019 61.64163 7.437845
-0.1800105 66.79527 8.101714
8.902323 46.44868 5.311853
9.741368 43.03873 4.835482
9.657752 39.37555 4.688577
-5.722859 75.2216 9.276114
0.3665033 66.93204 8.049754
-0.6772853 71.06789 8.548306
17.95735 16.98418 1.790732
17.75097 20.43803 1.446025
20.87899 12.92581 -0.122748
17.18345 24.22761 1.564849
16.42045 24.73208 1.948855
22.47812 9.897553 -0.583865
23.41541 8.898129 -1.039947
14.04206 31.74957 2.912012
13.02269 34.68555 3.347908
10.32002 39.17095 4.458806
-9.755822 79.60359 9.959023
6.128849 48.84193 6.088449
-3.881847 73.509 8.974667
18.42682 16.73624 1.449527
24.10559 8.40465 -2.533933
13.42827 27.92278 3.263494
12.00377 36.49738 3.775561
15.24357 92.3057 8.854347
13.65558 129.6012 8.525435
19.40429 48.11816 0.853103
19.27605 79.63903 6.29406
12.81844 114.1825 1.85586
11.59404 128.4871 10.74321
16.99981 71.04804 7.7356
23.56532 21.27802 -2.979126
24.61935 10.65686 -3.627188
23.76694 18.91757 -3.050507
23.93571 12.86889 -2.946741
22.16992 32.87737 -1.635347
13.29587 124.294 3.200057
14.08556 130.0228 0.5983899
10.01593 113.5891 8.863437
10.47382 124.2509 9.472411
12.47131 129.0822 10.41792
21.74091 39.97253 -1.453124
13.19559 136.1866 9.226885
17.94353 95.07209 -1.823436
19.62606 48.66944 -6.939356
20.17525 78.06478 -2.012555
17.70699 87.7415 7.941166
12.51427 104.56 8.907167
10.02367 141.5389 6.425717
22.77065 32.14201 -8.279182
22.89562 32.49985 -2.945015
11.17835 139.9268 7.138862
19.75426 51.76887 -5.148525
22.38471 11.81174 -9.397114
19.76698 71.84946 -2.570802
19.01753 63.0717 -3.233306
16.08588 105.4784 2.662467
22.66188 27.30275 -10.17458
12.67169 134.9758 11.042
22.92777 20.91997 -7.939629
22.51563 33.21745 -9.004285
23.07533 37.70379 -5.929381
20.24505 85.01529 -0.854137
22.32917 33.98254 -9.703089
12.34467 119.6416 2.227332
13.23006 123.9939 3.84388
12.2495 119.7186 1.753135
12.90677 122.7447 2.450246
20.54456 80.19195 2.622218
13.08494 101.0974 8.477604
18.99899 50.80529 0.7347703
19.79042 86.83002 -1.851264
19.75352 73.27484 4.24247
12.42265 115.9528 3.074895
14.04118 129.8115 6.27518
14.66662 109.354 0.5508218
18.5277 93.54363 2.207723
19.17389 57.40178 0.5167651
12.3705 117.0707 3.509145
15.51486 89.43182 9.322495
15.08223 95.87849 8.033516
16.02067 91.73428 8.50793
16.57391 102.4405 3.870489
12.0546 140.9479 5.465856
22.72501 15.16045 -10.384
11.25832 124.7409 8.726748
10.94084 123.271 9.093011
24.272 12.17304 -6.470253
13.37377 125.0266 4.207614
13.35309 126.0285 5.005332
11.70773 126.5778 8.388873
18.43116 51.3179 1.561456
18.63209 60.23243 3.241155
19.37296 46.33813 0.6479976
17.13295 73.33375 8.044866
17.64235 77.18702 8.147617
18.44136 79.06137 7.518719
16.91254 82.92744 8.981929
18.07576 72.54147 7.031048
22.71011 19.00884 -8.387013
22.79924 33.93872 -8.157259
19.87717 44.26264 -0.02271184
12.65056 120.027 4.338149
11.2926 119.6726 8.211273
12.29669 117.4889 5.136528
14.09231 129.7046 2.141437
13.96675 130.5465 9.191154
12.69499 128.498 9.131893
13.26614 108.6719 7.428688
14.00819 111.229 1.885846
13.77235 111.7289 2.515636
13.14763 113.3585 2.907406
13.14222 133.0416 11.20655
14.70874 135.9854 4.926937
18.78798 92.71436 -0.2982993
15.9948 92.7393 8.254607
17.0453 100.7377 0.2447322
15.02428 100.8964 7.091346
14.81635 98.01139 7.784135
17.47766 98.23875 2.203386
19.59602 89.74323 1.076628
16.84025 89.74645 8.360904
13.95964 102.3223 7.930772
16.18766 103.8452 -0.3526517
24.74399 14.47841 -4.436835
22.52122 14.49475 -8.603689
12.57279 127.8462 8.229573
19.02949 52.04784 1.467082
19.82469 55.08199 -3.277205
19.37656 66.81348 -2.931797
18.61341 64.7073 4.212337
20.38946 46.60585 -7.331865
17.78367 72.1201 7.242592
16.88595 79.28808 8.945694
20.55705 77.54043 0.2757492
19.91293 69.58173 2.429265
23.1312 20.44574 -2.408242
23.2915 27.61102 -7.256792
20.88577 32.0363 -0.4272376
22.33895 34.27262 -1.978668
21.97573 40.65364 -8.735544
21.64024 26.2761 -1.056655
23.32385 27.61277 -3.235317
12.2578 118.6458 5.808441
12.56655 115.2638 2.962892
10.1352 119.9294 9.461173
14.10858 129.8275 4.370502
14.76679 134.1315 -1.054384
13.66805 129.1703 7.355858
12.17136 129.0455 10.77669
13.29639 132.3708 11.06728
11.10068 112.7236 8.102589
12.26617 113.1667 6.422476
12.45334 116.5536 3.294793
14.18883 134.2497 8.995498
15.31742 94.07354 8.385878
17.68515 97.16013 0.02105544
14.59081 97.26254 8.087075
18.7359 87.3271 6.541377
19.59029 89.68945 1.479836
23.32962 15.79881 -2.453888
22.74771 17.61724 -10.53338
18.96406 55.28882 1.750423
18.90932 53.65112 2.445228
19.48673 52.23364 -2.24893
19.02487 59.71187 -2.94192
17.59097 59.90266 4.059558
19.45353 67.46598 -2.852362
18.51968 62.48926 3.542292
19.98247 67.86935 0.2654087
19.37726 67.54137 3.627451
18.82641 46.28774 1.000921
19.43162 48.48831 0.6262258
21.93647 43.39524 -6.805516
20.90504 46.69352 -6.373583
20.57696 77.49505 0.5835265
19.11872 84.30194 6.426578
20.59891 81.59477 -0.006972165
20.52534 79.00172 -0.4766178
20.03733 87.41331 0.2678566
20.09753 69.67229 0.3163875
23.3101 21.09247 -2.665495
22.73874 24.99093 -10.41219
22.71665 21.67843 -10.37212
21.43583 37.93668 -0.7194551
22.09769 35.24188 -1.566001
22.4339 32.06571 -10.08199
22.05153 39.04531 -9.221749
23.23043 35.40989 -5.387918
19.79568 41.61001 0.6394839
11.44701 118.6852 7.795322
13.01393 122.4942 3.803881
11.79215 122.1931 7.958925
14.78804 134.8545 0.7730502
14.47963 131.6008 8.139175
14.72634 133.7072 7.163835
14.77507 108.7691 4.245241
12.9315 113.3354 4.53711
11.49313 116.997 7.324265
14.86415 134.4067 4.939935
16.67465 96.30236 6.065103
17.73176 96.76594 2.242153
16.52427 101.2664 4.658213
15.65844 90.70565 8.998375
17.1103 88.79493 8.298888
18.86374 89.73011 5.15731
15.01493 106.6122 5.750851
19.6934 50.41812 -6.210131
19.33131 63.44122 -2.324532
19.60649 63.91037 -0.7942694
19.67276 44.61753 0.1448084
19.85717 48.05284 -0.2683823
16.26346 86.22871 9.29598
20.19054 86.06168 -0.2612287
20.18604 84.36954 3.585696
19.75659 70.04793 3.228186
19.68153 66.08597 1.7164
23.02228 26.95518 -7.782953
23.04772 38.15083 -5.697145
22.54231 28.43977 -9.676467
23.62876 27.26391 -3.758398
24.02032 24.87262 -5.978474
23.44196 24.32763 -7.101301
14.6013 132.6081 1.459702
15.3311 107.4426 3.931645
15.74629 106.7297 2.524974
16.76151 102.4234 2.656277
16.1012 105.3597 3.062166
19.85044 52.46918 -3.772595
19.89443 68.48613 -1.189881
19.76752 65.70865 0.7976977
22.1049 42.00434 -7.722902
19.94212 68.30896 -0.7145246
23.90234 18.81112 -6.768066
22.55182 29.39078 -9.107096
23.85083 27.63697 -5.958043
23.48348 29.51286 -3.845795
23.35116 33.34771 -4.939395
22.85491 32.62635 -2.861956
22.7684 31.61742 -2.585287
24.0593 23.77258 -4.233992
14.75253 107.1171 5.936689
15.81075 106.1575 3.609233
19.32544 52.80501 -1.56217
19.19043 50.58284 0.4715673
20.55206 49.38672 -0.9868481
20.26785 83.9107 3.353077
19.7463 86.48304 4.420683
19.82213 87.51318 3.3777
24.3833 17.32905 -6.015889
24.48668 19.22474 -5.297129
22.65123 39.54337 -3.659791
23.69494 21.65382 -6.84146
14.48592 109.2883 4.569686
20.37869 51.17296 -0.01034838
20.84189 49.98227 -2.591009
20.18125 80.98436 4.1978
18.27121 88.58705 6.876635
22.99125 38.40808 -4.959587
22.75735 39.98191 -6.665493
22.25473 40.78689 -2.884527
22.38085 40.05954 -2.858413
21.08676 45.92197 -1.802947
18.94446 76.55226 6.539558
18.4785 78.01455 7.384275
18.67133 79.87702 7.215655
19.68885 79.05994 5.359035
20.19411 78.64661 4.034383
20.5512 77.4503 1.400649
19.71598 73.5631 4.452465
19.26606 75.59065 5.820201
19.21683 73.8335 5.597618
20.10445 73.51149 3.057195
20.0013 74.57262 3.826696
13.59862 137.5495 6.556648
16.13867 99.11474 5.97928
17.06936 98.28862 4.132801
23.33495 14.85594 -7.344413
23.66929 15.13918 -7.007605
22.65388 16.737 -8.453756
19.40402 60.33385 0.8261858
19.16479 57.43417 0.4968059
19.4829 62.07259 -0.1181946
19.56316 52.94553 -0.5993032
17.09946 95.09908 5.878665
18.70911 92.32638 3.32418
19.2063 89.8307 4.058756
19.74892 65.24776 0.01290477
19.05632 54.15408 -0.5061907
20.32634 72.95727 0.6010329
15.69972 101.1686 6.222611
19.57478 59.17677 -0.124708
19.42362 57.41278 -1.328759
19.1217 54.62758 -0.3006053
24.97486 7.726494 -3.565019
24.2542 10.00515 -6.56009
24.25098 9.148657 -3.105264
24.87875 8.226967 -3.565319
24.385 10.6921 -6.399244
24.75777 8.333176 -5.960678
18.12736 13.24248 -13.004
-4.422556 147.1268 -11.82541
-13.15426 145.9234 -10.96307
-12.67093 149.4284 -9.67481
-13.26302 25.22681 -11.64621
-12.64526 31.41741 -11.23374
18.20996 53.3246 -6.155245
7.212224 23.87659 -11.00798
17.43157 13.2733 -12.64969
13.6962 11.11086 -11.30066
7.849086 11.19984 -11.18574
15.41377 13.58522 -11.74072
10.4135 12.22784 -11.30944
21.11744 12.53705 -14.00303
19.36633 71.03412 -3.640351
22.3221 12.51862 -13.83065
19.46008 81.65783 -3.892352
22.82938 13.27001 -13.28079
18.17398 92.9922 -3.107673
18.15391 93.55945 -2.664485
11.95794 109.7607 -4.247856
13.50062 107.0369 -4.001079
7.192264 15.14291 -11.08644
14.54035 40.48692 -11.65597
-11.81872 13.4389 -11.57055
-11.08717 24.35094 -10.98178
12.72134 124.0688 0.2350244
13.63445 127.6396 0.1385262
12.07752 116.0405 0.5958386
12.64788 148.6743 -10.11013
12.56059 121.9464 1.483673
3.827144 10.45912 -10.78202
-12.48651 115.1971 1.662688
3.252515 10.61358 -10.73645
-1.077914 9.762784 -10.5886
-1.711004 9.93953 -10.57779
19.78398 14.41382 -13.66916
-6.989998 54.67976 -8.96297
-3.089491 9.8232 -10.5998
-0.3961316 10.91254 -10.55914
-2.908828 11.70538 -10.5064
8.245378 120.7822 -4.660687
-12.86452 23.97533 -11.55075
-11.156 11.21068 -11.49296
-12.57125 15.43947 -11.70374
21.46344 34.79602 -10.64694
2.999778 12.5676 -10.68236
-9.344612 26.3808 -10.38741
5.425263 10.37321 -10.93267
0.6154848 12.44897 -10.5487
-14.2463 131.0964 0.2924123
-14.16543 130.3776 0.9311424
22.91329 14.33004 -12.9114
19.53561 12.87501 -13.63012
-13.92122 146.2695 -10.74816
-10.6232 141.7965 -12.05975
7.730083 16.62657 -11.14018
-12.63558 121.3772 2.456957
14.19996 12.05169 -11.40473
-17.739 88.69382 -5.713895
-19.7307 88.04884 -1.330886
-11.94496 119.3317 0.8887855
-19.45027 79.68963 -3.900547
-13.70057 111.7012 0.9343486
-12.70199 114.5839 2.124292
-15.88632 101.252 -3.370196
-16.59769 98.61669 -3.358779
5.979302 72.37177 -8.724864
-12.04064 115.2473 -0.1994237
-16.16895 58.98176 -7.588492
-17.78581 74.44062 -6.276188
-14.92024 92.94719 -8.606952
2.773944 147.9547 -11.43107
12.79871 139.9242 -11.11173
-5.114843 147.23 -11.82027
-13.56069 133.8562 -7.714145
18.21885 33.0013 -12.29563
21.36135 14.00506 -13.8817
15.04779 107.7601 -0.2268833
-10.31505 38.18653 -9.818175
12.45321 125.4411 -1.866011
11.37998 123.8297 -2.778751
11.921 126.4812 -3.971082
-14.31299 41.04353 -11.20738
9.973221 13.17085 -11.31864
9.914411 13.46499 -11.31954
-8.748498 32.15977 -9.894532
-14.84473 104.5487 -3.310842
-5.488245 127.9051 -9.061525
12.50693 63.17147 -7.997398
-20.12116 79.50223 -2.31623
-0.1942105 88.40125 -11.64689
18.52784 91.01416 -3.450018
13.1615 128.1631 -2.520378
10.62508 148.4114 -10.57025
12.00552 144.2116 -11.5104
-13.85935 135.0771 -8.222126
-14.41249 138.9352 -9.785172
-13.83958 146.3578 -10.74649
21.73699 33.29664 -10.73766
22.97762 20.06154 -11.91447
19.03076 14.84141 -13.4062
23.04895 14.63697 -12.74451
3.676891 101.0682 -11.27536
-8.020357 43.7874 -9.124576
10.25817 124.9191 -5.116462
-12.1581 42.44943 -10.09027
-12.26056 102.5746 -7.702695
-12.9826 112.2115 -0.8933629
-12.72248 123.3118 0.8964717
-11.85165 120.0063 0.4321786
-14.09387 52.13386 -9.089664
12.63563 63.60064 -8.031447
-16.9137 68.58965 -6.943745
17.50714 83.69383 -6.33797
-20.19798 83.75735 -1.509247
14.63894 104.8944 -3.49889
17.90635 91.82507 -4.523523
14.20851 133.0931 -5.63059
7.472736 148.6428 -11.10237
13.99707 139.232 -10.20656
-13.92635 130.5856 -2.284595
-14.65419 133.1818 -0.2142272
-14.69238 133.5445 -2.356091
-5.542452 148.2409 -11.50632
-12.87364 135.6745 -9.525055
-6.369237 148.2825 -11.42771
18.36838 42.17517 -11.06521
22.67823 26.95263 -10.77325
20.81878 18.26394 -13.51041
18.72059 22.15348 -13.04252
19.45265 17.50466 -13.43509
11.43607 118.0669 -0.3847112
13.6926 111.3826 0.06595121
11.27568 121.7623 -1.582963
-14.56283 51.68798 -9.065771
10.92542 125.8694 -5.105731
-12.53543 39.27083 -10.58446
10.07868 16.48448 -11.32665
-15.83653 105.3201 -0.08471701
-16.07911 104.6912 0.2439617
-12.79842 113.7964 0.6592059
-13.29767 125.6762 0.7886303
-14.70004 56.98162 -8.272059
17.43248 61.08454 -5.461069
20.08868 47.01622 -7.470021
-16.72441 65.59657 -6.783554
18.95195 77.92625 -4.75127
17.85295 71.03553 -6.160591
-20.19127 79.98111 -2.143249
-18.91995 84.42424 -4.617736
-19.27082 89.71434 -1.97696
17.99774 93.25514 -3.484248
17.65311 91.16118 -5.242424
18.21379 85.92596 -5.429358
13.45652 129.8684 -3.578614
12.53652 127.2083 -3.385573
-3.468132 146.1833 -11.891
4.431309 146.9617 -11.84803
13.1847 140.4097 -10.99907
13.74659 136.9626 -9.488915
-15.09185 135.1522 -4.270677
-2.615797 147.7673 -11.47188
-10.40571 145.2561 -11.71702
21.10014 41.6931 -9.581314
21.71273 32.07422 -11.00524
19.36022 25.17541 -13.00068
11.86195 118.0719 0.7515383
10.8456 118.6002 -2.321244
10.01307 117.5978 -3.154034
10.7249 115.8072 -2.232672
14.88158 106.321 -1.993382
10.13994 120.5929 -2.823939
-14.71261 45.31824 -10.25708
-14.89072 49.73866 -9.293668
11.86746 127.1691 -4.741315
-12.31777 44.04224 -10.0354
-9.389408 38.11029 -9.582028
-11.26844 43.35365 -9.604559
-9.902656 40.47726 -9.489618
4.545009 14.58103 -10.78429
7.783519 17.13598 -11.14207
6.928922 17.41676 -11.02812
12.72366 16.23972 -11.32511
4.248803 20.16938 -10.70004
7.176814 13.62431 -11.09823
-16.56586 100.795 -1.824009
-14.41683 110.2602 1.639299
-13.83286 111.2792 0.5582262
-14.19953 53.23749 -8.900378
-16.29133 63.98519 -7.063332
18.40943 66.53876 -4.955534
18.7494 52.94878 -5.604997
-17.04383 69.40204 -6.911399
-19.91134 78.15737 -2.828137
18.46237 72.74864 -5.459995
-19.35075 78.77473 -4.089369
-19.40485 89.8111 -1.221606
-17.8232 96.14663 -0.8581462
16.02591 102.3913 -2.209344
17.41516 96.62657 -2.385044
19.18648 88.34275 -3.070962
13.70239 131.2732 -4.835574
14.71474 133.7711 -2.100648
0.8431795 142.6734 -12.23233
9.854127 145.4314 -11.80536
14.047 136.7402 -9.086972
13.10092 133.1999 -7.78097
4.979422 139.0319 -12.66092
10.70151 135.5824 -10.81297
-13.32587 128.0864 -1.858461
-9.032518 143.1612 -12.33952
-4.607715 143.5439 -12.39072
-7.696285 145.9953 -12.0215
-11.5773 146.6828 -11.09301
19.18861 46.27115 -9.479773
18.3352 37.62432 -11.93252
21.00915 35.62542 -10.85231
20.66441 25.74923 -12.68527
19.35995 31.9911 -12.25373
18.96514 25.0711 -12.95519
9.736334 115.6458 -3.256395
15.83414 103.0454 -2.263898
-12.56637 51.51717 -9.154381
10.49238 127.8858 -6.892972
12.44018 48.92852 -9.841006
-8.74257 41.0253 -9.288105
-8.804943 40.09 -9.357761
-17.7331 96.96723 0.2322739
-15.85363 102.585 -2.534045
-15.77626 99.92611 -4.3623
-13.87514 108.2604 -2.716071
-12.08551 110.7397 -3.558101
-12.66415 109.5809 -3.62038
-11.74292 111.0138 -3.731048
-6.395859 112.3343 -5.566056
-13.87502 55.18303 -8.688341
-17.12329 64.19304 -6.568285
17.69647 67.35178 -6.022154
17.70199 60.39787 -5.116782
15.9976 58.69537 -6.916739
-17.21553 70.71 -6.782839
-16.36109 70.50474 -7.482147
-18.08647 73.31679 -5.957629
-19.67148 77.62498 -3.373888
19.8693 81.65024 -3.01747
16.77315 79.41102 -6.977464
-18.27636 77.52015 -5.629202
-19.2261 90.76258 -0.932176
-18.28034 94.40717 -0.5470964
15.6763 97.50417 -5.964967
13.97626 102.9348 -5.674206
19.59616 82.88497 -3.531314
-0.4031892 146.0718 -11.71099
7.966756 144.3733 -12.32343
11.28562 136.5699 -10.92863
0.4716051 145.0199 -11.90626
-4.361364 144.7054 -12.21319
19.8018 46.51918 -8.379212
19.72359 43.62812 -9.916598
20.6026 30.10693 -12.10155
12.73977 113.1445 -0.4521745
9.611271 111.7413 -4.807002
13.06812 107.6806 -4.132166
15.06171 105.0608 -2.539005
6.577188 125.5201 -7.6571
10.90547 128.5395 -6.950433
-8.920635 43.90197 -9.112432
-17.08657 99.36105 -1.161081
-17.58769 96.63269 -1.617788
-15.15709 99.96341 -5.493275
-17.25126 96.11947 -3.443856
-15.5558 95.83537 -6.937576
-15.70768 98.21476 -5.543868
-7.865488 107.7389 -7.159713
-7.065411 109.324 -6.510322
-6.440961 108.2215 -7.102099
-13.13076 53.22442 -8.965034
-11.1733 54.45454 -8.705522
16.77545 61.97203 -6.220095
18.34625 68.79285 -5.329177
18.00522 59.21763 -4.810483
-13.12779 62.88764 -8.162791
14.54629 85.37196 -8.503717
-19.17434 85.11536 -4.03656
15.17403 95.54942 -7.549376
14.1299 97.80623 -7.942749
14.15774 98.30684 -7.707635
17.97426 82.65778 -5.911276
12.09858 131.5182 -7.798945
7.536925 136.4847 -12.14314
8.029767 136.6602 -12.12158
-2.77959 133.7103 -11.46485
-9.516601 145.0104 -11.95908
-9.687473 142.4837 -12.27431
-8.038234 143.5122 -12.4403
-5.644963 143.4562 -12.50398
-9.969081 138.9709 -12.13785
-2.992419 143.4749 -12.25342
-2.431061 142.0816 -12.35807
17.90096 32.30078 -12.37063
12.19809 114.3465 -0.623484
-12.49536 47.87167 -9.584057
10.65334 131.4368 -8.889266
-11.10485 43.80554 -9.498981
-12.12962 44.85047 -9.862709
-10.6435 50.38506 -8.893179
13.8614 60.7956 -7.611722
-12.89727 66.03952 -8.413076
-19.26132 84.56735 -3.911225
17.89968 84.56214 -5.914811
16.98665 85.14089 -6.811244
14.91547 83.67912 -8.13341
-8.084084 139.9497 -12.65307
-12.81716 138.1769 -10.663
-13.43699 137.2325 -9.865147
-10.97627 135.0109 -10.4178
-0.452695 142.9138 -12.19857
-0.8153071 138.7145 -12.32212
-6.798639 142.1281 -12.67345
-4.892713 142.9636 -12.48674
18.71543 34.3611 -12.10211
10.14377 111.6391 -4.56621
-2.282412 132.2368 -10.98306
5.007087 125.5566 -8.079921
8.260659 126.7963 -7.660491
-11.78388 50.36724 -9.116627
16.49911 62.51908 -6.517478
14.6829 61.01425 -7.392957
-13.12746 64.59063 -8.272727
16.12096 90.27551 -7.638341
15.2606 89.74135 -8.540462
16.00857 84.59673 -7.579522
-11.87042 135.6204 -10.19324
-0.9380628 139.5263 -12.36303
-6.148371 136.2074 -12.18157
-5.052023 136.8885 -12.34848
-6.011693 141.56 -12.73885
8.180534 123.6275 -6.016316
-9.701192 55.96975 -8.685034
13.39793 86.65247 -9.408049
14.98373 90.45944 -8.806434
11.03587 88.22543 -10.93236
16.25233 82.61938 -7.313867
-8.645798 138.0168 -12.36156
4.444421 138.1548 -12.49821
5.628485 134.6077 -11.77661
-2.161452 135.1823 -11.8326
-4.948997 138.3329 -12.57927
-5.136425 138.9069 -12.66425
10.4519 111.286 -4.568703
9.964716 113.6535 -3.69922
14.52603 59.9907 -7.448856
11.66377 62.56032 -7.984595
10.72433 88.4745 -11.10579
14.96324 92.13 -8.710223
13.78452 81.24535 -8.331492
17.96053 81.52416 -5.949652
18.3653 78.08931 -5.52995
15.91714 33.06151 -12.12677
-8.091175 56.83213 -8.823951
12.82426 59.79927 -7.695503
13.0117 88.75278 -10.12595
13.83726 93.46562 -9.597268
13.94912 94.9297 -9.140738
14.64287 97.29871 -7.554219
11.23046 82.5797 -8.805682
11.65467 84.05682 -9.113983
11.86154 90.93684 -11.05159
16.99351 31.25206 -12.29829
-9.756246 56.99165 -8.657031
-6.842309 59.64674 -8.873483
-11.12562 56.43198 -8.603783
5.458247 90.61256 -12.42988
9.312254 91.27199 -12.12614
7.498446 93.40225 -12.68122
7.44442 90.74707 -12.39972
15.01886 80.64075 -7.893497
-13.15628 56.29769 -8.576703
-13.2684 64.12093 -8.200891
-7.203784 52.53028 -8.979159
12.12953 95.90131 -10.45017
-11.30109 60.69806 -8.44973
12.43591 58.91397 -7.846751
13.25651 56.9818 -8.045733
-6.304048 53.83417 -9.043584
11.43375 90.1171 -11.18672
-6.3237 12.95911 -10.60401
-6.463744 11.77227 -10.68306
-5.00251 12.09278 -10.55328
-1.54611 17.76458 -10.31217
-3.22441 15.08539 -10.36694
-10.83868 17.04632 -11.19332
-11.33107 12.63897 -11.47357
-12.12336 10.44195 -11.77923
-9.73296 22.33764 -10.68243
-10.9593 26.42796 -10.85118
13.55618 18.28467 -11.40703
9.50443 13.45987 -11.30151
3.587007 16.03603 -10.67961
-12.50498 122.3633 1.0142
-12.67614 127.1391 -2.949361
8.173692 142.6801 -12.51543
7.848205 143.1712 -12.49774
11.53817 140.9077 -11.75809
9.236611 142.98 -12.32797
4.883317 139.532 -12.66783
8.356011 137.4233 -12.28559
5.972816 138.6933 -12.72927
-14.64742 134.1359 -5.403057
-11.03758 132.048 -8.945479
19.80463 20.74813 -13.3009
19.21058 18.26848 -13.33484
16.36961 18.25553 -12.15369
15.84179 21.54466 -11.98756
-13.39286 109.2622 -2.804646
16.33623 72.83506 -7.547642
17.32834 72.72049 -6.774896
3.404536 116.4194 -5.924448
16.4451 55.15965 -7.288189
16.85977 55.1435 -7.156741
13.62265 50.30482 -9.39852
13.27119 54.65931 -7.868889
14.84703 50.82835 -9.326338
11.53094 51.97509 -9.318447
-16.32463 73.14722 -7.549196
-13.77281 72.3316 -8.557435
-13.05312 69.81567 -8.638088
-17.34952 92.42341 -5.379616
-17.49783 90.1728 -5.790174
-15.46529 88.66566 -8.291493
11.29943 130.7975 -8.056107
9.560868 131.251 -9.395276
8.831449 129.7912 -9.00984
7.763938 131.018 -10.019
5.385762 131.4265 -10.69728
6.532461 127.3819 -8.590231
3.440846 128.7305 -9.541881
3.169073 129.5329 -9.88649
-4.57049 129.0995 -9.684733
17.27306 48.71175 -9.177073
15.98424 47.50129 -9.654686
16.05773 46.78348 -9.86965
17.51536 38.5185 -12.00806
18.94133 37.02906 -11.82193
11.99871 41.48905 -11.34142
9.474766 115.9648 -3.389977
14.09738 103.7679 -5.032456
-7.154521 104.4649 -9.39777
-12.34754 104.9921 -6.381417
-13.28551 102.5491 -6.71788
-14.93679 107.3651 -1.018503
-14.22722 104.6591 -4.321162
-12.53074 104.7639 -6.340337
-10.73469 103.9988 -8.15944
-10.58494 101.5966 -9.457659
-9.47156 105.6165 -7.945315
-9.61194 104.6667 -8.429059
-12.29263 99.96581 -8.900881
-12.67775 106.5177 -5.226916
-10.03094 105.0122 -8.036484
-7.067464 106.8773 -7.830851
-11.12761 112.1224 -3.604826
-11.82422 114.273 -1.446943
-11.3229 115.9576 -1.288135
-10.37292 117.6573 -2.224012
-9.066136 117.7054 -3.516571
-1.827538 113.3274 -5.804265
-4.570443 108.439 -7.234208
-5.359165 113.6136 -5.457169
-5.119727 115.1382 -5.368579
-5.384192 115.6965 -5.429017
-7.564268 117.6936 -4.469785
-4.646251 111.1579 -6.18228
-1.536227 113.3163 -5.804607
1.073355 111.3759 -6.219398
-2.602554 109.3232 -6.955496
-18.05125 81.84445 -5.882621
-17.92513 84.62256 -5.87944
-16.40268 81.01127 -7.230188
-15.78243 76.13748 -7.772221
13.25549 98.23739 -8.69875
9.979622 92.48907 -12.01484
7.088474 92.19514 -12.67041
12.23544 95.22847 -10.527
0.3795807 102.1892 -10.76428
11.40247 97.68159 -10.44802
10.04053 98.29416 -11.07829
9.210435 96.64368 -11.87049
11.48581 93.48412 -11.29774
9.795406 95.73676 -11.83125
8.762842 85.72469 -10.19504
3.057907 90.52439 -12.36649
1.853318 89.5669 -12.08268
3.52685 88.06619 -11.50719
5.203924 88.22849 -11.6098
3.969336 86.31648 -10.56344
7.699445 87.07307 -11.06916
6.138894 95.18343 -12.74702
2.358448 45.5244 -10.12406
17.7147 43.55135 -10.79014
14.15271 47.00057 -10.20235
14.42112 46.83768 -10.21112
12.37473 44.66371 -11.23878
12.76541 40.19486 -11.49757
4.280359 46.18267 -10.3135
15.63276 40.70837 -11.6936
14.62261 37.59005 -11.88366
19.71221 45.00145 -9.601576
19.18673 47.27735 -9.172416
-16.00752 97.53111 -5.360923
-14.16566 97.87565 -7.865839
-15.84534 94.63368 -6.98775
-11.76196 95.47583 -10.7929
-11.17659 98.76758 -10.22729
-12.04533 98.10424 -9.829177
-5.50591 105.3427 -9.046151
-18.82567 86.37231 -4.415861
5.71974 134.3754 -11.70591
2.371406 137.0589 -12.20537
1.796024 136.7944 -12.14357
0.5206426 134.1684 -11.56214
11.33272 108.3374 -5.44346
17.6148 68.07317 -6.205959
16.4682 68.3773 -7.273808
17.66983 87.1646 -6.023627
-12.60343 131.9917 -7.487269
3.543137 119.7159 -6.258321
0.3047266 124.2387 -7.928077
-0.1550392 126.9738 -8.845753
-1.382388 125.7237 -8.423618
-3.448849 125.2589 -8.221789
-7.262349 132.675 -10.84089
10.87442 62.55908 -8.035587
11.81926 61.87128 -7.908698
8.362062 63.75162 -8.282531
6.083548 66.47062 -8.518945
8.29957 64.44511 -8.335425
-9.931451 61.31132 -8.603969
-14.54875 59.78136 -7.950094
-10.20534 65.19745 -8.609029
-7.540659 64.59933 -8.718059
-7.50574 46.42005 -9.071161
-11.20456 49.37036 -9.047624
-6.253722 46.15904 -9.190619
-7.115079 51.95364 -8.997876
-3.426574 49.10357 -9.417138
-5.898436 50.07052 -9.150584
-5.601704 48.54003 -9.207193
-4.401496 50.92979 -9.282962
-2.988533 47.78417 -9.487348
-3.232651 46.43405 -9.486631
-1.951331 49.36423 -9.566107
-4.59979 45.87132 -9.356464
0.1861484 48.59702 -9.809658
-4.300104 44.37303 -9.416185
1.74939 47.21464 -10.01399
-6.069659 40.3044 -9.354998
-5.600429 42.80479 -9.32434
-2.637958 15.44411 -10.35988
-0.1442258 16.71378 -10.41346
-0.1236964 12.42717 -10.52127
4.407001 17.77168 -10.73879
3.703246 18.17469 -10.66533
2.743617 18.16372 -10.58426
4.897217 20.78016 -10.76205
7.102921 19.31974 -11.03418
5.971417 21.83758 -10.87283
-6.555553 17.82339 -10.37556
-9.544566 19.95063 -10.75063
-10.04195 17.46625 -10.98138
-12.63951 20.13257 -11.58622
-8.12076 23.57512 -10.27687
-9.447691 26.22775 -10.42434
-10.54114 29.48093 -10.55854
-9.286981 29.25725 -10.1976
-7.411878 21.11991 -10.29374
-7.16994 24.99353 -10.07678
-10.536 35.23223 -10.14883
16.15365 16.55938 -12.05982
15.36586 17.98846 -11.78624
13.37446 24.74235 -11.56391
18.24502 24.56992 -12.8214
15.3166 26.2629 -11.87485
15.46847 26.67273 -11.93188
5.163855 13.69115 -10.86124
-12.78967 125.5796 -1.130449
-13.32579 126.817 -0.3797375
4.317739 142.2252 -12.50334
9.474197 141.207 -12.35204
-14.01718 107.42 -2.960568
13.24641 73.0854 -8.687292
14.79371 73.52509 -8.297548
9.744341 73.10766 -8.784668
13.98997 70.12332 -8.48516
9.473062 74.22728 -8.827892
11.10816 75.18723 -8.805874
9.731374 79.76906 -8.624002
8.285645 72.9767 -8.774779
16.78768 78.20838 -7.041379
11.65345 75.59859 -8.796593
12.44682 78.18609 -8.644868
7.604355 119.9222 -4.816134
6.877581 120.3066 -5.343668
10.73651 53.41282 -9.274425
11.24553 52.42948 -9.329979
7.920318 53.50864 -9.349097
8.625373 132.1053 -10.21055
14.06923 32.49325 -11.84992
13.3287 34.2704 -11.75515
13.45354 33.82005 -11.77469
7.171999 110.32 -6.099415
6.516695 113.2264 -5.286333
5.944275 116.2694 -5.097653
8.492184 115.7192 -4.044971
7.364408 117.579 -4.836047
3.756225 115.3719 -5.652509
1.87596 111.857 -6.097046
4.246659 117.2512 -6.376278
0.8397133 115.3658 -5.708572
1.809991 113.8483 -5.739663
-2.796535 116.3196 -5.773638
14.41772 104.5628 -4.100383
13.10136 100.8351 -7.731418
-6.895253 103.1882 -10.16745
-7.899289 103.1535 -9.931402
-3.76623 101.9192 -10.89841
-3.655146 107.0444 -8.110593
-0.3133039 108.6501 -7.268208
-1.416468 107.4767 -7.932078
-5.385435 107.2249 -7.841761
-1.797263 103.4412 -10.13072
-0.8470034 106.4699 -8.4807
-3.726913 105.1166 -9.198476
-4.25702 107.0929 -8.035102
-0.3244023 102.5705 -10.58061
1.17838 101.9132 -10.89802
9.024524 103.2768 -9.484163
3.248943 101.8778 -10.92264
7.007263 99.76912 -11.62538
5.812621 99.85751 -11.71672
4.525988 99.99667 -11.68681
-15.1722 80.48717 -7.828656
-13.15394 77.99412 -8.538182
2.181087 88.43319 -11.65965
14.8242 36.19484 -11.96834
13.21017 35.95124 -11.72055
-13.20431 93.75876 -10.07583
-10.67415 96.16644 -11.34491
-0.6841236 100.3295 -11.52961
-3.758784 99.42275 -11.84903
3.249969 97.87119 -12.28835
-5.894095 98.23859 -12.17195
-7.057929 99.28017 -11.77772
3.651339 93.23576 -12.79062
-6.871304 97.61715 -12.24267
-6.700502 96.06099 -12.58238
-4.923768 96.75996 -12.54865
-11.413 95.32532 -11.06006
-14.6126 90.71125 -9.155293
-4.511927 93.55107 -12.81831
-12.05698 91.88532 -11.00005
-14.1076 95.0973 -8.929944
-15.79565 90.37035 -8.008514
-14.26432 92.19213 -9.381627
-9.764356 89.65021 -11.67579
-11.83647 90.78745 -11.09182
-10.0263 91.27855 -11.86346
-9.246482 98.80602 -11.29226
-6.383183 98.94433 -11.93363
-8.300793 98.27216 -11.74125
-1.942397 97.8726 -12.27778
3.154819 99.08663 -11.9611
-1.79392 96.34021 -12.57823
