# .PCD v0.7 - Point Cloud Data file format
VERSION 0.7
FIELDS x y z
SIZE 4 4 4
TYPE F F F
COUNT 1 1 1
WIDTH 1669
HEIGHT 1
VIEWPOINT 0 0 0 1 0 0 0
POINTS 1669
DATA ascii
0.4148946 60.30997 -9.274987
-4.528392 1.081139 30.20776
10.95184 3.241216 24.22141
11.4113 1.712748 35.50957
21.40633 1.739295 37.56919
33.76824 2.55967 31.16678
50.87477 0.9309094 18.9319
48.33789 0.940694 17.92221
2.899811 83.21923 -11.80641
2.987372 63.70671 -11.98574
3.121779 74.36691 -15.08127
3.379598 65.11755 -10.43888
-0.797128 97.09821 -11.78425
-4.885746 94.37875 -12.80078
-0.7042919 77.39772 -10.37866
6.673196 103.3849 -10.06986
6.396817 101.853 -10.84537
-17.70116 99.39582 -2.368239
-15.25687 103.6351 7.402041
2.234722 60.78068 -9.105083
-22.51378 0.5537069 -24.45826
-25.49267 0.6150696 -23.47375
-38.77971 1.729422 -16.83712
-51.28709 1.231342 -17.04327
-53.82616 2.701396 -8.942491
1.526448 5.652132 -18.3078
-8.396146 4.929238 -24.80327
2.416665 39.32759 -8.582838
-0.4052869 46.28114 -9.882506
1.835275 13.81087 -9.529808
31.66217 0.8337343 -11.86168
35.55528 1.523092 -4.504563
36.9436 0.8238636 7.827303
4.728689 40.77658 -10.88045
5.412115 28.59361 -11.31555
3.303201 49.27897 -12.3337
21.38872 0.6036966 -20.18533
14.39733 1.406572 -21.64159
2.82699 15.79702 -14.83695
-30.64251 1.503276 13.56296
-26.37192 2.581112 18.45718
-23.02128 0.6148397 19.46824
-18.51861 0.601322 19.95536
-41.6046 1.069555 13.26336
-48.93211 0.2463619 7.723132
-15.68484 0.6888151 15.75388
-10.94179 1.223449 20.0213
-51.26031 2.072811 8.992785
-45.23584 4.638339 -6.382358
-5.349128 0.9173653 29.32009
-2.324411 0.2712819 25.32488
-7.521695 5.350683 32.57867
-1.644914 75.17948 -10.53028
1.12576 69.63253 -9.635918
2.152997 1.283564 22.93785
3.396703 2.013995 31.85679
8.345685 1.608912 20.74093
10.3474 3.415637 32.12888
11.98798 7.968401 33.94291
10.09712 0.3556007 21.66325
18.68236 2.739712 37.61054
27.06768 2.594745 34.03871
26.97275 3.672654 31.98263
36.01379 3.014806 28.34109
49.71178 0.1450668 22.19933
41.5112 1.375348 19.42929
49.14886 2.071258 15.26314
45.33516 1.797137 17.86799
39.03789 0.1692856 10.19562
39.04495 0.1513042 9.186786
3.213216 66.68227 -10.88346
2.887069 60.03545 -12.2764
-8.37508 98.42638 -11.86153
-3.576896 87.66153 -11.60353
-2.825627 78.87962 -11.10682
16.56349 103.7099 0.9546809
-17.40503 101.0366 1.01797
0.3871633 50.44652 -9.179384
-1.145803 63.02543 -10.19103
-20.61448 1.364465 -23.53258
-26.1411 1.413771 -20.10691
-36.00242 4.79275 -18.91892
-43.02434 0.8977001 -17.21378
-52.75586 1.823964 -6.393662
-49.60461 2.052323 -7.187282
-49.88525 6.126109 -7.596053
-47.41439 3.267406 -6.15126
-1.067129 11.03511 -21.76305
-7.954175 6.330549 -24.25626
0.9812197 35.48786 -9.135661
4.255548 12.11593 -7.891033
1.079759 16.99523 -12.51293
29.87165 1.621461 -11.3444
34.01747 3.212058 -5.038348
27.00889 2.769876 -17.41092
34.95063 1.627177 -1.807991
2.644075 39.58311 -13.70504
1.815748 34.2212 -15.5777
2.38508 46.80609 -13.84114
1.870284 45.16973 -17.18999
2.977516 50.35174 -12.89503
3.177143 54.99253 -10.8314
20.51733 1.884519 -19.19957
11.10101 4.746072 -22.47406
3.998711 23.79139 -13.2117
-33.46604 2.571116 15.56474
-30.15386 1.970178 18.16358
-45.32767 1.069332 6.185762
-16.25474 1.108693 21.11802
-48.21976 2.054277 6.204246
-48.98473 1.571885 -9.112674
-47.25933 0.4515496 -4.915928
-49.96889 0.1461784 -8.753952
-19.84751 7.382356 27.56396
-19.18374 2.799636 25.64842
-3.269997 3.132205 28.06158
-14.19912 4.896633 32.29899
-3.392931 2.72668 28.8143
0.0677273 64.62671 -9.601421
-0.5198209 2.064492 20.39622
3.755599 2.219752 27.6606
2.014898 2.480255 29.90232
5.93615 0.5912315 15.6837
7.547406 1.283857 13.7755
7.362546 3.057366 19.7204
6.238403 1.839786 22.47082
5.668998 5.437565 17.79515
5.436254 0.7886829 15.50534
7.352133 0.4516455 23.40748
9.898149 4.727458 24.93059
13.89462 6.687673 31.81418
33.20932 3.494936 27.43345
39.72997 0.1486488 28.8589
48.41529 0.7373772 19.46745
42.8619 1.772851 18.40787
47.3881 4.184589 12.12782
4.785927 81.23193 -15.88779
5.014027 84.89762 -15.52751
2.447331 68.03725 -13.63961
2.330885 59.40129 -13.62552
-4.801493 93.22208 -12.82798
-3.442986 80.53767 -11.44372
-19.29124 97.69236 3.789683
-17.07536 98.82091 -5.611719
-18.55449 96.76582 -4.232084
0.7731251 63.33347 -9.255772
-11.31111 3.145957 -25.25202
-19.07712 4.304682 -20.70881
-48.39691 2.651419 -18.63691
2.534438 28.78663 -8.485293
1.975734 10.16704 -9.693097
33.37259 3.481052 -2.439486
1.698782 37.96225 -17.36204
4.223756 23.15505 -21.93285
4.694478 36.34774 -20.64833
4.199536 31.17926 -12.39984
1.882443 42.00722 -15.23176
1.478931 14.18225 -18.0164
-38.76078 0.7066082 10.9169
-36.39113 0.7768937 9.952808
-36.58259 0.7130679 9.092064
-17.98597 3.250659 21.54602
-42.5332 0.5189509 6.338207
-48.62862 0.5504761 10.01433
-44.06808 0.6582382 6.30461
-3.816968 1.885527 20.8758
-44.67649 3.68642 10.46894
-47.30095 1.182604 2.845451
-48.92288 0.1469564 -6.410672
-45.48384 2.608358 -7.943851
-12.64084 4.700986 25.1391
-8.86396 4.690235 33.1097
-1.494503 67.33677 -10.4764
2.204477 5.362588 28.03209
-0.3839009 3.866513 19.27312
6.638285 6.592734 11.2071
5.566798 11.63931 9.646487
5.45795 4.385979 12.15289
8.992137 0.1682862 23.40751
18.77537 5.990051 34.89629
32.88432 3.644451 27.74365
39.92781 0.2613078 23.22986
35.07466 1.104215 24.63031
46.03654 4.346531 12.46906
43.71859 8.160668 7.396395
45.05611 7.794983 7.871643
37.30363 3.383984 12.05171
36.73176 3.905796 12.35451
35.30323 1.378903 7.664493
34.60541 0.5665573 6.753782
6.139133 78.40584 -15.94696
2.136962 59.40926 -15.81289
6.778254 59.40658 -17.8716
-8.30154 97.54465 -12.25824
-9.396636 94.05534 -12.71075
-6.969348 86.78089 -14.1406
-9.339143 87.86647 -13.98707
-8.713326 88.52975 -14.31902
-17.95264 96.34219 -1.323655
-10.78125 6.192925 -23.1886
-32.08559 4.49902 -21.00801
-34.11558 1.797458 -18.4505
-45.59306 5.572832 -20.62134
-47.45442 6.501189 -16.19016
-47.32493 1.881206 -19.64265
26.51561 4.933184 -12.98994
29.02376 3.984545 -6.771146
31.82734 2.358763 4.90547
3.09359 45.35014 -18.8605
3.063174 46.88513 -18.65743
5.816332 54.69495 -18.79949
1.307114 19.48348 -17.79443
1.793614 23.48937 -16.06417
2.254061 25.23267 -15.10358
-31.61111 1.18955 12.03458
-12.87811 3.696669 21.83582
-38.05537 6.832914 8.520858
-2.847739 5.695851 24.43192
-46.94408 0.7263171 -1.847433
-46.17926 1.490824 2.953795
-44.32887 2.543644 -7.868388
-9.956531 9.352075 28.95042
-6.304995 9.893402 30.15335
-6.964167 8.168888 31.64273
3.644986 5.100121 22.64792
0.7935206 2.101774 18.96212
7.80231 0.6389343 15.18524
7.089931 3.532961 22.61308
10.01 7.390397 16.71977
3.849638 7.659671 20.91101
23.8113 4.539733 32.8214
31.07553 1.918531 25.02266
49.71053 0.4472076 19.67924
43.75591 7.285045 9.248423
5.050807 78.89199 -16.16604
5.438411 79.9339 -15.93378
7.899229 69.80116 -15.90872
8.768781 66.78432 -16.19486
2.266424 54.96661 -16.91459
7.598214 55.65119 -18.71534
7.734492 59.3398 -17.75447
-12.30884 102.3375 -7.795765
-2.064142 70.58012 -10.74502
-9.941008 67.43643 -15.41158
-4.139097 75.07243 -13.36789
-3.799888 71.41254 -13.77535
-19.58228 95.55021 0.8817349
-18.69388 92.81377 -4.1975
-18.87398 91.24078 -4.417799
-15.3194 5.665515 -21.17289
-19.18419 7.449167 -18.74211
-15.33124 8.33046 -19.76486
-44.09463 3.777374 -20.80488
-45.21126 10.95566 -12.71935
-45.39071 11.83494 -15.58086
-40.68546 11.69639 -10.87833
0.9043193 30.80398 -9.340153
24.97247 14.42894 -9.707737
29.92143 4.265353 -4.446714
30.76576 4.482214 8.012236
2.19002 50.82518 -17.07814
11.97216 10.40106 -21.4095
2.297592 19.51358 -15.4123
-31.14746 1.330017 12.67747
-10.80802 6.516834 20.12482
-2.815481 8.0704 22.73093
-14.51048 7.901402 29.94779
-14.41971 12.36484 28.23098
-5.952758 9.840574 30.34944
5.688308 6.260996 26.65618
2.767869 2.80934 14.10467
8.386188 7.998021 13.46157
10.4468 8.954395 16.3093
2.262163 5.340356 11.80896
37.3226 0.1667764 24.46926
37.90428 1.985973 19.23486
5.343768 76.07381 -16.32637
7.766767 88.50416 -13.65117
7.538892 96.1054 -12.60479
3.100411 62.98919 -16.92647
15.89037 51.27408 -17.17505
-14.17662 99.81889 -8.225506
-11.29509 91.16618 -11.45008
-19.12377 97.10568 1.266428
-20.08729 93.93346 0.5218292
-20.14221 90.57013 -5.902025
-34.49395 6.433468 -21.82688
-45.15448 12.16011 -16.48835
26.01129 9.300217 -7.968417
28.76027 11.25387 -5.058665
29.55868 7.534571 -2.304043
28.13214 10.9326 7.858832
31.34591 10.9234 -1.161387
34.0489 3.342121 3.189923
1.480794 7.86064 -19.11449
1.714675 10.94262 -17.79096
9.671155 10.02547 -23.17602
-11.09034 4.44272 21.15551
-3.327789 3.495511 27.93075
-1.823813 8.241543 22.59659
-15.64928 12.39561 27.88178
-8.558436 9.990442 28.79429
-10.0343 14.14835 26.98556
-3.059816 11.9072 28.49605
-7.682622 16.35336 25.64361
-16.12118 12.1422 27.71618
-3.410212 7.922294 29.47092
5.810204 6.6 25.95421
9.104381 7.387502 19.96304
6.786616 5.930307 25.09311
8.681988 9.83292 29.2424
8.847977 14.98246 21.6561
10.37019 12.43646 24.10033
8.765553 14.75327 21.60977
36.26416 9.082668 8.684351
43.39588 8.694759 6.878533
8.095425 94.39854 -12.97168
9.84151 93.64789 -12.09379
-5.55918 77.72039 -14.95018
-14.22532 96.50121 -9.36861
-17.98762 91.0592 8.33187
-18.72134 94.61338 6.054243
-12.06556 100.5563 8.969124
-10.3817 103.9288 10.74938
-9.620403 102.5272 11.08985
-5.047516 99.2517 16.49395
-13.77812 8.326172 -20.33597
-32.54285 5.902036 -22.17237
27.29315 9.114017 -11.7056
28.00548 16.00747 -0.3327487
18.99492 5.88297 -16.99168
1.774132 18.61317 -20.31989
1.910228 16.02768 -20.97021
7.15121 22.24188 -22.68302
-8.797734 6.469369 22.64209
-6.756625 2.729631 21.52015
-6.024407 8.071683 23.57436
-8.431706 8.735654 23.33464
-9.711676 9.961019 22.87739
-3.322996 7.232061 25.30644
-1.936255 7.810748 22.55469
-38.16716 7.276983 -6.270809
-1.664608 7.540486 26.591
-0.301805 12.4094 28.54334
7.523814 12.24847 20.45751
8.086393 16.13583 20.65504
7.878654 17.01294 20.20188
30.56962 6.40294 9.938972
35.45657 8.434316 9.422869
32.72257 20.05211 3.83529
33.53069 14.18505 5.503652
40.5737 11.80969 4.890009
30.27815 10.12195 9.638072
14.58614 97.9305 -7.476209
-14.01128 93.53182 -9.706903
-10.17471 102.5004 10.52326
-19.30013 87.43331 -3.350188
-40.40581 7.34131 -22.48978
-29.48129 8.717836 -22.00012
32.45015 7.438286 4.063972
20.57059 4.812126 -17.02287
-11.0659 7.838667 20.24968
-9.720849 5.341823 24.938
-5.442774 7.498 25.90278
-37.49469 7.214799 -6.024301
-16.96979 14.87935 25.70893
0.02872152 14.97313 28.56883
6.32054 16.67728 21.99393
-3.251086 22.29547 25.10568
9.90342 15.21882 13.73257
8.236312 15.31933 16.33729
29.82188 6.900506 8.338677
35.91704 18.59569 3.115143
31.14396 14.01173 6.713995
14.86393 107.0823 -1.409888
-18.32156 95.50703 -6.571594
-20.39367 87.19907 -1.489539
-21.41097 85.57899 -8.507607
-32.82613 8.099217 -23.03878
-11.25823 7.568524 19.22153
-37.12017 6.442656 10.01198
-39.37411 3.668279 8.319253
-41.35999 3.071892 6.577637
-10.18121 12.48503 21.15067
-38.50431 5.631473 1.12752
-40.05508 5.420395 4.810686
-38.96516 8.598678 5.102888
-3.463985 14.30345 27.68396
6.213972 7.72079 28.04878
31.26489 3.585113 8.548432
38.48714 11.97216 5.057358
34.30218 17.29979 4.047612
36.10647 15.8395 4.009265
12.22495 105.1461 -6.320483
16.09012 104.3522 -0.001209412
17.72163 99.56403 3.320645
11.87277 86.85998 -12.84805
-17.65048 91.74901 -9.446378
4.540273 23.33038 -22.04564
-6.786892 51.94225 14.20938
-12.21156 11.90917 17.1724
-37.50058 5.679979 8.898434
-42.35563 2.458585 9.842098
-9.961191 10.03771 23.32924
-39.31795 5.600614 -6.432541
-39.94063 6.894625 4.406024
1.441717 11.38515 24.17134
9.545912 18.29836 13.42994
9.092558 23.37219 10.31923
8.044889 15.56394 10.16311
6.896902 20.3575 9.171068
7.681805 19.40676 18.31946
9.211471 24.30825 13.00662
11.61632 8.686625 29.01598
30.82177 7.713078 5.272939
30.40725 13.39715 7.47406
27.16283 13.72878 4.711484
25.2442 19.95031 2.558444
31.22276 9.392315 4.108864
9.97543 106.0991 -7.376612
-22.35802 88.84369 2.314073
-18.67003 91.01271 -9.161222
-44.93134 12.16786 -19.06186
-12.74802 14.93556 16.75663
-38.09259 5.240668 -2.171153
-36.46356 7.308759 -0.9308063
-34.93475 9.924492 -1.373005
-35.54518 10.29924 -5.869947
-36.02575 10.95136 -6.120111
6.766558 15.85017 22.31324
2.374127 6.601471 20.49362
0.09274755 6.306198 18.3022
-0.2707674 6.990968 17.25118
4.660141 12.17875 24.12169
13.89478 7.544936 33.27761
26.92766 20.901 6.031474
28.06161 20.00601 6.374793
30.97114 11.15665 2.36687
27.37407 13.40141 4.716383
-17.67082 88.96418 -9.928568
-45.35944 11.33775 -19.18149
-38.54243 4.327112 8.085526
-37.58186 5.497153 3.725832
3.670341 9.31715 19.38401
1.938112 14.33605 10.32494
5.694097 14.89973 9.367818
15.58205 9.855871 28.91144
14.02313 7.23491 31.57181
26.70713 18.06827 -0.7864984
38.78295 20.86632 1.782333
40.01982 25.40866 4.03296
33.38864 21.6691 3.189703
-18.59681 87.19511 -10.26434
7.899252 18.49967 -22.97732
11.61666 23.53546 -20.22679
-14.88503 10.91189 15.11577
-19.20087 7.629496 14.04619
-36.65709 14.79901 6.147608
6.185154 7.892238 23.44296
5.878579 12.11671 20.31764
0.5127759 8.922201 16.65541
-0.8645752 7.717196 14.59141
-0.8851121 4.313794 16.81404
2.871136 13.94797 9.864836
11.12108 8.786147 28.80359
9.728968 12.02593 29.35058
18.28845 3.631111 31.41767
26.30099 18.48351 -0.03735696
37.5507 28.1096 5.946166
5.29581 19.53933 -22.64164
-36.28762 7.876491 3.517986
-37.74899 11.20879 3.645402
-37.00648 10.5855 7.624459
0.7232764 2.502803 16.76378
-0.1865623 14.46412 12.757
-0.3843381 13.30849 14.67186
12.4541 14.5702 30.2525
27.32936 16.65809 0.04459193
25.28243 79.79624 -0.7997336
35.26517 28.29877 7.161608
35.12196 29.41668 7.088616
37.15026 30.76126 5.627127
26.10763 20.85205 15.8079
35.33552 34.66169 6.08641
-23.24669 76.72446 -11.27356
9.069958 15.71275 -22.96866
6.015425 14.2219 19.50524
21.90118 17.64863 28.90914
17.08606 9.739556 29.71076
21.06684 3.694519 27.71856
-22.0596 83.31564 -8.538209
-35.17242 16.70456 2.271958
1.45666 2.438149 15.65477
11.66048 17.39333 23.74604
17.82993 11.42831 29.60601
26.72975 19.89052 -1.557665
-13.52711 79.55067 -10.85365
-36.557 17.71854 8.020224
-36.32026 16.93814 6.227279
7.25815 20.48911 19.93178
1.985444 16.79268 16.37161
28.72785 19.16364 -5.825193
-34.64245 17.69057 -8.025457
-35.65737 24.41866 4.789557
4.440273 16.79795 17.64618
21.32101 8.217015 29.68044
-34.44848 12.08098 7.903894
-35.26981 18.06025 1.88378
23.84092 2.534151 27.22942
22.27601 3.680107 26.58877
29.60281 2.56444 21.73108
23.41992 3.525418 25.32174
28.62697 2.624029 26.86454
23.18687 7.167974 25.35271
6.462272 107.6213 11.49977
-1.89535 103.1373 14.57141
8.686657 96.53632 9.172872
15.7985 103.922 6.575268
14.91605 94.68782 11.09145
-10.51474 102.5077 -9.065284
3.087549 20.89785 -8.302904
0.9231867 19.58007 -10.94798
0.860337 23.8196 -14.0295
1.230037 20.97692 -9.88418
0.7561855 23.0656 -17.89361
-15.63029 15.70759 -17.72719
-3.805081 13.04801 -22.92892
-1.736449 13.79375 -22.30992
-6.382 16.46355 -20.29232
-2.749535 17.90052 -21.75101
0.598096 21.57001 -18.77198
0.01471415 34.66479 -10.90428
-0.2282768 40.75621 -10.26256
1.876053 7.584366 -13.53599
1.623664 13.08749 -14.67639
1.873647 10.16844 -16.02421
1.059016 18.22577 -12.98323
-3.59846 69.48417 -13.75684
-4.998042 68.37247 -16.12434
45.45363 5.134573 14.80864
47.16004 8.23759 11.33113
39.01325 3.544472 17.07853
37.70012 3.69622 17.15809
45.48191 2.932477 17.76653
37.88441 8.728749 11.58009
30.05874 3.338336 20.63719
31.17647 4.503157 18.87436
-23.98657 7.447267 -19.16118
-20.7646 6.437567 -18.79565
-21.63757 9.930951 -19.04072
-27.81979 11.09656 -21.33321
-26.47437 8.175124 -20.17414
-16.31536 11.38176 -18.41629
-26.66783 19.34483 -21.40982
-23.40438 16.84229 -19.62696
-32.46683 13.72168 -23.46146
-28.8483 14.94643 -22.44231
-23.28437 19.73248 -19.23636
-21.285 20.05342 -18.08767
-27.58924 24.50972 -21.62284
-33.86171 3.359666 5.861504
-31.31009 1.460838 10.2281
-24.02267 6.204888 11.11676
-24.94522 8.073348 9.173645
7.963922 8.849247 11.01921
23.81052 2.443854 28.59551
-7.734777 84.40795 -14.81792
-10.31658 86.90442 -13.28397
-11.47302 85.07737 -12.22131
-13.87681 87.56039 -9.998653
3.295888 34.88007 -20.06957
1.61583 32.97541 -17.692
3.332691 31.76465 -20.44353
2.919541 26.31392 -20.56672
9.598098 33.76207 -21.41482
9.040949 28.64687 -21.9483
9.17259 30.31065 -21.791
12.44392 34.49737 -19.31346
7.492179 41.26676 -20.69876
11.27541 38.18423 -20.36711
9.880817 45.21515 -20.16746
10.21374 83.91606 -13.38653
11.14782 72.28302 -15.15784
16.2772 73.95988 -14.26712
16.9252 78.82668 -7.076552
17.1186 76.34684 -11.83285
13.40824 71.06342 -15.57648
7.997057 73.66734 -15.49838
12.48253 78.43571 -14.26781
16.58809 78.24319 -12.75213
15.0276 87.38592 -11.77708
10.03723 62.14896 -17.19851
12.37945 62.07819 -17.30701
14.8416 63.93718 -16.46027
14.14322 51.48614 -18.06958
14.141 66.59078 -16.22638
15.59447 47.10683 -17.25606
14.91364 65.72296 -16.15231
13.58751 47.38475 -18.47803
13.72662 50.74038 -18.35777
16.90358 62.167 -15.86419
12.82326 46.04138 -19.05077
14.20811 36.36576 -17.78975
18.17861 66.42621 -13.93521
15.02814 44.22173 -17.4481
18.9382 61.784 -14.30386
17.98556 53.29275 -16.38388
20.04349 52.39014 -15.1753
12.56964 47.10245 -19.20043
16.1185 41.5043 -17.10078
21.51436 50.79865 -11.17577
18.34377 39.81374 -16.9586
18.32195 37.56141 -17.0422
16.33788 34.84109 -17.26567
20.7926 52.46816 -10.04963
-44.2862 9.063195 -6.647902
-45.24564 6.455673 -5.341066
-39.31569 11.72449 -8.001864
-44.06713 7.742475 -5.430527
17.50819 6.636134 -17.41825
1.416237 21.93006 -16.92485
8.246175 89.4881 -13.26173
16.05705 92.11893 -8.80446
15.97961 91.27841 -9.127379
16.4969 96.23043 -6.369007
12.47769 98.47301 -9.403589
18.83665 89.82938 -4.919936
16.1457 87.14473 -9.276028
21.25491 90.65616 -1.80793
16.07533 97.97311 -5.686722
20.27139 94.06096 -1.096199
16.20781 84.51297 -8.691874
17.68884 100.4157 -0.4703242
19.21249 85.15229 -4.817376
16.32457 81.01108 -9.534945
18.14656 89.48119 -5.424768
21.2408 89.67805 -2.483027
17.4309 101.2683 -0.06984372
23.28481 84.66326 1.83652
17.02446 99.30313 4.698945
17.53841 95.63805 8.136559
17.15177 97.58839 5.890041
17.38431 96.48136 7.685585
19.94597 93.04188 2.834093
21.22919 91.8373 -0.7122637
17.89015 93.03829 6.163842
18.73713 87.47527 6.77103
16.21007 97.8234 10.44373
17.17254 95.87323 10.35601
12.0877 99.4494 9.418202
19.50365 81.59634 11.01435
20.15018 83.84901 5.022154
19.78726 82.36903 6.239243
21.00606 83.39812 4.16663
19.36822 82.01435 9.54866
19.35445 81.81794 8.925905
19.55202 80.77609 7.982485
20.3458 73.16297 12.44988
24.002 77.04497 3.516578
18.73169 71.23859 -5.031936
24.4564 74.46001 3.827974
19.55147 78.38367 14.34669
20.70809 70.99947 8.929242
26.56297 74.09951 1.896661
25.57066 76.22017 2.383723
19.95613 76.39993 13.98738
19.61663 79.90564 13.37903
20.39205 70.42319 15.5167
-6.884779 83.74049 -14.69704
-8.441047 79.85917 -15.17747
-5.969191 82.99364 -14.06947
-19.33986 83.6943 -11.0912
-10.53291 81.21877 -13.79525
30.4624 13.12816 -1.157933
29.01875 14.54312 0.5885265
25.21634 13.43519 -8.51466
24.48318 16.57 -9.246253
28.2042 20.34883 -6.621943
22.05404 25.85634 -14.48195
24.23586 17.63807 -11.61686
23.39224 19.92175 -13.98104
25.63533 14.22442 -12.73898
23.458 18.01116 -14.8351
22.16453 25.03827 -14.0126
21.31694 16.13794 -15.66582
22.45686 26.61457 -13.2017
20.20599 20.86785 -16.81152
21.75634 27.88081 -15.92016
20.6663 30.24802 -16.84317
17.84104 33.05045 -17.20047
17.2518 30.03966 -17.30327
25.77329 26.75662 -9.886477
24.36528 30.03278 -11.74678
14.35486 28.34893 -17.74806
18.35332 22.67303 -17.25371
17.62069 21.79979 -17.26964
20.0845 30.19796 -17.1584
14.32657 22.42603 -17.78685
22.06246 35.42598 -15.35128
27.46258 23.20286 -4.523312
11.21866 27.23018 -20.91092
-11.18174 18.38531 24.68336
-17.02419 18.62735 23.47768
-14.93125 18.8816 23.75095
-18.60798 13.90993 23.02441
-7.241558 98.65622 15.56262
-11.76427 93.56065 9.485266
-10.82574 97.43826 9.443416
-13.12592 91.00172 9.946326
-14.40271 89.27814 10.35383
-15.48111 87.899 10.49788
-9.821978 93.10474 9.905935
21.52295 8.989004 -14.21399
26.23717 5.273195 -14.49464
-19.16138 8.979784 25.55008
-19.66672 7.582795 26.73408
-18.67687 12.84316 22.94392
-13.10737 6.282856 25.34406
-11.86055 9.564083 23.96612
41.94366 17.03295 2.337306
-2.427624 15.6247 27.90764
-39.89835 10.47075 -23.56666
-41.46003 5.8906 -6.230866
-41.36798 10.04635 -5.513695
-36.01004 18.2844 -14.65249
-39.62543 7.477237 -6.089922
-3.960984 24.32057 17.55891
0.2625469 11.263 25.0239
42.39305 17.33585 2.623464
40.85594 22.39514 2.332638
36.11657 13.01048 9.392266
36.99807 12.74103 8.832934
35.32589 7.508431 13.90852
37.17376 8.170422 12.43272
37.30184 10.38832 10.32212
46.49958 9.653101 8.86801
43.68621 7.367927 13.16028
42.94051 11.12369 5.16802
41.8715 13.79966 5.44664
41.94461 6.706387 13.55083
40.09325 11.51379 8.241721
37.23775 17.99006 7.178813
33.15336 17.92126 9.745199
34.30729 21.23126 8.669537
34.17453 15.22372 9.910248
34.29127 23.65349 8.293449
29.92752 19.28613 12.06027
38.27401 20.24253 6.696611
32.71472 12.18282 12.43325
25.38257 8.429029 22.35173
28.58767 24.94861 11.57493
24.87249 20.39787 18.4282
25.76373 25.65213 14.71239
28.8306 11.1713 15.93257
29.11282 26.92219 10.65654
27.22601 25.65027 12.7854
27.87632 8.373774 17.91746
27.85992 10.79335 16.93747
33.5131 9.313397 13.47797
24.57702 22.05355 18.61762
25.14481 18.51649 18.46195
26.80244 16.16478 16.33587
20.78931 12.82902 30.46248
24.3325 23.60403 18.7564
23.11962 16.45158 26.39023
23.27096 25.83201 22.34882
22.7115 27.51493 24.20441
22.35369 31.82023 23.96988
22.70424 32.46315 22.50154
24.69826 27.77541 16.07126
23.31779 30.2103 20.05414
22.25726 22.87095 26.77563
20.61367 20.91535 29.60456
19.78069 17.45527 30.83696
16.46596 25.81674 29.307
29.60211 33.67693 8.975354
27.65531 36.39124 9.631908
15.55852 28.77553 27.91872
16.20181 31.05277 27.76342
17.49753 34.2472 27.26553
20.97459 29.93323 26.90639
16.37963 36.59111 26.42411
12.95383 36.73464 23.66158
29.41858 37.58833 8.347054
33.00065 43.94813 -0.4289145
34.04015 40.72247 5.597379
27.33875 42.43923 8.578588
33.2433 43.73535 5.395474
35.26332 42.91739 2.895173
34.24788 38.95406 -0.1034017
35.64654 41.73571 2.144227
15.98298 27.46934 28.56286
37.84933 33.89539 2.860245
25.39273 36.59887 11.74907
12.13631 30.14971 24.02039
8.509925 24.64993 15.26307
34.01215 29.31192 0.8485963
8.520864 26.54624 16.51176
8.934788 26.77774 19.34387
8.749815 24.79522 19.8503
10.21618 21.13654 22.61191
33.2617 25.90763 2.038939
9.413892 25.16158 21.21648
24.06684 27.13095 2.656834
27.05086 34.11213 3.118103
24.7721 29.80112 3.635685
26.53807 25.94175 4.930999
23.67226 29.42514 -0.3050499
24.50064 24.70561 0.5265764
29.87672 35.96757 0.9261078
23.81794 30.85547 2.691788
23.4462 31.82478 1.907333
34.91535 33.1484 0.2123591
34.27437 35.99361 -0.02085827
24.61467 35.40921 2.872539
27.43508 36.72046 2.093759
36.58332 38.04318 3.28812
34.85312 39.95759 0.3823279
27.72748 47.27085 -0.6813632
24.38559 38.57015 -10.67796
26.71444 34.4069 3.082059
23.11429 38.12394 1.606448
25.68344 44.27808 0.8441303
22.61677 37.47609 -2.610701
22.26727 38.06937 -1.646837
31.11103 43.68343 -0.865048
23.56428 37.05555 2.114864
22.27943 70.41636 6.143963
32.56654 53.3066 1.472992
26.11122 48.90217 -0.308146
-19.26596 4.509446 14.9611
-23.77558 6.693626 11.78139
-21.49391 3.988719 13.5245
-19.61689 8.782384 14.03085
-37.75598 2.70578 4.199748
-31.94532 5.110869 5.252813
-28.32351 4.116167 8.619381
6.500803 21.28425 8.93522
3.963884 19.91807 8.973866
3.661732 26.66887 8.474946
4.705334 25.74683 8.388692
8.246896 23.75731 9.468574
9.396325 29.43215 14.03924
3.523329 20.1277 9.055603
9.092834 25.45596 12.81193
3.972276 41.28813 15.43032
1.14661 31.47738 9.993424
0.5484555 28.44121 11.30579
0.3513262 25.09257 12.05974
5.797089 26.3204 16.81882
10.38803 20.57642 -21.82598
13.4342 13.7366 -19.45589
15.82892 16.41178 -16.90561
11.25091 14.1853 -21.74365
-34.64688 13.27634 5.581361
-34.71189 9.455765 3.637435
-35.13039 25.82164 2.548522
-33.3293 18.8773 7.966673
-30.56691 15.40049 2.655396
-34.0362 13.70595 3.938624
-32.78759 13.68791 3.127934
-30.76195 10.05492 3.360025
-26.57492 12.57165 5.73727
-25.33448 11.16254 7.884109
2.217517 16.11761 23.55102
4.169178 21.93951 22.66947
7.313543 26.32945 19.3933
7.074043 20.92375 18.71116
6.386885 27.53879 21.89426
3.448197 26.75827 15.4841
6.825424 20.90893 18.3749
26.0948 8.050893 20.48765
27.26422 11.85176 17.19226
26.57104 16.4875 16.55207
8.415975 100.7877 9.667962
6.475754 102.4933 10.69351
4.577022 104.595 13.31713
5.628188 103.8326 12.58239
5.64678 96.94152 10.33945
11.46998 97.91506 9.289144
-1.770528 99.49706 16.29698
-3.360274 100.9565 15.6201
-5.741324 91.86963 18.97107
-7.827484 91.03978 15.22403
-7.800882 94.78833 13.33223
-8.40036 88.75015 10.969
-10.60648 81.30503 10.55149
0.6872639 25.57442 -13.00793
0.3986642 31.53046 -14.89048
0.6357106 29.50495 -14.46802
-4.013682 38.87077 -19.48704
-3.079223 32.9524 -20.0576
-4.73508 33.94542 -19.93166
-6.101033 37.36782 -19.32434
-0.121249 35.06561 -16.37724
-4.861521 42.52004 -19.17756
-7.147055 35.66166 -18.99403
-0.6771697 38.42926 -16.68413
-1.443656 41.36461 -17.60295
-5.638968 44.79932 -18.87278
-9.576248 35.74943 -17.50892
-5.677493 50.03399 -18.45584
-8.117108 41.09825 -18.10947
-0.8284896 43.77954 -11.52836
-11.24589 36.28848 -16.35175
-4.128329 50.17277 -18.26906
-2.064797 54.44032 -13.8123
-9.751534 33.16352 -17.54731
-9.964344 29.76712 -17.68377
-18.53947 35.05923 -15.57276
-13.19722 28.06048 -16.41273
-20.88774 30.12804 -17.02327
-19.60491 29.95161 -16.46638
-19.38511 36.20596 -15.79396
-23.51375 28.55762 -18.72568
-25.4337 29.19578 -20.02041
-18.51338 25.77817 -16.54524
-13.32573 26.97647 -16.50088
-19.0547 18.08074 -17.40673
-16.72047 20.78973 -16.92833
-26.98004 30.08257 -21.02904
-21.53471 20.88332 -18.1406
-31.83252 34.53238 -21.70541
-28.07914 27.44212 -21.7583
-16.59394 16.37202 -17.51567
-32.27357 26.91277 -23.02982
-14.71909 14.04213 -18.25743
-13.19409 11.3629 -19.42278
-11.76952 18.19287 -18.19253
-11.4126 22.66131 -17.57455
-7.435602 16.27892 -19.942
-5.752394 18.39688 -20.02139
-4.205362 21.55437 -20.108
-11.21719 11.56821 -20.00869
-13.21935 25.18814 -16.76142
-5.150362 23.30583 -19.94728
-6.108818 28.0834 -19.80479
-3.023893 24.88297 -20.68814
-1.206888 45.75768 -12.49849
-3.447935 48.59981 -18.11073
-1.403078 46.41417 -15.0998
-3.189984 51.12397 -17.46565
-1.940301 56.61917 -11.23345
33.81184 5.221315 16.85932
-30.55877 22.9881 -23.02139
-29.00778 20.22154 -22.50061
-35.91648 14.22486 -24.0575
-30.22799 19.12365 -22.9757
-37.72076 16.89163 -23.78817
-35.94323 26.21911 -21.11231
-29.71284 12.53085 -22.49883
-34.98694 26.49282 -22.17166
-41.10139 12.55879 -23.21802
-39.53153 13.71025 -23.57589
18.4869 67.3187 -12.51309
20.19748 45.35287 -15.93829
20.5529 40.752 -16.1202
22.76671 39.34049 -14.10443
24.79267 36.5996 -9.854206
23.56352 40.52518 -12.61354
21.98549 47.95365 -12.95212
13.7126 6.477919 -20.18003
21.66995 81.37715 -3.735844
17.90566 71.71041 -6.172251
17.20725 72.03974 -10.33723
18.26023 74.0898 -5.775526
19.6185 70.97884 -4.139579
24.98387 70.76054 -2.548846
21.23636 68.77491 -3.241295
21.97927 71.69473 -2.899805
17.99919 68.58077 -5.808908
19.99397 65.47655 -3.790692
18.28619 78.74446 -5.981101
16.7368 81.83143 -7.285854
24.8427 80.49908 -1.428481
23.66736 85.03617 0.2746071
14.64303 84.63369 11.78842
2.157128 40.44695 25.27437
15.05118 90.91328 12.15488
7.508145 93.85857 9.05368
13.71222 84.5053 10.89948
15.29887 84.48666 12.8865
26.16131 67.06647 4.550074
14.62863 76.30312 13.27417
14.26876 77.5111 12.16986
14.92953 81.43965 12.59561
16.77988 73.62337 16.74894
-8.611511 70.80257 -15.98096
-8.348042 66.76554 -16.46178
-6.011565 65.56018 -16.7987
-12.82487 66.13634 -12.69948
-13.80026 67.16877 -12.01934
-12.01758 64.01361 -13.56127
-16.74757 69.15056 -11.69785
-16.94108 70.39347 -11.64522
-14.20774 77.3419 -10.86677
-14.86194 74.35765 -11.07463
-4.301804 58.88683 -17.05368
-3.800643 59.55555 -16.62984
-20.64684 67.4548 -14.19979
-22.35617 62.93781 -15.84324
-2.475898 56.17567 -14.82644
-10.37039 60.11795 -15.44702
-2.246414 66.08279 -10.96817
-19.13516 72.51805 -12.53416
-3.480196 52.28538 -17.56967
-7.031665 52.22551 -17.97513
-0.01559749 63.4119 -9.621627
-2.206692 58.82152 -11.44084
-21.08762 72.72486 -13.77613
-23.94116 74.23803 -10.24163
-4.152843 57.63802 -17.1368
-1.300122 60.19625 -10.30212
-12.3761 57.65546 -13.84516
-6.85731 55.65688 -17.76397
-8.03388 50.37265 -17.64991
-16.01561 54.04802 -13.08242
-7.249477 46.59827 -18.29788
-15.89484 63.65926 -12.06272
-19.42277 63.47633 -13.6545
24.84498 13.03804 -13.47483
18.38833 13.44989 -15.69492
15.349 10.16836 -17.93964
24.78029 14.51252 -13.63527
-13.88071 20.20597 22.58228
-12.34381 24.51935 22.49545
-3.450298 19.165 26.17471
-1.063175 23.62772 25.86896
1.792339 24.42353 26.80924
-4.117147 22.70488 24.7097
-8.171481 25.75889 23.25005
7.033896 23.91963 20.53804
6.925747 25.47781 20.33189
5.068598 24.70684 23.09737
5.856254 30.73261 23.49396
6.48505 33.09547 21.9019
-6.132702 31.17274 24.70075
0.6071957 31.52832 25.67763
-0.3491115 27.75536 25.67279
-17.21863 91.578 9.226155
-19.7448 88.35746 5.468256
-15.82701 84.13411 10.97785
-11.73425 13.32233 25.01721
-12.8281 11.93573 25.82972
-35.56796 14.78846 -6.178185
-7.844045 14.01317 18.0154
20.83488 10.81693 30.63102
22.27905 33.23053 23.74927
22.00587 39.15676 22.72024
18.34398 38.47692 26.07405
22.91932 39.87524 18.18182
22.79105 39.88489 19.38569
22.65826 14.52491 28.22974
23.38849 14.55281 26.35065
16.6041 19.08854 31.04682
14.14623 16.82927 30.36989
23.4261 46.53989 11.67694
24.48647 46.43336 10.0744
10.13568 32.61073 20.14306
8.404451 25.92674 15.84306
9.832803 33.89968 14.93433
9.603146 36.44355 12.75222
9.713539 35.71735 13.18252
11.90666 39.3988 20.06194
9.047957 38.82009 11.27147
8.368247 31.38908 9.392073
11.61759 30.76497 23.17756
14.30231 23.00656 26.95529
13.64372 18.12954 27.74898
13.49653 17.93657 27.12983
26.28288 40.19466 1.653016
22.06603 42.89214 0.4280954
23.97451 46.61911 0.6131935
22.25058 44.69752 -8.323113
23.83733 40.2698 -8.887876
20.63728 49.29757 -1.693571
20.47189 48.17854 -2.521515
28.06996 49.81608 -1.17093
24.00684 36.07852 -6.862977
21.39713 51.83835 -1.24529
19.15281 54.27732 -3.801832
25.66084 32.4032 -8.203206
20.09292 49.35533 -4.358376
25.02661 55.2029 -1.16431
28.87841 51.94994 -1.581769
32.63625 52.00351 3.204159
24.70263 57.25816 -1.426606
19.20052 58.25002 -4.343935
25.04046 59.65205 -1.843007
25.54907 69.05608 -2.502142
19.80355 62.59747 -3.884151
27.46571 69.18253 2.79709
23.33619 65.03136 -3.39682
24.31961 61.2849 -2.290201
21.96172 54.90036 15.90661
20.70536 68.56754 15.17303
33.10749 50.77216 2.868645
30.01737 52.45741 5.387504
31.88984 50.5169 4.614169
31.33418 48.27924 5.496128
25.47956 46.83142 8.907309
22.78326 50.23035 11.81178
23.52328 53.31616 9.308672
22.70108 50.97066 11.75564
22.67948 48.79352 13.17649
22.72251 46.45002 14.63412
23.45478 42.15548 13.4079
22.03171 55.37588 12.29343
23.65688 45.24584 11.66018
22.37589 43.24559 20.28124
21.98649 59.54889 10.21596
21.67175 58.68548 12.75308
20.95752 55.59966 19.54126
-39.6284 14.33657 -16.57136
-36.19611 16.91015 -10.76735
-20.16494 10.97457 14.04931
-25.61953 18.43798 5.091542
3.39304 30.30031 15.10657
5.038197 35.02407 24.10685
4.559073 32.89875 15.42836
6.508698 36.88502 19.561
6.1534 40.59286 20.60907
6.650579 35.46893 19.58001
4.504245 40.60592 15.82637
4.083817 38.27908 15.14563
4.204703 42.9252 16.04686
1.453155 42.35127 25.39364
5.471205 39.58627 22.7111
1.462038 32.44853 9.538421
-3.481712 86.9957 20.86665
2.974867 37.28274 14.29222
4.159132 45.03943 15.82964
4.457547 43.53883 23.25472
-2.463328 44.60342 26.04353
-3.040364 47.37962 25.9535
2.148803 45.74193 13.60985
1.021578 34.54499 12.42103
1.364978 41.67659 25.4988
1.518448 50.00679 11.22741
-12.47744 13.80551 17.47796
-24.92512 15.91949 7.579549
-24.3011 11.67458 10.22576
-17.7711 80.83891 -11.24214
24.27425 14.80804 22.96324
25.0183 13.08393 21.26752
0.5233461 103.9928 14.35374
0.5287847 101.3286 15.65041
5.718607 94.89996 9.920242
3.168584 99.42689 15.33669
-2.200304 97.45774 17.23218
-0.9855884 99.60954 16.30854
5.51142 96.26562 10.35782
9.583509 92.01865 9.241486
2.646704 90.10978 16.82542
0.5716656 88.57607 19.47182
-1.373453 92.86516 18.94949
2.367323 84.2629 18.18219
0.3481605 93.07446 18.48878
-4.248967 88.12935 20.54984
-6.751054 84.48714 20.87751
-7.518722 82.69818 20.53132
-7.839126 82.9203 18.66078
-7.717455 81.24509 20.57157
-8.981284 39.324 -17.6408
-17.12258 51.67028 -13.47733
-12.40591 42.13753 -15.26
-12.86151 47.95499 -14.42468
-26.12531 35.33399 -20.23964
-16.76443 50.53495 -13.5665
-14.02093 42.50362 -14.58893
-24.3808 38.37565 -18.88057
-17.03201 40.92501 -14.67474
-23.75612 40.78281 -18.3031
-16.57452 48.34566 -13.77014
-18.91033 47.51714 -14.58127
-21.9655 50.20222 -16.49354
-22.22293 45.45658 -16.91156
-21.44306 65.31371 -15.05762
-1.775422 63.44712 -10.58882
-37.98878 14.71583 -14.36786
-40.91614 18.06332 -22.30819
-38.10376 19.28947 -16.58618
-40.47003 18.70128 -22.23865
-38.6983 24.39261 -18.68295
-37.08001 22.60827 -21.38405
-39.08951 20.57626 -21.68146
-37.38436 27.7005 -18.89717
-33.06854 26.02427 -14.22851
-29.92323 24.74527 -4.073906
-36.06241 28.16935 -20.54683
-34.50248 19.9181 -10.62942
17.27832 67.05956 -8.613831
22.72603 73.93858 -2.642285
22.62288 72.75412 -2.747613
11.63367 81.44652 9.925098
10.51079 65.44893 9.312753
-17.45985 60.52245 -12.71596
-22.15308 73.09277 -13.71929
-22.00269 67.56895 -14.92918
-22.29242 81.54683 -8.532978
-20.55346 78.70294 -5.716748
-20.54323 77.8839 -4.415896
18.08271 8.669798 -16.32616
-19.52937 75.69007 7.029035
-23.49407 78.63914 3.425713
-16.85908 83.49455 10.77954
-9.500314 72.17146 11.52045
-19.45415 79.28419 6.359221
-16.44347 79.32169 11.60633
-18.52749 78.84433 10.40164
-9.464114 80.50236 10.57713
-24.48219 79.09173 2.943803
-24.25809 77.08434 3.07302
-17.08803 79.04491 11.3913
-17.26553 75.69688 11.85403
-19.6982 72.25397 8.407984
-20.0604 67.81656 5.774291
-22.43144 71.08882 3.41324
-14.39671 73.0648 12.41007
-17.56721 72.63614 12.07474
-16.55536 74.69942 12.16624
-4.873554 56.47606 19.82387
-14.98753 65.88111 13.40852
-6.905319 81.57895 21.541
-5.679142 72.77309 17.39372
-7.357214 73.95029 19.24368
-13.35862 75.86994 11.79931
-6.041066 75.08608 16.87202
-5.980747 78.28706 15.30615
-9.066206 71.95316 11.50691
-7.346898 79.3952 11.83977
-7.043637 82.46516 12.73502
-5.082949 68.72807 17.83035
-7.267688 75.63549 11.89191
-13.30952 65.69151 13.09669
-9.190556 85.28704 10.23162
-6.117835 65.20886 19.94206
-9.631725 60.55966 22.19489
-6.105899 71.44863 18.73516
-7.608732 85.83989 14.95379
-4.912357 65.70428 14.28664
-9.539965 66.62886 12.13607
-6.078022 66.14522 13.0023
-5.500426 64.09618 13.46975
-4.765885 57.25384 14.12321
-11.4889 59.57082 13.36295
-8.766923 54.07059 13.79857
-6.036672 62.87871 20.11258
-5.06843 68.62383 14.26895
-6.665651 54.62997 13.70337
-13.56646 52.03231 15.15524
-6.296608 56.11972 20.78714
-7.204934 49.57971 15.42271
-3.175234 52.37997 17.78684
-4.061547 51.52688 14.796
-2.925327 51.92997 16.83166
-10.2995 35.06009 19.38014
-15.86514 13.82908 21.9167
-12.41254 13.98237 25.53251
-17.21985 15.30836 21.51739
-5.842706 21.21414 20.35591
-7.349469 20.54297 22.54118
-4.795429 23.42143 19.54561
-4.461708 28.55756 20.2352
-8.019695 18.55523 22.82277
-12.04245 18.50615 23.4923
-7.302355 26.00904 22.18367
-17.4622 21.80893 21.06383
-15.16513 22.35768 22.35993
-13.38784 24.79832 20.24652
-4.920485 19.44235 16.07347
-5.697967 30.22731 21.21067
-17.35786 20.03256 21.0625
-7.159596 30.102 21.43624
-14.30704 14.97473 22.20196
-9.205557 16.82294 18.75797
-12.9969 15.57079 18.9591
-12.64278 12.24376 20.69256
-13.20625 16.64873 19.48957
-13.22464 17.30288 15.86659
-20.35826 19.75439 14.02773
-6.434207 13.95813 17.31439
-9.134369 31.59687 20.43318
-9.910096 24.26575 23.02733
-8.487205 20.92731 18.97018
-13.73177 23.72209 15.65002
-11.70719 32.18661 19.75682
-11.0793 26.99342 23.25026
-12.36126 26.6712 20.15703
-13.58239 27.06829 23.44983
-6.397468 23.58769 15.797
-15.33624 30.74203 21.73663
-14.59819 32.77879 21.15664
-13.57693 30.30797 19.7986
-12.59822 24.53468 20.75426
-3.929529 26.66307 16.75699
-8.981926 29.37545 20.75972
-10.63858 30.85615 24.57333
-7.821175 25.65777 18.238
-9.271508 24.42798 19.9906
-12.73073 25.52412 18.95253
-13.37611 19.03479 17.6283
-13.07946 23.79415 17.93809
-7.027713 32.13578 16.91194
-3.224353 33.03694 18.74986
-4.349057 32.28447 20.20918
-7.227478 36.16683 20.5604
-5.064131 38.45031 19.90932
-6.423879 32.17359 16.12135
-13.84543 28.61205 15.58748
-3.079449 34.52843 18.55817
-8.742777 37.92601 19.99956
-11.46329 36.97768 18.83733
-6.27228 39.31082 16.07058
-11.02859 34.51542 19.39789
-15.34939 31.31674 14.73367
-15.1851 45.00219 16.58289
-11.24843 39.46155 18.54232
-11.51849 40.65339 18.25105
-32.28782 15.57239 -3.439283
20.72332 36.89132 25.29963
13.62029 40.84767 23.57548
18.68491 42.4347 24.86113
16.20209 38.59226 25.83716
22.23366 47.3386 19.30426
22.51335 48.18722 15.57871
22.75388 37.03629 20.59434
7.319246 34.74482 8.136736
1.233479 43.76553 11.40385
7.615001 33.11051 8.44379
2.506796 32.84526 8.613114
2.118157 31.36971 8.943033
9.972355 41.85891 11.25176
1.716721 36.41607 9.331528
4.809766 38.66105 7.691881
2.004675 39.23876 13.46381
14.62757 39.89077 24.77234
16.29448 45.81067 24.02476
16.09959 43.90785 24.50381
10.8976 39.99848 16.42937
18.02743 60.15172 -6.865774
28.91062 66.32977 1.989412
21.89993 66.00759 7.857111
27.7625 63.85158 4.273061
21.33726 67.21992 8.726313
28.67356 54.40451 5.632304
22.68908 57.4692 9.423752
22.41617 60.44744 8.891299
27.74098 61.56064 4.751614
29.58134 64.38564 0.326035
29.21933 56.78627 -1.703563
27.41314 62.1525 -2.365778
28.20259 60.58421 -1.968714
23.90902 63.09422 6.456085
31.55342 56.17194 2.639653
30.33713 60.90116 0.01213234
20.89487 56.71585 19.32969
20.72348 53.63687 20.36284
18.74093 47.16887 23.61088
16.16047 48.68359 23.15122
-22.11189 19.61853 13.20535
3.790323 33.17908 14.9094
14.60794 75.66035 13.57696
5.089563 50.80001 19.894
-2.811336 53.87562 25.54251
-3.049673 48.63873 25.88244
2.009211 52.42308 24.00798
-9.038733 44.92447 26.03108
2.761153 51.07417 23.63288
-3.702479 52.52354 25.76636
-11.85386 47.69582 23.84547
-5.917925 53.28941 25.99738
-7.480812 63.60795 20.86931
-11.68406 46.83434 24.44369
-11.67235 48.6377 24.03317
-6.449187 59.75374 20.77568
-4.435928 60.75183 25.3671
-2.152268 61.79835 24.72213
-7.791558 59.57839 21.36649
-7.27103 53.56828 20.50608
-11.26587 50.85161 22.63901
-0.4400708 53.81686 24.97611
-6.524642 52.93999 20.24633
-7.011695 49.98595 20.52247
-2.361137 55.54589 25.337
-8.768571 54.38493 21.0146
-1.684253 59.86016 24.78691
0.2069685 52.94923 24.85631
2.690152 52.55277 8.733953
2.279468 55.28502 9.361828
2.829283 54.28759 8.632554
2.174609 55.5033 13.10093
1.756277 58.72207 11.26426
2.507587 59.25233 13.18398
2.269372 60.33912 9.739368
4.504473 53.65929 7.653928
1.306805 35.32007 26.07241
-1.158502 33.50598 26.18152
-3.400199 34.16114 26.03602
-6.819929 29.00908 24.0229
-7.212931 31.97856 24.93094
-8.142017 32.65399 25.11992
-21.89623 14.93297 13.42452
-23.9446 16.37986 11.01031
-22.45768 18.29688 12.89876
-16.66013 23.91462 14.14758
-23.55698 21.79598 10.99755
-31.96847 23.80938 6.092681
-25.05335 20.76589 5.273983
-19.80591 21.96282 14.06709
-26.86451 32.27589 2.524494
-24.03125 24.90227 6.398551
-23.07048 22.34717 11.97653
-25.66158 25.9297 3.092465
-23.45263 27.71314 9.334517
-24.41157 31.71213 3.159667
-25.33483 29.77981 2.792139
-22.90839 31.68057 10.8155
-21.33457 28.61437 13.53326
-20.71102 31.07883 13.94329
-22.70845 32.28711 11.55454
-16.24615 33.25363 14.44186
-13.62051 36.43915 16.8318
-29.38132 27.61853 3.807452
4.024628 89.20229 11.01065
11.54823 87.90112 9.983723
10.54591 83.63734 9.694285
7.271486 88.40859 8.753525
8.639036 88.27898 9.069724
-3.856917 83.83579 21.72959
-21.7774 54.36259 -16.22095
-23.80124 56.61829 -17.40854
-24.42331 64.27386 -15.7904
-23.49147 50.28243 -17.65107
-29.02609 49.9513 -18.1008
-20.98242 62.36452 -15.06209
-26.69192 59.52782 -16.14255
-26.96191 56.44769 -13.05148
-28.42571 44.55462 -20.51191
-31.49401 33.07925 -22.0551
-29.58616 44.71351 -20.15814
-26.57633 52.41258 -18.8958
-25.66462 46.40715 -19.33789
-30.28432 46.07837 -17.88464
-30.89568 43.83597 -16.49932
-35.23914 31.22125 -16.33943
-32.9942 38.07424 -19.66455
-32.43072 39.9854 -16.69283
-34.15761 35.86383 -17.84139
-32.66221 39.66474 -17.17955
-28.15486 54.2299 -15.52797
-28.79221 50.51551 -17.46292
-26.98594 51.36065 -13.02111
-31.3503 35.16053 -14.17309
-32.7825 31.57722 -14.48106
-29.90689 28.32979 -11.44551
-25.79037 44.20182 -10.73619
-33.09731 32.28217 -14.78452
-32.75644 23.23601 -12.487
-28.63577 44.39444 -13.92209
-27.10985 44.92813 -12.74305
-31.88688 37.26044 -14.91256
-32.51481 23.11876 -10.30623
-29.02547 31.84717 -11.40846
-29.12781 35.9898 -12.7026
-26.64056 38.14495 -9.673974
-25.9717 40.43294 -7.607607
-25.65069 42.06037 -7.595674
-27.82201 35.64017 -11.09663
-23.7448 52.89669 -8.040739
-24.92407 46.64211 -9.009344
-26.08147 61.9321 -15.55083
-23.7624 54.12808 -6.627722
-35.19159 31.05245 -20.45139
18.43824 67.05679 -13.10893
17.81926 63.1324 -6.217982
18.68039 60.49206 -9.748471
17.6979 64.93599 -9.097836
23.07804 43.07721 -9.291945
20.41115 49.22535 -6.73792
10.84895 75.3521 9.260609
10.59651 70.36376 9.159517
15.02764 63.82505 18.25066
-21.53743 77.44503 -7.060771
-21.6751 72.72527 -7.064003
-25.95462 70.49364 2.612167
-24.37545 72.53081 3.075541
-26.52909 74.08929 1.072617
-22.31384 71.46559 -7.917879
-25.99408 62.44149 -2.794351
-23.86738 83.76102 1.806227
-22.28467 84.44318 -0.6971863
-21.95375 85.06747 -0.8148093
-21.59847 69.64114 -6.122068
-22.2282 65.40337 -5.444046
-23.33854 70.9621 3.165967
-19.89433 68.94423 9.130384
-22.82286 79.30588 -1.544459
-26.41982 63.78825 -2.417868
-25.22157 66.2272 2.750177
-26.91005 67.17957 -1.641876
-22.55843 63.34393 -5.554467
-25.70711 64.94806 -14.29816
-24.47201 68.02718 -10.23911
-23.6375 58.30354 -5.257876
-25.50513 51.94505 -4.45953
-25.79567 58.0084 -3.413822
-16.23199 66.01321 13.38746
-0.3051651 77.91389 22.01313
-5.916514 80.68803 22.36443
-1.57596 79.9437 22.13922
-7.125774 72.28766 12.1554
-9.961252 65.75345 12.27506
-7.818868 74.32574 22.95761
-3.228549 72.62799 23.77259
-6.564009 71.4328 24.307
-6.093203 66.85246 25.01672
-5.706824 68.72684 24.73995
-1.27043 63.34165 24.30574
-3.263921 65.67204 24.63708
-14.3248 13.65614 23.13181
-5.590218 9.808652 20.14677
-11.96314 20.32923 20.70274
-9.364491 20.72878 20.18657
-6.24389 49.44908 20.35767
-6.008135 50.04521 14.90165
-2.857048 46.75609 16.03915
-5.509634 44.5794 15.66935
-3.412031 41.82478 15.72686
-2.702616 39.9814 17.09421
-5.225607 45.28965 19.85388
-7.630033 46.67956 20.12427
-12.06153 42.06874 20.90351
-10.18913 43.3749 25.78455
-9.163052 42.23372 19.49305
-12.91512 42.43325 22.70179
-11.79218 46.76105 17.27548
7.962947 40.92594 8.162763
12.07261 41.8389 17.74092
10.36495 54.28679 10.09408
10.28623 43.67797 11.40698
12.80663 45.81845 19.44369
21.40961 63.39863 10.58889
20.67643 58.01556 19.18673
15.21127 58.83463 19.87433
14.41742 63.94751 17.30632
19.05493 64.49783 18.95793
11.65395 62.05279 11.04661
12.94692 63.13923 13.5618
12.74934 66.12248 12.32599
12.41547 58.76952 13.07432
15.50736 55.49075 21.03072
17.5784 54.79946 21.81121
8.581726 71.40238 8.308463
9.806002 64.16168 8.847469
12.91737 67.00863 12.5246
21.14008 64.40565 13.4882
4.407905 53.36161 21.33497
1.030033 63.02251 23.37009
3.437797 58.93581 21.71354
3.660588 63.01195 20.52668
-1.79642 70.97659 23.58365
2.678759 71.8672 20.3859
4.54693 57.56396 19.05067
3.948371 62.6758 18.84915
7.302893 76.25877 8.297853
1.781238 79.92825 19.94126
2.956299 85.29516 13.3825
9.708357 82.67041 9.277792
5.349176 80.68056 8.773939
4.472729 54.53141 20.71824
4.163316 77.42531 9.235599
3.46311 58.21914 15.35165
3.354488 78.84062 10.34067
3.576232 77.05761 9.754737
2.133942 67.74606 13.72922
8.808742 73.52793 8.427639
3.286978 73.47233 9.706352
2.197853 70.85687 12.03828
2.281626 61.90464 14.08209
4.019875 59.75956 8.282575
2.634862 63.93954 9.772826
6.159283 63.62144 7.766235
4.157416 67.52033 8.534251
2.73596 66.94773 15.85891
1.776724 72.09094 21.45908
3.079467 60.41441 8.795565
6.569033 57.9009 7.632291
7.399756 59.31318 7.804103
8.818025 56.17303 8.498237
9.731757 56.56137 9.243019
3.194471 65.65547 9.17108
3.147023 70.28041 17.57959
3.415013 67.61288 9.105904
10.89726 55.60581 10.72961
12.55659 56.01907 14.43238
11.68301 50.76052 13.17222
13.66041 51.26146 20.08442
14.13502 49.68094 21.38226
2.668028 75.95839 14.81769
13.39601 55.01718 18.05785
11.74325 48.09385 14.21119
11.9828 46.99706 15.53258
-5.359397 36.52999 26.06822
-27.29582 31.72876 2.755347
-22.97767 33.58542 6.529113
-22.85532 37.93068 4.365488
-23.15564 34.87589 4.583917
-24.23087 37.03189 2.565745
-30.55303 32.92584 6.38233
-21.92847 43.21204 10.4146
-18.5231 31.9773 14.19035
-24.66782 39.82999 2.339521
-18.06726 31.42571 14.17112
-22.31922 36.26796 11.84053
-29.64845 37.46636 5.449122
-35.60806 20.40366 6.275312
-34.93264 25.13935 1.922447
-35.34659 26.54685 3.71162
-32.49629 28.09911 7.685102
-31.71598 24.74187 6.914244
-35.3828 26.28724 6.284428
-30.57139 25.61186 5.240595
-32.0727 29.45848 7.236731
-34.07485 31.11413 6.742916
-32.85274 31.39803 -0.6817856
-32.79498 31.85968 -0.7249023
-34.93134 22.96697 1.412931
-28.78136 33.58443 -4.02436
-31.36323 28.10551 -2.325687
-30.11472 34.32763 -2.838115
-30.97122 21.31718 -3.451596
-30.33579 37.28337 -2.426524
-27.99014 29.34447 -8.002829
-28.83672 28.4767 -8.828966
-31.49835 29.49921 -2.077717
-29.05486 30.34136 -4.157953
-30.16754 21.32304 -5.927693
-31.14265 18.19409 -5.095465
-33.02402 19.96681 -7.53354
-34.46529 34.73227 3.625419
-31.55805 39.377 5.549943
-29.83567 32.86777 -3.181028
-15.85001 38.1417 14.83748
-14.56891 37.03993 15.88911
-21.957 42.74949 5.868061
-21.37938 48.90095 10.81357
-19.63474 43.13114 14.62051
-17.92604 48.37274 15.37809
-20.0529 54.33662 12.97985
-16.84245 49.48233 15.79052
-18.21428 39.61525 14.684
-15.95606 35.71373 14.70593
-21.50367 48.88025 9.315768
-21.96538 41.87201 11.09392
-19.30958 36.57845 14.42762
-22.13323 43.52779 4.454684
-24.16455 63.39896 -16.01952
-24.00782 58.20848 -9.511867
-25.22613 68.58141 -12.8279
-25.11723 68.08522 -11.37172
-22.82871 67.76036 -8.520946
-28.5314 52.54333 -16.96997
-29.37576 37.37836 -3.133581
-27.57513 39.33451 -4.385297
-33.20525 43.24951 1.745625
-30.58063 56.24906 -0.4268139
-28.32449 60.96832 -1.776519
-28.93984 61.52024 -1.265129
