# .PCD v0.7 - Point Cloud Data file format
VERSION 0.7
FIELDS x y z
SIZE 4 4 4
TYPE F F F
COUNT 1 1 1
WIDTH 1664
HEIGHT 1
VIEWPOINT 0 0 0 1 0 0 0
POINTS 1664
DATA ascii
18.36383 87.59986 7.153762
19.39062 90.51714 3.15659
18.53867 95.13103 4.722457
16.38153 110.8995 6.185668
-17.45555 96.6674 7.454984
-16.72193 100.8673 8.297628
-16.16557 107.5719 8.544914
-12.41913 119.5903 12.59365
-8.899189 137.0607 11.9149
14.45438 135.378 7.158253
11.68877 133.1217 12.60898
14.70725 133.985 7.648391
14.42357 130.3857 7.776446
14.49553 129.9111 6.920946
13.96803 128.6061 8.491541
14.67844 127.4625 4.974469
1.993983 148.0653 6.013644
-6.417771 143.6599 6.449378
-13.17707 139.9694 5.269595
15.72328 68.35334 12.37442
15.04005 65.0724 13.60547
19.92332 61.70265 7.072877
-19.06171 71.90763 9.907614
-3.1016 66.13467 10.34826
19.52984 89.67279 2.89981
16.25214 107.0566 7.726094
-16.39135 107.776 7.905571
13.56981 120.4223 10.91129
-11.48905 135.8109 11.67657
14.41215 128.1878 7.538853
-6.792975 146.1653 4.009439
-9.454253 144.6587 5.856953
-5.621322 145.1247 6.023404
5.326209 146.0686 6.753181
17.00101 66.84266 10.81845
21.0797 66.77957 5.125151
20.37929 60.24895 6.438155
19.13618 67.05476 7.951186
12.87068 87.39964 13.55384
16.14353 111.5758 6.799805
14.63217 118.6089 9.051428
-9.74864 134.4571 13.30616
-7.444179 147.2885 3.427753
4.569901 146.2673 6.767918
2.458503 137.5606 11.86821
19.51287 68.27229 7.359937
16.64711 66.29075 11.32976
17.94832 69.08691 9.419367
17.9949 67.8707 9.436846
-1.29677 68.33691 10.95769
-10.25813 135.1029 12.86367
-10.61037 135.7466 12.33381
-7.742416 145.0863 4.866232
21.4593 69.67345 4.169798
-5.560654 70.93339 11.66676
-13.85347 132.6812 10.25612
5.993085 147.5906 3.456079
20.66144 74.06288 5.065773
-0.3082125 66.82726 11.56967
-8.816409 135.9997 12.78241
7.321321 147.103 3.901634
20.13846 72.06762 6.171996
19.78909 70.06572 6.854249
-4.137938 70.67812 10.5897
17.74393 72.58075 9.42803
-8.716934 69.46945 15.81175
-5.950397 66.66229 11.81024
-8.728171 132.3119 13.78896
18.18575 72.95698 8.834416
-1.169693 71.4808 11.13717
-10.97161 132.0723 13.03304
-3.074938 136.9139 12.27685
-1.251628 70.64434 11.06012
-2.749482 133.8563 13.9631
-3.544431 136.3819 12.66109
-1.059181 73.99338 11.29031
0.3001617 72.00389 12.28336
-1.290202 127.56 13.67673
-4.842539 76.16051 11.20658
-1.910113 73.52005 10.90469
-4.251877 76.14953 10.90368
2.478247 74.28577 15.30226
-0.8729937 75.87365 11.47961
-1.762822 79.74989 11.11153
-18.02763 68.52216 12.59521
-11.90528 65.19492 17.56725
-16.01018 70.01964 15.15667
21.68668 68.237 3.923417
11.8391 141.0249 5.848144
8.912396 145.0794 5.735665
12.125 141.3204 5.249034
10.04675 142.7674 7.079337
-20.87933 65.66242 7.548884
-19.38005 63.6206 10.88166
-18.83441 67.76329 11.22169
-18.40764 63.64394 12.64612
-14.74426 134.4072 7.044971
-14.19374 134.1548 9.061802
-13.47534 134.5967 10.18264
-5.270478 149.5116 2.735814
-18.6202 91.34565 5.836488
-18.35241 90.56867 6.811228
-17.62267 95.0471 7.434945
-18.14224 78.36208 10.25445
-18.66253 81.98526 8.212746
-13.54572 121.4526 8.536707
-13.5562 122.5833 7.255688
-13.86254 121.316 10.3813
-13.78693 121.0909 11.15328
-13.5347 122.7846 10.61879
-12.07832 120.7484 12.7583
-10.89827 122.3841 13.4113
-9.904888 119.9083 14.22749
-14.2108 125.5212 7.187328
12.88806 104.4007 11.7187
-10.80194 122.8325 13.43296
-14.51288 125.4466 6.698687
-13.08432 125.2839 11.2737
-13.15973 124.8246 10.20312
-10.45726 125.7339 13.31752
-9.685897 125.9384 13.59276
-7.519291 121.2615 14.29676
-13.55578 124.1107 7.612274
-6.279163 122.1544 13.99268
-8.60516 117.7728 14.71608
-13.57499 114.2119 11.90528
-8.572451 122.1157 14.33422
-10.68734 125.17 13.25615
-8.666322 123.349 14.18924
-6.976848 117.0294 14.32015
-9.580269 114.0047 15.02941
-7.655977 113.2201 14.6989
-13.8154 113.2512 11.69937
-13.60071 112.6669 11.99636
-7.197265 123.4898 14.15528
-4.784847 116.9068 13.33387
-2.087738 122.1812 13.16206
-4.346334 123.5321 13.4423
-4.251101 123.0817 13.40571
-6.545743 113.3989 14.17021
-7.687223 107.9219 14.86966
-14.20546 110.1613 11.48352
-10.74474 111.8643 14.73256
-12.01068 111.2968 13.85824
-11.09744 109.2239 14.83593
-6.431624 114.0995 14.10649
-14.00952 131.2728 9.56275
-12.31057 130.0271 11.9507
-7.201062 111.1336 14.53749
-13.9074 130.1321 9.333685
-12.76907 128.5936 10.98416
-6.067171 111.6724 13.86096
-7.836979 107.9011 14.92756
-14.2123 132.2299 9.540752
-5.952155 114.8692 13.85765
-0.2040578 111.7335 13.041
-8.25908 107.2816 15.13425
-11.8469 132.6289 12.47085
-5.556936 115.7389 13.66189
-8.774639 105.086 15.37875
7.835408 63.55729 18.85831
6.483464 65.5084 18.5489
8.991325 66.15473 18.49923
7.567685 68.89237 18.47123
6.956676 66.00082 18.63892
-16.62216 81.28465 12.59585
-18.2136 81.39306 9.331681
-6.930382 67.77051 13.32098
-6.784277 66.31383 12.94063
-8.877096 66.73493 15.94306
-10.13414 65.16527 17.08667
-9.240158 67.37449 16.2915
4.071303 150.0152 3.189338
11.91427 65.65049 16.97944
10.32481 66.58874 17.93689
10.93396 67.93081 17.47356
5.992328 71.06953 18.13987
10.08621 68.9856 17.88451
11.12646 71.35651 17.02817
9.968294 73.3126 17.573
12.6014 72.61655 15.61784
11.31365 72.89492 16.74536
12.01716 68.61644 16.58541
14.93669 66.18591 13.62344
13.23508 70.24081 15.22636
13.06145 68.48619 15.6044
14.95366 67.97644 13.41528
16.64658 71.91243 10.86395
11.90589 75.97069 15.91659
4.015007 73.8908 16.96451
14.19491 70.84694 14.04817
16.21604 72.91339 11.311
15.90997 78.74257 11.10095
10.18871 85.49468 16.24238
12.82426 76.82814 14.88309
14.55489 74.83335 13.1551
11.31475 75.46499 16.50995
11.29299 79.84801 16.03429
8.563345 77.15948 17.78026
9.910271 80.6553 16.92061
3.194529 63.91171 16.34821
3.080613 65.35208 16.21232
0.8338901 63.71081 12.79746
1.608919 66.97211 14.00904
17.47906 91.65099 7.92183
13.86974 116.6168 10.55985
-17.48294 73.3873 12.62357
-16.09684 70.82064 14.99292
-17.32348 66.47243 14.00108
-15.31091 65.92173 16.24755
-14.47772 69.37122 16.56249
-17.00103 94.85504 8.929449
-17.16751 103.542 6.694709
-16.1043 99.87349 9.753336
-16.50118 101.2584 8.695111
-17.01275 98.21399 8.165839
-16.12377 94.07162 10.88995
-15.19908 97.03638 12.00752
-16.83006 104.0831 7.542347
-15.46686 93.79485 12.15916
-9.190047 98.9453 15.67876
-15.44353 103.9955 10.30982
-15.4404 107.2381 9.921874
-14.43723 117.9982 10.17919
13.56742 133.5863 10.59226
13.51502 134.3681 10.26616
13.05207 128.1928 9.740148
13.64061 126.2566 7.527165
17.56026 89.35862 8.078544
15.36399 105.2989 9.149299
17.33693 94.31436 7.791357
13.55161 105.1738 11.01206
15.54042 100.5784 9.33061
15.87286 101.3285 8.859311
17.1847 101.0142 6.885036
17.55949 99.57869 6.373036
10.76636 103.6462 13.88581
17.62189 102.0636 5.375507
12.82584 103.6086 11.8531
14.39678 99.84564 10.6398
15.03657 99.23917 10.01207
10.58686 104.9506 13.90734
13.27588 106.4648 11.17348
13.94512 108.2023 10.44373
15.07698 110.0357 9.234271
14.60488 111.5973 9.744187
11.11548 108.8818 12.9722
11.83085 105.7416 12.61413
10.98621 110.8847 12.88555
13.28403 111.5602 10.94163
12.25646 112.6171 11.70276
10.33158 114.0769 13.1453
8.698864 110.805 14.77229
11.90253 114.61 11.90974
14.1531 114.3702 10.24575
17.17346 70.6087 10.30721
-6.237571 137.4743 11.85217
-5.815982 143.9214 6.983473
-10.50949 140.7778 8.428865
-9.103482 137.5289 11.41136
-8.367874 139.6474 9.473869
-7.454449 139.4999 10.09021
-9.034916 138.6829 10.25902
-8.101913 139.2689 9.955618
-10.04447 141.7757 7.880702
19.28517 71.59467 7.454621
-6.341622 72.0283 12.76626
-6.689927 71.72592 13.24646
-7.690065 73.59843 14.67941
-6.702154 74.75362 13.30467
-6.598757 78.22849 13.06796
-9.103004 75.55772 16.10589
-5.347987 76.50723 11.61642
-7.503897 74.35243 14.43537
11.87855 126.5325 12.17518
11.94168 118.62 11.93437
10.23893 121.0734 12.83849
13.15769 122.5599 11.24352
13.31034 124.9555 10.41935
8.049903 120.0798 14.23018
12.41691 130.0919 11.74757
10.63939 122.8878 12.6452
12.59943 125.5847 11.68442
13.03161 126.8062 10.69957
12.7164 129.9032 11.14907
11.34315 130.1766 12.45723
10.15211 127.5289 12.94727
9.896164 129.7479 13.12168
9.752835 124.2315 13.05601
-1.941954 136.6231 12.48896
-2.265441 133.0949 13.99025
2.828558 133.8237 13.93881
-3.613883 129.0039 13.69618
-0.1388046 136.8662 12.32357
2.27302 137.076 12.16337
0.4100102 137.1966 12.08764
8.098174 141.6437 7.793057
-2.544185 138.1413 11.48094
-3.30691 138.501 11.27699
10.70411 145.3959 2.642939
13.73113 139.1718 5.388288
10.70418 140.8825 8.044571
-17.18962 67.47326 14.04224
-17.54629 88.67547 9.065982
-16.59292 91.22733 10.53596
-4.257951 130.4848 13.76386
-3.433177 130.1876 13.75213
-6.034257 128.3228 13.70088
-11.42863 129.7841 12.57341
-8.730781 131.6742 13.71811
-4.694755 119.8322 13.41054
-3.226083 124.5132 13.37688
-13.97929 109.8782 11.81262
-5.247481 115.5389 13.50853
-0.4859221 116.9162 13.16088
-4.652107 116.5889 13.27142
-3.538241 121.7055 13.19794
-4.083779 119.4517 13.17291
-1.009143 122.3861 13.30477
1.019744 113.7353 13.81665
-1.288986 124.6873 13.4504
-0.5107105 121.4287 13.35785
9.284424 112.4296 14.16902
1.746105 113.0143 14.24562
1.242248 125.2548 13.86003
3.269049 66.80051 16.4101
1.228215 71.07834 13.45997
4.71086 69.80371 17.61532
2.878278 70.35342 15.90352
9.539396 145.8974 4.535295
9.770419 144.5199 5.601745
6.704556 143.2769 7.103358
6.982395 143.7405 6.20408
-18.18091 77.48384 10.38726
-16.92191 84.66745 11.25462
-16.75827 86.32619 11.19306
-13.74771 96.07311 14.21902
-10.86781 78.12525 16.86637
-15.04388 86.71998 14.04561
-15.37305 89.65565 13.04714
-14.09269 67.02852 16.94921
-10.66481 64.97108 17.45374
6.074769 72.05896 18.11536
16.67886 74.10954 10.63031
15.38374 75.44999 12.08636
9.984814 78.41628 17.10594
11.22022 83.04123 15.72094
6.712329 80.4696 17.71186
7.59979 81.04767 17.66255
12.47649 80.65777 14.79258
15.55157 77.63235 11.64434
14.2265 81.96828 12.67892
16.3073 85.61844 9.886787
14.66928 82.19045 12.14244
14.84888 84.76207 11.63079
12.9528 83.83317 13.90108
10.95847 81.85026 16.06922
12.93351 84.4628 13.84267
14.36177 85.09977 12.14567
14.62784 86.30079 11.70118
16.96614 86.7128 9.034215
16.20642 82.62153 10.32997
19.23861 81.79482 6.574829
14.07605 87.55873 12.17975
8.71557 85.36275 17.07226
12.76506 88.71674 13.50979
10.8309 83.90697 15.93111
6.462806 86.3696 17.4064
7.659407 84.82495 17.44453
2.84263 84.60534 15.55826
11.04503 86.65501 15.46027
8.693563 84.24946 17.17969
2.907117 87.27678 15.51857
1.757911 82.10825 14.28799
1.741534 72.29025 14.25355
2.997621 69.1654 16.0484
16.49251 94.6881 8.829934
17.20157 97.88506 7.463288
15.87919 96.60714 9.360145
15.10404 112.5401 9.11994
-14.0111 67.26338 16.96978
-10.97281 106.6763 15.14029
-10.38045 104.552 15.52976
-13.59835 99.75995 13.84508
11.90565 137.9371 9.1635
11.98029 133.5787 12.31303
14.01664 138.3183 5.403165
11.02512 138.4271 9.65203
12.28753 138.9305 7.50722
12.85571 136.8616 8.953013
9.901982 139.7274 9.23149
13.55912 126.659 7.811459
12.91355 128.1253 10.37501
10.44627 108.5842 13.63198
-5.732915 139.0936 10.94601
-8.461897 70.90128 15.57705
-7.564585 71.8207 14.49765
-8.944122 70.72198 16.03444
-13.6629 71.18404 16.82574
-11.89601 69.93666 17.44419
-11.12302 70.13309 17.24879
-0.7509726 78.66833 11.63848
9.761101 117.4864 13.32169
8.213813 112.2067 14.93305
8.519823 112.9328 14.66505
6.741013 112.9707 15.48897
5.240563 109.0854 15.84173
8.049468 107.5545 15.52597
9.369988 107.9427 14.59602
9.293757 125.4723 13.23396
7.167999 128.528 13.66217
7.409414 125.6473 13.90761
0.2478782 121.8844 13.61516
11.51702 123.6733 12.26813
2.785386 131.6313 13.87142
2.641979 135.0033 13.61489
11.0948 134.6665 12.65563
6.076398 134.5712 13.64023
8.216363 135.6385 13.03975
7.576112 136.051 12.83805
7.980979 138.5323 10.99585
3.829436 137.9191 11.67599
-0.5216105 143.4393 7.974793
2.926626 145.4935 8.31452
-4.570414 140.1668 10.53087
0.03292516 146.9306 7.081553
-3.118644 144.363 8.331765
0.8864391 143.017 8.657805
-2.997791 141.3619 9.930328
-1.697443 139.6563 10.66016
0.3825601 141.6583 9.159066
3.222625 139.1511 10.99431
2.980755 143.744 9.134315
4.017445 143.1055 9.398835
5.414018 144.3219 8.043084
7.525434 141.4693 8.207259
6.865291 142.1113 8.35281
-4.247979 142.2207 9.576527
-14.09815 63.67549 17.16315
-5.410416 126.8085 13.69016
-3.463032 126.9232 13.59784
-14.16585 107.9059 11.79799
-5.834456 118.6403 13.84292
1.017139 117.6753 13.85952
1.604407 119.6116 14.10899
3.861902 72.52654 16.88177
4.514278 76.53925 17.26686
2.238767 75.03488 14.95564
3.014933 71.72198 16.05727
-17.69337 79.03252 11.02507
-18.52692 77.59727 9.628412
-17.2666 77.30331 12.2406
-18.62552 76.11372 9.790901
-17.20546 75.20901 12.74995
-16.04392 77.60362 14.12542
-14.83657 80.74697 15.12233
-15.91558 75.62421 14.55915
-16.5151 82.68538 12.48066
-15.95747 82.77178 13.41955
-15.25531 87.47481 13.64303
14.37396 75.70262 13.27039
8.440102 75.87621 17.86096
8.24883 78.26524 17.75855
5.549153 78.11935 17.65739
4.973618 82.31297 17.27957
14.38249 89.05094 11.66932
13.68359 88.71816 12.48708
11.1737 88.7061 15.11396
14.01119 94.84447 11.50341
16.38398 91.81123 9.252829
18.19254 83.4688 7.907723
17.11585 83.3103 9.210813
19.15274 80.99946 6.789709
6.959156 87.11442 17.37226
9.743221 89.76448 16.17073
2.429563 85.99416 15.03961
1.203093 87.2391 13.56198
-5.402821 95.19437 12.75851
0.9949546 89.42844 13.35475
1.026203 89.11445 13.3829
1.393691 89.09576 13.80167
0.2336551 82.09221 12.48284
4.355781 89.11879 16.64737
4.600946 89.78085 16.77069
2.185461 91.76709 14.73909
6.939912 90.77293 17.10155
5.913815 92.71841 16.93731
16.55098 93.35007 8.905841
14.98258 94.08527 10.55688
15.87505 93.21352 9.68682
13.35316 99.61282 11.7248
12.57864 99.74978 12.50416
12.56171 104.2672 12.04806
12.28317 104.8633 12.26266
14.34826 93.97026 11.23065
13.81208 95.25523 11.6732
11.93323 93.44092 13.87026
11.28053 97.75444 14.04989
8.02127 99.42624 16.22488
11.51696 91.56596 14.49289
12.34144 92.35779 13.55255
10.18866 91.1584 15.71534
5.797425 92.6586 16.93366
7.122933 95.20232 16.72337
5.866595 91.70172 17.02052
15.76248 113.4163 7.161046
-16.17664 75.04367 14.31235
-14.05382 105.4793 12.31027
13.20422 124.2847 9.157238
-12.1716 74.51452 17.05261
-11.02036 75.56268 17.04203
-11.80723 73.78236 17.14601
-13.1181 73.65621 16.89883
-7.180622 79.69331 13.89724
-7.588943 77.77567 14.47971
-10.75455 77.12106 16.89719
-14.48105 74.82944 16.10478
-10.57758 77.64388 16.83311
-12.40639 75.81136 16.93118
-11.85045 71.80949 17.36785
-6.128747 79.17616 12.52928
8.381129 122.5102 13.82652
11.19224 118.7852 12.3378
7.173448 117.6705 14.90189
6.483617 117.4187 15.07013
7.889128 104.862 15.83801
6.727925 141.6331 9.424967
8.883088 139.8356 9.200325
10.39272 136.8887 11.50075
4.817346 137.9766 11.66196
-5.31867 144.0576 7.706923
0.2513152 80.08151 12.4751
-2.381018 128.7791 13.69982
1.673879 119.7138 14.13365
0.2673796 70.09483 12.21427
1.356365 70.26028 13.63424
-15.08273 83.46689 14.54189
-15.00507 86.06707 14.22273
14.71708 76.61525 12.75458
18.19517 77.23097 8.474588
16.73769 77.77116 10.22168
18.30423 78.63206 8.208002
16.73281 77.11671 10.28827
17.07402 81.14107 9.487212
3.766082 76.12138 16.7231
-0.2242725 89.22064 12.31784
-0.08807258 85.74136 12.25018
-1.470204 88.27916 11.57938
0.8448549 80.79739 13.08203
1.240193 81.65212 13.60369
3.059163 83.98289 15.7926
-0.9081255 80.64268 11.5589
-4.150009 81.00558 11.19166
-4.99817 82.25191 11.67532
-5.290469 80.2991 11.77723
-5.738361 83.22097 12.37276
-5.090666 78.56182 11.5362
-3.075838 84.50578 11.08392
11.43417 104.4393 13.14847
6.407131 103.6529 16.27271
9.505203 104.0347 14.9371
5.868168 106.6531 16.08022
6.772396 103.3902 16.26633
6.395699 105.689 16.12976
5.23073 102.2571 16.24716
4.725693 99.95518 16.28429
5.882033 100.9433 16.43193
9.687101 102.2848 14.9771
3.434008 101.3638 15.63711
3.344296 95.33157 15.78383
8.51983 103.1168 15.698
6.553477 98.95107 16.56005
8.058716 96.7833 16.39252
3.472589 104.496 15.55126
1.280015 106.1485 13.83496
1.911123 107.9117 14.36273
4.165356 94.61021 16.32113
4.478784 97.20821 16.34643
11.73122 100.2552 13.3185
-6.007064 104.0057 13.56048
1.593423 101.7884 14.13857
6.933283 96.05807 16.70441
-0.9475225 109.8485 12.62095
0.7463188 98.51078 13.3642
3.121787 100.4956 15.44686
1.627501 96.80674 14.19062
0.5746419 97.96386 13.18759
0.8065963 93.97031 13.31591
2.179308 106.6402 14.58286
0.09146212 103.3988 12.86265
-11.74798 78.75208 16.8867
-14.37068 83.70299 15.23061
-10.40407 79.97064 16.70897
-7.895785 82.14499 14.89807
-8.573892 80.07581 15.6415
-9.961536 83.35763 16.45603
-12.76206 81.68636 16.4992
-9.311589 83.07415 16.13853
-9.834279 86.95385 16.26366
-7.464273 81.23501 14.33579
-5.327485 85.41426 12.11632
-11.63345 88.59471 16.38039
6.239292 119.5597 14.9195
4.833436 120.8023 14.82913
4.101739 121.6196 14.67217
2.530638 117.7862 14.56056
0.0748856 116.5034 13.39424
2.367069 112.6674 14.6245
2.816865 122.9073 14.32
5.099329 113.7563 15.50148
5.310447 114.6389 15.45593
4.288462 126.4831 14.02628
5.512146 128.6195 13.76089
2.656484 125.9035 13.98589
2.238405 123.1982 14.17803
0.4106186 123.651 13.69663
2.022962 110.1546 14.42619
3.77237 115.1344 15.14162
0.2602805 111.6096 13.28012
-0.6463166 109.8293 12.74511
-7.201419 106.8588 14.57741
-8.926764 104.4172 15.46109
-6.489744 108.8503 14.11609
-8.739991 105.9408 15.35908
-2.706218 108.9013 12.43631
-7.192608 103.0313 14.55043
-4.969476 102.4678 12.82396
-7.372362 102.4996 14.69101
-7.627253 101.9759 14.86824
-4.857391 101.7994 12.71673
-4.368219 106.975 12.70509
-2.214772 101.7028 11.97855
0.6100307 99.73032 13.25105
1.165236 96.82024 13.72352
-1.879927 98.38826 11.81518
-3.027637 106.5754 12.37956
-0.5040876 100.8254 12.44107
3.647314 107.2864 15.49376
2.000318 111.1152 14.39776
4.557649 107.2568 15.86171
4.112459 111.6252 15.4697
-3.723274 145.4733 7.806001
2.766941 76.21407 15.62644
-1.033375 129.7082 13.74235
-1.137269 131.5808 13.87182
0.6909099 128.2469 13.74124
2.415479 129.9212 13.75608
3.094531 128.7567 13.75998
2.842233 70.91197 15.85706
15.67241 79.22744 11.32726
5.099286 79.65698 17.43469
4.602786 79.27714 17.21879
0.7127317 77.21288 12.83934
3.416671 81.83822 16.20972
0.9006933 78.37663 13.10305
1.076473 76.8671 13.31162
1.836689 76.96253 14.37165
5.485657 80.63283 17.53316
-2.925324 88.93469 11.345
-0.9629816 79.76735 11.5151
-3.478907 77.56805 10.80801
-2.007386 86.56944 11.37529
-5.125326 88.74934 12.17423
-5.197754 85.24635 11.99429
-5.704511 89.0209 12.67939
-6.50623 90.04181 13.52273
-2.160142 95.31169 11.63941
-8.476228 88.88297 15.50944
5.947676 98.67282 16.59204
0.7016558 94.45567 13.22867
0.4645885 91.08834 12.90886
0.5754141 106.0091 13.28158
0.8854265 108.6052 13.59158
1.456471 108.7025 14.02208
-3.80339 111.5756 12.75708
-1.654472 113.9101 12.70252
-1.603951 95.75054 11.77913
-5.016295 97.66517 12.60287
-5.891609 90.78408 12.92002
-5.471493 93.76135 12.7573
-1.688623 92.67726 11.62114
-3.629679 91.46724 11.53654
-4.150383 93.94916 11.88656
-4.366911 99.34349 12.31202
-5.613017 94.68842 12.90217
-6.775165 100.3695 14.14301
-6.713957 96.33321 13.99037
-6.289499 95.30817 13.56236
-8.812932 101.9581 15.47188
-6.644539 97.68503 13.95176
-4.225021 96.33329 12.08839
-7.169458 94.00716 14.36257
-2.604115 89.40321 11.35826
-8.379959 89.58838 15.40965
-8.722829 88.03371 15.66605
-1.048685 93.94146 11.94954
-3.797881 95.27363 11.85208
-9.46954 97.6835 15.84954
-7.45457 92.71734 14.61031
-14.70094 91.51793 13.75533
-13.90066 89.5788 14.95018
-12.12519 88.93147 16.23273
-14.35011 92.89859 14.0024
-13.46503 89.55409 15.33718
-13.94304 90.26167 14.82822
-13.68731 95.16064 14.3823
5.848651 133.5866 13.86436
-11.55533 102.9202 15.20666
-14.69005 101.4975 12.03104
-13.13994 100.279 14.29455
-14.79559 102.9951 11.58664
-14.938 98.05198 12.27835
-13.71899 98.50346 13.89426
-12.75447 98.9287 14.83053
-13.43255 100.4234 13.97527
-11.93641 95.86604 15.7698
-11.19617 91.43394 16.27868
-14.1323 93.81887 14.13556
-14.5149 90.14571 14.20145
6.519938 128.6336 13.70829
4.141087 130.8862 13.79748
9.65589 129.2564 13.16001
8.995088 134.574 13.47981
9.053807 132.4392 13.75868
-18.9405 78.39491 8.529082
24.0603 58.55951 0.3964202
23.97463 59.58513 0.3583676
23.02217 65.53606 1.393294
24.32557 59.18187 -0.3231144
-11.07148 149.9067 -9.700339
-24.09452 60.12482 1.766297
8.601065 148.3994 -11.32293
19.60576 89.79414 1.029428
14.22604 116.1834 -1.08713
4.740266 58.07965 -10.68634
-5.711931 58.47532 -10.04206
7.250978 146.7655 -12.25004
19.33016 59.17157 -8.665247
10.23298 152.4508 -7.443091
16.01287 107.1619 1.547802
11.45923 149.5878 -9.820819
14.6685 119.0523 0.9813138
14.15326 115.1722 1.918064
-10.61677 152.114 -7.004637
23.37332 64.26003 0.7879222
-6.106142 64.91634 -10.50586
9.848443 151.7222 -7.770961
-14.76077 133.2422 1.657358
5.496434 150.101 -10.80501
6.829599 150.9843 -9.927609
22.30029 59.07888 -7.215585
9.213602 152.6773 -6.741144
7.927741 150.597 -10.18353
-18.9106 93.16429 0.0983229
13.58167 131.7552 -5.807493
22.73477 68.7208 1.127445
10.64986 113.9717 -5.167859
-14.98313 114.4199 1.783713
-15.51361 116.1991 1.195332
-17.26933 103.535 3.087147
-14.89757 110.8433 1.965983
-23.18362 64.67357 2.630225
23.42064 66.32074 -0.2132307
14.71201 141.8934 -10.54931
-22.76178 63.27162 4.09798
-19.11331 92.66875 1.713353
3.932821 142.461 -12.48409
-20.38946 83.85869 3.18336
-19.60471 88.46457 3.652853
21.1036 59.15925 -7.940786
-15.16793 135.7924 -2.338969
9.00318 153.6738 -7.161912
-5.415071 150.3308 -10.59177
-7.603464 152.003 -8.401586
-8.196905 150.3802 -9.723256
15.20614 143.8064 -10.60548
21.54833 69.42388 -6.128717
-13.91641 128.2326 1.532947
14.08819 113.7033 1.823147
-9.901884 152.1503 -6.861327
-22.98782 58.40946 4.619863
-18.2956 98.54719 2.915601
-20.75732 80.65209 3.37798
-24.28437 59.49636 1.462712
-14.22912 126.4266 0.2335382
-10.78815 143.851 -11.87089
-13.287 146.5081 -10.79359
23.53103 62.6508 0.783062
24.05939 63.63633 -1.434132
24.47235 60.09455 -4.410714
22.19784 59.73697 -7.209721
22.52258 70.07182 -4.121435
22.61942 68.96599 1.470423
14.61823 62.81739 -9.960893
-19.09921 92.76279 2.331617
16.81894 103.5498 0.4165082
20.07325 86.48791 -0.7973838
-13.65385 126.6297 1.888589
14.13865 112.5924 1.248707
13.16628 147.4786 -10.56518
4.709835 146.8557 -12.35713
13.92611 140.4672 -10.61741
11.43958 147.7329 -10.73878
-22.32293 64.72847 -4.477341
-22.02982 74.895 1.013611
-19.42989 60.32021 -6.567002
-21.62118 71.76338 4.36399
-22.38627 67.8174 3.682153
-14.56188 135.7997 -7.676239
-11.7811 148.9256 -10.15333
-3.613941 148.9303 -11.8294
-10.26755 151.3498 -8.892173
-10.09451 148.4552 -10.69149
-11.58488 148.0752 -10.54711
23.83422 63.70977 -0.5033583
24.40895 61.81264 -1.83571
21.28502 79.4175 1.259844
23.27975 67.37763 -0.280031
22.9678 70.04488 -1.163101
16.65813 60.07589 -9.414643
8.006948 59.89171 -10.68308
-18.43113 94.79246 -0.7815179
-17.44915 100.5984 0.8907012
17.21918 99.86661 -1.334676
-15.36095 119.7173 2.754145
-12.91113 123.8041 1.126514
14.71465 131.1141 -0.4476329
12.81819 123.5074 1.083111
9.862725 150.8034 -9.323519
2.246835 148.7443 -11.17931
14.68447 140.4789 -10.18818
9.647219 148.399 -11.35018
9.863371 147.7204 -11.67212
9.502257 145.3715 -11.89651
11.80327 143.1595 -11.65383
7.882856 145.3593 -12.40272
8.598894 143.625 -12.55665
-14.08711 60.28104 -8.449816
-11.53403 59.2496 -9.035551
-21.79816 75.49481 2.001387
-24.30193 60.94591 -1.680664
-22.85634 65.14279 3.344721
-15.16285 138.851 -9.061017
-2.803847 146.4895 -11.83965
-10.77928 147.1094 -11.19298
-5.716792 149.6676 -11.10842
-5.844501 146.6576 -12.4205
-8.1306 146.7683 -11.93746
-8.902757 149.2374 -10.93729
24.07383 62.0191 -4.348774
22.74752 61.99962 -6.410283
21.76494 75.73344 1.541161
21.3591 78.57143 -1.864279
22.68523 70.43212 -3.319959
22.30399 69.45087 -4.894934
23.54199 65.47135 -3.904576
21.18665 70.79395 -6.251035
21.79763 66.45219 -6.522816
22.29022 66.9542 -5.768158
20.3516 66.96834 -7.687878
22.62873 71.45624 -2.481837
18.04033 61.88168 -9.048747
12.67105 60.90399 -10.23565
7.29942 59.21922 -10.68669
4.802968 60.06234 -10.81582
0.01538498 59.36481 -10.67486
-19.68085 89.30343 1.520697
-20.39516 84.82171 2.165165
17.62857 102.2008 1.440451
18.69973 95.50029 1.379213
19.41373 90.62259 0.2864571
20.34105 85.53489 0.4665335
-14.97951 115.3498 2.14483
-14.14015 124.2492 2.875962
-13.82339 127.7111 1.54217
14.93797 130.4661 -0.07300099
14.02833 121.5488 1.460186
14.69549 116.19 1.038933
14.55706 110.1385 0.9009969
3.774436 147.4293 -12.52075
2.40773 146.1787 -12.49456
6.347677 146.7894 -12.34687
5.07107 142.9152 -12.65801
4.113309 143.5558 -12.35524
13.44311 137.181 -9.83021
14.71923 133.7664 -3.779164
8.906682 147.883 -11.48309
-12.12338 59.599 -8.916997
-6.675213 59.75454 -10.01337
-3.736641 58.18942 -10.26738
-21.4788 75.52867 3.352943
-22.45398 72.75191 -0.234286
-15.55302 138.0549 -6.451579
-1.38863 147.013 -12.4134
-2.757725 149.0424 -11.43577
-3.697192 146.8812 -12.2515
-4.66502 148.6128 -11.49003
-10.78555 146.6252 -11.3854
20.83939 82.12839 -0.659986
20.37784 82.18255 -3.149752
19.67885 87.76418 -1.774598
18.09438 87.60757 -5.628544
18.99965 87.74563 -3.821952
17.18062 88.55241 -6.769405
21.6082 77.71397 -0.6833882
24.13522 63.33241 -1.604576
21.20561 70.54947 -6.29259
19.48966 60.17272 -8.593524
12.30754 58.99715 -10.18135
6.18598 60.53683 -10.81618
5.337511 61.57526 -10.90239
6.513268 63.48989 -10.97515
9.2811 62.93589 -10.75975
10.55986 64.88914 -10.72851
0.6766379 62.63057 -10.92578
3.384271 59.18682 -10.7609
-19.97404 87.17954 2.812099
-17.80273 99.19271 0.7904978
17.1093 102.9001 0.5343705
14.67334 109.5118 0.668569
14.43714 110.4227 0.6744162
19.24586 88.7347 -2.729815
19.01182 93.37862 1.27487
-15.07516 119.581 1.431264
-15.33076 115.6009 1.405977
-15.4645 109.1313 3.126742
-14.44474 124.5002 3.181924
-13.48387 125.9001 1.725667
-14.05179 128.892 1.891167
13.88264 127.683 1.350865
14.03621 130.9651 -2.541631
14.70325 133.5697 -2.241969
14.45319 132.5882 -2.47179
12.43417 131.1696 -7.171144
14.80496 134.0235 -2.008403
15.19967 135.9347 -2.437252
13.31797 120.6223 0.6502476
12.97206 124.0095 1.186446
12.98828 123.3594 -0.4987921
14.06791 113.2468 1.908498
14.69259 110.3788 1.656981
5.424703 147.7068 -11.70292
10.32531 141.8667 -12.1468
15.05115 138.7054 -8.978866
-8.652855 60.37057 -9.73148
2.198152 62.23712 -10.94489
-20.32945 60.685 -6.16139
-14.81781 133.9781 0.8170516
-15.11577 135.3022 -4.040994
21.03536 80.32172 -1.787169
19.53867 84.11504 -4.264274
20.19157 83.938 -2.574383
23.93173 64.17661 -3.354873
14.2042 61.6352 -10.00428
13.5414 64.67553 -10.24696
8.755479 64.20765 -10.87203
2.666769 61.67011 -10.91868
-18.51693 92.76866 -2.156891
-19.80248 88.06247 2.924911
-16.60556 102.4711 -0.1782828
-18.23035 97.83086 1.195668
-18.36347 97.79198 1.962547
-20.36016 83.30444 3.631432
-15.95081 106.5208 1.958336
18.8506 91.33961 -2.222427
-13.89131 115.7261 -1.083056
-15.2562 109.112 2.154396
-13.38919 122.4944 1.704955
-12.96071 134.6389 -8.907463
14.64539 132.454 -0.06504228
12.30009 120.881 -0.2035438
14.83302 126.8879 -1.36282
13.55614 117.4216 -0.7094449
14.4571 109.5885 -0.3823847
14.72248 106.647 -3.088894
5.705616 143.1493 -12.94352
-19.37293 61.49716 -6.610142
-11.72983 62.26926 -9.242583
1.012676 61.02555 -10.83095
-3.012711 64.58533 -10.82664
1.255943 63.52982 -11.00552
-2.344547 60.91372 -10.61818
-20.77455 81.60273 2.746413
-21.9494 75.58243 0.6815451
2.310939 65.37463 -11.14521
3.29604 62.36878 -10.96648
-19.99296 87.70363 1.668443
-20.51669 84.42945 1.074946
16.31251 102.673 -1.324315
16.61753 100.4579 -2.206061
15.55725 105.8104 -0.6561868
-14.5598 118.2594 0.3533521
-15.36543 111.2547 -0.1165801
-15.26634 108.5464 1.373458
-13.94305 120.6574 1.35794
13.93451 123.1977 -3.357972
13.74981 112.3261 -3.183705
14.09307 111.4244 -3.362652
14.70797 112.3809 -2.129091
14.83096 105.9238 -3.807441
16.12893 102.3477 -2.01386
3.015515 139.5633 -12.77768
-14.05422 60.6991 -8.491108
2.459965 67.44238 -11.27215
3.188406 67.01495 -11.25682
-21.17575 79.87046 1.744147
19.07485 71.63182 -8.063445
-17.5885 94.52159 -3.709703
-20.83837 81.76527 -1.168393
18.04942 97.30399 -0.6409006
-14.64015 118.0175 0.2584058
-15.28986 108.3898 0.7402977
-15.57906 108.6379 -2.181007
14.9172 103.9626 -4.457966
13.45911 105.7676 -6.322224
6.332579 138.8684 -12.76484
-14.18174 68.0397 -8.958065
-6.902999 61.81483 -10.1447
7.138731 64.49525 -11.00433
-20.92189 78.34095 -3.071621
-22.12859 74.08793 -1.525141
-17.52832 90.32004 -5.759582
16.63475 98.1375 -3.702311
-14.91591 114.1687 -1.409833
-13.46847 112.4872 -2.749303
-15.60037 109.1921 -1.846742
11.15254 112.6239 -3.903355
13.60378 109.4325 -4.575274
-6.113749 62.57115 -10.31784
-20.61675 82.91212 -1.289395
-21.87316 76.07993 -0.7724674
-22.25424 73.4259 -1.4583
-12.83239 115.0139 -1.76112
-11.58468 117.3216 -2.400676
13.74872 132.5763 -6.26601
15.09348 102.1798 -4.707688
14.60425 109.6537 -3.697396
-10.53586 63.18988 -9.598574
-20.1624 86.20901 -0.4197548
-17.974 90.02287 -5.051735
-19.66753 89.30179 0.1216887
-19.96281 87.43266 -0.5012959
-20.59443 77.77175 -4.012655
11.23973 66.48969 -10.72221
14.1623 64.07102 -10.09963
14.56812 105.0877 -5.575839
-12.69853 63.14106 -9.061707
-9.810112 62.67422 -9.708232
-20.32421 83.59492 -2.044074
-21.29026 79.03548 -1.36377
-21.74155 76.99532 -0.5354803
-22.78963 70.63187 -0.3358732
-10.83118 71.01478 -10.13702
-19.54355 88.30836 -1.965655
-20.7991 78.42773 -3.323305
-22.78258 70.26568 -1.384531
-22.42627 70.65835 2.357092
-22.61536 69.25446 -2.702666
-21.81177 69.6543 -4.18578
-23.06464 68.59521 -1.432177
-22.46732 64.81541 -4.287759
-7.691086 63.81285 -10.1861
-23.73475 64.48782 -1.213051
-14.17081 65.04067 -8.769303
-20.95614 74.25587 -4.38581
-4.987287 61.32484 -10.36689
-22.01263 72.55587 -2.839338
-5.387397 64.65519 -10.57462
-4.258987 62.30766 -10.53194
-23.79313 61.28385 2.193714
-24.07151 63.1298 -0.3260272
-12.09956 141.6893 -11.55838
-9.796156 143.6119 -12.13555
-14.97262 138.8966 -9.251328
-9.33741 143.4082 -12.59738
-10.27332 145.9887 -11.89033
-14.5215 136.8175 -8.562743
-12.02701 137.074 -10.72652
-10.22585 142.383 -12.14617
-11.74181 134.8722 -9.936748
-14.22435 134.9958 -7.621069
-9.472967 137.5885 -12.04045
-10.79255 133.1374 -9.6494
-10.40403 135.6222 -10.96472
-12.14456 134.03 -9.233054
-15.12959 136.8311 -7.275598
-8.610134 135.4298 -11.53712
-8.979451 118.6401 -4.009109
-4.297903 134.0954 -11.66917
-6.501524 135.6465 -11.9957
-11.44353 133.7267 -9.560588
21.72423 64.50517 -6.947554
18.6503 62.0753 -8.850108
18.76544 62.37484 -8.805878
-0.1599256 145.6396 -11.9305
0.5384914 144.3095 -12.9112
-0.3902333 144.5644 -11.729
4.501399 141.3287 -12.62597
-1.116719 142.387 -11.74222
-0.2789993 142.9353 -12.08403
10.99788 143.3105 -11.87556
13.40003 136.6946 -9.660664
10.16233 139.5976 -12.13323
14.20078 137.1895 -9.173973
12.05728 137.6801 -10.92667
-22.39006 61.99672 -4.792675
-2.43981 145.2024 -12.89159
-4.551911 144.412 -12.55733
-5.902734 138.5534 -12.87568
13.97303 69.49699 -10.30074
17.27755 66.66982 -9.28219
19.19357 72.28237 -7.909065
15.73602 63.96424 -9.725214
16.92749 68.55662 -9.373879
16.68608 63.23466 -9.452893
22.06411 74.00573 -2.95994
21.55387 75.08009 -3.99283
20.93509 76.93813 -4.556311
19.0622 89.80562 -2.686399
-12.79707 123.4901 0.8331144
-14.09139 125.1601 -0.08451945
-13.49878 122.5566 -0.8152838
-12.31909 121.3804 -0.145325
-13.23026 119.891 -3.642504
-13.38501 123.8561 -1.940505
-15.62838 105.8011 -2.302577
-12.17207 118.1623 -5.287455
-12.35802 121.7642 -2.757146
-11.37628 118.4368 -5.343238
-9.311017 117.0962 -4.795996
-7.394746 115.4442 -5.332192
-9.041527 117.3714 -4.148867
-9.193017 119.3688 -3.800179
14.20918 127.2975 -1.496349
10.76316 141.1534 -12.01878
7.942444 136.5272 -12.08748
7.577095 138.5133 -12.66979
2.768066 131.7934 -10.88307
5.804136 137.4128 -12.54696
18.51186 82.28664 -6.697944
18.4177 79.8888 -7.385446
19.00401 82.7631 -5.839845
18.57308 85.54633 -5.553996
17.81967 94.74265 -2.989855
16.01009 97.24893 -5.524108
-15.58688 106.034 -1.791235
-12.86262 112.9038 -2.737936
-12.50578 108.5332 -4.980883
-15.59489 106.1532 -4.149564
-14.75161 128.5714 -0.9886026
-13.50463 125.5524 -1.513508
13.30967 119.6226 0.2479265
12.39714 115.8503 -1.947808
12.15661 118.296 -5.985744
12.70479 123.8348 -2.722619
11.20999 116.3223 -2.665728
14.14222 125.1689 -2.401281
13.17727 121.7772 -4.626486
14.40346 124.7938 -1.997291
13.03614 123.6341 -3.676986
13.98446 110.3897 -3.904866
-16.05495 66.78133 -8.18501
-14.77346 64.38474 -8.531818
-16.196 65.93504 -8.09464
-17.48809 64.35328 -7.507289
-16.72699 67.57821 -7.923696
-13.61857 70.65916 -9.30303
-14.33454 71.3808 -9.075597
-14.03555 70.90787 -9.169945
-9.255743 66.77121 -10.15216
-12.15943 68.92815 -9.64574
-10.51981 66.32458 -9.856195
-11.84591 67.30331 -9.612855
-9.842736 68.00214 -10.13812
-18.79223 91.3446 -2.425684
-17.99447 92.60423 -3.92318
11.79297 126.6758 -4.600977
12.56239 128.0409 -4.251774
10.76436 124.1521 -4.204107
12.07587 127.5402 -4.814274
9.704009 129.2503 -8.286189
10.20126 126.9141 -6.839476
7.056829 127.8385 -8.744143
9.615219 132.5639 -9.994205
14.30395 135.7986 -8.166395
8.086896 66.38341 -11.04595
-19.8439 83.72287 -3.369337
-18.7723 81.83051 -5.73832
-20.32481 81.03063 -3.372713
-19.78035 78.76173 -5.050176
-19.36226 73.99992 -6.196623
-0.5809997 64.40416 -10.98436
-0.9538707 64.81534 -10.99059
-0.4981714 66.53117 -11.12606
0.1850026 66.95882 -11.18403
2.240437 72.07661 -11.54127
1.665894 70.07917 -11.41637
-22.28105 65.61452 -4.355306
-20.10912 66.90231 -6.145264
-21.03335 63.73155 -5.698745
-20.57017 67.031 -5.800969
-20.53933 67.96702 -5.759853
-21.45312 61.96532 -5.519249
-19.61167 64.49258 -6.484907
-21.37946 65.13638 -5.33056
-8.954959 143.4575 -12.92955
-8.673381 139.5203 -12.53911
-13.90931 133.3134 -6.606535
-3.546469 126.8663 -8.823723
-21.47383 60.13092 -5.591053
-12.05092 130.8062 -7.303094
-7.067078 142.8345 -12.603
-4.964512 140.5774 -13.06941
-9.084665 141.6808 -12.67692
15.91081 65.47768 -9.713364
14.20418 67.82852 -10.20859
13.28542 72.56762 -10.53689
14.95383 70.29857 -10.04471
13.67028 70.65178 -10.39812
12.27637 70.99367 -10.71665
13.27323 75.33818 -10.5816
7.07337 70.54053 -11.35351
14.50336 70.66212 -10.18553
18.97014 76.01838 -7.559054
7.752247 74.52129 -11.52356
20.98352 79.19792 -3.15128
19.90535 79.94147 -5.32272
-7.443483 115.2042 -5.82245
-13.34719 127.1238 -2.138203
-8.569546 116.9695 -4.205392
-6.538985 116.3091 -4.893742
-6.709557 113.6636 -8.130802
-6.19248 114.6395 -5.621462
-4.531721 115.863 -5.529881
5.202477 137.626 -12.72884
14.51961 80.75275 -10.06375
17.94648 93.77499 -3.259677
16.39457 94.356 -6.267617
17.77254 91.48445 -4.983442
17.11122 93.37458 -5.420423
15.96033 96.6915 -5.91783
12.91016 102.2107 -8.025998
15.29198 99.51221 -5.827582
14.0341 93.18163 -9.456875
14.76726 97.34739 -7.677719
13.95827 100.4558 -7.840278
15.53726 93.22089 -7.84598
15.73829 92.11855 -7.868085
-15.54111 106.3237 -1.397365
-15.98003 104.628 -0.3150323
-14.64701 128.7156 -1.143945
-9.964125 122.2794 -4.165079
11.2021 115.602 -5.297554
11.08271 114.986 -2.987307
11.39821 117.2973 -3.087621
9.72981 116.6237 -8.003768
8.417157 117.9164 -4.582944
10.69278 112.1568 -4.595918
10.0922 111.3451 -7.70696
13.29916 122.6678 -4.0439
12.81431 120.1138 -4.190209
11.33472 121.8889 -3.220968
10.35895 122.1456 -3.394145
-11.80509 69.27966 -9.76427
-10.45952 67.74793 -9.984721
-4.384117 68.37538 -10.9697
3.445385 67.2022 -11.26717
7.167163 67.26109 -11.16283
4.588879 67.9599 -11.30212
10.18444 70.67416 -11.05853
8.736218 71.09064 -11.25239
1.177168 70.58344 -11.43423
0.5177257 71.12241 -11.44523
-3.848217 70.86863 -11.19488
-10.42269 75.26874 -10.54831
-0.5019625 74.85999 -11.62548
-3.19055 76.52284 -11.5985
-5.509266 82.08888 -11.76127
1.845997 66.15611 -11.18377
-19.29025 90.84146 -0.3962189
-17.20292 84.15638 -7.131018
6.904396 128.6465 -9.144202
11.94668 134.0315 -9.372741
8.94368 137.4025 -12.13852
11.47236 131.933 -8.583748
6.119854 134.4153 -11.6705
8.562279 132.0187 -10.20328
10.99541 67.40201 -10.79741
-19.31441 87.17323 -3.243721
-18.84137 88.93356 -3.674832
-18.37139 91.77229 -3.451919
-18.6215 80.91056 -6.073502
-11.81129 76.54198 -10.25178
-17.05408 83.04427 -7.386411
-2.754945 63.56546 -10.77394
-23.41751 65.38644 -2.031787
-17.61609 69.73205 -7.539964
-6.18208 140.3703 -12.84725
-9.299177 130.9321 -9.37447
-13.58367 129.656 -2.798898
-13.7131 130.4426 -3.437179
-13.59405 129.2489 -2.288071
-13.91024 131.9178 -5.02926
-12.63805 130.3987 -6.244752
8.958867 70.80322 -11.21321
9.332849 71.95294 -11.23164
12.55272 72.82983 -10.70992
8.527866 71.98814 -11.32054
5.850558 74.15598 -11.60969
12.2298 81.8821 -10.97384
1.129307 74.56409 -11.6567
-1.320503 76.60035 -11.68721
4.01089 77.79453 -11.84173
1.881926 76.45821 -11.76491
15.23451 79.2435 -9.773499
17.11204 76.54652 -8.913026
17.80623 76.90703 -8.407085
17.78465 78.42599 -8.219197
19.44232 79.61517 -6.165391
16.20496 78.37753 -9.308687
17.52354 76.53072 -8.655177
20.47283 75.95162 -5.761306
18.77104 74.53243 -7.9562
20.2583 72.2837 -6.99332
20.57845 74.45329 -6.043939
19.60131 77.05844 -6.64067
13.54705 80.37991 -10.50463
21.84702 74.18153 -3.629356
-10.36334 122.1878 -3.58273
-9.749093 123.5437 -5.355224
-12.75785 126.0791 -2.084929
-7.75199 129.3764 -9.249478
-6.018785 129.6748 -9.830328
-7.757345 117.7169 -4.365711
-16.30472 101.7709 -2.01395
-16.94871 99.59733 -1.603264
-16.88405 102.0539 0.4420088
-13.76934 97.93465 -8.659477
-15.63808 98.52689 -6.499189
-17.78617 97.76155 -0.574609
-15.39001 93.71499 -7.911092
-17.01269 94.879 -4.88632
-14.80506 92.01408 -8.872374
-15.38667 90.93841 -8.415573
-15.39964 95.79218 -7.456015
-15.20987 97.34755 -7.430438
-14.57729 102.1078 -6.755036
-15.47589 101.5336 -6.073336
12.53465 100.8424 -8.760296
13.67573 101.5972 -7.756499
10.29607 93.41782 -11.89589
13.04831 92.70063 -10.34141
11.45776 91.50137 -11.33401
14.32109 90.95898 -9.431031
9.411686 90.27732 -11.9946
7.750364 92.29803 -12.5903
10.81539 90.46533 -11.57991
7.917903 88.52686 -12.156
7.244156 90.29008 -12.37241
6.103824 92.23808 -12.75366
6.972875 91.71002 -12.63543
3.67345 95.61206 -12.76499
4.455248 95.32665 -12.80074
-0.5812733 102.333 -11.41676
-9.823766 116.311 -6.795746
-8.700777 114.6 -8.516875
-14.24591 107.3738 -4.870934
-12.98902 123.23 -2.233191
11.59098 118.4305 -6.617342
9.029349 125.1376 -6.917104
12.43039 120.229 -5.563355
11.73798 118.8371 -6.446819
9.501081 120.6301 -3.753046
-16.06456 72.35574 -8.351612
-15.14444 76.58788 -8.910874
-16.83706 76.30247 -7.917049
-14.54267 75.77148 -9.166352
-12.49006 82.94736 -10.35723
-13.76983 77.48486 -9.582925
-11.13679 74.66167 -10.32186
-12.21583 78.08044 -10.19714
-15.6315 82.58311 -8.595146
-11.79786 79.39072 -10.4126
-10.74419 77.80558 -10.63967
-9.12432 78.22472 -11.05536
-10.48134 78.35914 -10.74997
-11.21148 72.88663 -10.18145
-12.47683 83.6272 -10.389
-9.05945 73.60179 -10.72777
-5.499504 76.90728 -11.46233
-9.6772 80.11307 -11.06031
-8.762896 81.51855 -11.35574
-4.655115 70.79692 -11.11807
-6.868098 70.31854 -10.83041
-4.038009 72.4772 -11.28747
-6.961382 73.76886 -11.07287
-5.373827 73.08772 -11.20802
-7.776584 69.32977 -10.61887
-8.637815 71.51681 -10.64934
-4.103913 80.55769 -11.76296
7.275021 127.7639 -8.672958
5.894609 128.1199 -9.09462
9.29075 134.4952 -10.9625
4.112314 135.8619 -12.06356
-16.13201 91.99655 -7.404006
-16.78523 90.08685 -6.86749
-17.55536 85.77656 -6.490922
-23.88092 64.10913 -0.2011978
-12.30526 126.1223 -3.175473
-11.5448 127.2685 -5.614473
8.682943 74.93112 -11.45925
5.559583 73.34198 -11.57797
8.315056 76.48097 -11.56971
12.63028 75.43781 -10.77287
11.43053 75.1988 -11.0364
9.936478 78.27203 -11.42563
12.16243 79.59505 -10.95865
5.030912 80.25262 -11.93834
8.59652 78.74757 -11.65148
5.741039 76.21407 -11.72163
4.390079 77.54578 -11.8263
4.325067 82.03677 -12.01637
6.149055 84.40678 -12.07799
0.3892172 81.07563 -11.92032
3.856896 80.42573 -11.95475
-0.2160267 82.06538 -11.9362
3.571329 81.5751 -11.99581
4.802316 82.2943 -12.02514
2.197885 83.43233 -12.02775
-2.061002 81.66015 -11.87601
-0.5223711 82.754 -11.94833
-8.766315 82.92269 -11.4483
1.128539 85.74387 -12.0762
-6.567596 83.8382 -11.78537
8.811671 86.87412 -11.98329
-9.436007 79.87157 -11.09809
-7.148674 80.71805 -11.54791
-1.940472 91.46859 -12.73656
-7.392397 81.60115 -11.57531
-1.769132 87.86179 -12.14248
-9.408848 83.41745 -11.35824
17.99683 83.18774 -7.130756
-11.33003 115.6337 -4.222907
-11.04628 113.7448 -3.315735
-10.56155 110.6085 -4.919936
-2.605051 130.5867 -10.37924
17.40707 86.99611 -6.866789
15.25641 91.34951 -8.536735
14.28389 86.39417 -9.894236
14.40235 87.50597 -9.730294
15.81444 84.67307 -8.993013
16.09727 82.6937 -9.001844
-14.41031 103.7557 -6.269279
-9.022013 90.09631 -12.00744
-16.67017 98.92737 -3.034695
-13.28507 93.991 -9.98162
-12.88165 92.77293 -10.44904
9.618802 98.93468 -11.09758
16.0219 90.08987 -7.882746
6.421323 96.47327 -12.68908
8.309664 95.27301 -12.44221
14.21675 95.97882 -8.610035
11.23303 93.41208 -11.44086
13.3165 97.71951 -9.125535
10.46493 96.39204 -11.39505
11.18981 97.12092 -10.77762
4.517755 93.16276 -12.87238
1.024585 98.53139 -11.80617
4.715225 96.7588 -12.63015
8.117704 99.44338 -12.17067
8.970276 98.44047 -11.71349
5.5338 99.6018 -12.22507
5.434344 101.7093 -11.6781
4.69832 101.3603 -11.55045
1.843941 103.0287 -10.80727
-10.3958 112.2493 -5.289541
9.603722 110.158 -7.337524
10.02874 104.1911 -8.496926
10.85404 106.807 -6.784657
9.530627 109.5292 -7.439511
7.50605 124.6014 -7.546528
9.390303 124.5276 -6.320074
7.233289 122.1375 -6.636336
9.101587 120.4757 -3.994435
5.382324 122.8215 -7.64206
5.508539 124.968 -8.282124
6.026272 124.9455 -8.163866
8.717018 118.8577 -4.174764
8.933842 117.3858 -7.102355
9.164997 117.4354 -7.664482
8.311641 117.4618 -4.993396
8.262673 117.0154 -5.971011
6.234495 115.4459 -6.579468
7.298045 119.0918 -5.149953
11.67349 120.3969 -5.439551
-16.17942 75.68851 -8.341353
-20.23089 77.30447 -4.72076
-17.35333 79.75977 -7.391924
-19.49717 77.98613 -5.543091
-18.78119 77.4455 -6.358003
-16.33429 75.00278 -8.251353
-12.62123 92.42099 -10.66099
-14.42127 82.62418 -9.39098
-13.9109 85.35797 -9.700031
-6.652161 75.38981 -11.22565
-3.697695 78.56808 -11.68511
5.072933 135.3105 -11.98625
2.277693 132.8896 -11.27186
3.882272 131.4234 -10.72714
2.570559 130.3284 -10.25382
8.155369 130.0609 -9.451903
-0.7462264 128.6509 -9.506788
3.422686 134.5417 -11.74077
1.792288 129.6825 -9.95745
2.375336 127.8765 -9.200636
0.8644459 132.0425 -10.98641
2.613533 127.256 -8.976355
1.752562 127.1387 -8.915685
1.024523 121.9043 -8.148134
2.049437 123.5219 -8.312858
-0.5117 126.2331 -8.577141
4.26955 123.9846 -8.22922
2.749549 121.6979 -7.885556
2.145353 134.8022 -11.80688
0.6512983 135.6445 -12.10833
0.116873 123.7402 -8.242599
-4.044966 130.6727 -10.40709
-5.631907 134.9455 -11.86838
0.4030038 121.3758 -8.066416
1.245545 120.5197 -7.757846
-2.137265 126.9719 -8.858029
-5.375721 126.753 -8.546585
-1.947588 127.5412 -9.066395
-2.553054 132.5368 -11.16624
-4.131656 132.0377 -10.97073
-5.422352 117.9793 -5.431704
-1.374994 124.9966 -8.244085
-5.755938 128.3807 -9.250797
-3.230956 132.6361 -11.201
-3.175494 136.7575 -12.04953
-5.0679 120.1996 -6.568128
-1.837494 124.0326 -8.090682
-3.417866 125.0485 -8.170355
-2.071041 122.4399 -8.064758
-5.420274 124.4292 -7.899976
-2.431745 136.4896 -11.9822
-2.138415 141.6753 -12.2503
-2.805859 139.0539 -12.19525
-0.3243219 139.5555 -12.11463
-0.03063617 135.5778 -12.15787
-5.80996 119.5251 -5.680196
-2.059289 119.8388 -7.077093
0.8528727 119.0971 -7.091533
-4.153935 120.7311 -7.096359
-0.5755317 138.1429 -12.12283
-0.5109761 116.0471 -6.102741
-1.450001 121.2068 -7.978303
-9.293022 123.7912 -5.97546
-6.513179 122.9818 -7.41343
-7.720835 125.4942 -7.798118
-3.119874 114.3071 -5.879218
0.7119717 115.6584 -5.792521
5.507306 116.2786 -5.476525
-8.018058 125.2261 -7.55084
-10.16187 125.0533 -5.89428
-7.627427 126.9697 -8.19984
0.4761564 114.7747 -5.588324
7.47577 134.2722 -11.40757
-16.85017 83.62836 -7.515446
-11.24476 123.9938 -3.390757
-12.35199 127.7503 -4.717723
-11.27146 130.2138 -7.759562
14.7922 76.60579 -10.05108
10.99823 80.47423 -11.2926
6.287185 83.15091 -12.0311
8.51452 86.38448 -12.00164
5.56036 88.86891 -12.29049
6.131263 87.23705 -12.16504
5.453016 86.61284 -12.149
7.252226 84.079 -12.02492
10.96551 82.74655 -11.35618
5.322213 85.36736 -12.11389
-10.51614 112.9021 -4.707825
-13.43262 106.786 -5.473631
17.16417 91.68932 -5.976067
16.15228 88.25389 -8.086052
12.1456 84.70941 -11.00617
14.69669 85.02392 -9.734388
12.02772 85.06893 -11.05555
8.938215 87.39095 -11.9855
9.67295 85.35941 -11.73855
-12.3272 103.2577 -7.578792
-10.58746 90.43867 -11.60462
13.32188 102.736 -7.582541
2.224512 93.49543 -12.96422
3.055253 94.22344 -12.92815
8.715153 102.2217 -10.35883
11.33092 100.6262 -9.487512
11.00308 98.56717 -10.45101
7.958328 102.2053 -11.84549
10.12019 106.6304 -7.238523
8.46897 103.8783 -11.0225
6.607648 104.5488 -11.26911
7.609503 103.6628 -11.68582
7.879975 105.4783 -11.14021
8.701543 108.8426 -10.2655
3.37871 97.57977 -12.34133
1.008578 97.72117 -12.05362
-0.8336757 97.88303 -11.94628
-2.319426 100.0876 -11.84735
3.791701 103.0911 -10.79587
-3.777518 101.6712 -12.38031
-11.10929 114.946 -6.133456
-0.2291886 110.9531 -11.14782
-7.190081 111.632 -10.54454
9.982928 122.8856 -4.596651
8.361865 120.8165 -4.93554
-9.545124 85.57302 -11.46833
-8.873759 86.83241 -11.69103
-11.01118 85.66616 -11.05706
-9.360906 88.26175 -11.72101
-13.20695 84.98733 -10.08925
1.174967 141.6757 -12.80381
3.187763 138.4248 -12.47389
-0.2753782 133.4736 -11.49175
4.034921 115.8049 -5.592574
7.147264 133.0419 -11.05327
0.1704861 86.61453 -12.09776
-3.897157 87.66776 -12.07204
-2.768696 89.12463 -12.27317
-1.879924 83.14012 -11.92784
-6.095532 84.58213 -11.84499
-6.904994 86.45451 -11.88912
-5.184591 88.6932 -12.1418
-6.23865 89.25017 -12.18659
-4.556578 92.86241 -12.88277
-1.981801 88.7003 -12.235
-0.5485332 90.55573 -12.55808
1.396752 89.81207 -12.42431
2.745921 89.83022 -12.43172
-0.4965468 85.55016 -12.03155
-9.200914 114.222 -8.519314
-10.53618 113.2307 -4.943342
-10.20368 111.2825 -5.62003
-13.12032 105.2976 -6.260914
-7.9543 107.0739 -10.50005
-11.40468 105.4594 -7.024037
-11.9648 106.759 -6.070687
12.28928 85.72243 -10.95289
-11.03946 102.9487 -8.522799
-9.024963 103.9269 -9.544832
-8.953359 105.139 -9.065539
-9.809384 104.6205 -8.471527
-7.61485 103.4168 -12.22293
-8.655322 101.5386 -11.3588
-5.510123 102.1599 -12.80163
-9.301375 109.5613 -8.297068
-5.652423 103.6476 -12.79858
-7.084783 110.1378 -11.18126
-5.563561 100.7936 -12.74931
-13.04555 98.76255 -8.912475
1.854634 106.86 -11.10739
-4.915395 106.4497 -12.59673
-5.30059 104.8342 -12.7389
