# .PCD v0.7 - Point Cloud Data file format
VERSION 0.7
FIELDS x y z
SIZE 4 4 4
TYPE F F F
COUNT 1 1 1
WIDTH 1676
HEIGHT 1
VIEWPOINT 0 0 0 1 0 0 0
POINTS 1676
DATA ascii
-9.251336 145.7825 -4.0138
-14.6281 67.65721 5.757023
-11.42613 127.3261 4.828816
-14.78236 74.42333 4.650302
-15.47212 144.8676 1.854002
-14.98584 78.55971 5.409597
-13.16442 145.0597 2.795817
-14.29132 145.7755 0.3338272
-15.36165 83.81387 3.597849
-17.76939 143.9701 1.498847
-13.31081 145.6535 1.508812
-16.5479 145.2225 -0.7083303
-15.41087 87.57329 3.669882
-12.34144 108.6031 5.350352
-16.39097 145.2585 -1.1543
-10.31464 115.7925 6.179421
-13.86526 98.69554 4.972523
-13.38678 101.8582 2.801558
-15.93382 145.3566 -1.42214
-7.817108 105.609 11.44658
-13.12635 131.6776 2.409065
-13.21043 131.7593 2.187119
-10.22264 143.3376 5.051484
-11.83124 145.8348 1.111962
-18.16512 144.7498 -0.4582572
-16.68991 144.1028 2.077857
-14.3877 63.58161 5.335524
-11.0362 129.0229 6.649219
-11.78982 127.0307 3.681687
-13.98505 145.4299 1.623488
-15.74871 144.8285 1.723042
-17.62183 141.0627 3.512516
0.02938856 74.1021 12.27143
-11.14324 121.7614 4.712776
-1.862735 87.7702 11.84062
-11.71694 145.8758 0.4747749
-9.245091 140.7752 6.964826
-1.045982 66.89625 11.72006
-4.463955 65.22922 11.63341
-14.61849 66.45978 5.730716
-12.37715 64.63763 10.28418
-2.321646 72.03072 12.1653
-14.58692 68.58134 5.595739
-0.1988275 79.75625 12.46414
-10.98328 64.98565 11.16958
-3.837151 92.06615 10.9969
-1.95855 71.27831 12.08067
-14.23456 64.16528 7.869265
-1.662331 94.68697 11.32148
-0.6017219 99.89045 12.27455
-14.63717 64.38991 6.933964
-1.647093 104.1234 13.06208
-14.35476 64.25864 5.236778
-8.999282 116.2102 8.671414
-4.980011 105.7395 12.5509
-3.163959 119.552 12.87926
-0.9247141 105.2665 13.21642
-13.98753 73.92037 8.426296
-12.39645 108.745 4.540643
-6.76868 135.8472 10.53866
-7.180775 138.6861 8.874452
-5.456358 86.14966 11.93292
-14.78052 81.96185 7.28676
-1.671595 86.1097 11.84781
-11.0394 114.7827 4.021527
-3.980364 126.4822 13.07504
-16.73476 140.1717 4.199227
-1.795062 131.1399 12.75632
-16.13614 141.3793 4.309495
-14.74474 144.8723 2.449739
-4.69808 133.7538 12.06485
-7.29451 133.574 11.6244
-13.76759 143.7842 3.864463
-1.530557 127.4589 13.18201
-6.213899 101.6897 11.77985
-5.8016 125.8463 12.60952
-15.81016 143.2235 3.415421
-14.16223 65.99501 7.657212
-14.58276 72.47968 5.727913
-3.312282 81.27798 12.30304
-15.01503 91.66751 6.198898
-14.3593 79.71947 8.198304
-11.51476 112.0614 3.387432
-3.917892 110.1707 12.66829
-15.17366 91.62954 2.5661
-2.677274 89.65414 11.54785
-2.095863 91.91354 11.0221
-10.5726 112.4571 7.166081
-0.6116886 111.5983 12.93239
-2.865177 98.67284 11.78542
-3.007915 65.5277 11.48795
-2.341116 66.56345 11.70013
-3.289439 67.84492 11.72765
-0.77709 73.14251 12.24301
-15.71995 137.9013 5.077562
-14.32199 135.1524 5.187574
-11.80826 125.1529 2.880574
-1.696957 127.1338 13.20767
-3.290291 126.3578 13.16156
-14.41206 65.19139 7.075126
-13.69085 71.57612 8.740352
-14.70489 73.17997 5.275399
-2.852579 74.99925 12.29991
-14.68842 72.67072 4.713511
-14.21223 74.0433 7.939269
-8.284632 68.83152 11.74268
-2.479488 81.86657 12.37971
-0.487916 88.74915 11.80255
-15.385 85.58916 3.957777
-15.10062 88.24669 6.486653
-15.41229 87.76282 4.162155
-15.32546 83.71883 4.422556
-15.23026 83.64362 5.700008
-15.25129 82.58019 4.929522
-10.86498 117.3131 4.78425
-1.009618 115.1279 12.85061
-0.5465021 110.8346 12.97571
-1.317526 112.5793 12.8733
-1.535531 118.6557 13.09403
-0.2990527 122.706 13.42928
-15.3309 90.26373 3.032234
-14.32221 96.5626 4.707534
-1.805685 90.41487 11.26232
-2.958523 88.71951 11.79318
-2.191381 96.39036 11.48005
-2.390539 95.88127 11.3991
-12.34325 109.1656 3.707473
-11.42978 112.013 4.685554
-3.759311 100.57 12.06241
-13.43071 100.872 4.780274
-12.7213 102.3121 6.589133
-0.982847 102.6581 12.85029
-13.01434 104.5824 4.325664
-0.4464011 67.95725 11.73498
-3.208304 71.67303 12.1226
-16.28723 137.4191 3.986723
-14.00468 134.1541 4.018294
-13.35101 133.215 4.161271
-11.27056 121.2459 3.666884
-3.14922 123.1483 13.43439
-0.8580469 125.753 13.36372
-14.33342 73.2851 7.403479
-12.96081 67.41369 9.574509
-1.002974 75.68998 12.35773
-6.737974 73.68732 12.22957
-14.62547 71.93159 4.9381
-14.38081 74.94316 7.503925
-1.233348 82.82918 12.57591
-2.854724 89.32093 11.67724
-3.51734 84.03396 12.46783
-15.30192 91.2678 3.985153
-15.00159 78.99792 5.673267
-11.12009 113.0612 4.812711
-10.2833 117.4488 6.39394
-11.73496 111.2149 3.543153
-1.736624 118.1722 13.04732
-15.10161 92.81339 3.296963
-14.57091 95.76207 4.005913
-14.20384 97.25747 3.500747
-0.4819943 93.31006 11.21459
-7.510444 98.66608 11.03896
-12.81848 106.8093 3.787635
-11.82718 110.8525 4.081527
-0.5870811 103.4263 13.00955
-1.397383 106.1084 13.24319
-13.93665 97.20711 6.347299
-12.77637 100.8378 7.002871
-12.63111 99.71751 7.786282
-13.77284 97.50608 6.615159
-12.84853 102.2421 6.1818
-14.06658 96.12424 6.6551
-12.774 98.86192 7.886415
-14.05708 93.61172 7.723504
-14.02362 96.59101 6.533321
-13.3983 101.7715 3.041977
-3.551159 100.8646 12.15286
-12.84665 106.7479 3.292325
-1.569355 70.47134 11.98011
-13.6339 136.6254 7.311806
-12.01135 129.9724 4.245132
-12.68739 130.971 2.876065
-11.56589 125.3903 3.969035
-10.87079 119.1675 5.012508
-14.4064 71.21448 6.520904
-12.70969 72.39722 10.15029
-13.41243 70.43425 9.026427
-11.28982 66.8084 10.97289
-2.10331 80.70972 12.26832
-2.884386 73.23028 12.24085
-13.96541 75.53151 8.684537
-7.023856 88.75543 11.68633
-6.497262 87.47157 11.84061
-15.42923 89.0829 3.77463
-4.066504 81.41168 12.33836
-10.8042 113.6097 5.66625
-10.78057 114.9844 4.950907
-5.134077 124.5413 12.99215
-11.15068 119.8113 3.803003
-15.09427 93.02634 4.352779
-14.56427 88.92795 7.671544
-14.86548 91.53117 6.618902
-12.57837 94.03629 9.29197
-13.11963 93.19049 9.012476
-8.505546 91.53645 11.14726
-14.84475 94.47963 3.94599
-14.25131 97.2257 4.488081
-4.741425 97.09256 11.25797
-4.743368 96.22097 11.19026
-12.50553 107.6845 5.340751
-12.42932 104.544 6.904301
-10.78529 112.0365 6.954112
-2.968913 104.777 12.99638
-1.833133 103.309 12.91385
-3.827102 109.1174 12.81274
-2.506142 105.6795 13.13701
-5.334441 106.8326 12.44712
-10.58825 102.5993 9.776865
-10.76104 103.7418 9.596849
-12.47503 105.3799 6.500353
-14.23633 95.81377 6.41589
-2.112485 101.8723 12.60278
-2.842252 68.45515 11.77585
-13.43478 132.8487 3.248715
-11.60981 123.6408 2.981645
-11.22048 122.2187 4.451757
-2.607604 122.76 13.41583
-14.45755 72.58018 6.661226
-13.11298 76.51128 10.01182
-12.07862 74.98387 10.9654
-14.48932 74.48783 7.042563
-13.6253 76.8512 9.330207
-4.309081 80.34688 12.38822
-14.56504 76.19765 6.917873
-13.20019 78.4862 10.08423
-2.69329 90.27343 11.31409
-2.557137 86.48291 11.84151
-9.731132 116.3831 7.824102
-10.25896 118.6563 6.8283
-10.49845 122.7271 7.28757
-3.326562 110.8017 12.75661
-12.06989 92.79324 9.931064
-6.714518 96.06229 10.95666
-10.64713 95.99667 10.13534
-4.386179 95.15114 11.10113
-7.675473 94.22318 10.75049
-5.878159 95.74013 11.04361
-7.001944 97.23384 10.97699
-4.550796 94.30254 11.00781
-8.079374 93.64008 10.85458
-2.419293 92.96566 11.08988
-9.891567 93.0746 10.7734
-11.35498 95.7038 9.863244
-12.07693 106.29 7.277122
-5.384803 109.2617 12.23582
-5.479241 105.5393 12.37396
-9.277037 102.5655 10.72893
-4.476624 106.51 12.74068
-3.350194 103.9223 12.78573
-11.57759 124.1687 3.455057
-9.620435 123.8907 9.207419
-13.47992 75.05454 9.397183
-12.23455 75.10714 10.85981
-12.19181 70.47911 10.47263
-12.81411 68.36749 9.683955
-1.963496 79.42091 12.56689
-4.069503 75.7622 12.36413
-14.46127 81.36354 8.111915
-14.06993 79.74917 8.724736
-6.378599 91.37299 11.1394
-11.42566 90.35102 10.6302
-11.42295 96.90888 9.646111
-11.97706 91.46455 10.21841
-11.73584 88.41694 10.79219
-9.93912 90.20251 11.18806
-7.269879 110.3415 11.12037
-10.0913 101.3069 10.17795
-10.6084 101.5137 9.795452
-12.24317 73.66515 10.74972
-10.02899 74.94204 12.06538
-8.98358 76.07281 12.35832
-13.07199 79.10783 10.22757
-11.19167 73.47479 11.48308
-4.33639 77.08587 12.4808
-3.326501 75.38708 12.3294
-14.65636 81.04754 7.568173
-13.57865 83.52158 9.670785
-15.00358 83.59236 6.688815
-14.39911 83.25989 8.409883
-14.49119 85.70295 8.076425
-11.92647 84.81052 11.1156
-7.756026 88.34916 11.73488
-4.451075 88.65028 11.81765
-9.322982 88.75787 11.52907
-7.974762 97.20191 10.81935
-4.61551 101.8914 12.16657
-11.98867 106.7252 7.353727
-4.506834 76.2262 12.40328
-10.95428 78.76445 11.78032
-11.07917 76.76432 11.75863
-10.24553 77.73385 12.11551
-9.046793 81.24548 12.41489
-8.600618 77.7038 12.47131
-10.31479 70.65456 11.59704
-6.258459 70.43649 11.9476
-9.083792 72.42796 12.10654
-5.39359 71.89134 12.14173
-8.095048 72.21404 12.15262
-7.330815 70.79884 11.98466
-5.399429 74.38537 12.26741
-9.981196 80.12041 12.23762
-14.46324 87.34536 8.038014
-11.52183 87.41303 11.06436
-12.43043 86.59645 10.63669
-8.057165 87.37885 11.85635
-5.231466 89.43729 11.57771
-3.320712 101.2616 12.26384
-5.379364 101.9584 12.02086
-7.296697 104.6131 11.6763
-7.842261 104.4156 11.4516
-9.740734 106.5489 10.31441
-5.252925 76.82455 12.45492
-11.99153 78.13035 11.19062
-11.78175 81.85316 11.34031
-8.6674 69.81833 11.80378
-8.234157 69.48911 11.82213
-7.284916 69.69682 11.85878
-6.827004 67.04645 11.81191
-5.230613 75.09615 12.31201
-4.795259 73.288 12.23511
-3.897654 71.37597 12.08225
-10.90853 82.57309 11.87105
-11.33003 84.0074 11.5596
-12.40376 85.04382 10.74919
-13.35576 85.70557 9.785385
-11.71126 88.19762 10.83952
-9.951372 89.11768 11.38218
-10.55694 86.13416 11.68251
-10.41714 84.22849 11.9586
-10.87133 82.76023 11.89748
-6.496479 83.87739 12.3609
-6.080251 106.1275 12.16776
-5.757411 106.4588 12.29209
-7.181472 102.8663 11.63645
-7.058999 67.12905 11.79699
-3.423459 70.60522 11.98804
-9.654464 84.24201 12.11875
-8.306181 86.28199 12.0025
-5.411187 83.63211 12.44331
-8.721788 83.40477 12.31141
-7.749123 107.4338 11.35798
-6.990121 82.72801 12.4428
-10.10737 82.1762 12.15318
-5.018277 68.2028 11.75039
-3.916897 111.6618 12.47526
-9.065687 109.5092 10.21939
-6.460484 108.7534 11.824
-14.23327 143.8197 3.667706
-15.20508 140.5513 5.273477
-11.09443 141.9579 5.695174
-12.41548 142.5484 4.981194
-14.88987 139.5473 5.859468
-11.64459 139.5006 6.793258
-12.85331 141.4112 5.424445
-12.68759 139.2216 6.948959
-15.66419 137.8817 5.145684
-11.83702 140.2796 6.333493
-12.51001 137.2921 8.059484
-13.2833 137.506 7.515027
-13.80468 133.9453 4.289452
-9.283807 138.4696 8.201135
-10.38733 138.9789 7.556342
-12.68324 135.2807 8.167396
-11.80196 133.6159 8.892776
-9.416405 140.0404 7.29655
-1.773602 129.4093 12.95919
-4.498172 126.8723 12.92322
-5.661242 125.6599 12.6754
-4.903352 125.4474 12.96381
-6.487967 121.3696 12.10916
-4.531418 119.693 12.51999
-6.464128 122.9074 12.36429
-5.354656 123.3638 12.92618
-2.772612 120.2264 13.0816
-4.390139 123.0209 13.21453
-7.580294 124.2932 11.59743
-7.413249 125.0867 11.69744
-7.634591 117.4212 10.24735
-7.676516 130.9787 12.45574
-7.380552 120.4511 11.28839
-6.268499 117.6289 11.23067
-5.743873 116.4593 11.39977
-5.796744 117.3805 11.48244
-8.022144 118.2696 10.12547
-6.435411 114.9698 10.88249
-9.225546 127.365 10.17092
-3.508443 118.2166 12.65886
-4.268081 116.9089 12.22865
-3.198753 119.8545 12.91244
-8.154728 119.9032 10.48142
-10.14603 112.1072 8.123002
-7.893674 116.253 9.89183
-5.908688 109.7701 11.92117
-6.488075 114.3473 10.86403
-14.42141 88.48964 7.997144
-13.67939 134.293 5.538158
-12.33816 132.4319 6.805056
-12.22185 131.9088 6.377334
-12.70062 131.7797 4.419036
-9.78361 129.1912 10.71258
-11.05076 130.2461 8.448677
-11.36392 129.0615 5.659672
-11.42957 128.5167 5.172405
-11.70121 127.2203 3.993999
-11.25718 127.3828 5.30407
-10.29146 126.9737 7.741879
-10.89742 126.0287 6.161141
-9.506262 127.6621 9.754153
-10.64323 123.3067 6.956222
-10.63021 121.3747 6.684963
-9.513875 125.1466 9.257897
-9.720698 125.5427 8.868511
-4.57645 83.01086 12.52467
-5.64214 81.74491 12.39658
-4.728173 81.26898 12.32641
-15.0161 136.2497 5.029466
-12.02813 66.49072 10.5013
-3.409223 113.2326 12.49423
-4.786804 112.5961 12.00427
-4.721354 111.0406 12.26408
-12.63029 105.537 5.896143
-6.074807 100.0701 11.53191
-6.901011 99.4427 11.2559
-7.478237 99.59541 11.15933
-9.832916 100.2826 10.31678
-9.806939 97.39203 10.27676
-14.70597 87.87817 7.488779
-9.355199 95.89434 10.55814
-6.19607 77.11636 12.47052
-5.650209 78.69705 12.57565
-12.85543 87.88501 10.06211
-14.41979 138.3177 6.498549
-9.754224 121.5215 8.745713
-8.747044 119.4004 9.650917
-9.439711 118.3575 8.44237
-9.25566 120.2554 9.23512
-9.262591 119.4211 9.028554
-13.95302 88.46493 8.812493
-14.29627 90.8142 8.023611
-15.38704 90.22964 4.140392
-10.35446 129.2179 9.588732
-11.69485 132.1153 8.382002
-10.12878 134.0241 10.29317
-11.73341 132.298 8.41642
-6.047786 127.4597 12.61588
-9.516426 127.9078 9.834999
-8.928279 127.6263 10.7548
-10.37435 131.6979 10.36636
-9.204268 129.8704 11.57468
-8.577134 127.9872 11.42723
-4.614181 109.8177 12.48848
-9.534083 116.6672 8.162047
-8.258171 128.7207 11.992
-7.094177 128.1231 12.44543
-8.148357 128.1671 11.83483
-8.519775 134.1039 10.92973
-9.564955 110.0098 9.610423
-7.924939 111.2084 10.50598
-9.188998 110.29 9.889687
-10.08682 111.5207 8.445119
-8.87955 114.0048 9.053729
-9.915882 113.643 7.754142
-4.72686 128.6395 12.89357
-7.05564 131.9539 12.39041
-10.06604 131.9795 10.67592
-7.80822 115.2085 9.868629
-5.433119 130.3265 12.88144
-4.652145 130.7361 12.93071
-5.823166 130.7658 12.81704
-2.782327 132.5076 12.53708
-4.468214 134.2844 11.8631
-9.416024 137.5089 8.652175
-8.394719 134.9728 10.46833
-7.839791 134.8782 10.70449
-8.936311 134.9743 10.30667
16.12269 145.0276 -2.976323
14.44717 65.18665 3.247875
15.03157 145.2141 -2.903506
14.37903 80.73586 -0.004472164
6.533535 140.7206 -9.169747
14.65622 74.50201 3.206354
15.33436 84.3883 2.853297
14.89019 82.38838 0.9582052
15.10431 84.73923 1.087269
15.00775 91.54317 1.553587
14.46332 66.77658 3.667292
14.79104 89.1768 -0.370109
13.0042 105.9275 2.928121
12.45275 108.4966 2.242245
14.47281 95.17455 2.41561
0.141885 71.87415 -3.784583
13.79046 96.80709 0.971986
11.80866 110.9702 3.070282
13.1623 131.5003 0.2398563
13.63419 81.18649 -1.679899
1.891581 100.1911 -9.115185
13.84606 137.9202 -7.480097
14.51909 70.31641 3.916435
15.72513 144.8198 -3.736209
14.68485 66.75814 2.805449
16.34732 141.4356 -6.654613
11.35202 122.3585 1.782888
10.70791 64.98112 -2.103914
11.09293 116.1853 1.775431
14.51268 145.0248 -3.679236
12.09432 145.7137 -1.801931
17.0467 142.768 -5.903385
0.5381002 138.8613 -9.729028
10.59405 141.3784 -8.017558
10.58417 145.6593 -3.256149
3.098188 66.89667 -3.420473
13.70244 66.50292 0.5986863
0.3628511 142.3066 -8.732906
13.62904 65.99107 0.2973809
3.232727 107.9446 -5.606695
2.125618 72.38482 -3.836911
3.772146 66.35205 -3.408948
1.987348 85.3677 -7.546717
1.212205 89.75034 -9.699059
1.291612 93.58098 -10.0188
2.724569 89.68641 -9.733297
15.38431 141.0514 -6.970235
14.23896 145.4663 -2.282513
14.63301 134.2723 -2.912808
0.2060241 105.2569 -6.903779
1.83286 107.6815 -5.770172
12.96964 105.6006 1.243284
0.8788139 100.7394 -8.95352
0.5936458 114.8804 -6.420849
3.219716 143.3366 -8.201693
12.25191 128.1754 0.4012421
1.286891 142.9295 -8.315618
3.199349 82.38667 -6.009455
0.5602701 67.43025 -3.37932
6.727814 142.8091 -8.35608
12.0353 64.83984 -1.231383
14.51462 68.5032 3.293446
0.7284817 123.7411 -7.638579
6.787075 108.9343 -4.691426
12.1021 127.5292 0.4979868
0.8708666 135.0827 -9.191345
0.9354903 138.3687 -9.612837
16.75797 140.2745 -6.941844
1.817297 143.4372 -8.119891
0.7906542 137.5673 -9.27964
-0.1082047 75.38181 -4.260851
15.2264 82.19286 3.073665
6.16194 84.01299 -6.542933
6.540736 87.88818 -8.881277
0.402699 91.32895 -9.938668
6.318933 93.26497 -9.846225
12.95623 99.02668 -0.7747215
12.67607 107.3623 1.638911
9.872876 114.169 -1.464489
0.5652126 108.8145 -5.627353
12.33253 128.6216 0.8366215
8.903811 119.541 -2.442401
0.8206594 115.3995 -6.487448
6.214891 66.70277 -3.584392
1.242099 66.4088 -3.588928
6.389888 66.6329 -3.554374
16.26191 140.5388 -6.928571
14.5084 140.4281 -7.325738
15.98585 139.6937 -7.11519
15.20188 135.1219 -3.856758
15.09571 134.8556 -3.218057
2.983664 141.3088 -8.878687
0.4394084 133.3767 -9.215295
14.09033 144.3975 -4.873542
13.99739 67.63708 1.326358
1.180357 74.57971 -4.130461
0.7116952 72.67339 -3.87476
14.1503 75.83496 1.050284
14.79102 76.20594 3.307954
8.195581 65.00532 -3.252842
9.41799 64.94232 -2.830407
15.08956 79.64825 3.53053
1.399477 79.66219 -5.191619
0.3910505 77.65293 -4.704976
2.318916 82.55077 -6.104001
1.501275 84.06276 -6.812366
2.613775 88.94709 -9.476104
15.20357 91.69322 2.698214
15.3963 86.07205 2.973982
14.91656 92.36947 1.757781
2.295557 87.22514 -8.649024
0.7496755 96.60039 -9.78793
13.73813 97.99295 1.589655
12.61248 105.8196 -0.6561145
11.15581 113.4183 1.462077
4.668972 95.64056 -9.913982
3.836189 105.7655 -6.620282
1.69717 111.1517 -5.731971
13.89479 133.1226 -0.4081565
12.35223 128.5803 0.5912189
12.85126 130.659 0.5628713
0.01918373 126.1844 -7.988674
2.552038 123.0931 -7.400648
11.32565 113.2328 2.751066
1.529452 114.8029 -6.309386
0.8967513 112.8141 -6.074579
3.284279 118.4222 -6.364537
7.486499 66.55911 -3.384388
15.74851 137.297 -6.651943
3.334174 141.7529 -8.850163
4.609744 138.6151 -9.419748
4.300547 138.4824 -9.505312
4.003926 136.8393 -9.356004
2.183388 137.3129 -9.344909
1.454544 131.4231 -8.711637
2.575717 132.6873 -9.092545
15.28315 141.5323 -6.80311
14.24378 143.703 -5.703514
13.56728 69.31694 0.8454711
11.98393 70.49511 -1.416686
13.42993 67.60365 0.5821093
0.1441256 76.76746 -4.517
1.819823 73.5517 -3.981622
14.54198 72.71159 3.241825
8.125926 65.68179 -3.248918
15.09118 82.32004 2.009272
15.28355 88.52153 1.696987
13.00766 84.97471 -3.334102
3.06832 79.46434 -5.12332
14.44429 94.03182 1.124729
15.18126 89.88565 1.578188
14.55935 85.60597 -0.8431855
14.78656 91.83515 0.6746
7.34655 87.80364 -8.61311
1.078593 88.22025 -9.144982
0.3007388 94.07694 -9.992455
13.13486 95.97005 -1.441483
13.57861 99.27431 1.900474
13.15862 103.4474 0.8657332
13.06904 105.1285 1.610945
11.85281 107.6638 -1.220355
11.96295 110.3486 2.635795
2.22077 96.0714 -9.85344
0.7985325 99.32661 -9.331669
2.762882 105.9504 -6.544042
3.892404 103.8399 -7.637594
1.293142 108.7634 -5.602421
13.70647 132.9509 0.2715525
12.91725 130.5641 -1.884196
11.46156 124.1509 0.2819016
12.69644 130.3468 1.053717
11.11758 121.055 0.7678987
1.808104 125.3208 -7.766859
11.22279 114.3399 3.150266
0.5748233 119.0013 -7.071932
0.2236874 113.9975 -6.309429
2.146677 67.82725 -3.56747
2.300399 69.99947 -3.586838
2.224787 142.596 -8.468423
4.911338 143.6172 -8.355859
6.01992 141.4205 -9.069494
4.044763 135.3516 -9.08894
5.351257 133.7632 -9.124723
1.745656 138.0569 -9.568032
1.066914 132.7005 -9.078636
0.5429162 127.0323 -8.079515
13.87231 70.06963 1.450527
14.53073 70.90717 3.789831
13.04888 67.81234 -0.03095201
2.257862 73.19775 -3.935444
13.77145 79.76431 -1.12085
14.36798 88.8398 -1.46306
15.13105 87.1933 0.7964998
14.42567 93.27581 0.496837
14.09623 95.7922 1.278057
15.05873 88.94843 0.4987133
13.76543 86.40533 -2.4924
2.618233 88.27729 -9.21111
2.871565 94.67794 -9.979663
4.342274 90.69209 -9.972585
12.96579 97.00911 -1.410713
13.20415 104.0176 2.725719
12.98814 104.7564 0.3133956
12.40108 107.4875 0.2045656
12.20726 107.4003 -0.5826817
11.35436 109.5548 -0.7486024
11.28989 112.9224 1.726381
11.23961 114.0712 2.569772
1.67569 95.70147 -9.885393
1.269778 99.11006 -9.375422
0.8799686 100.3075 -9.079967
2.34775 106.9962 -6.009899
1.744045 104.1299 -7.483813
2.060384 101.6153 -8.668685
4.705332 103.5348 -7.782001
4.045294 111.4853 -5.203642
4.821036 109.724 -4.880923
1.812469 109.5787 -5.552612
13.47065 133.8749 -5.386497
11.3086 121.7883 2.061717
3.144995 126.3341 -7.802075
2.89421 126.2246 -7.807875
7.10946 124.9819 -6.83393
4.269363 125.0657 -7.471033
8.620132 117.2531 -2.265173
4.762733 141.5733 -8.984799
4.296525 144.4514 -8.024292
14.39673 134.9939 -5.577389
2.250582 128.2555 -8.194602
13.79297 76.61811 -0.07247194
11.31719 67.66655 -1.782668
10.03725 68.03075 -2.605094
11.40038 69.38443 -1.830975
14.71143 84.13312 -0.1068111
12.76265 83.84895 -3.435886
12.91215 95.95483 -2.025488
12.50145 97.86211 -2.390727
13.24533 87.65205 -3.286205
12.93904 87.98329 -3.722348
12.61848 86.92233 -4.06347
10.94151 85.52594 -5.577971
11.05414 88.5778 -6.354988
11.6239 90.0593 -5.717106
9.198457 87.30893 -7.465268
12.05504 89.97488 -5.090928
9.466338 84.5174 -6.066998
7.016555 85.45384 -7.352319
10.01663 88.44505 -7.42974
8.580707 86.07559 -7.168864
4.929445 92.49288 -10.08119
8.316683 84.42533 -6.467882
4.335034 94.62998 -9.998961
6.48339 94.15829 -9.739313
13.14974 99.19099 -0.04331727
12.5499 100.5191 -1.813684
13.0939 102.0761 0.2735275
11.43539 108.1086 -1.693634
4.870349 97.71924 -9.602261
4.938646 103.4538 -7.817668
5.915939 101.3778 -8.50037
4.494041 105.6283 -6.649473
13.13005 136.1757 -7.185132
13.15577 131.3866 -2.798837
1.684844 123.0473 -7.480814
5.304247 144.0371 -8.345688
6.682564 142.9924 -8.265622
6.537337 137.1058 -9.292946
1.986756 132.5242 -9.061971
11.03683 73.12271 -2.524529
13.95132 73.63784 0.9970059
12.49575 69.87148 -0.7636237
13.50449 82.62503 -2.192634
12.10119 83.4183 -3.995521
9.990761 83.96001 -5.598421
8.9291 84.89495 -6.481528
12.56335 95.83754 -2.915522
10.96426 83.9071 -4.999524
9.935659 86.00623 -6.428194
4.047196 99.37002 -9.33813
5.52378 95.55148 -9.90104
9.300813 95.77563 -8.087185
6.896233 93.99877 -9.655611
10.99243 113.2654 0.6766757
5.873721 102.4224 -8.05458
5.518843 99.22792 -9.241959
4.7246 107.3022 -5.74142
6.370001 106.2687 -6.030409
7.839777 105.7018 -5.968578
4.366108 110.1714 -4.934253
9.047288 131.359 -8.007677
14.34757 136.2409 -6.62052
6.024512 145.1356 -7.010154
9.369301 139.7602 -8.546514
7.134543 136.3377 -9.134168
13.18838 71.67255 0.007124011
9.173443 71.10603 -3.297025
9.149907 71.83604 -3.375326
10.48766 71.50431 -2.741003
14.19058 78.8185 0.1810377
9.19134 81.16109 -5.148269
7.96229 81.30869 -5.432564
3.959594 81.77698 -5.758975
4.340636 83.39708 -6.358864
3.706932 83.36104 -6.380532
4.862757 84.64306 -7.032448
3.713112 87.14998 -8.617172
6.126811 86.35701 -8.121188
6.745574 86.86434 -8.297483
4.99429 86.24731 -8.080907
11.58581 85.95071 -5.080783
7.920135 90.60712 -9.201486
11.12749 93.32339 -6.234063
10.62615 113.2574 -0.2618886
6.236969 98.55862 -9.266723
6.998377 100.369 -8.437912
7.571433 96.48429 -9.109923
6.357494 98.4567 -9.251899
12.48223 101.425 -2.035158
12.71622 133.1482 -5.988019
5.292811 134.9031 -9.109227
10.94812 120.4619 0.2316416
10.68219 119.7562 -0.308375
10.22489 134.6431 -8.136752
10.27074 138.8304 -8.333639
10.00246 139.4406 -8.396962
11.79638 138.3542 -7.969893
12.78342 139.011 -7.789982
14.82102 80.28898 1.668199
14.20024 76.86613 0.7955102
13.37327 80.54556 -1.870603
8.654492 78.953 -4.723918
13.68827 75.77916 -0.01986989
12.8976 80.25715 -2.376715
10.67734 82.5717 -4.704572
5.581556 82.75714 -6.027171
3.057143 80.97372 -5.535998
2.883105 81.97826 -5.858916
6.781138 90.13733 -9.533204
9.767861 104.1397 -5.441106
13.56068 134.7716 -6.202873
6.393724 135.5017 -9.198527
10.76623 122.2708 -0.6232508
7.519274 120.9326 -5.176072
12.89582 139.4996 -7.805092
8.7356 82.68876 -5.58559
12.65718 76.95965 -1.774612
6.265064 80.20924 -5.252028
3.523871 77.91001 -4.750952
9.248213 105.3906 -5.299925
11.28982 104.4991 -3.708382
6.800498 132.5323 -8.89816
8.683934 136.5373 -8.705694
10.7178 132.4896 -7.379476
10.38996 118.8949 -0.7620662
10.61735 80.03693 -4.259859
9.931558 78.78455 -4.198941
7.065744 78.78664 -4.947367
11.05975 75.00668 -2.750819
3.299228 75.85689 -4.328312
8.774017 134.6163 -8.635698
9.930431 133.0497 -7.990226
10.27069 130.0591 -6.787785
7.805693 78.82309 -4.926313
5.355605 78.7645 -4.941646
11.44728 77.05623 -2.92397
9.038731 74.84119 -3.717576
12.23674 132.7881 -6.232251
12.22054 129.4674 -3.508686
11.70824 129.0877 -4.407866
10.4962 130.8944 -7.00982
9.8586 130.6105 -7.377419
10.60998 75.04645 -3.040973
6.728919 80.24056 -5.226735
6.26456 79.93025 -5.182732
11.42721 128.2445 -4.172997
5.507641 130.3215 -8.361168
8.808311 73.51202 -3.654294
6.706264 78.23467 -4.775421
9.037894 127.9814 -6.617806
9.158486 72.8987 -3.474356
6.262257 73.75348 -3.9631
3.800828 74.70403 -4.122694
5.735938 72.0127 -3.781818
5.264646 71.80425 -3.75665
4.165555 70.62053 -3.626569
11.41017 127.838 -3.766329
11.50199 127.6098 -3.267525
9.139374 127.5264 -6.328953
4.574805 129.3026 -8.252703
6.536168 72.96187 -3.875336
7.832339 70.15484 -3.448045
7.881855 75.86258 -4.17238
2.395028 75.26749 -4.231909
4.399709 70.03406 -3.563894
10.78272 126.0806 -3.618627
8.172299 125.6254 -6.253529
8.066767 128.2198 -7.251478
2.023592 74.90728 -4.172353
2.370588 71.19216 -3.701883
9.913164 125.87 -4.780907
8.04355 126.5915 -6.815757
6.956903 128.5614 -7.690792
5.140283 127.1346 -7.703691
9.192664 125.1056 -5.215747
6.539798 124.7734 -6.985603
2.911379 127.2955 -7.992369
10.04237 124.8077 -4.154598
9.446615 143.2674 -7.459033
5.937535 70.45405 -3.580349
6.693292 69.83589 -3.495934
5.236058 69.80215 -3.530101
11.85113 126.1074 0.8133912
11.66575 125.189 0.5552846
2.283522 117.7366 -6.590878
3.736203 119.0235 -6.420799
4.136366 118.7474 -6.209494
13.36492 142.299 -6.90607
12.80089 144.6292 -4.829944
10.83829 143.7905 -6.624079
7.576067 142.9265 -8.074839
7.909768 143.4042 -7.741562
8.505338 143.8462 -7.254767
8.464493 145.0413 -6.060422
14.79914 90.02952 -0.1336851
12.0915 127.522 -0.5231194
5.326934 113.6671 -5.135214
5.098931 112.7135 -5.059109
4.591495 115.2963 -5.600991
7.543827 110.9217 -3.761594
2.641578 119.3759 -6.825764
9.528078 95.06227 -7.9955
10.34367 92.41311 -7.38567
4.182917 125.4915 -7.536444
12.76233 99.71693 -1.225046
12.20811 97.16253 -3.260639
12.47995 94.0715 -3.678542
13.87421 90.76286 -2.074194
13.5089 92.21097 -2.39292
12.52545 89.39043 -4.405082
10.4537 110.4267 -1.570872
6.751393 109.4865 -4.452673
5.673657 108.4957 -5.089494
8.134471 113.6182 -3.030568
8.867144 111.4361 -2.890446
10.10475 111.7503 -1.503226
9.506196 106.0495 -4.824796
8.883525 107.4176 -4.619791
8.04084 110.8597 -3.595715
8.032147 105.9187 -5.753219
11.47194 99.96356 -4.277704
12.16424 103.6857 -2.455817
11.14039 103.565 -4.259318
10.87211 101.2391 -5.046118
8.75453 102.4667 -6.838888
12.04164 106.0397 -1.948967
10.41437 105.7689 -4.289076
10.16315 107.2813 -3.733452
10.38795 116.7353 -0.6099044
10.60226 78.50048 -3.865601
11.39797 78.49237 -3.328548
10.65566 125.0874 -3.137987
11.12407 124.2274 -1.087713
4.635926 128.0993 -7.997867
8.662549 124.4652 -5.51076
8.658973 120.6884 -4.415223
10.54548 123.9541 -2.458065
9.595501 122.2718 -3.616646
5.74524 121.4023 -6.423618
6.633325 121.5129 -5.900957
11.90174 127.0381 -0.9305636
4.980814 117.6719 -5.604283
4.440023 114.3229 -5.525436
6.163507 113.4339 -4.36434
6.971251 114.6304 -3.580493
12.73953 142.9529 -6.740983
2.15348 120.7183 -7.134311
11.86407 91.95551 -5.290261
11.96295 90.89269 -5.202073
8.379218 92.47423 -8.957501
8.671772 93.04615 -8.827308
7.583768 94.28377 -9.359476
7.758299 96.38676 -9.027317
10.57636 98.79595 -5.991957
11.56713 97.76398 -4.540751
12.21749 99.62109 -2.750203
10.54218 102.892 -5.18889
10.18067 96.44814 -7.058804
12.03253 94.63273 -4.461824
5.30165 126.2521 -7.488843
7.074414 91.80659 -9.640382
10.62877 102.5289 -5.097285
7.90933 105.1667 -6.235772
9.31848 113.9058 -2.149935
8.373309 121.6256 -4.832546
9.241735 120.9345 -3.197684
9.350423 119.243 -1.778577
7.787472 118.9647 -4.684125
4.670457 123.9848 -7.283477
7.5262 119.8742 -5.064994
4.600322 118.3678 -5.856575
5.906451 120.1695 -5.952524
6.523646 117.8557 -5.170941
6.441852 116.8843 -5.119303
7.349042 115.5725 -3.281166
7.261282 101.3875 -8.047572
8.838818 98.9137 -7.798719
8.913117 99.78081 -7.475886
8.951453 100.6979 -7.24678
10.54156 99.17217 -5.93462
9.826524 98.84927 -6.908036
9.661094 94.42422 -7.874668
9.690239 112.5561 -1.863026
8.081765 119.7552 -4.650324
8.845901 115.7595 -2.297207
8.62525 112.8445 -2.870016
13.4104 101.2082 2.906929
1.123865 94.59855 11.33269
15.41855 89.33493 2.977524
1.090039 89.50901 11.56549
14.28104 145.2427 2.0627
13.49472 145.6407 1.554597
0.5383564 106.4143 13.26201
12.23147 109.6363 3.279567
10.51709 116.687 5.918776
0.7807407 65.96832 11.5759
0.9409447 66.42621 11.61404
15.86352 141.0336 4.124876
15.69245 141.9993 3.91256
7.715858 112.4623 10.3128
1.466448 78.75452 12.59577
1.468868 74.27812 12.28803
0.4968903 79.1449 12.55958
1.161057 83.17992 12.63439
1.790549 126.9163 13.28279
-0.1316575 128.4327 13.07814
0.4525076 118.1449 13.05042
14.48053 142.7928 4.244152
7.345133 65.18537 11.847
5.019783 132.4303 12.55442
10.58663 113.4873 6.485149
3.547628 133.9091 12.08552
2.621344 132.4814 12.52304
2.960615 65.6788 11.72459
14.06609 145.5232 1.498278
14.69687 72.83896 4.433295
9.273346 68.19795 11.53383
4.901884 65.26372 11.49109
8.337251 140.0961 7.70556
11.99077 109.3224 5.954801
11.35103 64.59424 10.87252
14.2799 137.0319 5.276396
13.15245 64.40877 9.489775
12.2152 65.5057 10.25353
14.65026 94.96271 3.087168
14.36183 96.59024 3.597485
13.33654 64.85384 9.312123
13.19612 103.7555 3.093356
12.39167 108.8259 4.147478
11.98748 107.5656 7.080591
11.5782 111.8319 3.417029
12.69779 104.7492 5.855772
14.57935 70.68711 5.243617
1.571781 66.44202 11.64516
14.28205 65.29785 3.945508
14.2817 64.55837 4.63562
15.42274 87.00496 3.065946
-0.09075365 115.8069 12.8877
14.96415 78.64228 3.899701
15.33727 84.06464 4.302867
15.3949 86.55993 4.089749
10.20194 113.8836 7.119541
1.619281 71.77577 12.14707
11.2612 121.9531 3.357327
12.6583 145.603 1.820741
13.8392 65.699 8.400908
4.671987 92.13908 11.03382
16.42109 143.0844 3.096618
11.97052 129.7162 3.458287
11.53241 124.3003 2.574201
15.64308 144.2122 2.582308
7.278792 134.9011 10.88794
14.44377 135.2782 2.423391
16.86969 145.0651 -1.322122
16.16023 143.4579 3.00061
14.57031 140.0755 5.246311
14.92827 145.6707 -0.4850071
4.809448 83.22529 12.54233
13.89095 134.8171 3.059074
10.9642 65.58899 11.04506
11.94168 90.29314 10.38173
0.4286617 101.0702 12.53699
0.00631706 93.29466 11.22481
14.90146 94.1518 3.891513
0.02981497 91.19992 11.06488
7.637285 88.94442 11.59027
2.133686 116.4758 12.85935
10.43283 115.2075 6.126364
11.17586 120.4287 3.210263
12.1379 102.2197 7.844343
4.010347 66.80681 11.66621
2.942307 67.02261 11.68481
2.318328 71.89816 12.16172
5.721407 68.20758 11.71671
14.04157 64.36368 8.102488
13.28561 67.25448 9.127354
14.04752 67.53424 7.554785
12.57565 130.6595 1.9292
12.04621 127.7929 1.891893
10.7392 120.4979 5.916421
15.83655 139.8763 4.285153
-0.2099339 123.7983 13.46145
2.188869 127.3629 13.20922
2.673353 125.352 13.37376
2.898734 131.5855 12.72891
13.80521 98.02181 6.131531
14.60623 95.39928 5.39232
13.42072 101.197 3.157922
0.6042507 97.67029 11.83979
2.252307 98.1923 11.77609
14.70225 89.48924 7.433762
14.19386 84.36042 8.729689
1.129914 91.14401 11.01413
0.3863399 86.04488 11.86567
4.360045 82.68047 12.45755
1.639064 115.7908 12.86936
1.518427 118.3853 13.04606
11.27362 113.6641 3.380062
12.07091 109.7541 4.850599
11.13657 116.0484 3.272096
10.9853 118.8589 4.233988
0.1453683 105.503 13.23569
0.5105355 109.4289 13.07451
12.89007 103.8887 5.38326
12.58021 107.105 5.387587
4.968452 69.1543 11.82273
0.9775838 76.06592 12.37663
7.870595 66.05957 11.71662
10.36375 66.87516 11.23014
11.41143 66.46094 10.76723
12.14714 67.52829 10.28273
14.58634 69.3839 5.246214
13.56921 71.21496 8.87224
14.33068 67.33492 6.577401
14.29194 69.84749 6.873748
11.66821 67.23406 10.59218
13.10137 69.76338 9.402081
13.3045 133.8793 3.376665
11.66902 127.7437 3.502829
13.41104 134.4534 3.870826
11.19886 123.9588 5.055436
0.2219588 125.0528 13.43378
3.835213 131.6609 12.76164
14.80899 94.37167 4.770177
14.70216 94.91833 5.188224
14.13093 97.00905 2.837022
0.06633155 96.23487 11.61734
1.910712 95.33862 11.38592
4.371516 99.83723 11.78988
15.30445 91.09652 3.265056
15.43702 88.04946 3.619955
15.27684 87.07186 5.8286
15.22264 83.75172 5.66018
14.84494 79.74328 6.765765
1.36674 85.66195 11.92773
1.057378 90.2397 11.30103
1.70297 92.16361 11.05802
0.2552145 81.35151 12.23862
3.023831 81.30993 12.26207
0.7079008 114.4769 12.8482
0.7268859 117.0646 12.96367
1.123883 118.8602 13.11321
2.012603 120.2351 13.19615
12.16406 109.6508 4.336775
1.765507 102.1438 12.70598
0.8991818 108.495 13.15339
0.9787387 110.2301 13.02181
12.75353 107.0284 4.302657
3.943002 69.36504 11.85065
3.2553 75.03631 12.32999
2.246213 79.32938 12.52018
3.158581 79.77557 12.42991
2.354066 75.77737 12.3486
14.69179 75.12015 6.453937
14.09587 74.11662 8.180765
14.522 71.33835 6.131942
14.01947 70.12748 7.732846
13.02724 131.791 1.518258
11.2376 131.2904 8.59826
13.7199 133.8361 1.704506
12.88183 132.8689 3.883767
12.08157 133.0018 6.586047
11.49242 127.2231 4.06536
14.14762 135.9082 4.362385
14.57991 137.2919 4.958417
11.27403 122.3075 3.543669
2.33147 122.7969 13.43893
6.405853 124.4072 12.43219
4.84543 128.4281 12.94548
8.999711 131.7849 11.61544
4.357046 131.2368 12.85359
8.159286 132.8997 11.63698
3.960609 128.6704 13.01488
8.070294 135.0933 10.49113
9.439837 130.369 11.38371
8.395181 133.8276 11.05853
5.904393 129.5645 12.94813
9.134607 132.001 11.46955
6.170661 126.6066 12.48161
8.225516 126.8692 11.27975
3.194216 96.11263 11.33768
5.148119 94.0562 11.02083
0.310192 101.8214 12.7071
1.580957 99.60741 12.15401
15.16726 89.25591 6.101863
14.69295 91.56104 7.053397
15.32525 89.02838 5.636998
15.24901 86.72585 6.027238
14.50881 85.64108 7.990438
14.49884 86.08395 8.006784
14.41639 79.96125 8.035246
15.03017 80.37134 5.848498
14.90193 78.14524 4.443166
2.541375 86.67831 11.7566
4.874415 85.10726 12.18135
8.247536 89.12534 11.52846
0.07843883 90.57167 11.14909
5.714685 91.0831 11.14047
5.045327 86.40044 11.81806
5.179376 83.92033 12.48425
2.987284 83.67691 12.60311
1.406644 112.992 12.85428
1.96894 110.4971 13.01325
3.114053 118.664 12.817
10.92813 120.5861 5.122156
10.96239 121.675 5.459402
10.66569 119.0685 5.790803
3.402699 103.4569 12.70009
2.106214 105.8095 13.19512
6.433438 110.2701 11.59203
3.646083 108.7815 12.89583
5.779745 66.3825 11.6448
4.168945 68.93927 11.80219
1.299304 73.11203 12.23607
0.4949947 71.53514 12.1155
3.631255 74.39484 12.33544
2.437111 75.9987 12.36993
4.756698 80.40532 12.34134
7.920026 67.01835 11.64823
6.241492 67.7652 11.68101
10.85241 67.47974 11.02873
14.74882 74.36594 5.496922
12.88874 69.08932 9.584882
14.06844 71.57651 7.956445
12.49211 77.24267 10.77774
10.08849 71.91325 11.78368
10.07851 71.81224 11.77575
13.78728 134.4514 2.616621
12.05187 131.5696 5.980014
9.580838 127.5456 9.726818
11.92577 133.1762 7.156168
2.288175 119.4663 13.06249
4.758262 120.3644 12.6087
1.660515 124.8098 13.47292
4.786545 130.6446 12.92783
4.972192 124.4664 13.0572
7.648381 127.7695 11.99522
14.90669 94.03725 4.295361
3.471939 92.92786 11.10185
3.843823 97.01672 11.33975
5.069743 97.61732 11.24413
4.714251 102.3276 12.23051
12.21974 90.21784 10.23826
14.13889 87.07428 8.582954
9.753043 86.58549 11.78475
12.06871 84.3882 11.06124
15.11433 80.04932 4.525479
14.73139 76.67033 5.950983
3.191043 86.83392 11.75943
5.655052 89.92526 11.39356
4.239932 92.5434 11.09604
5.185761 93.27532 11.03512
8.379297 93.40795 10.90344
3.154727 114.1429 12.51981
4.345075 116.8442 12.19106
9.144696 118.5239 8.908845
10.73375 117.3651 5.293474
8.986487 115.6607 8.747221
1.587995 103.4777 12.97579
3.587593 72.46861 12.19158
5.680607 75.12637 12.32428
3.512024 79.07944 12.56161
5.712776 81.49925 12.30192
5.105914 78.63644 12.53243
6.180978 78.77867 12.50301
6.543891 80.01904 12.44376
8.965715 80.39072 12.35963
12.97399 85.09573 10.2438
9.415835 79.55086 12.33597
9.437721 81.91595 12.25466
6.079069 68.69707 11.75428
10.32426 69.56602 11.44614
11.58627 132.0228 7.785211
3.705008 120.5178 12.93412
6.287763 121.3121 12.22052
3.614299 124.3496 13.40235
5.280695 122.6196 12.9034
7.41081 123.9851 11.78754
7.984105 123.4116 11.2593
8.252957 121.9021 10.84199
8.000218 125.5819 11.22822
8.500277 121.157 10.4046
7.929238 128.2788 12.04555
9.856989 121.8664 8.569704
7.772322 120.6762 11.01032
9.677806 121.658 8.860203
9.438733 124.6808 9.372829
5.691084 102.6237 12.02535
7.398421 103.8491 11.5882
7.008492 104.2024 11.76128
5.359533 84.94978 12.22602
11.16771 87.29583 11.208
6.112867 83.36801 12.51047
9.809482 117.7475 7.651649
9.201162 114.5896 8.566875
10.92134 113.9442 4.922753
2.911498 76.00433 12.37611
11.00005 83.46745 11.82332
15.0044 81.2218 6.362249
13.58106 83.11874 9.661066
10.76416 132.9102 9.609679
4.085958 121.1021 12.97473
10.3879 122.6079 7.564274
9.955475 123.6586 8.616682
5.503931 104.2554 12.29659
7.707339 91.92586 11.06576
7.624657 95.02159 10.8542
6.550183 94.57571 10.94282
9.1934 119.7507 9.190019
6.680232 118.3116 11.1289
5.122239 116.4212 11.75392
6.86722 111.7176 11.0264
5.983436 113.9427 11.20205
9.965322 84.38451 12.02954
9.62855 81.05904 12.28874
11.13903 83.01035 11.757
14.11519 80.40646 8.819173
11.20376 132.7575 8.888901
5.381389 117.7055 11.77017
5.642614 119.9824 12.20303
8.666225 120.3388 9.988113
9.788163 129.0393 10.45681
9.547536 128.4109 10.53664
10.2287 125.9536 7.763251
9.650983 126.6491 9.110207
11.04851 128.2345 5.824753
6.697999 105.7258 11.92703
6.185908 107.5404 12.06281
10.60694 93.71345 10.49746
9.791627 90.46121 11.17565
6.21874 87.32666 11.78759
9.398793 91.21147 11.11468
7.339771 90.33234 11.35222
13.98418 91.39984 8.264414
13.65244 87.22965 9.272859
12.99147 89.55864 9.780597
13.45089 90.08539 9.186207
8.837634 97.31107 10.63606
9.482171 99.51498 10.45084
5.999425 98.31312 11.213
9.321467 119.2731 8.875212
4.467561 116.8221 12.12703
6.400945 115.2995 10.91147
10.06084 84.76173 11.95303
13.42279 82.44724 9.860237
14.24874 78.58028 8.232613
9.962546 134.5586 9.967649
12.27528 134.8992 7.631574
4.29837 120.1791 12.70206
11.46777 130.5207 6.827644
11.70229 130.4306 5.485696
8.072824 107.5919 11.18244
8.199782 93.59267 10.89238
13.44962 96.88812 7.655186
8.895238 89.30728 11.4674
13.24679 95.05248 8.454609
14.74901 92.5308 6.652452
9.374172 86.40926 11.87951
11.33974 85.26329 11.43194
5.167716 99.10224 11.50965
8.724567 112.7556 9.478288
5.574699 113.3134 11.50798
11.81161 79.74104 11.36156
10.21745 137.1526 8.650537
10.36573 95.27119 10.29585
10.63729 93.01758 10.51986
10.74254 111.375 7.585386
8.445247 111.8188 9.964571
5.942764 112.3814 11.4307
11.33609 137.9762 7.871639
7.930799 134.216 11.02968
8.751989 137.4086 8.950793
12.60628 95.54003 9.017129
10.77085 137.2583 8.466565
14.86552 138.0714 4.875654
14.82016 139.9611 5.07444
13.20101 100.6218 5.994609
13.76619 98.92167 5.302096
13.08994 96.57088 8.216662
8.983244 102.8524 10.91501
11.59912 99.17026 9.019091
14.01715 95.87575 6.960836
10.22623 98.49144 10.05578
9.792837 97.5218 10.28954
14.40409 95.73321 5.95924
10.92182 97.67179 9.696983
6.245727 99.38708 11.36498
9.884408 99.0863 10.25607
8.196157 99.78613 10.99656
13.16191 99.87047 6.629405
9.140067 100.5088 10.69018
7.661224 101.3694 11.3425
11.56759 102.1205 8.620564
6.471095 100.257 11.46678
10.23535 100.0052 9.967012
11.94128 101.9852 8.182989
10.20203 111.8231 8.074417
11.69876 109.657 6.630983
8.753439 111.3958 9.848074
11.78892 108.8444 6.983164
11.45732 109.3604 7.516472
8.179519 108.7156 10.93964
6.277776 109.138 11.86988
12.01412 108.1593 6.748416
11.97001 106.2116 7.524734
11.40244 106.9544 8.413642
10.47836 107.8612 9.489797
11.24369 108.267 8.304886
11.80339 106.7658 7.764423
7.512697 135.4498 10.49427
13.96002 75.37295 8.55751
13.70286 73.06663 8.874688
13.87506 68.69283 7.848871
11.07864 138.7188 7.503485
14.1054 80.19506 8.810118
12.7289 79.18286 10.59382
13.87037 77.30457 8.94827
2.570795 108.8263 13.09265
5.053374 109.2013 12.38051
7.840237 70.82003 12.00668
7.015211 71.4005 12.08551
7.398261 72.02789 12.15604
5.994032 72.3847 12.18059
7.203979 73.77287 12.26489
12.75454 73.01443 10.17454
11.94381 136.3071 8.209762
11.79903 134.7394 8.335567
14.65061 93.45435 6.53335
8.206884 76.24564 12.40474
10.79254 113.7106 5.726464
9.783126 124.3258 8.838511
7.776435 85.69385 12.03185
7.968803 84.91976 12.24655
10.642 126.4006 6.770787
12.40311 86.85838 10.46362
6.756242 109.4467 11.57806
9.419611 140.2765 7.091634
10.41657 145.6766 2.282344
9.101326 144.5346 4.654591
9.818769 143.151 5.336273
11.93283 140.6163 6.170889
8.627244 141.6814 6.763067
10.68822 140.1063 6.750721
13.90039 143.1388 4.188266
13.36966 141.8341 5.186799
12.61226 95.98073 8.893395
12.88465 102.4985 5.926431
12.71054 104.6014 5.858914
8.947315 107.1171 10.79169
10.59293 103.3538 9.700649
11.88828 104.3934 7.9235
14.20801 78.97115 8.403312
10.28514 76.98823 12.11131
4.566438 112.3824 12.14043
7.348423 74.33862 12.34476
6.837619 73.29169 12.22061
9.112159 76.7289 12.37949
10.94565 77.28014 11.84922
12.84914 78.88497 10.47693
12.61149 73.29402 10.37228
12.47252 76.12086 10.74907
10.82412 123.5219 6.401046
10.1006 123.7085 8.310012
9.816349 140.2794 6.953804
8.775238 139.672 7.707942
8.129056 141.8912 6.878842
14.0897 76.11729 8.394446
7.533778 76.30027 12.41274
9.257304 75.91077 12.30759
10.34842 73.38667 11.76569
9.260887 141.7141 6.44583
-11.39842 112.2271 1.626899
-0.223322 96.97354 -9.740062
-0.988149 86.9381 -8.480724
-5.864586 88.75827 -9.297585
-0.3741391 90.77353 -9.872417
-1.006053 111.0028 -5.749904
-6.454244 66.42248 -3.263513
-1.460212 110.2601 -5.610787
-0.5281724 103.5654 -7.768612
-11.18917 67.48229 -1.739092
-2.166504 137.29 -9.121522
-3.816489 96.82542 -9.79652
-1.067607 70.20815 -3.613495
-2.345684 66.3042 -3.540731
-11.9706 78.43388 -2.918483
-3.567758 79.16296 -5.061828
-1.288207 117.1749 -6.880334
-13.39045 100.4616 1.514075
-0.5947657 129.5375 -8.433051
-17.11269 144.9817 -2.386534
-10.83882 145.557 -3.705378
-10.11417 86.8876 -6.721885
-2.602891 140.3743 -9.736629
-0.7902604 139.5313 -9.76252
-14.12323 74.09066 1.310971
-12.86993 106.4928 1.63908
-3.355533 85.58147 -7.660493
-0.7154983 115.187 -6.547737
-1.888332 143.6059 -8.388572
-11.97469 88.75448 -5.121295
-4.624701 144.1008 -7.83939
-12.24096 126.9361 -1.174819
-12.28993 67.73881 -0.698947
-0.6452136 112.164 -6.10151
-14.03219 72.03571 1.60572
-14.5899 64.32044 1.884907
-3.134918 96.39133 -9.849419
-14.14791 95.53583 1.24159
-14.92938 92.05415 1.531873
-13.52379 98.15253 0.8009744
-3.587392 140.4897 -9.444086
-1.088383 133.7322 -9.244315
-12.78871 107.0364 2.169958
-14.51444 70.16653 3.878156
-14.30021 64.83198 3.403516
-15.19824 140.9868 -7.03453
-14.34103 65.13462 4.504124
-15.2482 86.4339 1.548874
-11.58575 109.4581 -0.1907921
-14.44183 78.58777 0.9248926
-16.184 145.0014 -2.919701
-13.53664 145.4435 -2.489917
-14.50599 144.1573 -5.025173
-15.43042 144.8424 -3.741163
-11.22122 117.2173 2.335322
-11.515 123.9637 -0.8990902
-18.00227 139.5382 -6.872974
-1.625735 139.4062 -9.573867
-15.35411 142.8482 -6.155842
-17.67301 143.5568 -5.21053
-12.5285 127.3723 0.2659286
-13.11225 129.7725 -1.648529
-14.43506 133.0576 -0.8592836
-14.0094 83.54523 -1.63235
-16.46874 136.0472 -4.597346
-17.63779 144.0301 -4.684904
-15.07805 79.55579 3.832008
-17.58592 145.0016 -2.012722
-16.78587 136.4245 -5.051089
-14.34807 64.93235 3.093897
-11.2172 131.9957 -6.881102
-6.175003 86.58598 -8.219939
-15.14798 84.13223 1.700464
-1.371919 111.8978 -5.837283
-1.569713 118.6006 -7.083825
-2.304954 75.41215 -4.250218
-2.491995 71.61515 -3.756046
-3.499403 65.42443 -3.332215
-3.586451 68.47194 -3.456954
-4.634204 69.89015 -3.559903
-15.17222 82.54816 2.488515
-5.040041 79.67756 -5.192378
-11.54626 124.2951 -1.054212
-14.55699 133.8999 -4.071969
-11.25477 118.5434 1.276883
-1.261018 143.7419 -8.834821
-14.45755 66.93079 2.385627
-14.5224 69.23582 4.068483
-13.65612 66.62263 1.295446
-12.88652 66.13377 0.1984678
-13.96752 68.4352 2.023083
-1.067265 136.44 -9.132033
-9.028277 129.6225 -7.534037
-11.88571 130.142 -5.095815
-16.67263 143.2921 -5.627725
-3.590452 95.88751 -9.903752
-2.785168 100.3094 -9.132137
-15.17931 89.03362 1.095923
-13.28687 95.53314 -1.278041
-12.65454 102.5948 -1.537432
-2.709527 89.73179 -9.730316
-4.490157 89.91715 -9.873962
-1.118062 85.90173 -7.8654
-0.2936874 86.10017 -7.985587
-0.1453068 81.7738 -5.861405
-3.324667 83.05848 -6.320054
-15.18224 87.08655 1.22106
-14.97879 82.5751 1.129108
-2.380267 111.4938 -5.61235
-1.933904 118.2247 -7.034767
-12.74615 105.1334 -0.6703768
-11.51744 108.8292 -0.9943281
-11.57199 111.2511 1.510314
-0.7882484 72.54524 -3.861877
-0.353169 69.59822 -3.560935
-1.153661 73.13497 -3.93425
-8.436778 65.06865 -2.88151
-14.72839 75.87318 3.070059
-14.56027 72.89413 3.203665
-15.19412 81.72878 3.188007
-14.95925 80.05424 2.488849
-1.869728 80.90938 -5.575721
-0.3867245 79.44019 -5.14388
-1.44648 77.92347 -4.762846
-0.4111701 126.5235 -8.047857
-0.4243809 131.124 -8.660613
-1.819017 129.6387 -8.482207
-13.67147 131.7307 0.43053
-15.29841 134.6552 -3.871899
-2.560626 118.0933 -6.969699
-3.964981 125.3692 -7.938619
-10.69573 116.8541 -0.65758
-11.20092 116.4204 1.667466
-14.5926 72.22 3.535946
-14.746 74.50803 4.040474
-12.811 66.87162 0.02062136
-12.33751 66.88082 -0.5970044
-4.149427 136.551 -9.278039
-16.78239 140.9747 -6.768366
-17.54367 141.588 -6.452442
-15.89312 136.3334 -5.700671
-17.27769 138.7777 -6.983398
-2.802251 94.12894 -10.01691
-4.898766 96.58547 -9.789836
-0.1845093 99.02658 -9.402071
-1.644984 101.9561 -8.508295
-13.72553 98.42089 1.767289
-13.11219 97.72047 -0.7166911
-13.34938 94.20397 -1.757338
-13.34719 100.0351 1.015962
-13.28448 101.0116 0.9858183
0.1752413 91.98812 -9.992224
-15.19661 89.88786 1.633273
-14.22958 89.41206 -1.657158
-14.03829 85.7953 -1.959412
-14.94877 84.638 0.5679281
-2.245279 109.2469 -5.498186
-2.881185 111.9275 -5.596181
-0.9296942 104.3319 -7.381915
-12.90256 105.598 0.5926722
-10.87074 116.8664 -0.1858143
-11.84552 110.3052 1.680092
-3.739828 74.06372 -4.037044
-2.972693 71.5802 -3.750327
-6.883886 65.2281 -3.175397
-14.12047 77.73634 0.3152443
-14.56862 78.0192 1.438278
-12.67076 77.43368 -1.907936
-14.51018 79.87451 0.6319169
-1.368615 82.17896 -6.00762
-1.728465 130.159 -8.544058
-11.58562 121.9651 1.055133
-13.21518 130.1162 0.3363412
-14.33342 132.7574 -1.476474
-0.1322971 114.4087 -6.397631
-1.900819 123.3829 -7.699987
-11.56058 121.7847 1.536076
-14.23275 70.93263 2.317148
-14.68492 74.54174 3.257404
-1.83067 136.3902 -9.186098
-0.8509448 132.9556 -9.088314
-16.31962 136.6541 -5.812028
-4.544383 95.59598 -9.932101
-1.803776 93.53364 -10.02242
-1.2049 95.80682 -9.87741
-4.387127 96.2879 -9.858378
-4.167661 100.1104 -9.198504
-6.726328 100.0114 -8.708598
-4.233753 99.65867 -9.325809
-1.617168 101.464 -8.704689
-0.5532019 103.0744 -8.005944
-12.78055 98.27343 -1.510255
