# .PCD v0.7 - Point Cloud Data file format
VERSION 0.7
FIELDS x y z
SIZE 4 4 4
TYPE F F F
COUNT 1 1 1
WIDTH 1661
HEIGHT 1
VIEWPOINT 0 0 0 1 0 0 0
POINTS 1661
DATA ascii
-13.4396 100.7018 1.893317
-13.40357 131.7799 -2.74615
10.43136 136.7248 -8.24234
-11.5739 104.9577 -3.156608
13.66361 99.79397 3.219739
11.82067 104.0312 -2.984238
-10.49764 115.906 2.487045
-11.29037 120.5859 2.466407
13.71719 133.4037 -4.048526
11.8678 127.6689 -1.523694
12.70499 140.1555 -9.436603
1.127598 148.347 -9.406022
0.4104084 66.56974 -4.384292
-15.4037 85.91384 3.54772
-13.27975 64.4377 -0.8580931
-15.21063 74.08064 4.937866
-14.47521 63.46469 1.351076
-16.53171 67.62826 5.432081
-14.12874 68.45727 0.6882942
-15.72609 63.72209 3.2682
-12.67208 130.8841 0.3899164
-11.59165 124.6623 2.766814
-12.27103 129.1028 -2.485346
5.288781 148.0452 -5.189476
6.392619 146.8049 -5.15013
3.094844 147.387 -7.260711
-1.603546 146.3203 -6.957074
-12.89022 137.5962 -8.924346
11.16918 65.25494 -2.305151
14.81508 81.32991 1.13639
14.86533 92.0731 1.227864
15.11815 74.01959 4.585655
15.18361 81.00452 3.891715
9.644529 68.12939 -3.257385
6.217326 64.92014 -3.369348
1.686909 64.5366 -5.015759
-1.482383 67.01642 -5.162499
-14.09536 89.03426 -2.006783
-12.88266 99.51958 -0.8950739
14.2346 94.8269 0.9838656
13.14927 93.73759 -2.434185
14.41648 94.54096 1.405903
-13.25402 133.0861 -5.108873
-13.20551 132.4939 -4.538265
-13.71809 137.3839 -9.232997
13.76737 134.0931 -5.158161
-13.18173 101.3896 0.5361638
-12.60622 100.7485 -1.68422
12.49779 108.0367 1.794705
12.29239 107.5616 -0.2470853
12.33904 109.0687 2.585824
13.31979 102.2957 1.968666
12.84021 101.8774 -0.918984
-11.54032 111.7879 3.046936
-10.91214 113.803 3.130654
-11.04288 113.1373 2.459608
-10.7769 114.8349 2.705642
-10.32186 117.8038 2.314272
-11.26778 120.1962 1.079901
10.6068 118.8017 1.650394
13.11765 133.4485 -5.618626
11.48751 132.4385 -6.821041
11.56025 126.2403 2.955082
11.55871 123.6097 2.221373
13.644 137.8961 -7.687648
0.7053865 147.5452 -9.73298
-0.1841419 147.428 -7.77326
-6.569551 64.73597 -3.714054
-14.97967 77.88947 4.151168
-15.13744 83.63246 1.63687
-15.17656 82.88257 2.318573
-15.47212 73.04716 5.338052
-15.20393 73.05003 4.001587
-14.57229 71.79942 2.392184
-15.13837 66.7654 3.014327
-14.07065 66.9594 0.5278608
-12.87335 130.577 -1.597636
-11.90634 127.8483 0.3366653
11.17353 143.5649 -8.039524
15.64515 69.35093 3.221449
15.82817 68.0116 3.105865
12.6918 66.26182 -1.025074
14.96152 81.22787 1.750082
15.42224 86.91014 3.018914
15.17005 90.51588 1.842104
15.43034 89.05669 3.232706
14.55134 76.20775 2.056741
11.35071 65.78976 -2.190734
8.228786 65.06985 -3.645901
4.371455 64.35618 -3.612622
1.638465 68.5416 -4.931122
-1.245338 64.46004 -5.149969
-15.08927 90.4898 1.3968
-15.30645 87.90447 1.981568
-14.46238 94.82478 1.815051
-13.25221 96.94418 -0.5453863
14.63366 93.33553 1.399768
13.30406 98.71326 0.2794916
-12.91639 137.4062 -8.473988
12.87931 135.3582 -6.929486
-12.67017 102.7787 -1.540457
-12.57726 103.9237 -1.672887
-12.34376 103.4736 -2.338189
-13.39256 100.8452 1.656105
-13.20954 97.22211 -0.5922535
-12.22696 98.68667 -2.843826
-12.64554 98.74751 -1.766295
-12.89756 105.7622 0.8306895
12.8975 106.3004 1.801096
11.70092 111.1602 2.622629
10.5754 114.2069 1.661975
13.42574 100.9421 2.260166
12.69951 99.38233 -1.394128
13.37732 100.0246 1.292217
12.02383 100.1231 -3.126564
13.25847 103.1678 2.180966
12.88779 104.744 -0.2775599
12.79802 104.1313 -0.9728389
-12.08847 109.7586 2.120121
10.78237 116.8936 3.809623
11.25266 120.3604 3.399984
11.3131 126.7875 -3.01725
12.95155 130.768 -2.001755
13.18013 131.6888 -3.487985
13.17873 131.9946 -3.909451
11.49523 124.7192 2.268315
11.47968 140.8089 -9.321182
11.65671 136.3286 -7.780363
-0.1575212 146.0109 -9.473559
-0.05834645 146.8839 -7.030635
-6.730827 66.13734 -3.785745
-6.882062 67.19527 -3.844354
-3.554957 64.70235 -5.718574
-15.12731 80.28268 4.271501
-15.02037 80.04085 2.889569
-14.58204 80.89269 0.4974134
-14.17694 78.60809 0.1824053
-13.65488 79.12675 -0.9756619
-14.46987 83.48373 -0.5888482
-12.50434 69.86008 -1.568587
-11.04486 78.55676 -3.573745
-13.77938 80.27505 -1.167565
-12.78073 79.50105 -2.346111
-14.83161 75.61856 3.722956
-13.55559 76.18048 -0.2418371
-13.36897 66.92038 -0.6736114
-9.846433 64.0313 -3.233443
-14.17208 67.68665 0.7711214
-13.43394 64.7337 -0.6373909
-14.67066 68.4738 2.450172
-11.15051 123.1933 -0.8431404
-11.525 126.3832 -1.517264
11.81521 143.2909 -8.309457
9.704386 142.1989 -9.729948
9.863731 143.5397 -7.923046
12.507 66.71472 -1.243699
15.09183 82.12 2.107485
13.84671 87.69722 -2.434537
14.71699 86.82295 -0.550451
13.36053 86.71754 -3.063835
14.46749 86.83807 -1.216516
15.2772 88.1358 1.696026
15.41279 72.03702 3.707245
7.197394 64.57007 -3.547687
5.754277 65.8914 -3.391079
-14.72882 91.83353 0.5351149
-14.89803 88.71626 -0.1043785
-14.94867 87.19073 0.0569478
-14.24949 95.10262 1.303849
14.45891 88.81776 -1.255595
14.10116 90.87411 -1.550932
14.53639 92.13205 0.1219325
14.02321 93.97871 -0.2193557
-12.19369 137.0838 -8.107219
-10.87134 100.4653 -5.292613
-9.116415 101.747 -6.759809
-12.0096 95.00952 -4.380596
-11.89602 99.6347 -3.50754
-13.45698 98.2735 0.6172631
13.00278 105.222 0.8339062
10.71248 114.1467 2.267307
-10.7843 121.5925 -0.8407048
-10.98026 122.3036 0.1510579
10.89055 136.6896 -8.090041
1.620462 148.13 -9.576476
2.592813 145.6666 -9.91116
1.66667 145.5175 -10.69838
-12.3232 68.97279 -1.765775
-10.84946 66.6903 -2.941907
-10.52404 68.7588 -3.058538
-4.459605 66.50636 -4.488791
-15.1971 82.18315 2.864816
-12.14983 63.66091 -2.237364
-13.83432 67.18793 0.06183895
-11.37555 124.8642 -0.536801
-12.79996 131.6798 -4.66243
10.58372 140.7609 -10.26528
-10.56233 142.2163 -8.585999
12.79698 67.65256 -0.9605239
13.71619 69.01111 0.3848827
13.69962 68.00007 0.5528139
14.62722 85.58031 -0.6742576
14.35666 72.08174 1.711738
-15.12061 84.97211 1.271627
-13.0018 95.12244 -2.171359
-12.90249 93.96268 -2.896914
-12.13044 94.71632 -4.219727
-13.31907 94.58384 -1.662201
13.23838 93.4493 -2.393531
12.97779 94.56169 -2.418707
10.93445 92.75682 -6.577314
13.18193 97.3889 -0.623828
-9.377078 139.7668 -10.34155
-11.058 100.8492 -4.939068
-10.40105 100.1663 -5.915566
-8.372626 98.39291 -8.338316
-8.894634 99.1742 -7.714716
-10.20483 99.27511 -6.380995
-10.80116 120.3489 -0.3326901
10.79039 113.4615 1.763601
-11.41545 66.51206 -2.598919
-1.352958 68.37759 -5.072095
-2.715582 67.72729 -5.490964
-1.883796 65.62711 -5.435735
-14.63718 69.43946 2.305804
-14.59931 71.31615 2.386452
-13.82963 68.94241 0.1091067
-11.54467 67.99497 -2.427584
-12.56159 71.13743 -1.445325
-11.99442 76.23151 -2.245928
-11.9367 128.2177 -2.499377
10.4497 139.8171 -9.735229
8.017766 139.1229 -10.84436
2.478502 142.4527 -11.33623
6.375657 141.9917 -10.71521
13.47174 67.80341 0.01174285
15.48824 70.94341 3.266077
-10.46442 94.47237 -7.008865
-10.8544 92.61098 -6.701991
13.43358 90.2508 -2.95148
10.93616 91.98438 -6.653565
12.78579 89.33793 -3.997692
11.41429 90.31879 -6.017308
14.01454 84.77594 -1.817515
12.49868 93.34883 -3.868321
-6.151929 97.20293 -9.531904
-8.382124 98.91896 -8.193216
-10.94763 95.44418 -6.180471
-11.72264 124.2218 -0.05218447
-9.43794 118.0052 0.1462232
10.17882 116.2814 1.749718
-5.106902 70.6324 -4.143365
-4.84588 69.53649 -4.192723
-5.759876 70.58075 -4.020895
-13.62864 70.00174 -0.2050968
9.506599 137.4518 -8.836553
7.518532 136.7713 -9.946823
3.399936 144.7619 -10.30217
5.100085 138.0522 -11.01355
12.57917 94.07525 -3.500933
9.985224 92.74862 -7.709382
9.834653 93.71543 -7.791916
9.244322 99.17703 -7.393736
9.973311 94.57847 -7.565726
9.073561 91.38623 -8.538282
10.50593 90.32632 -7.18613
10.22208 91.29538 -7.548599
10.11709 94.37494 -7.446187
7.700768 97.22438 -8.908489
9.244888 95.36848 -8.186419
9.718526 99.10412 -6.89767
10.21372 98.23167 -6.632656
10.3947 88.26673 -7.027682
-10.81037 121.1795 -1.476599
10.80072 117.6147 1.599948
10.65072 117.6493 0.9991916
2.074808 69.60793 -4.898516
8.346726 137.7529 -9.576035
4.489031 138.1885 -11.37804
10.31487 96.24889 -6.971067
7.374374 99.3196 -8.621156
-8.792216 126.112 -5.439904
11.55779 123.8962 -0.04377857
-2.535224 68.65374 -5.368997
-11.29638 71.05054 -2.513318
-10.72655 71.77575 -2.8785
12.5017 94.46046 -3.522099
13.70857 94.71683 -0.6078392
8.871038 99.83655 -7.539224
10.70749 96.83771 -6.207735
-10.32905 120.3122 -0.697666
-9.124246 116.8497 -0.6468397
-9.132503 119.9689 -1.490674
11.1662 121.6394 1.855267
11.44635 123.0965 0.08324187
10.72239 120.8538 1.005839
10.45058 118.3578 0.00617163
9.817286 118.9459 -0.3733069
9.209945 118.1506 -0.8678966
9.48272 119.3324 -1.082036
-9.222492 68.8045 -3.598872
-7.84502 69.53703 -3.884964
7.631564 143.7167 -7.655133
7.69432 145.0701 -6.505188
6.166409 143.1583 -9.058657
0.8820302 105.7526 -6.636176
9.449142 117.847 -0.9782329
9.635152 116.0066 -0.2295233
-3.891157 71.40385 -4.501375
-9.092185 73.60448 -3.631793
4.942255 143.5469 -9.115803
7.398902 95.82738 -9.271925
5.596387 93.55851 -9.96757
3.770337 94.70065 -9.988623
6.820219 94.68407 -9.611529
6.171029 94.36742 -9.832385
4.549394 95.35526 -9.936076
6.264676 98.45623 -9.260218
-6.114685 74.99829 -4.255957
-8.171755 71.07863 -3.894246
5.113658 140.7587 -11.45185
0.3927474 94.674 -9.974771
-3.028892 94.95848 -9.965619
6.94064 97.83478 -9.127754
12.43787 100.9031 -2.115978
11.13638 106.936 -2.931134
10.86789 98.31268 -5.613921
-9.055553 74.4428 -3.672873
5.435871 142.8074 -9.902858
1.576769 143.3988 -10.91195
2.007708 93.71078 -10.03473
1.010129 97.08575 -9.743793
3.030543 97.95839 -9.625687
11.1505 100.8776 -4.786674
12.29287 98.24614 -2.810025
-7.350607 75.01637 -4.139788
3.391282 142.6459 -11.20308
3.821019 139.6034 -11.48367
3.200975 142.7978 -11.16157
0.9642796 142.2374 -11.13639
1.512465 94.94083 -9.960532
-0.6370369 94.53632 -9.986401
3.974657 98.87008 -9.478922
4.279799 97.9608 -9.629412
12.92913 97.71939 -1.243772
11.41174 98.01189 -4.756627
-4.999298 74.07305 -4.311549
2.909241 145.0175 -10.45763
2.333602 140.7109 -11.4091
0.7579792 143.3217 -11.14988
-8.70005 95.70451 -8.548079
11.49998 96.15985 -5.078185
0.7809415 139.4541 -10.42935
-4.624244 96.41907 -9.840357
-7.225965 99.79321 -8.55025
1.051425 98.56675 -9.507242
-2.013257 99.81166 -9.26829
-8.510258 100.9141 -7.482711
-5.045345 98.15083 -9.527996
5.890911 137.9031 -10.58587
2.666243 138.2217 -10.86634
-6.206941 137.7555 -10.82758
-2.197422 94.97326 -9.961011
-2.236839 96.48915 -9.824133
-3.92006 94.28903 -10.02166
-7.998497 95.15639 -9.079413
-6.885807 96.99291 -9.281417
-4.654944 98.50324 -9.519529
-2.677468 98.00856 -9.598394
1.283086 93.14777 -10.04533
-6.662529 94.05853 -9.738353
-9.700866 96.3765 -7.638109
-9.670852 92.39156 -8.052065
-7.608114 147.2357 -3.731747
-7.025012 146.8438 -5.821415
-8.387509 142.9836 -8.590618
-7.972607 145.783 -6.267796
-4.600004 144.9359 -7.433244
12.95112 130.8287 -2.934323
-11.3095 128.1826 -4.391212
-8.998204 130.2243 -7.681615
-12.12776 129.8291 -4.387453
-12.63915 130.0091 -2.843913
-11.1109 126.6206 -3.373579
-10.67831 129.5801 -6.171102
-7.462049 123.1773 -4.388835
-9.47238 121.9879 -2.49333
-10.15783 126.3545 -4.626661
-11.54149 125.8857 -0.8739176
-9.876294 123.8412 -3.646936
-11.20971 133.7322 -7.552503
-9.835656 123.8423 -3.700965
-8.422242 124.0078 -4.342227
-10.5629 124.3785 -2.868925
-11.05063 133.3201 -7.524217
-9.811701 135.2269 -8.826148
-9.145542 132.7048 -8.336051
-10.44127 134.3262 -8.359063
10.89007 107.6091 -2.805941
-11.22803 111.177 0.507937
-8.545914 111.7644 -2.653994
-9.360205 117.9469 0.0463445
-9.925017 116.5649 0.4602969
-9.826142 113.181 -0.6315109
-8.218122 117.8647 -1.632707
-8.147105 118.3661 -1.876611
5.806663 68.25432 -3.716043
5.311873 69.37443 -3.771502
4.34946 69.08543 -3.772474
-12.59592 104.2255 -1.513568
12.20654 131.0904 -5.136086
-12.38447 73.88873 -1.593575
-13.24545 74.92524 -0.5642948
-14.45767 70.94387 1.615096
-14.48443 73.42624 1.773408
-14.18331 88.69167 -1.837858
-14.4073 90.95892 -0.8064941
-12.15242 87.19148 -4.690415
-14.42878 87.3427 -1.323244
-11.60102 84.75408 -4.75107
-13.78483 82.33903 -1.757532
-8.01694 104.833 -6.333089
-10.26121 103.3461 -5.324095
-11.17276 103.185 -4.302508
-7.665176 103.7641 -6.934809
-5.933063 102.0846 -8.308665
-9.345906 105.5966 -5.139659
11.00983 105.7838 -3.626963
10.51024 104.2095 -4.625941
10.42577 104.7387 -4.546824
10.35668 102.7115 -5.421643
12.1392 106.3128 -1.639208
10.97568 105.0818 -3.894652
10.57872 107.0002 -3.495695
5.938705 99.52272 -9.122071
6.543924 103.6438 -7.454761
8.382625 103.5022 -6.689447
9.971375 106.3147 -4.375672
9.249282 102.9727 -6.333607
12.61636 107.0845 0.9055899
4.393197 144.9939 -8.001366
-9.68748 140.3402 -10.37004
-1.234441 137.0196 -11.39399
-4.256518 145.0843 -7.469225
-8.162519 141.7834 -9.894535
-4.790451 142.8161 -8.888494
-7.739543 138.8345 -10.72288
-2.799099 144.0506 -7.87897
-5.242072 141.0262 -9.363487
-9.098884 142.806 -8.663764
-10.31046 136.7154 -8.488018
-11.06746 137.6912 -8.922085
-9.246233 135.5606 -8.981859
-9.9888 136.2139 -8.599144
12.24992 68.67823 -1.516766
13.17832 68.0648 -0.5254132
14.66148 69.50941 2.429078
14.25837 68.62789 1.659309
10.74222 112.3655 0.6493753
2.222019 69.11231 -4.951442
0.3293142 68.90845 -4.408713
-2.073328 71.39753 -5.055727
1.313369 71.21931 -4.697305
13.66621 84.24541 -2.225573
0.3878324 69.27354 -4.409784
-12.09917 87.8121 -4.820285
-11.61299 93.19234 -5.458827
14.06445 86.0548 -1.884211
11.32064 88.05671 -5.93469
8.75382 86.51478 -7.318844
-6.270133 98.89165 -9.1356
10.39388 133.089 -7.801041
6.603893 135.7652 -10.45739
8.626821 135.8057 -9.615224
4.901873 137.6527 -10.87793
5.537333 89.8483 -9.671658
5.579769 89.27454 -9.532644
5.701657 91.70354 -9.971539
-3.620446 119.8305 -5.638864
6.803574 120.5757 -4.399085
10.15455 123.4473 -3.073877
9.25261 119.5168 -1.953997
8.554954 116.7368 -2.177164
9.457396 115.808 -0.7638891
6.702888 115.9524 -2.735565
7.457191 116.8732 -3.230866
6.703596 118.1451 -3.171969
6.126683 116.6236 -3.591465
5.019046 118.4507 -4.807902
4.874544 115.4299 -3.379849
5.413335 114.6221 -3.289636
6.427419 114.9261 -2.893095
5.158615 115.8654 -3.442518
8.171795 114.5769 -1.850846
-7.453245 71.44745 -4.000274
-6.870976 71.41324 -4.040988
-4.7375 74.83899 -4.365481
-9.180792 75.41199 -3.747492
-3.442228 142.5886 -8.805344
-0.5784817 142.8968 -10.2079
-0.7330123 145.2672 -7.452521
-1.442948 142.4658 -9.647169
-1.913587 145.0656 -7.542177
-2.069225 101.59 -8.686238
0.1698734 135.3217 -10.19517
-6.094388 90.50986 -9.764911
-8.332752 92.92329 -8.922656
-11.22836 88.71825 -6.096946
-3.590435 91.25017 -10.03265
-10.13487 91.29987 -7.623695
-4.859757 146.7019 -6.395133
-7.889284 143.1658 -8.552712
-6.690327 132.1821 -8.905148
-7.653021 128.383 -7.159272
-10.3704 126.7022 -4.668687
-8.088525 120.7096 -3.148336
12.33115 107.5013 -0.1397822
9.881962 112.9246 -0.6888683
9.477448 111.7653 -1.933068
-11.70124 110.3844 1.136844
-10.63663 112.6107 0.4684211
-7.770949 119.3638 -2.710565
0.6775635 114.072 -3.554018
12.25577 131.9947 -5.789296
11.80713 129.0091 -4.1613
10.2909 133.3847 -7.957478
7.49031 131.6288 -8.620856
6.92671 133.5982 -9.041559
10.0192 130.6406 -7.256666
7.452308 70.6334 -3.970315
4.075077 69.503 -3.834955
5.269321 68.50946 -3.700862
7.773033 67.4705 -3.814556
7.968333 68.96156 -3.827259
9.139537 69.50723 -3.462777
3.789629 70.00574 -3.982077
10.85196 70.46523 -2.634303
8.667973 73.98802 -3.737815
6.373316 73.62936 -4.124688
13.94175 74.77999 0.6925806
10.0623 72.8732 -3.118303
13.82491 73.18039 0.5048946
11.6128 75.89368 -2.498785
7.542428 72.41931 -3.955326
3.426969 73.92125 -4.328897
6.360407 72.63058 -4.095222
10.05895 74.65775 -3.323201
10.79935 76.7421 -3.284954
11.74014 74.86677 -2.196431
10.45532 74.3905 -3.083037
13.87439 74.63682 0.5734971
1.073829 86.80276 -8.404933
5.223306 76.77641 -4.493766
4.792514 77.77402 -4.717297
11.50327 77.49864 -2.998809
10.27372 79.75073 -4.232132
13.09909 75.76092 -0.9231095
12.06873 78.18706 -2.767962
13.80612 75.23136 0.3137522
9.149113 76.7518 -4.046198
12.93847 80.46374 -2.417502
11.4444 79.20512 -3.453934
12.31753 83.82354 -3.869076
12.36719 81.46754 -3.248439
12.13986 85.0051 -4.353776
11.76079 80.17385 -3.504499
12.25449 82.66628 -3.72103
13.93401 81.64195 -1.290279
14.9374 82.06167 1.266841
10.91979 81.43073 -4.43198
10.2441 81.03109 -4.719846
4.768273 78.68262 -4.944672
9.669191 78.74156 -4.319623
14.47524 77.774 1.333628
3.155561 73.85154 -4.375793
-0.8234848 72.99094 -4.621263
7.203907 79.52875 -5.179503
13.42356 80.29361 -1.739918
14.39653 79.62957 0.4686575
9.186962 87.62968 -7.630717
7.290389 85.77892 -7.65835
10.96697 85.46488 -5.542709
8.461711 87.42221 -7.928982
7.264817 78.36321 -4.848473
6.249788 84.4173 -6.793437
13.8918 79.54493 -0.6349714
-0.3154803 76.21927 -4.538922
-4.659725 75.33646 -4.372123
-2.910465 75.50431 -4.474659
11.5956 86.24989 -5.223471
6.862504 84.89532 -7.101329
7.027164 84.49428 -6.822659
4.450441 87.01987 -8.57695
2.71927 85.75856 -7.749753
3.842239 79.79617 -5.230433
3.677257 79.47971 -5.150475
-3.153874 82.71772 -6.016288
2.520077 72.32771 -4.622437
3.711928 87.06052 -8.590384
3.482209 86.36643 -8.185759
1.696985 79.12991 -5.053114
5.542514 79.805 -5.242162
-0.1809071 73.8796 -4.479125
-1.79117 76.03728 -4.509415
3.67792 83.96461 -6.603398
3.486468 84.41083 -6.868599
8.661916 84.2961 -6.271799
1.393502 85.2179 -7.38558
3.781904 77.11171 -4.609646
6.715248 81.83022 -5.638354
8.471723 84.07435 -6.216901
2.836015 81.24751 -5.595616
4.388258 80.89349 -5.499898
0.9090782 80.9798 -5.526372
-10.07192 81.17773 -4.826163
0.5096449 83.34727 -6.329255
-2.208538 83.85044 -6.532852
-0.05237732 85.98181 -7.883407
-1.823894 74.9361 -4.593956
4.802114 79.32288 -5.11405
-6.646153 78.89393 -4.887412
-12.29594 108.0484 0.489699
-10.90771 107.2995 -3.014798
-11.41913 108.5513 -1.430775
-10.96392 106.7944 -3.266201
-7.68848 110.3285 -3.78657
-9.684791 108.9735 -3.289893
-9.487359 106.8748 -4.513783
-8.728717 105.2748 -5.700094
-4.4092 107.1202 -5.838416
-6.798437 107.1702 -5.483464
-8.826317 107.6221 -4.561178
-12.66531 74.42153 -1.305539
-12.53839 75.19852 -1.505448
-12.98705 77.25417 -1.46856
-11.72034 77.07234 -2.738352
-9.474255 75.19197 -3.587691
-10.72649 77.90337 -3.620785
-10.20995 76.17808 -3.430513
-12.75643 86.39403 -3.814301
-14.37472 85.40754 -1.313216
-13.25157 87.26216 -3.236435
-11.49827 89.86836 -5.910385
-10.63457 90.86057 -7.034297
-13.01834 87.59732 -3.570824
-11.3526 82.60499 -4.398857
-8.14481 88.27558 -8.46058
-10.71792 86.54881 -6.128961
-12.84447 84.31094 -3.337759
-11.56406 82.36425 -4.132995
-8.977933 84.07354 -6.030446
-7.235983 84.38506 -6.631422
-8.358718 81.81783 -5.494851
-2.472592 100.0657 -9.201328
-6.046103 100.7424 -8.719328
-5.417432 102.5546 -8.192773
-5.546324 105.5176 -6.598743
-8.000709 102.0087 -7.44727
10.55641 109.5557 -2.038784
11.79037 108.5008 -0.6602472
11.75501 110.0757 0.9909435
7.882995 108.5806 -4.604364
11.27536 110.7299 0.2225759
8.463025 112.4291 -2.439381
5.794409 113.5768 -3.333314
-2.416701 108.2007 -5.389197
6.63865 110.0268 -4.25295
3.413794 110.9084 -4.255539
3.606712 114.4933 -3.558733
4.501253 114.0501 -3.52408
5.525166 110.3877 -4.289477
3.274625 111.4354 -4.078876
-0.8658041 109.5626 -4.74707
2.706441 111.2957 -4.124328
0.4081916 113.209 -3.508046
-2.797914 106.9071 -5.999108
4.292012 110.2344 -4.451201
-0.8788421 106.8009 -6.083573
-1.903348 106.0426 -6.475341
0.4269683 109.5801 -4.738032
-2.718839 111.8381 -3.967966
-2.422799 111.5758 -4.050132
-0.9559447 108.3099 -5.319393
0.5303642 108.2987 -5.329032
0.8456773 111.2607 -4.136014
-3.492724 109.5404 -4.748466
-8.024548 108.9693 -4.325284
-6.53 111.6435 -3.622289
-2.448507 114.2083 -3.560576
-6.854346 110.5672 -3.970543
-10.4806 111.0685 -1.134753
-9.488086 112.9367 -1.276682
-9.489605 111.7718 -1.914561
-8.8799 112.175 -2.20883
-7.095011 114.0121 -2.467181
-9.396088 113.877 -0.8652297
-3.831503 112.6656 -3.735131
-6.804538 113.4395 -2.984295
-2.680137 112.989 -3.680567
-3.595064 116.356 -3.633606
-7.579363 115.3156 -2.555212
-3.894211 114.1026 -3.556437
5.698603 101.698 -8.503081
8.774652 104.9339 -5.802356
6.605654 103.2392 -7.625597
8.447927 104.6314 -6.171771
4.01745 106.3423 -6.275784
7.250019 104.2218 -6.942061
3.836685 105.7828 -6.59807
2.448285 107.092 -5.938729
4.909427 106.7597 -5.975993
2.894614 104.1396 -7.5005
4.674959 105.184 -6.880364
1.533003 102.9153 -8.102536
11.00371 112.9227 1.961236
-12.88438 89.54022 -3.85147
-14.22722 91.51125 -1.057052
-11.49428 90.36482 -5.905236
14.96371 89.18085 0.2165017
13.92101 89.97494 -2.207559
12.4168 86.99393 -4.337267
13.85934 86.53721 -2.330331
-7.120642 118.7726 -2.792851
-5.680216 117.0142 -3.602982
-5.789938 118.9366 -3.954786
0.1592382 139.9841 -10.15406
1.309808 137.7405 -10.81264
-0.653355 139.8268 -10.10548
-1.178642 136.2982 -11.03814
-3.971533 141.1646 -9.469434
-3.518821 141.4414 -9.369425
-5.87268 139.6623 -10.54269
-7.375136 139.4792 -10.30016
-3.094229 141.1466 -10.48755
1.01053 99.00819 -9.428966
-3.44153 99.20177 -9.416157
-9.175732 90.35085 -8.469431
-4.762083 89.15165 -9.60905
-5.807697 87.38412 -8.712327
-11.14603 90.32127 -6.413053
-9.653037 88.26203 -7.511139
-7.434672 85.83492 -7.476348
-6.551245 86.17416 -7.949949
-7.900053 86.24933 -7.61105
-5.281862 85.47134 -7.451462
-0.5255691 123.9516 -5.91492
-8.117918 123.8159 -4.393669
-7.968537 125.2044 -5.513666
-11.19341 125.5014 -2.465688
-4.152169 123.8318 -5.637359
7.932032 120.0277 -3.781726
6.087955 118.4569 -4.217453
4.094174 116.8785 -3.95108
6.270324 118.5884 -4.151672
1.269247 114.9871 -3.873298
0.5777444 116.0686 -3.88373
3.491688 117.8215 -4.632597
2.186283 120.1052 -5.205461
2.292995 118.3366 -5.37641
-1.852173 117.8355 -5.160515
-0.5919706 119.1677 -5.946785
2.727001 120.8656 -4.445046
6.280818 124.5317 -6.037536
8.850576 121.4935 -2.753697
7.3798 123.4878 -4.562158
-1.640752 117.8149 -5.092381
4.63363 121.7399 -4.752288
11.74073 127.372 -1.916415
11.12072 123.3255 -2.109603
1.603606 120.133 -5.180409
3.404542 121.6571 -4.663116
11.32036 128.3794 -4.525985
9.843245 124.8305 -4.004518
-0.04341904 119.4739 -5.796858
-2.48091 118.448 -5.747186
7.960493 121.6865 -3.871757
10.30403 127.2316 -5.081308
10.37995 128.4614 -5.794261
-2.289513 119.4825 -5.882814
-3.527834 125.1392 -6.227644
-5.07385 121.4404 -4.702197
5.93131 122.578 -4.882042
-2.90869 119.0803 -5.798651
-4.905186 118.8843 -4.495309
5.081311 124.2392 -6.180183
4.687672 124.9622 -6.01913
9.877383 128.2942 -6.129751
8.414335 127.0139 -6.115017
9.160427 125.0444 -4.681183
8.499795 125.0719 -5.270422
10.94302 125.6223 -2.493141
6.052652 124.0355 -5.462008
3.636392 123.933 -5.847747
1.002063 126.0483 -6.149768
3.908276 125.8684 -6.138344
7.690916 129.3057 -7.630756
8.699633 129.2464 -7.327528
4.582496 69.76418 -3.770189
5.402157 71.26344 -3.991104
13.60578 74.84901 0.07956905
5.79313 75.60025 -4.297879
2.530513 91.22778 -9.977812
-0.4183445 93.08475 -10.03663
3.020962 92.05896 -10.04393
0.08773279 89.47778 -9.62686
-1.243173 88.93867 -9.448977
-1.734708 93.50809 -10.03387
-0.5998757 91.94553 -10.02586
-3.973223 87.17262 -8.679433
0.4955412 88.1013 -9.132755
-2.844964 92.12475 -10.06355
-5.949553 88.77185 -9.376996
-5.458067 86.36325 -8.181463
-1.112309 87.62694 -8.886086
-4.356268 88.01858 -9.147609
-4.336132 86.29832 -8.104634
-4.261738 79.87374 -5.206917
0.8672898 78.00669 -4.804561
-1.726238 78.87643 -4.97693
0.7091349 82.64802 -6.066247
-0.2899611 80.96725 -5.516219
-3.735489 83.14942 -6.14576
-0.3954206 82.6104 -6.038797
-4.639868 84.04204 -6.533158
-7.03508 79.76722 -5.20201
-3.50876 85.85349 -7.753843
-6.852036 83.78755 -6.353697
-6.671402 82.60732 -5.832572
-7.780741 81.00433 -5.415644
-8.933206 82.35345 -5.46377
0.2795381 86.7546 -8.373336
-4.840998 81.56913 -5.639273
0.703871 86.36511 -8.130873
-9.227726 79.28306 -4.642157
-4.767423 81.53154 -5.631178
-2.005504 80.11906 -5.283693
-5.564034 79.20648 -5.001805
-12.1818 79.70912 -2.965495
-11.6025 82.03499 -4.045156
-9.297223 79.06706 -4.564584
-9.680808 77.9228 -4.10431
-10.56851 79.49801 -4.125523
-13.73372 87.71387 -2.526243
-3.050409 103.6963 -7.72215
-3.319288 102.1489 -8.483635
-1.42484 100.9049 -8.917996
7.451037 110.38 -3.901286
5.921927 108.9689 -4.80709
-4.540145 116.6937 -3.715688
-5.205576 116.5934 -3.477458
-4.150306 118.1939 -4.903109
-1.387935 115.4348 -4.122256
-1.072726 116.3038 -3.791029
4.012536 101.3889 -8.767724
6.151009 100.4419 -8.79702
1.554861 101.4325 -8.728536
-0.1237448 104.2089 -7.459674
-1.905387 107.0943 -5.921731
3.022757 104.9684 -7.058274
0.16769 103.5164 -7.809391
-1.758399 105.8023 -6.60862
13.89334 87.1965 -2.323816
4.051593 135.9385 -11.1596
8.318807 136.1441 -9.732491
7.602728 135.0687 -9.649977
6.213659 130.7666 -8.491684
-5.228525 140.1635 -10.62228
-5.803301 137.4159 -10.8649
-7.055315 136.5565 -10.46485
-2.272627 136.2367 -11.07058
-7.784184 136.1848 -9.907232
-6.209213 135.796 -9.639887
-8.929136 134.0956 -8.826604
-2.885559 137.2932 -11.3319
-0.860456 135.9004 -10.89979
-3.065176 134.6693 -9.04045
-5.652052 133.7285 -9.02582
-7.559683 133.6886 -8.941441
-6.335033 126.4477 -6.232313
-3.545277 125.8942 -6.088881
-2.267447 125.5084 -6.133579
-1.234661 121.0766 -4.514679
-4.835274 124.1635 -5.810007
-0.803666 121.7322 -4.894563
1.133186 121.6333 -4.734919
3.271923 123.3222 -5.590043
0.1465929 127.0517 -6.419241
-0.2827161 128.0457 -7.186304
-0.1623635 126.5478 -6.215184
2.628954 123.6634 -5.720824
-2.758135 123.5479 -5.787925
-0.7372273 123.0848 -5.780238
-5.584836 124.1819 -5.601269
0.7603067 127.7615 -6.813676
-3.266748 123.5233 -5.663361
3.428426 128.5013 -7.274448
4.333915 125.4869 -6.022168
4.875439 130.2184 -8.419962
4.85612 132.3451 -8.915926
6.351251 128.3586 -7.151983
5.508704 128.1647 -7.049009
3.241387 127.9646 -6.886899
1.962252 130.0277 -8.467734
4.095806 129.2565 -8.001982
4.523961 129.2814 -8.005354
3.338081 133.285 -8.892063
3.663762 135.0446 -9.409526
-0.1195556 133.3442 -8.863762
-2.945798 135.2395 -9.3025
-3.468213 132.1832 -8.970512
-3.879188 133.6286 -8.909523
-4.378623 133.7315 -8.903558
-2.103776 133.1263 -8.913651
-4.227568 130.5406 -8.608639
-4.736073 127.8467 -7.201183
-7.200597 132.7214 -8.897557
1.556593 131.2146 -8.910154
1.436745 132.4295 -8.913579
-2.529725 129.6978 -8.179884
-7.641304 130.1099 -8.03431
8.356794 127.6461 -6.508543
7.549562 126.9589 -6.322549
1.536861 90.07822 -9.796947
-11.8436 78.85325 -3.085326
2.275942 101.0311 -8.868369
-2.561538 104.1214 -7.501515
-2.425301 103.3716 -7.885154
7.228494 135.5023 -10.10122
5.591714 135.5789 -10.36518
-7.193449 129.871 -7.995501
-5.303065 129.3384 -7.848145
4.318736 135.2038 -9.589884
1.649045 131.168 -8.89719
0.1249624 133.1595 -8.869714
-1.370487 131.7073 -8.945436
-0.08523157 128.9146 -7.835855
-2.593587 126.9941 -6.517059
-3.87248 127.7542 -7.152339
-3.388907 128.1443 -7.394334
4.867139 144.4428 -8.146608
3.268323 127.6646 -6.748165
-16.5488 60.32335 7.157143
-16.03096 61.28012 7.012652
-7.259965 135.8573 11.0853
-12.60934 62.13199 9.84275
-12.50014 62.93319 10.57295
-13.48442 60.92553 7.679778
-16.34288 65.18299 6.236262
15.15972 67.16534 5.666334
14.88158 61.72333 8.522017
7.19346 62.3654 12.37055
-14.83492 76.24757 5.702693
-0.009818477 63.70504 13.56668
-15.28453 82.84978 4.597732
-14.80347 75.39855 6.272863
-10.53024 62.88809 12.55995
0.8099265 69.85945 12.88489
-7.585293 63.46511 11.81623
-5.408351 62.80535 11.39389
-12.88864 137.1171 8.214452
-1.692062 62.95983 12.93829
15.55773 64.89552 7.051703
-14.59271 93.0538 6.866381
-12.59307 61.6244 10.33807
-15.89008 65.32589 7.003015
-14.31032 96.69267 3.065236
-10.65508 63.49701 12.52347
-2.668259 64.07063 12.27229
-0.5692915 64.88242 13.28129
15.3237 85.53805 5.357863
14.98179 78.44474 5.317471
7.894613 66.48837 12.77238
-11.17026 123.7991 5.120963
-15.50022 63.54807 7.325693
-13.12118 104.8274 2.978209
-6.850339 63.14802 11.72542
-10.5854 114.662 5.123819
-11.77281 131.7015 6.01846
-12.03369 144.8092 3.646156
-6.993399 147.4169 -0.5266148
5.041528 137.3786 11.04797
-12.72136 62.77108 9.271007
-6.631312 145.3361 6.493175
-8.771919 146.3278 -0.01341878
12.03183 67.01748 12.45374
-3.095228 140.5568 8.90124
-4.290401 143.3748 7.444529
-7.399848 143.8737 7.051821
0.3911043 138.8736 10.98339
-1.104779 140.5195 9.467669
9.680526 63.46607 13.42518
-7.660391 146.6243 -0.2596174
-12.5669 143.0383 4.542295
-6.013302 148.1587 0.6427385
-6.010523 146.6247 5.713887
5.378046 135.5276 11.37612
-8.457778 144.5147 5.45399
15.21443 64.17506 5.454272
-5.312604 131.5875 12.76324
5.115748 63.96759 11.51264
6.683425 62.35159 12.0001
-7.857478 126.8948 11.27103
12.0497 63.73803 13.02987
12.7233 61.6581 11.66993
5.151525 64.35625 11.52659
11.69708 64.11765 13.13915
7.648696 65.57473 12.64357
14.77913 94.66728 5.003495
-5.107094 62.12812 11.3395
13.5141 100.3888 4.451007
-6.1003 62.45543 11.63877
12.91462 105.9206 4.011238
12.82295 61.98521 10.25837
13.74253 61.76833 9.031029
12.8144 65.30664 10.29954
-6.919203 141.5957 8.250466
-12.89557 106.1438 3.880569
15.93529 62.03238 7.908821
15.13022 81.24709 5.75186
-12.53779 143.8382 4.109561
15.06123 90.2943 6.292201
15.21241 64.41721 5.369247
-10.44505 65.94913 12.46025
15.327 67.87552 5.939215
15.35997 62.10476 5.83043
11.82527 136.7183 8.402113
4.948527 138.4106 10.11559
1.759019 141.0924 10.62873
1.825074 140.587 10.71057
3.576763 141.6951 8.849864
4.756804 144.0332 7.092566
5.383321 143.7131 7.120295
5.489254 146.1517 4.928484
5.360256 144.7116 5.985006
5.43094 147.3024 3.101016
5.876133 146.6945 3.057611
-9.627557 146.4415 -0.2821605
15.49438 68.75478 6.532727
4.267172 62.80619 11.56532
10.44822 115.1006 5.685254
-12.74908 61.5043 9.390495
10.82584 118.7654 4.67611
-11.4696 129.8961 5.272619
12.52646 134.55 7.687551
11.57899 129.2835 3.704716
-16.12498 64.50524 6.815528
12.37582 144.7725 3.126804
5.696006 147.9194 -1.028104
7.264911 146.7776 -1.953309
11.31751 136.927 8.303189
11.73442 134.8688 9.517506
10.81418 142.9918 5.049243
-10.57952 146.1102 2.751361
2.393009 136.3651 11.09334
0.4193055 63.47831 13.51875
8.960286 145.5905 3.608502
6.797745 146.4628 1.602815
6.922545 146.3651 1.002429
9.614024 146.2817 -0.2908109
6.141329 147.4657 -1.521142
11.66981 132.1229 6.701162
11.40146 130.7793 7.324165
11.43653 128.3584 3.858922
-12.40682 63.55901 11.93611
-15.8816 62.90898 7.256477
-14.31351 77.74924 8.092844
-7.952099 65.03802 12.12102
14.94052 93.9129 3.785111
-13.91417 91.32426 8.458653
13.32513 101.9065 3.908527
-10.37186 109.1057 9.154125
-11.47236 130.9021 7.019228
-10.90964 129.3493 7.089874
-11.27402 129.0859 4.807474
-10.97061 129.9636 8.320358
-11.45285 132.5269 8.056483
-11.7595 133.7066 7.697613
3.406882 116.1967 12.49874
-5.546988 114.5631 11.4519
12.10092 106.6701 7.117067
-8.056672 146.1079 5.047218
-9.494887 146.357 0.8615384
-9.914407 146.1345 -1.228142
-10.6797 141.9617 5.864003
-9.300537 139.1984 7.811002
-10.6204 133.4848 9.699916
7.984285 65.70446 12.80121
13.33992 63.19331 9.349643
8.989942 67.32668 13.05968
15.01269 68.96799 5.493625
15.09098 69.4865 7.610284
12.18128 137.5987 7.396758
5.249312 138.6961 9.677329
12.71007 137.1385 8.010976
5.983152 141.5147 7.829144
11.37099 144.8689 3.693899
7.999204 145.7905 4.289951
10.86876 142.3938 5.350238
12.13805 141.8335 5.205572
11.48087 126.0114 3.66485
10.39552 132.3356 10.13856
10.85188 129.174 6.248806
-13.5615 64.49851 7.949299
-15.83536 67.771 6.390492
-15.00177 70.9564 7.407098
-14.76603 78.9509 6.897184
-14.7607 74.49211 7.073065
-14.62827 76.40647 6.94159
-11.40244 64.01034 12.53296
-6.9047 65.65205 11.98713
5.802613 65.58277 11.68849
9.794552 87.13047 11.71237
-15.01945 92.2084 5.800091
-14.94656 93.28558 2.775904
13.75946 93.9895 7.986169
14.17724 96.96223 5.762757
-12.83136 105.0214 5.16953
-1.631645 138.9983 10.38639
-11.03168 129.687 7.509896
-9.233277 127.7417 9.958921
-9.310329 128.7294 11.13486
-11.18965 131.9415 8.692235
-9.160984 133.3615 11.49555
-10.14893 132.1471 10.52007
-10.03759 133.9059 10.85679
-10.08964 134.5934 10.64306
-11.13981 123.1984 4.83339
-11.5475 111.3016 5.310149
11.29619 112.159 5.374619
10.58944 117.761 5.17973
-11.88019 145.6877 1.948883
-8.241771 145.4741 5.455775
-8.183722 146.363 3.926521
-5.536926 141.345 8.483526
-9.47527 142.6909 6.233387
9.554719 64.09748 13.37024
9.274871 66.59555 13.15321
14.83288 76.50465 5.611212
14.17349 75.56016 8.163047
13.43812 63.73771 9.241207
8.859653 65.05341 13.14662
15.73997 65.88226 7.100471
11.7292 133.8729 8.085758
4.780087 140.2548 8.987923
2.236501 138.5088 11.25737
12.40724 144.4439 3.680824
6.731984 143.1707 7.100557
11.32551 124.948 4.416172
11.2094 121.4727 4.718182
-13.88339 65.73578 7.7884
-14.72681 71.04103 7.571558
-15.27845 72.26321 6.637749
-14.91409 77.9271 5.759002
-13.51508 73.34452 9.546621
-14.54542 77.67054 7.383284
-10.45767 65.13684 12.48521
-9.461883 63.69513 12.15732
-12.38049 63.21749 11.61508
-3.497642 64.29588 11.89888
0.9472198 65.51724 13.16343
15.40885 88.72141 4.486069
14.84303 90.65596 6.85811
-15.28974 91.38262 4.923376
-14.95892 92.10132 6.118584
-14.09306 97.83987 4.855237
14.15425 97.46853 5.26312
14.58132 93.58851 6.661995
13.6889 99.71626 3.756366
11.99865 105.5771 7.5533
-12.90748 102.5984 5.623173
-14.40176 96.57997 4.310427
1.088001 136.6025 11.02734
-10.70751 126.7799 6.39512
-9.927377 128.3481 9.266241
-10.62024 132.4875 9.798398
-12.10029 137.2036 7.231443
-10.44758 135.5079 9.356705
-9.235006 136.4475 9.266181
-11.00536 127.0405 5.500831
-10.96614 120.1386 4.482184
-12.32124 109.2778 3.632268
-11.31697 110.4249 6.651022
12.51449 105.965 6.169279
11.86899 109.8446 5.895463
12.3887 108.5985 4.95756
10.66355 114.4275 5.238826
-11.13275 146.1147 -0.444688
-8.761086 146.2464 1.646182
-6.260099 143.9007 7.166781
-6.390414 143.2215 7.454621
-4.281365 139.1704 9.431151
-11.5323 139.4779 6.477478
9.72961 64.89326 13.3194
14.83508 76.22733 5.546381
14.98034 71.5856 7.529334
15.74689 65.47979 7.20284
14.60819 68.12116 8.045108
12.52462 134.6423 8.083164
5.719368 140.6701 8.400941
10.27196 139.0816 7.303472
9.820485 143.7296 5.208793
7.435207 144.8287 5.59852
-14.15542 71.37654 8.047275
-13.9002 73.05812 8.902219
-13.9082 70.68176 8.791968
-13.80373 70.4979 9.204763
-15.2102 81.7294 4.871016
-15.01491 79.12892 5.557473
-13.87383 84.34064 9.153726
-14.01522 79.90959 8.842929
-14.22778 77.16035 8.217198
-12.9519 65.08302 10.60016
-7.475471 66.3483 12.14394
2.910083 64.42609 12.20582
15.37491 87.26321 5.008878
14.69508 87.40028 7.641291
13.85003 83.56625 9.291245
15.28549 89.35889 5.673577
14.95357 80.99988 6.535623
-15.34283 86.06986 5.216108
-14.80015 91.57717 6.775016
-14.2986 96.97144 3.906091
14.20085 97.46768 4.11389
13.45268 100.8958 4.366224
12.90188 105.2484 4.823329
-13.34044 101.9505 3.921447
-13.20175 103.8543 3.053877
-13.87333 98.75221 3.1327
-12.6361 107.5182 4.60663
-10.02368 126.4439 8.143246
-10.91488 126.9255 5.787162
-9.610194 135.2016 10.42535
-10.83463 123.778 6.345783
-11.24594 124.6417 4.83956
-11.13896 119.0218 4.364653
-10.19436 117.5223 6.367493
-11.94158 107.9442 7.12265
-10.96628 111.5868 6.820664
-11.39833 111.774 5.287884
-10.89565 113.2557 5.592806
11.58873 109.5652 7.055233
12.13056 109.4972 5.180357
10.48238 116.9526 5.30349
-9.100048 141.954 6.910459
-2.119496 136.4324 11.30081
-5.136487 136.7744 10.56147
12.92948 66.40429 10.1481
14.40145 76.70373 7.691028
11.13734 77.31821 11.75096
13.92241 76.98541 8.852183
14.66761 81.51258 7.512547
14.67575 64.19681 8.701823
13.0188 68.47038 10.0843
12.91665 68.34917 10.84385
11.0351 136.6289 8.73607
11.25874 123.3563 4.900419
10.46171 120.5475 7.212031
-11.7994 75.35915 11.19804
-14.88247 83.44501 7.138988
-10.69974 67.32767 12.3509
-12.73413 68.81053 11.00501
-5.419367 65.94143 11.71168
-9.80081 66.14471 12.46239
-7.24211 67.62588 12.18177
-6.344244 71.62164 12.23562
-9.31675 67.78928 12.44537
-4.663724 66.87684 11.6753
-3.646558 67.16338 12.16349
-10.4058 77.09045 12.05003
-10.7065 70.5871 11.89235
-9.964085 70.59638 12.12941
-11.62854 72.05196 11.44345
4.062526 67.42694 11.84414
-0.1385095 65.62657 13.41387
15.36233 87.87644 5.141025
14.99356 86.06934 6.817267
14.8464 85.29551 7.302861
15.29028 83.94566 5.171636
13.19599 79.51053 10.12335
14.50066 93.75857 6.800602
-14.76108 89.34131 7.288469
-14.05586 97.91138 3.281029
-12.43672 100.5134 7.787667
-11.76857 96.42281 9.444623
13.05112 104.1472 4.375982
-13.42216 100.774 4.801718
-12.41953 106.0814 6.455208
-9.888625 125.2195 8.594321
-7.478681 127.6772 12.04091
-10.37963 118.1209 5.926422
-10.76631 114.6091 3.70849
-12.10144 109.2147 5.506926
-10.23948 114.3796 6.679939
11.75815 105.9887 8.014389
11.91089 103.6707 8.08335
11.83383 108.824 6.900399
9.816252 108.5188 9.890273
8.906708 106.495 10.90077
10.05218 105.6192 10.1242
-7.614575 142.6095 7.376084
-8.551329 141.5856 7.343605
-3.022704 136.0645 11.39277
4.653051 66.57423 11.68955
13.91268 73.41297 8.699182
13.60312 73.29878 9.123525
13.82958 72.86507 8.794562
13.24923 70.71317 9.487773
14.03787 67.57364 8.489838
14.09313 70.64944 8.529623
14.71324 77.00138 6.691443
14.12277 78.75896 8.695515
10.65953 124.3317 6.613085
10.8494 120.2338 5.357895
-14.67043 84.22865 7.658424
-15.09099 84.55177 6.43635
-8.283821 68.05354 12.36328
-0.2036051 67.50786 13.17774
-0.5949445 68.57608 13.04217
-13.06107 71.1963 10.38885
-7.182955 83.09972 12.35222
2.246916 69.29634 12.47638
1.551782 74.90264 12.42768
12.63924 86.42731 10.28982
12.8832 83.46803 10.5586
15.17157 92.35468 4.774953
11.15636 94.86788 10.07954
14.92293 91.35393 6.484007
-14.68018 88.06328 7.628232
-14.56459 87.27513 8.031844
-14.36209 93.13995 7.338795
-13.80034 98.87254 5.161078
-12.20994 101.3496 7.90149
-10.10726 122.5136 8.231616
-9.44332 128.5309 10.78069
-6.984505 134.377 11.59909
-6.023658 136.3146 10.55515
-7.990733 130.3731 12.34235
-8.729471 119.9688 9.830365
-10.62046 114.8314 4.820053
-1.197463 138.1022 10.77026
8.879642 66.38495 13.09843
7.616131 68.78526 12.68326
4.843659 70.26729 11.97063
13.29715 75.46578 9.72783
12.09102 72.52202 11.47412
13.79546 77.08321 9.084045
15.14235 72.03299 7.040046
13.71026 71.37862 8.806953
13.42166 80.42445 9.861279
10.57373 121.5452 6.81877
0.5881504 70.18256 12.85854
2.880698 70.74274 12.29154
-15.30636 88.65355 5.679107
-14.82088 89.75869 7.095173
-13.03338 92.12984 9.301181
-13.21591 98.64765 7.298352
-8.665664 130.1745 11.98604
-5.541845 134.3502 11.69492
-8.636367 130.5747 12.02313
-8.849363 122.5023 10.2866
-9.873132 119.8829 8.193379
-8.663474 119.8558 9.877972
-10.24368 123.8524 7.969259
-8.604555 123.1784 10.63151
-10.28407 120.9443 7.50916
-4.433764 126.9303 13.00579
-9.52146 138.7061 7.842192
4.838383 68.61777 11.80984
7.607477 69.73022 12.66453
10.73686 76.19267 11.84255
11.71367 69.38527 12.29097
10.83921 70.19416 12.52454
11.53081 67.1637 12.75045
9.652293 125.1844 9.03846
9.645009 123.0918 9.163536
9.988211 124.5819 8.49914
-14.09834 82.36587 8.86902
0.1926052 70.12984 12.87467
2.249943 70.90726 12.41094
-13.61846 88.60838 9.161367
-13.85596 93.13755 8.250957
-6.023951 129.4386 12.87898
-7.61693 129.1571 12.43685
-5.151425 130.841 12.90224
9.761441 125.8782 8.772765
-2.946438 133.2534 12.34789
-3.994909 129.6303 13.00386
-3.060415 128.1499 13.00842
-3.968413 134.8376 11.59144
-8.229403 117.0087 9.655163
-8.149117 137.4652 9.349628
-5.041191 137.9603 9.904441
-8.230654 135.9149 10.60667
-8.58642 138.4193 8.641573
11.53854 74.93217 11.43598
7.320879 85.22811 12.1905
12.96185 81.77637 10.45031
9.067393 78.80289 12.35797
4.775463 72.16738 12.16942
6.235194 75.1824 12.41053
6.099467 75.98157 12.47194
6.670498 74.87785 12.38782
6.102925 71.85621 12.26468
9.904686 72.63981 12.37972
9.051261 70.5419 12.76422
12.87751 67.8542 10.85633
9.59837 120.2992 8.676111
-13.718 83.01583 9.478817
-11.49204 83.4753 11.48429
2.087777 133.0878 12.45415
-5.290668 126.6168 12.84939
-3.947389 130.0206 12.97881
-9.542789 115.894 7.830383
-6.46365 112.9897 11.01949
-9.914776 112.8799 8.103033
-10.41028 110.919 8.384887
-5.387214 115.5409 11.54368
-7.420197 114.0912 10.21818
-8.092706 118.0539 10.01504
-7.516448 112.7256 10.4118
-7.676857 115.3407 9.957496
-8.386386 111.8721 9.966232
-4.81517 112.7555 11.96973
-3.854857 112.1024 12.42956
-4.646305 115.443 11.9437
-8.96749 137.0014 9.079631
8.17785 72.10683 12.59603
9.674851 71.50116 12.59852
5.80941 71.30621 12.14014
12.26237 66.47906 12.32155
-12.39266 82.35038 10.91603
-1.577613 130.4608 13.00412
-0.4670283 136.6393 10.90429
-2.979743 130.5102 13.00329
-3.246852 129.8277 12.97421
-9.364171 106.5648 10.51272
-8.931222 108.9509 10.46121
-1.737732 115.0449 12.68917
3.505479 71.55414 12.25258
2.217635 73.56113 12.41089
12.76114 66.59341 11.04027
-13.20831 80.63885 10.18761
-11.37928 81.00529 11.66426
-7.364379 81.76632 12.46059
1.387371 131.4953 12.95249
1.281301 132.1743 12.79032
1.331594 133.8629 12.09823
-5.638845 127.4438 12.75414
-6.257514 123.8185 12.53683
-3.351719 126.7612 13.15128
1.55434 130.3507 13.05884
-0.2264298 129.1586 13.00223
-2.676267 127.0236 13.18998
-12.43897 107.1225 5.947907
-1.978556 113.5427 12.78394
-2.773365 114.9324 12.61266
1.938169 109.4055 13.08973
2.325478 111.2812 12.89572
1.016648 111.4232 12.94586
2.895857 113.0919 12.64184
4.749114 110.0206 12.41113
7.158885 106.7617 11.70539
-3.358104 115.5553 12.46481
-5.644179 115.5615 11.39939
2.177779 74.45841 12.41635
9.287514 117.3878 8.47799
9.482487 116.2054 7.969574
9.569844 114.6548 8.014002
8.898549 114.8548 8.834444
-12.26734 80.63362 11.06144
-6.835454 80.78488 12.48781
-11.47844 81.65959 11.56171
-9.909108 81.68048 12.21534
-8.0712 83.45524 12.28683
3.285948 135.4928 11.40888
2.500131 125.0168 13.44567
-12.53626 106.7262 5.712914
-11.96753 103.8885 7.96014
-11.17391 106.2919 8.788274
-2.669414 115.5804 12.60025
2.995697 73.027 12.3697
10.18026 117.9706 6.646286
10.17234 111.1065 8.442085
-9.874866 79.55508 12.2612
-11.64977 106.2896 8.12818
-1.861757 75.11834 12.42064
7.329331 114.2708 10.29711
7.024939 111.6091 10.98897
7.901919 111.4575 10.45694
10.77774 111.9895 7.063045
-9.609712 107.4368 10.31977
-1.54838 75.10159 12.42124
-10.25316 106.5233 9.870283
0.7621874 75.40853 12.43464
8.533489 112.6512 9.654596
6.551787 112.3687 11.092
5.93785 109.4617 11.96453
5.098066 106.8279 12.53523
6.032225 110.245 11.77719
10.35676 107.8597 9.52954
7.975006 106.3457 11.34819
6.351406 104.356 12.00109
-8.45113 107.3968 11.04452
7.394999 110.3843 11.04556
10.17159 109.3908 9.286372
-6.587345 111.0066 11.35494
-2.838017 111.6225 12.76631
-2.719582 109.821 12.98468
9.118922 109.9375 10.05877
-1.298334 106.8057 13.23371
-3.712581 108.0476 12.92782
2.788458 107.7733 13.07323
1.537077 108.5157 13.10162
-5.769485 108.6929 12.15451
-5.44918 106.7636 12.40147
-1.899544 108.7789 13.15617
-0.7029736 106.914 13.24637
-4.279876 106.6877 12.80608
-0.3417984 107.3178 13.21957
-8.414083 100.5585 10.98817
-9.68 104.3198 10.49936
1.173532 106.1473 13.24853
-6.480744 104.6318 11.97833
9.787333 145.5654 2.928974
-11.21134 145.3412 3.437329
8.336183 145.8611 3.954045
10.63193 131.2156 10.03527
10.123 131.8334 10.60521
11.07577 126.364 5.501244
10.68121 128.3358 6.318989
10.27545 126.7461 7.557485
10.28026 128.4698 7.839826
10.49391 130.9406 10.25115
-8.334384 146.3222 3.255248
11.46603 134.1657 9.720706
10.86862 134.0142 10.08202
4.574334 135.287 11.44667
5.93769 138.056 9.821295
8.337499 139.1806 8.490492
8.487274 135.2217 10.71496
6.656534 134.4702 11.75066
8.79763 138.4934 8.650536
7.984717 138.7895 8.65947
10.0856 137.8794 8.132411
9.393547 141.991 6.474647
12.9001 98.62658 7.834443
12.83067 99.55302 7.477391
13.48989 97.86683 6.921478
9.973616 96.61723 10.38282
11.54309 98.89477 9.139146
10.87536 96.40279 9.950974
6.62216 97.65079 11.03825
-10.40261 124.9676 7.495949
-13.66744 67.2522 8.170162
-13.18359 66.26477 9.790792
13.88684 90.85455 8.588938
10.51322 90.61777 11.04228
13.86763 89.99421 8.733071
-14.81679 94.53664 3.5933
-14.0971 94.75613 7.283964
-11.08204 76.34671 11.72846
-11.59116 72.53731 11.39173
-9.096638 73.81878 12.21778
-9.135897 76.06276 12.353
-8.627699 74.48936 12.33454
-11.54989 78.37012 11.51088
-11.85529 77.87073 11.2838
-12.08573 74.80393 10.94768
11.92471 100.9172 8.386571
12.45562 103.8151 7.005588
10.68685 105.6909 9.503464
11.76993 103.8418 8.309624
6.847671 98.68039 11.15116
9.031579 100.4854 10.70566
2.312109 99.52453 12.04521
11.79757 96.55561 9.429621
8.062054 98.76129 10.91286
2.06173 103.4186 12.89788
7.76233 100.6946 11.2186
4.118016 99.93616 11.8566
2.658949 96.50602 11.43491
1.750093 94.93703 11.32454
3.984071 93.2826 11.05675
12.40049 94.96787 9.267812
3.295284 92.36885 11.02943
8.510999 92.12804 11.06545
12.35647 93.53812 9.624928
-12.2374 103.9359 7.44675
-13.32031 101.4538 4.688221
7.47731 66.84218 12.61055
13.71631 95.83747 7.660291
13.28218 95.37078 8.332647
-12.26363 102.298 7.687771
-10.55722 100.648 9.812888
-9.19772 101.3653 10.72119
-10.93084 102.0712 9.471198
-10.44227 99.68798 9.89037
-11.02011 99.18263 9.539812
-5.209606 99.60493 11.60761
-3.286679 100.7843 12.1939
-6.456598 100.4389 11.51415
-9.430137 104.01 10.62739
-6.702021 102.7798 11.78594
-1.413668 102.3792 12.758
-8.371295 104.3866 11.20407
-2.621142 99.65164 12.0268
-2.83624 100.175 12.10882
-5.252479 100.4581 11.7701
-4.443641 102.1976 12.27623
-3.557314 101.6519 12.34569
4.236819 104.5509 12.69439
-2.601775 98.16971 11.71603
-1.276831 106.161 13.25219
0.7988165 98.6767 11.99891
0.727271 99.32796 12.15127
-1.799343 103.695 12.93826
7.185651 101.2397 11.44409
-4.018695 98.49876 11.57171
-4.335222 95.1088 11.14748
4.311525 96.80694 11.24922
-2.944116 98.51768 11.74012
2.703731 97.57783 11.59014
2.631205 101.7807 12.52166
4.22354 101.1599 12.09579
0.009275599 101.925 12.75024
-1.397254 101.101 12.50631
0.999576 104.9712 13.1907
4.957266 104.3646 12.44694
9.177379 102.1412 10.78086
8.167615 103.831 11.30992
3.283549 105.9427 13.02439
1.944022 101.5848 12.5686
5.831632 102.0809 11.92862
4.360345 102.0336 12.25646
8.965904 101.6888 10.85366
11.38821 104.9648 8.760243
9.870373 103.6622 10.39831
10.72406 106.1307 9.451535
-7.784311 123.6274 11.45386
-9.75309 123.8884 8.928379
-7.35972 122.9983 11.75962
-7.963013 124.5452 11.23166
-6.666165 123.9308 12.29637
-12.61509 85.96302 10.49039
-10.69937 83.59594 11.90514
-8.514299 86.03596 12.05438
-13.37981 85.14745 9.788934
-12.87286 85.99356 10.21583
-10.98424 87.16643 11.35465
-12.89811 87.41047 10.07356
-11.50488 90.21278 10.62004
-12.10409 89.36602 10.4517
-14.19408 89.34323 8.221169
-8.759756 89.97857 11.36978
-13.64424 90.76573 8.857015
-13.91183 91.60811 8.414322
-10.18352 94.50132 10.47302
-12.54171 93.91519 9.410841
-13.38028 94.87654 8.274879
-12.29646 92.55202 9.906472
-8.510733 91.59333 11.13027
