# .PCD v0.7 - Point Cloud Data file format
VERSION 0.7
FIELDS x y z
SIZE 4 4 4
TYPE F F F
COUNT 1 1 1
WIDTH 1663
HEIGHT 1
VIEWPOINT 0 0 0 1 0 0 0
POINTS 1663
DATA ascii
-10.00568 62.87713 11.28292
-10.57163 114.3847 5.803057
-10.14578 117.5644 6.562704
2.372917 118.8592 12.97662
-8.736622 133.0141 11.26786
-12.02389 130.8588 4.138855
-11.40368 124.2609 3.44719
-9.150004 126.4301 9.701398
-9.606031 126.9032 8.935425
-10.93235 120.6875 4.612623
-9.803459 122.2878 8.808036
-8.815487 124.6969 10.33504
-11.15773 138.0597 7.243739
-9.99973 133.5665 10.01357
-9.528721 131.6548 11.18721
-11.39305 132.8366 8.253036
-3.295482 144.0441 7.235392
-9.409906 145.9231 1.036797
5.77483 119.3049 11.93523
-5.882976 125.7959 12.48004
-5.179764 136.1497 10.79632
3.628059 133.0736 12.39262
4.053483 132.5599 12.53887
8.191275 62.18984 10.71491
12.8696 68.15698 9.828074
10.73954 61.62199 10.03618
10.69773 66.54515 10.82225
11.86102 109.1249 6.526179
10.79918 109.7651 8.40695
11.41635 110.3894 6.858727
9.97885 112.5798 8.052434
10.45525 116.9369 5.21018
9.566822 119.6862 8.571753
10.75808 120.6052 5.79579
10.74426 120.2774 5.656684
9.354263 121.2707 9.300242
9.027748 124.0073 10.07802
8.109534 128.0662 11.65634
9.502854 128.5561 10.63552
12.04743 129.8986 3.549003
8.070008 140.8979 7.431391
-3.498853 139.9986 9.098476
1.601643 141.8396 8.386943
-0.6474906 142.1029 8.275845
9.569324 134.5552 9.799258
8.159623 137.2222 9.224847
8.681267 136.2151 9.491901
13.40831 134.358 1.741159
9.718431 137.3043 8.351067
-7.796175 146.017 1.760152
11.68852 88.32286 10.83151
10.5011 145.1822 3.280883
14.05666 81.03811 8.952635
11.87045 81.10909 11.32253
13.27605 83.3095 10.0596
13.48709 81.36337 9.770757
-12.98954 87.88954 9.99316
-13.57814 89.54631 9.114214
-13.8428 94.7646 7.734983
-11.99111 98.97734 8.79128
12.24251 100.7557 7.973828
-7.412798 108.2434 11.4288
-7.103672 107.5244 11.67218
-1.319722 64.69154 12.12718
-12.7057 82.102 10.65918
-13.17451 70.71857 10.95453
-9.207703 64.71433 11.42214
-8.574943 67.06113 11.67677
8.158591 116.6815 9.65795
5.157873 116.1918 11.69616
-8.128633 117.2697 9.765755
-10.20539 112.0911 7.951811
-9.946797 113.8079 7.661631
-9.964757 130.5291 10.94102
-11.54587 126.7783 3.355715
-11.48582 130.2043 5.820257
-11.7835 129.7823 3.949716
-10.8223 130.5088 9.36729
-11.28496 124.8109 4.671322
-10.52941 120.397 6.521728
-10.75964 120.8037 5.814465
-10.484 120.1053 6.552632
-10.42367 125.3728 7.404343
-10.55051 136.0316 8.357807
-12.13128 133.4596 5.887272
-11.81455 132.4731 6.662931
-10.64235 132.2506 9.745343
-4.850554 144.6681 6.231108
-8.980949 144.1684 5.114017
-8.597536 145.874 1.856282
4.459605 126.8254 12.82933
7.120507 120.0336 11.32662
-5.087805 128.4198 12.82831
-7.088821 124.59 11.95559
-8.382257 119.7922 10.16205
-7.328193 138.513 8.911242
7.018482 135.6615 10.54535
6.242315 131.6191 12.6213
5.48325 131.8247 12.67731
-5.690765 144.2456 6.351207
-4.826594 145.0098 5.682727
5.905034 62.50418 11.2187
13.86716 68.81295 9.238421
13.85852 76.74142 9.245262
12.30276 66.33891 10.00277
10.29569 65.16759 10.74182
7.903235 66.56419 11.70367
7.340244 63.26218 11.13286
9.88268 67.38091 11.26943
6.409833 65.3726 11.78576
5.620903 66.98598 12.21203
11.15095 106.3623 8.954433
12.30228 107.8525 6.042908
9.435815 122.2923 9.326774
9.709207 124.1953 9.042971
10.44109 123.2941 7.469451
10.15264 125.5249 7.98299
9.471177 127.6659 9.483278
7.878894 129.4369 12.36672
9.580711 127.074 9.04656
11.77196 128.123 3.500109
12.03885 129.7028 3.441487
7.116987 139.0536 8.707721
10.40153 142.9286 5.258184
6.064075 142.2828 7.477966
-1.474005 143.9845 7.133838
6.428404 136.4691 10.30162
9.187475 131.1986 11.44813
11.48898 136.3676 7.342179
12.0852 137.2977 6.62223
14.27751 95.40732 6.545822
15.0978 92.38314 5.614055
12.47943 91.76659 9.836003
9.872851 91.43465 10.94678
11.68499 90.83366 10.44701
-13.75899 81.50533 9.860903
-12.93084 84.77995 10.29993
-13.75339 86.69903 9.242559
8.341084 145.6174 2.788455
13.73393 80.08566 9.403866
13.82849 84.52871 9.257209
13.72377 87.2674 9.079858
-14.07423 89.0462 8.571108
13.003 105.3013 3.820857
12.73785 104.3002 5.840851
11.4444 106.074 8.547872
13.53255 99.83987 5.218365
-4.034735 104.7946 12.76432
-6.934964 105.7081 11.83737
-5.636675 62.97054 11.5403
0.7817545 63.36932 11.87203
-12.88741 80.71101 10.57203
-13.5942 70.27816 10.8486
-9.396467 74.21234 12.16713
-6.972468 62.59885 11.39229
-8.326681 67.3176 11.73436
7.574148 117.0258 10.22259
8.65511 114.8573 9.118549
5.786562 122.3913 12.70966
-9.371757 113.3997 8.676358
-10.52776 125.7744 7.096554
-10.45647 129.6192 9.746696
-11.09088 130.2613 7.746991
-9.756181 128.0511 9.612204
-9.925814 125.836 8.335814
-10.98299 121.591 4.824837
-8.403204 143.1445 6.027588
-9.279233 145.5093 3.233195
2.61671 126.8703 13.20895
6.442161 129.1145 12.77086
0.8671618 123.659 13.48609
2.707086 124.555 13.47383
7.291551 123.0692 11.84955
-7.200925 127.0149 11.76952
-6.074307 132.4983 12.39191
-5.861385 123.1835 12.71091
-4.166761 124.7627 13.27495
-7.839978 121.6675 11.17002
-7.695487 134.9139 10.69251
-8.369906 134.6395 10.54478
-7.327795 134.2862 11.19375
6.00601 133.1684 12.16064
6.633907 137.3295 9.771864
-9.336193 143.3224 5.462447
-8.047483 141.9616 6.881161
-8.925538 142.2434 6.306602
-7.98388 141.1773 7.316999
-4.659255 137.3117 10.26761
-2.7545 137.6915 10.32776
-0.8103374 137.5005 10.52093
-7.50626 139.682 8.24742
8.492975 62.14723 10.643
1.796769 62.21132 11.55288
13.19487 72.8098 9.837102
13.02024 75.20422 10.17285
10.36176 68.72729 11.30364
10.97679 126.5155 5.810511
8.830792 127.5828 10.56904
11.51913 129.484 5.322268
10.93126 128.8871 7.009286
11.88934 129.9693 4.217675
9.514358 142.1113 6.103899
5.359364 141.0337 8.297708
-2.139596 142.8479 7.952418
-1.804431 141.1418 8.67711
10.24554 135.1735 8.950413
11.12847 132.8554 8.793675
11.15705 131.5737 8.609202
9.802893 131.5621 10.81838
12.02522 135.3784 6.664712
11.89879 131.4213 5.442047
12.53182 134.0635 4.617161
12.76393 135.0056 4.27647
14.82209 93.57362 5.782188
14.26405 92.45613 7.792121
11.41308 88.4407 10.95928
12.24083 89.23247 10.32187
12.92171 88.13522 10.0414
13.43238 88.60638 9.390201
-11.87117 86.89906 10.92601
12.43598 79.07173 10.90026
-9.880572 86.32109 11.8318
13.18633 102.8576 4.012022
13.005 104.4916 4.590184
11.5379 104.7945 8.505325
12.19954 97.5081 8.865588
-8.932217 112.5843 9.33074
-8.711225 108.7715 10.596
-1.831595 62.05673 11.55684
-0.5860889 62.31797 11.63095
-1.387373 64.99478 12.17736
-12.39356 77.86911 11.04937
-12.14303 81.38791 11.10558
-12.07066 68.69988 11.21956
-11.75633 74.04902 11.3987
-7.561667 66.55544 11.7665
-6.903422 65.65401 11.75563
-9.581721 73.26152 12.0522
-7.172732 67.37492 11.9169
7.094397 121.659 11.79232
-8.672248 117.0029 9.176004
-10.88392 129.8466 8.123328
-10.93397 125.3707 6.058428
3.987247 129.8949 12.99637
6.029556 123.9308 12.67435
-4.591455 125.9456 12.92856
-5.079369 131.3571 12.81446
-7.041895 131.3298 12.56963
-2.887496 128.3464 12.99905
-3.632349 131.0432 12.86889
0.4107097 135.7841 11.33098
2.710429 130.5453 12.9125
-2.125829 130.4366 12.90766
-4.419255 121.465 12.97092
-3.471752 126.1034 13.18134
-3.94901 124.0964 13.35039
-5.97144 118.9965 11.74698
-4.975982 120.8738 12.71545
4.188998 63.97071 11.80578
11.47721 71.60326 11.08445
9.436729 73.35539 12.19556
10.22668 67.55858 11.18424
11.44121 67.48801 10.59638
13.43278 72.97169 9.628515
10.60502 76.87833 11.92143
10.17245 74.63211 12.05536
10.63924 67.20943 10.94839
10.98249 129.7377 7.756271
12.0251 133.2537 6.080057
9.569176 142.6158 5.786218
8.053213 143.3205 6.089926
6.762558 144.578 5.480673
2.155168 134.2523 11.95753
4.656845 141.7152 8.147454
7.416741 139.9643 8.139567
11.71355 131.5323 6.373497
13.48604 96.34039 7.778615
14.12774 93.9339 7.61202
11.84678 91.50138 10.26668
12.98456 92.69678 9.247482
-12.41357 83.06014 10.88397
-9.987718 84.38837 12.03103
11.99714 101.4072 8.213539
12.78159 100.9709 6.894787
12.24146 99.93701 8.195663
-8.742692 109.5163 10.38716
-8.347548 112.7459 9.80169
-4.17205 106.9037 12.81474
-3.898086 108.2404 12.84708
-1.925821 108.6781 13.15479
-1.339366 111.0108 12.95609
-3.555405 64.54431 11.95718
-2.691563 67.29871 12.44618
-11.32139 79.6474 11.69075
-10.48816 76.03141 11.99297
-11.20929 80.13464 11.74129
-10.84369 81.02698 11.9394
6.086138 120.7738 12.19461
4.284096 118.305 12.32028
-7.430583 115.8608 10.13166
-6.724717 117.696 11.00093
-7.146348 121.6858 11.69939
-4.805449 121.1345 12.81613
-2.462639 119.3114 13.02131
-2.300082 118.5859 12.98795
-1.379687 122.6785 13.45607
-1.090369 123.2475 13.48033
2.852476 119.2383 12.92947
-0.2146534 118.3652 13.06841
2.451652 123.7735 13.49356
0.3286814 119.4077 13.16466
2.904603 126.3237 13.20063
1.533564 127.5355 13.1743
0.486576 126.2768 13.32802
2.465303 121.8 13.31037
0.313651 127.1885 13.22291
-0.2084481 119.4411 13.16595
1.091485 120.7764 13.29546
-1.412923 130.5165 12.8885
-1.57178 127.9199 13.12871
-1.32787 127.0232 13.25073
0.09709208 129.3281 12.98138
12.88265 74.49596 10.25639
12.1714 131.9181 4.726911
11.48696 131.0826 6.929625
6.340336 144.9815 4.99734
3.67315 143.1421 7.701514
11.54749 131.3615 6.931072
12.57453 97.59021 8.501559
11.65218 94.59189 9.84043
9.685158 95.92724 10.50997
7.947643 92.60056 11.00609
8.188755 91.7534 11.0808
12.70502 94.88649 9.048543
-10.34873 83.48114 12.03201
-8.686521 82.29936 12.44074
12.69332 99.34232 7.865856
13.63563 99.31527 5.589952
0.1610331 108.4236 13.19124
-9.887911 79.80404 12.24963
-9.207133 70.17554 11.85554
-10.06494 73.15017 11.9167
-8.397774 115.3973 9.13561
-5.200725 119.0317 12.12594
2.634719 125.8952 13.2356
-0.2010177 118.0614 13.04088
-3.154806 120.0227 12.97973
-3.226766 118.0707 12.69704
-2.81426 115.9954 12.65362
-5.145597 112.0723 11.9026
-8.386131 113.1737 9.674356
-8.815553 111.269 9.732892
-7.797569 110.4735 10.77576
-6.413804 110.2914 11.58277
-4.378857 111.3754 12.35348
-4.44328 112.49 12.18726
-5.805963 112.8955 11.44806
2.438412 127.3975 13.15862
2.253987 141.0292 8.718472
11.41202 130.4293 6.630597
9.187157 91.833 11.03973
-11.62797 82.44844 11.44985
-6.204636 84.59189 12.26454
-7.964701 84.24025 12.30828
-8.570122 80.9379 12.47237
11.02569 103.632 9.287553
10.77672 101.2534 9.623399
-0.9441698 106.5691 13.27364
0.6597054 105.9842 13.24216
1.399667 99.49339 12.1311
2.660611 106.1271 13.08942
0.870617 107.5518 13.24117
1.045499 104.6124 13.16881
7.140145 103.8352 11.71504
5.842988 103.8266 12.15169
10.01699 102.3684 10.23816
4.233218 102.9965 12.46094
-11.20559 73.74335 11.58467
-1.503426 114.0098 12.82119
0.5772106 109.7396 13.0875
-2.124802 113.6401 12.73446
-0.9528938 113.5355 12.82653
-0.6826133 112.6359 12.85906
0.4640043 110.954 12.93489
-0.2265733 113.9907 12.81583
0.6795382 113.4223 12.80235
3.116766 112.8257 12.59533
0.9588751 117.0431 12.95631
2.5805 117.0425 12.78634
0.1222461 114.0367 12.81616
4.108157 139.464 9.278386
8.185401 93.82023 10.90025
-7.968722 84.71272 12.22789
-8.240106 81.84218 12.49888
-6.970574 84.34289 12.27229
-8.466125 80.27087 12.49415
-6.907358 80.57213 12.51371
9.477714 109.6976 9.766917
6.979343 105.8383 11.80478
-2.110934 109.6492 13.07006
-1.139106 107.4071 13.25811
7.130784 108.14 11.55969
1.44439 111.4694 12.84509
3.109979 115.0896 12.55343
5.988175 92.84913 10.90698
7.416502 95.48467 10.82064
-4.347686 99.02731 11.62804
5.902003 98.79835 11.3429
3.355885 97.30845 11.44875
5.057322 98.93511 11.50022
-2.567312 86.88079 11.95736
-10.18811 80.7253 12.15708
-2.652101 83.20548 12.41794
5.83327 99.09399 11.40434
9.339029 103.6722 10.64918
5.010002 104.2837 12.44395
6.612942 107.8147 11.87572
10.7845 105.1545 9.500725
5.87622 105.696 12.23947
4.077912 110.026 12.6438
4.442424 107.1425 12.70441
3.988536 108.4704 12.80818
4.443327 111.3538 12.34327
6.810436 110.2661 11.39084
-7.804051 86.48285 12.03598
-1.531841 84.0539 12.3636
10.41488 100.8446 9.937339
9.106734 101.203 10.72047
7.941271 100.9896 11.20702
5.872799 101.5234 11.80836
7.332027 113.9367 10.32567
4.83836 115.3139 11.82523
2.384415 112.6179 12.77362
-4.152253 82.5385 12.46489
-6.449597 85.01681 12.2288
8.193781 102.8109 11.24664
6.485836 101.2465 11.65136
7.778699 99.70826 11.08492
-3.771574 85.32935 12.2281
-5.527242 79.8179 12.51882
-1.229484 80.32591 12.52874
-3.214468 79.8696 12.52551
-1.720235 83.18204 12.42511
3.214932 84.44985 12.30699
-5.448623 85.26546 12.21892
-2.47399 82.30845 12.47556
4.069036 101.8024 12.2669
3.710546 99.66286 11.86466
4.991806 101.5539 12.01497
-0.8784059 88.47542 11.37444
-1.88526 91.70722 11.16516
-4.861466 88.85172 11.42
-5.4906 86.67064 12.01594
3.410208 103.3495 12.69446
1.108949 102.0314 12.73988
-3.135994 103.6 12.78686
-2.573609 99.97128 12.11071
-3.017998 85.15813 12.24716
8.357293 90.90932 11.26041
-11.06997 91.77746 10.59307
-10.97419 92.3014 10.55327
-7.626913 93.27826 10.94825
-6.156677 90.74998 11.6656
-3.61959 91.24011 11.55342
-6.55876 91.05206 11.57015
-9.468013 93.73244 10.77171
-8.243179 91.75816 11.16833
-10.75411 93.66375 10.40408
-0.5642159 93.61938 11.25435
-7.611211 94.01192 10.88818
-11.80052 94.4987 9.781725
-12.63782 97.47926 8.457146
-9.321551 96.67702 10.51241
-11.31097 97.47431 9.581923
-6.792769 96.53543 10.97511
-9.90202 99.24644 10.26765
-3.238681 99.17473 11.83663
-7.199345 100.0291 11.2692
6.645522 145.6088 3.317491
-6.02425 145.3718 4.462839
-10.96078 135.1448 8.427871
-12.43944 134.1664 4.935656
11.29418 110.3084 7.204603
10.474 111.017 8.131777
11.56479 110.2377 6.39854
5.486142 109.0287 12.23009
9.465774 106.9588 10.40495
9.324103 105.6734 10.60297
8.880206 108.443 10.4982
9.713132 108.3013 9.97224
7.472262 111.3091 10.76952
8.965933 109.7281 10.26359
8.364877 109.398 10.70181
-2.531459 103.2228 12.82065
2.960957 132.2896 12.61421
1.10117 132.0741 12.66358
2.513054 133.9545 12.06975
0.3818741 133.4975 12.23617
2.129147 137.8795 10.29157
9.002865 66.11401 11.31154
7.240864 66.10663 11.77223
9.395265 83.3807 12.22805
8.9823 79.2064 12.44971
9.015406 78.05228 12.38063
6.897163 81.33167 12.50152
-6.449116 135.8075 10.67052
-6.032225 133.9063 11.76942
-2.465278 135.5331 11.42117
-4.094989 135.5888 11.27959
-0.1706793 134.5643 11.82769
-1.567301 135.4585 11.46588
-2.128931 137.8218 10.31403
-4.586702 138.2319 9.803773
-5.424602 137.945 9.773149
-3.317716 139.4935 9.349371
4.414792 136.661 10.66755
2.783067 139.32 9.507558
0.9942735 136.9113 10.81596
-0.9274881 138.6974 9.870378
0.8723418 138.5851 9.934344
0.08464928 137.5772 10.4781
-5.932933 143.4633 6.894717
9.535059 90.28253 11.2323
-7.325962 74.62334 12.55938
-7.591315 68.64999 11.99877
-8.943226 68.24784 11.72508
-10.79032 70.60686 11.5451
-7.875051 138.1895 8.85552
0.5521562 140.6316 8.914035
-1.902337 67.60627 12.51162
-3.180842 66.92458 12.37082
-2.684982 67.7981 12.50494
-2.225421 68.46377 12.57327
-1.551339 69.39217 12.61081
-0.8467703 70.26726 12.60354
-0.8418242 129.328 12.97441
4.134271 92.2613 10.85728
8.340251 98.87207 10.85955
7.984858 97.94541 10.84474
9.358747 95.76552 10.58283
10.98238 95.97848 9.975206
4.883248 98.02241 11.35357
-11.53852 111.3099 5.064479
-5.162208 115.0908 11.66225
10.4962 103.6659 9.845419
1.464093 87.23986 11.79422
5.792189 93.77788 10.99702
6.206682 88.71892 11.56087
3.52975 88.61581 11.48509
9.394257 89.41451 11.40258
6.247152 87.06956 11.88735
5.697296 87.79311 11.66362
3.093729 87.04211 11.86852
4.904593 84.86084 12.2181
7.735001 83.33524 12.40887
6.415403 82.07368 12.49209
6.251132 83.93728 12.3645
7.7945 83.01354 12.43267
3.690925 84.41261 12.30606
-1.172658 81.81335 12.50074
10.68542 80.72978 12.04187
3.610994 82.86808 12.47672
9.51305 82.88222 12.24133
9.393356 80.87199 12.34933
10.44506 84.40758 11.91267
1.942018 83.42858 12.43714
3.010637 81.43517 12.52193
1.935939 85.18594 12.22484
1.511526 82.56605 12.48437
1.910818 84.16609 12.3528
4.079862 90.14248 11.77332
4.413959 90.72691 11.65159
4.433745 94.2096 11.0531
1.920122 93.47968 11.13435
1.505533 89.72767 11.76613
3.706994 94.59441 11.1052
1.490979 90.68114 11.88127
0.8784117 95.0513 11.41473
9.674127 86.00514 11.89034
2.320014 82.06924 12.50947
7.329977 82.32178 12.47257
6.967007 82.23632 12.48246
0.2282832 85.8512 12.15232
-1.392234 88.59156 11.3367
-1.625638 96.24194 11.52508
-1.199542 89.31477 11.46667
-1.629728 79.89748 12.52901
1.636862 88.47878 11.41715
2.071836 96.36861 11.48872
1.927192 97.32259 11.65178
0.5979527 96.60851 11.63064
-2.065397 97.15965 11.61956
-2.970379 94.99834 11.24192
-0.963107 100.4647 12.37402
-1.615357 92.95343 10.96612
-1.566939 77.50601 12.51439
0.440106 89.1264 11.39308
-0.2277744 96.38258 11.59145
-1.402652 94.82258 11.37454
-2.497425 78.43179 12.51918
-2.031876 94.3611 11.27107
-3.52278 96.72643 11.34696
-4.365307 90.99918 11.75031
-5.787057 91.25452 11.56916
-5.302288 90.45047 11.63775
-5.258204 90.57529 11.67742
4.317493 117.9758 12.25237
4.841296 116.7439 11.93132
-2.639032 74.77728 12.54074
2.800072 99.7823 12.0259
-7.090864 93.25733 10.94286
-6.870851 94.67558 10.9506
-5.372797 95.20424 11.07565
8.08675 113.0772 9.907925
11.57424 106.647 8.199266
11.62002 108.0055 7.773409
3.949029 135.4605 11.35896
1.791308 70.84631 12.5551
1.532942 63.97281 11.97969
2.07401 65.88725 12.31034
4.489799 65.51148 12.09311
-0.4444917 69.06397 12.5882
4.847118 65.62135 12.07397
0.7889991 66.72311 12.43191
6.431608 68.26472 12.28666
2.835643 68.48632 12.52523
8.332139 72.52236 12.35957
4.561208 70.46957 12.53849
7.82203 77.5387 12.47974
7.136279 69.15559 12.28708
7.565885 77.18883 12.48814
9.485284 69.3166 11.72808
10.1347 71.14038 11.74129
6.228225 72.43854 12.46467
-1.659883 74.35281 12.53253
5.58628 73.87315 12.47159
0.5472766 72.797 12.53295
1.380293 74.00732 12.50382
1.302381 69.12263 12.5602
2.16966 67.8236 12.50029
1.884634 136.5976 10.96436
-8.237088 69.85171 12.01396
-6.897184 71.87077 12.45894
-3.650144 67.73585 12.43907
-6.860397 69.81147 12.26713
-4.425046 70.81456 12.65083
-2.86162 73.45575 12.58896
-10.67321 110.4778 8.23555
-10.22743 110.1812 8.997533
2.895676 81.94829 12.51369
6.204214 78.69522 12.51228
6.326151 77.47839 12.49971
6.00092 79.90327 12.52027
4.855935 79.18508 12.52053
5.976289 75.00421 12.47878
5.984526 74.24833 12.46626
6.795363 75.61681 12.48032
4.560202 75.01187 12.48453
3.622307 76.64713 12.50085
3.507013 76.20708 12.49693
1.328362 80.38982 12.53032
0.1767362 77.01917 12.5108
3.016895 78.90908 12.5229
-0.6685432 74.74687 12.51603
-4.871994 98.29081 11.40686
0.09918364 92.44346 11.09144
-3.958198 76.75207 12.52918
-0.5704183 87.70093 11.64763
-7.877283 73.71706 12.4325
7.379013 71.75338 12.45402
-0.6668617 73.25355 12.53918
0.4700013 72.27466 12.54514
-6.540961 70.81928 12.42688
-5.003272 73.1449 12.65802
-4.022517 72.48639 12.67163
-5.466142 73.93115 12.64534
-2.879391 74.74469 12.54571
-3.077956 77.2066 12.51871
-4.007962 75.01209 12.57268
3.772879 81.16643 12.52059
9.657427 73.40075 12.14781
8.857038 76.78001 12.3643
0.6652683 77.46516 12.51259
-0.2761312 74.98592 12.51146
-2.305865 100.2609 12.21004
-5.077911 95.56509 11.08654
-8.097527 79.37197 12.53268
-4.204307 77.80058 12.52287
-6.778833 77.77133 12.55538
-7.381574 77.65725 12.5382
-6.863099 76.20285 12.56988
-8.572602 79.27757 12.49176
-4.883774 74.66836 12.61393
-2.084132 88.81728 11.28807
1.598629 73.58567 -4.48909
13.69181 73.54047 0.4012093
10.20123 116.6603 1.887391
1.482845 91.45679 -9.847285
10.96252 95.85191 -6.11426
-1.560803 64.55831 -3.373347
15.22655 92.2063 5.059879
13.43486 98.9136 0.802709
14.01874 97.65578 2.759354
2.344663 87.09966 -8.535272
10.20144 121.242 -0.6517276
10.9847 123.0745 -0.04612094
7.508482 61.30876 -2.574058
11.24843 122.8908 4.462029
11.11537 99.31284 -5.096775
11.19931 124.9966 -1.470211
12.68274 105.3377 -0.6971928
12.59917 129.8131 -0.8142781
11.37915 104.3555 -3.779714
13.8245 99.13158 3.593564
11.43095 124.7741 0.6676104
11.02782 113.465 3.786333
11.28539 123.0256 2.28562
11.81326 110.7974 2.572854
11.55395 125.6956 2.815958
10.01272 119.5442 0.25044
12.43999 129.9883 1.696233
0.8624539 145.6942 -7.61878
11.76478 126.8294 1.880917
9.304496 146.4503 -4.168176
12.21375 128.8874 1.465492
12.4469 129.6386 -2.639018
10.75564 110.1988 -1.336549
11.98602 128.1352 2.144479
8.869131 146.4389 -4.868171
10.31927 114.2476 1.260857
10.74594 114.1092 2.552306
9.952792 145.3387 -4.814331
10.88539 112.4262 0.9835901
9.16061 146.6656 -3.792156
15.32394 84.84292 4.999797
12.82293 105.7175 0.4148602
-0.04626338 81.40586 -5.820075
11.70226 110.9021 2.008713
3.470479 61.20119 -2.85698
11.24203 122.444 3.303299
3.718251 92.29073 -10.0445
10.63555 120.4677 1.493918
9.023423 101.6033 -6.915121
10.71034 103.375 -4.82056
9.344245 145.1425 -5.522185
12.9852 105.8904 2.653634
1.448815 146.0011 -7.680369
6.187414 95.57428 -9.713629
-0.1732619 73.69138 -4.534924
8.616608 116.5409 -1.137551
13.64101 132.9285 -0.6772973
14.48455 95.52951 2.403321
10.07718 116.5197 1.488502
1.352262 93.99245 -9.923898
0.5985317 95.17941 -9.842283
12.1883 109.0592 1.48797
14.81917 78.58329 2.006302
9.602747 118.2897 -0.0351062
9.620625 115.9819 0.235098
10.92407 111.5899 0.1616967
15.32555 90.25086 4.803236
11.18957 122.1055 3.200276
3.884522 109.2152 -4.866242
8.97435 113.0394 -1.638735
9.480364 114.8969 -0.3539295
10.76425 100.9517 -5.310025
0.4902757 148.1953 -6.412896
2.352376 101.9876 -8.488796
10.07477 114.9333 1.019287
11.23535 111.1173 0.5515965
12.22827 128.736 -1.324739
0.6578636 123.7676 -5.428406
1.134318 121.7903 -4.782399
11.24407 123.5212 0.839075
10.50401 116.9554 3.786138
12.89902 130.7691 -0.5976883
10.41728 74.44342 -3.065766
13.29964 102.1301 1.679697
10.07305 144.4281 -6.163513
8.350595 146.6139 -5.839455
2.819315 105.869 -6.598861
5.193908 110.081 -4.441723
11.07245 121.4106 3.269659
10.69671 119.5823 3.099682
12.55401 130.1982 1.23151
8.881925 144.9143 -7.612818
9.234157 144.114 -8.064242
9.926074 143.6153 -6.997152
7.793491 146.7679 -4.285244
14.6932 84.73051 -0.3042565
15.15941 83.61031 1.82988
11.75518 95.86797 -4.672985
14.63795 95.38689 3.584173
11.61109 64.77556 -1.170489
13.33953 101.8757 2.480982
11.65513 106.7543 -2.339742
12.60972 107.8202 2.154142
11.9383 105.8077 -2.3021
12.68631 106.2393 0.1346747
12.29916 108.2276 0.6159731
11.60805 110.8175 1.450956
10.9808 110.539 -0.6351219
5.049681 139.4425 -9.344638
1.066148 99.85436 -9.147214
5.899353 94.85735 -9.872458
1.074496 67.80231 -3.828685
2.556653 62.1047 -3.024244
8.367049 105.0756 -5.985389
4.640174 100.1196 -9.147076
5.475442 108.6076 -5.0372
8.975533 111.7837 -2.316611
2.339162 118.8273 -4.011632
9.826668 109.8229 -2.710221
5.356437 139.246 -9.343359
1.470378 145.3949 -8.064389
0.3335131 82.54873 -6.175542
10.17155 122.7603 -1.864894
9.974938 116.9861 1.212217
6.576069 147.5067 -2.559607
13.46711 133.5812 -5.206006
12.17011 131.8154 -5.83212
9.946711 129.8841 -6.96736
13.90864 133.2953 -2.102937
10.89778 122.8135 -0.09895289
11.68501 126.2928 1.588636
12.02453 128.6651 2.774557
9.176028 143.6983 -7.56821
7.208889 147.2581 -4.273931
14.71412 79.04751 1.519967
-0.3812312 73.06187 -4.463339
12.15388 94.35712 -4.256134
12.26874 96.48212 -3.341905
14.1099 96.84834 2.249062
13.74003 98.92345 2.388631
12.26975 66.37802 -0.6505957
12.39264 71.63734 -1.132076
12.70153 66.25591 -0.09664708
8.078737 65.27508 -2.936086
12.4594 102.6359 -2.083072
13.48592 100.6522 2.918947
12.25663 98.40121 -2.865618
12.74593 103.9426 -1.099585
11.95547 104.2278 -2.989155
11.57196 107.8735 -1.602958
2.105433 133.9692 -9.081501
12.84853 138.2766 -7.743399
3.079157 92.96463 -10.01417
2.855164 96.01765 -9.822698
4.159934 98.26128 -9.549115
8.494747 92.59133 -8.933193
2.947979 91.19886 -9.906751
2.879306 64.62549 -3.376908
0.05812752 66.40458 -3.655738
-0.8111176 63.9391 -3.309152
1.444906 103.6839 -7.684253
1.415162 103.1702 -7.944223
9.573339 103.835 -5.744807
7.462481 102.9991 -7.387796
10.24378 104.7523 -4.802569
9.979957 99.08795 -6.699038
1.091297 101.007 -8.807887
5.309765 100.4217 -8.985686
9.599494 108.1453 -3.748303
9.338239 105.4443 -5.198523
9.164304 108.9507 -3.719477
4.530379 107.3635 -5.702105
3.093626 109.1742 -4.926508
9.217183 117.3636 -0.4833799
6.883777 121.0004 -3.69982
9.411162 120.9443 -1.694121
8.618995 113.1749 -1.876785
3.202455 120.3041 -4.351845
10.28954 110.6977 -1.635082
9.462938 111.4059 -2.13223
1.048334 114.1253 -3.592165
0.9196212 143.922 -8.285519
3.28416 147.5143 -6.43389
14.38435 76.25951 1.299064
3.106712 80.43435 -5.498764
0.5561494 91.0975 -9.776798
15.33229 90.42129 3.117774
15.20243 91.56044 5.291552
8.046467 142.1141 -8.47969
6.647951 147.462 -3.371024
14.77228 80.39637 1.292101
14.08356 70.92855 1.448718
12.4359 72.71109 -1.258679
1.536503 70.64719 -4.155754
-1.374248 70.92635 -4.19218
-0.2925577 76.86173 -4.932595
12.14173 99.20022 -2.971986
12.52436 100.1414 -1.909985
14.66925 95.22839 3.534509
13.05546 95.40033 -1.882394
13.75347 98.59822 2.045639
9.400185 61.41621 -2.183311
11.95963 61.26202 -0.5477685
11.91146 99.78848 -3.424477
13.28864 100.7105 0.9671772
12.92586 102.9625 -0.515781
0.9130869 137.9204 -9.49389
0.8678605 140.8108 -9.418382
10.21194 134.3471 -8.077834
2.7809 93.94765 -9.977406
8.982039 97.5816 -8.050493
3.28108 91.91834 -10.00389
6.982554 61.17467 -2.613675
7.245334 105.0847 -6.468811
7.50688 102.2871 -7.63375
2.891038 102.1137 -8.479338
3.458989 103.593 -7.752382
6.268993 103.3168 -7.682732
6.689876 103.8661 -7.288339
4.058568 106.3658 -6.264867
5.372774 106.1777 -6.231407
7.09868 100.7864 -8.325158
7.076715 110.9078 -3.774238
8.741158 115.2232 -1.166993
1.086202 115.8627 -3.600961
2.026437 119.365 -4.136185
7.330095 118.2624 -2.50597
10.38431 109.1849 -2.423186
1.507012 112.6282 -3.808555
0.8533533 143.0679 -8.761614
1.526807 140.4417 -9.435461
6.073951 146.8503 -5.851934
0.6123781 83.56068 -6.571539
1.769096 79.96278 -5.430116
1.331 88.92178 -9.342225
15.32709 90.93114 3.342217
8.008234 142.4207 -8.489753
6.701298 142.7514 -8.351318
13.09022 78.23085 -1.593859
14.29579 79.66767 0.1321178
14.40892 80.68317 0.08070978
12.53315 70.42482 -0.7914128
-0.652141 75.88552 -4.804183
-0.1756647 70.37782 -4.141564
-0.9595442 78.20444 -5.144007
13.73758 97.2706 1.07713
10.93416 62.39988 -1.493865
7.169785 62.37012 -2.712932
2.900306 137.2535 -9.333135
3.0222 136.6005 -9.291269
2.854826 132.4911 -8.823311
3.558073 134.2311 -9.112467
1.218991 139.4212 -9.547489
0.7691023 126.2493 -6.330832
1.491899 95.40166 -9.844968
4.523088 96.12877 -9.83952
6.628807 95.29518 -9.630719
7.21471 100.1043 -8.484706
8.270102 97.43708 -8.502574
7.708483 95.78142 -9.15965
10.86987 97.24863 -5.941474
3.756339 90.45995 -9.872955
8.670284 101.8814 -7.085409
8.828093 104.7606 -5.810911
7.611899 99.5034 -8.46602
6.014441 106.7526 -5.83027
5.732542 108.3539 -5.113563
6.047653 111.0662 -3.932483
6.971441 115.2301 -2.531684
4.609328 122.9333 -5.03362
8.026716 114.4092 -2.003979
2.093694 123.824 -5.435448
3.77721 115.2435 -3.524432
0.5336227 145.1731 -7.346909
2.253658 141.7825 -8.788434
3.554856 140.8408 -9.011909
6.637828 85.28731 -7.389981
0.5456019 85.69018 -7.71189
0.6673337 80.9241 -5.672366
-0.7184429 80.17318 -5.515054
4.286197 87.40791 -8.789443
7.098547 85.61238 -7.595817
11.91242 127.5251 -0.7370834
12.5125 129.5761 -0.9800614
11.62191 67.48837 -1.426076
0.648863 69.8554 -4.078167
2.076074 137.627 -9.395114
1.035032 124.5265 -5.68904
1.229068 127.0825 -6.673534
2.552805 127.6806 -6.926721
6.893273 93.12602 -9.695219
3.324568 95.15431 -9.928097
9.866211 94.19601 -7.786762
7.176411 92.06467 -9.56146
5.752429 92.49 -9.981984
7.46518 87.94871 -8.636269
5.175047 88.93545 -9.534007
4.631446 88.61303 -9.412533
2.619245 90.24422 -9.755082
8.562031 106.4116 -5.240844
7.927445 107.2811 -5.161342
5.995894 99.74563 -9.022901
8.608334 110.2301 -3.403215
7.939095 116.1324 -1.770171
10.70629 123.9564 -1.711043
3.626589 122.7757 -5.034345
2.020154 121.4916 -4.688629
2.357971 145.2301 -8.181601
3.148165 146.1086 -7.559777
6.619418 142.1237 -8.651793
2.719652 140.3478 -8.985496
0.9600121 84.74121 -7.167683
11.54061 125.8178 -0.7383788
10.69089 123.4505 -1.328919
9.310012 123.5086 -3.453721
9.906319 125.1941 -4.075449
12.70386 130.915 -4.126579
13.43171 77.08153 -0.8491889
7.488938 63.25022 -2.770945
9.648954 62.77603 -2.172904
5.502676 133.3815 -9.031879
3.052594 126.5751 -6.444829
7.855288 90.37154 -9.195465
9.26758 91.40086 -8.428015
9.795952 91.12959 -7.952396
11.80894 93.77126 -5.077211
9.69373 99.32753 -6.937799
3.460579 124.8821 -5.804813
3.044288 126.1769 -6.286401
6.495124 123.1376 -4.721645
5.966792 124.1715 -5.326654
4.815684 147.2347 -5.688219
5.355512 139.7068 -9.356032
11.45093 125.1982 -0.1709809
11.55779 130.0872 -5.519895
12.84392 68.51298 -0.1636997
3.594097 131.0014 -8.417663
6.75552 129.1088 -7.530395
7.876618 92.1001 -9.269638
9.088759 89.93346 -8.540145
7.552159 118.337 -2.347671
7.847093 117.3419 -1.877095
7.89873 123.2471 -4.226308
6.528641 120.1337 -3.561186
9.414025 125.2483 -4.48932
6.819767 140.1495 -9.187864
9.360005 124.6412 -4.157754
4.644803 127.0835 -6.617505
7.237155 128.0996 -6.97244
11.27279 128.8109 -4.977182
5.526473 120.9045 -4.209756
7.372265 127.6906 -6.734193
5.943387 125.8108 -5.993743
11.96271 130.3903 -5.137341
6.348912 140.3745 -9.302917
6.855093 138.8868 -9.247509
7.819609 137.9295 -8.999206
9.690325 139.7475 -8.89924
9.764583 140.7131 -8.953187
6.750896 135.2426 -9.152213
10.44739 139.973 -8.405416
8.545664 128.1885 -6.769532
9.854465 129.9993 -7.081692
6.570763 129.4645 -7.73323
8.95907 130.9468 -7.969427
6.514694 127.1038 -6.498112
5.638826 125.9128 -6.080341
5.564082 142.2273 -9.046655
6.62622 143.2257 -8.245699
5.31403 136.1659 -9.223143
9.115702 126.6182 -5.549933
6.983606 130.8008 -8.399901
4.337721 132.5201 -8.861783
6.997973 131.6388 -8.628192
10.65352 134.1447 -7.858845
4.661616 142.5977 -8.632657
6.426138 132.7049 -8.957337
10.45702 132.2867 -7.502169
5.728154 132.7173 -8.941591
7.200464 133.6084 -9.005108
8.582191 136.2236 -8.754172
10.17736 135.3964 -8.197758
9.693684 133.1044 -8.12366
11.79115 136.0538 -7.724359
9.08088 133.1881 -8.403139
8.553894 146.609 -3.559673
2.169897 64.93829 -3.441248
14.68624 93.61597 1.816519
14.97391 93.25611 3.065483
13.3726 101.4441 2.126693
13.3669 99.94527 1.039751
5.130043 64.33537 -3.200096
15.30793 86.90578 2.02398
14.98071 85.99051 0.2903642
2.379996 69.84097 -4.041371
13.19929 97.15742 -0.6664938
12.59756 97.30563 -2.284473
2.655307 66.5162 -3.632056
5.661808 117.4824 -3.37657
7.573255 94.38482 -9.372714
6.138614 111.3266 -3.801287
5.956182 115.4406 -3.086599
6.149169 116.6392 -3.019144
5.483775 82.84495 -5.991381
13.19278 74.44019 -0.5727684
12.5845 72.41666 -1.025074
12.63908 75.25725 -1.40659
13.79677 79.43655 -0.9247597
12.91992 78.73132 -1.972915
13.47856 78.60211 -1.16503
14.04635 80.84325 -0.8240854
2.917364 76.29305 -4.749517
9.133843 88.26899 -7.974539
7.934052 87.70716 -8.319398
7.903994 85.64902 -7.310063
8.48031 86.70839 -7.570413
11.07438 86.15441 -5.71063
13.42678 83.15735 -2.412396
4.114225 86.60917 -8.325253
5.781981 97.68861 -9.520635
4.513236 97.55932 -9.68347
9.960662 88.72689 -7.602242
11.4063 90.27254 -6.078366
4.442754 127.072 -6.624415
9.530081 137.4934 -8.593453
15.1688 84.75695 1.402756
0.4302924 64.33106 -3.3776
1.46445 65.31012 -3.504753
4.317074 65.95554 -3.473449
3.970144 64.67907 -3.334082
4.249627 65.46359 -3.415209
11.79475 87.44189 -5.205971
2.604669 73.2062 -4.409117
4.478015 73.4482 -4.310996
5.490664 76.20081 -4.53502
5.95196 78.48721 -4.939657
11.18936 78.94895 -3.585377
7.073237 76.14318 -4.363541
4.023507 76.46928 -4.699509
11.72027 76.84811 -2.686873
11.99819 75.90558 -2.162819
6.555673 72.6196 -3.999949
9.402256 77.03136 -4.032483
10.78906 73.84872 -2.788424
6.339382 72.62061 -4.028439
11.0795 74.40565 -2.654362
6.273735 71.48965 -3.927093
6.811867 73.28118 -4.037259
3.633605 81.45183 -5.725507
7.746319 77.8737 -4.644676
9.351317 76.90037 -4.016284
7.092935 67.79913 -3.393385
3.766612 78.16862 -4.997445
7.752974 79.89462 -5.206468
7.507148 71.23091 -3.755805
5.050804 68.09531 -3.672535
3.941253 68.14229 -3.764897
5.250497 69.84782 -3.86006
4.893135 81.38047 -5.6552
4.857448 66.89455 -3.54476
2.350003 66.50674 -3.641841
8.485958 68.35203 -3.180115
8.908921 70.3606 -3.340236
6.45265 68.4277 -3.560353
11.13355 69.86547 -2.106566
11.68018 73.69625 -2.085055
10.45209 70.07373 -2.620567
8.951219 64.53452 -2.660788
8.085759 65.70818 -2.99009
12.81625 69.93252 -0.3745296
9.705917 65.95439 -2.583154
12.37566 67.5816 -0.6524524
11.63695 66.74346 -1.353201
13.63838 95.88265 -0.1488994
14.15666 91.30804 -1.299717
13.82653 94.29997 -0.5318814
12.32233 93.31326 -4.236608
14.14767 92.88656 -0.5902348
14.77234 91.21989 0.4274561
0.7515664 68.03917 -3.859208
4.973255 113.8818 -3.467132
3.087003 85.1881 -7.394063
11.33999 71.82269 -2.141788
11.78364 85.93797 -4.963649
11.68147 88.52847 -5.508728
12.59992 91.61845 -4.1078
11.55078 92.67144 -5.727079
12.18412 87.07502 -4.653016
13.4364 90.56273 -2.928037
14.08499 88.39265 -2.11457
14.11193 87.24794 -1.914327
13.98609 91.74414 -1.558943
14.28331 85.81294 -1.548313
13.21339 86.97006 -3.222075
8.349141 83.99383 -6.241461
8.551258 83.42682 -5.838424
11.189 84.88563 -5.101009
8.23199 84.4326 -6.537233
3.746219 81.74545 -5.793232
5.097699 85.54986 -7.695362
6.968586 86.22079 -7.950486
11.14927 93.7152 -6.188163
10.60761 90.70097 -7.083375
15.40802 85.93903 3.705592
15.19661 88.44574 1.093937
14.33375 84.94836 -1.252977
9.232311 77.73534 -4.253787
6.028972 79.97456 -5.319009
9.939135 78.55753 -4.227814
11.46879 82.74516 -4.312298
11.36092 81.05241 -4.028267
14.1688 92.25452 -0.9010248
10.14331 82.04829 -5.053787
9.116005 80.40302 -4.976752
6.043662 80.4586 -5.438068
8.629636 81.17546 -5.307164
14.0758 83.04874 -1.427029
13.07876 84.00211 -3.045294
13.22635 85.80535 -3.151558
14.79169 83.29666 0.3206981
7.005888 81.98088 -5.694502
-2.954807 64.33886 -3.290652
-1.842407 66.99687 -3.689083
-2.754776 144.3945 -8.096429
-2.836395 62.4765 -3.041085
-12.14303 62.14601 -0.4134655
-15.15187 79.75246 3.536011
-11.51063 124.9955 1.523465
-14.84508 71.35731 3.657748
-1.704975 74.59249 -4.620948
-11.5635 108.4891 -1.213762
-7.936966 146.0907 -6.239638
-9.774859 95.55643 -7.647013
-11.04555 97.44321 -5.623664
-13.35516 66.48282 0.9198455
0.5021709 98.67856 -9.397502
-2.804104 102.9198 -8.110402
-6.446443 145.5035 -6.487425
-10.15943 115.4588 1.417485
-9.271277 106.3086 -4.918326
-9.210241 102.435 -6.468851
-10.8284 111.1761 -0.3257852
-5.527072 65.56461 -3.323725
-0.2129727 114.8609 -3.567811
-2.757489 105.5697 -6.717585
-2.334312 124.9725 -5.844026
-1.84089 108.8171 -5.083263
-6.591894 88.33741 -9.059711
0.4494374 124.7617 -5.775072
-0.5776464 135.5803 -9.216589
-1.430548 116.8318 -3.685242
-9.210103 106.5485 -4.855729
-13.1707 96.31541 -1.14215
-9.402339 99.24466 -7.298662
-9.704953 140.8809 -8.7828
-0.1785882 148.2279 -6.187312
-10.35364 116.6313 2.355594
0.1646656 147.4663 -6.395549
-0.6412203 142.6959 -8.090072
-4.864488 118.4436 -3.770354
-10.08228 144.9104 -6.976766
-11.15166 106.9036 -2.917428
-1.579486 96.45965 -9.7761
-14.17104 63.66372 2.697083
-15.31323 90.58875 5.445739
-14.42618 70.90966 2.686587
-13.37356 62.58103 1.26793
-11.0559 100.8108 -4.974469
-11.12282 99.54748 -5.001135
-12.869 105.2744 0.2094705
-10.90816 106.5212 -3.441905
-9.86452 62.57116 -2.110681
-14.72058 72.72095 3.227498
-7.95404 106.7227 -5.322473
-14.88446 80.88559 1.520851
-5.938609 117.7522 -3.278927
-9.551119 97.36012 -7.58546
-15.258 91.55859 3.470343
-10.86278 104.9507 -4.088181
-9.292807 138.218 -8.658158
-14.39755 95.80865 2.329496
-14.60865 73.94705 2.705049
-13.02886 136.4387 -7.308984
-9.144907 117.7124 -0.5781358
-13.39279 134.4414 -6.228633
-9.457067 120.5796 -1.442346
-10.91591 107.6821 -2.765794
-8.877941 85.2477 -6.676064
-8.425155 63.41934 -2.663833
-10.40279 142.4635 -7.767753
-8.427973 146.9069 -3.355455
-2.917014 94.60284 -9.977248
-0.6638535 145.6293 -7.184066
-11.6253 110.4907 1.037308
-10.38767 107.9363 -3.225319
-8.939764 145.6458 -6.976138
-9.858143 119.4221 -0.0727164
-11.2864 122.9483 2.846608
-10.38459 118.4799 2.118823
-14.21935 133.9011 -2.630714
-7.973032 145.1558 -7.168987
-13.1352 131.5364 -0.7536044
-7.733683 120.4789 -2.940914
-11.9446 106.8676 -1.682559
-11.48869 109.8003 0.0006365172
-10.2955 115.8273 1.98355
-10.02754 113.0121 -0.4523475
-9.671944 112.456 -1.27704
-10.4039 112.5993 -0.0355338
-7.095296 139.39 -9.079736
-10.16512 121.475 -0.8217573
-13.04974 130.8993 -1.912191
-13.62853 133.0101 -0.8311093
-9.752156 134.4191 -8.288038
-7.497602 147.5253 -2.938072
-7.867691 146.3131 -5.557319
-4.353899 65.56486 -3.401408
-5.014607 61.1596 -2.719824
-4.85365 64.28644 -3.186202
-12.21243 67.88439 -1.13714
-6.319026 80.46809 -5.424099
-15.29482 83.03439 3.262333
-15.38814 87.42006 3.071975
-0.8799325 87.50587 -8.720281
-0.4559315 93.84608 -9.929755
-1.825686 102.3771 -8.328318
0.2978589 98.88838 -9.367044
-8.707196 97.01809 -8.36375
-7.94083 96.81967 -8.833271
-8.060198 104.7968 -6.258331
-8.749215 105.9986 -5.376814
-9.867798 107.5696 -3.947661
-0.8838222 104.7254 -7.159684
0.4062999 103.8257 -7.612917
0.04778364 101.2229 -8.73889
-2.690112 100.3453 -9.085761
-9.26474 103.5113 -6.098795
-1.177863 109.6743 -4.716882
0.5354277 112.9595 -3.738093
-8.026228 110.7319 -3.515249
-1.552254 113.8046 -3.602548
-1.500139 119.6012 -4.186136
-5.391015 115.2211 -3.278707
0.5072994 116.5872 -3.671774
0.1094234 119.0356 -4.073731
-7.589794 119.5885 -2.691075
-8.526938 120.8464 -2.596862
-1.23628 129.0067 -7.576492
-11.8032 137.8655 -7.98138
-3.58696 136.8258 -9.289298
-5.142378 147.5098 -4.899259
0.4162617 145.0736 -7.334704
-2.803701 145.7212 -7.706851
-1.433804 140.6065 -8.658416
-12.3981 64.7907 -0.2987927
-14.03398 64.08178 2.428636
-13.41441 98.78972 0.7799664
-10.67904 96.06779 -6.47792
-12.04928 98.68405 -3.288744
-11.58887 98.03804 -4.417025
-13.97197 96.38074 1.288887
-13.29767 100.5745 0.9487842
-11.44386 100.1031 -4.368824
-12.05968 103.5546 -2.928841
-12.41347 105.1128 -1.652339
-12.54639 105.2842 -1.147041
-10.26439 119.2074 1.180012
-9.613706 114.9572 0.01838889
-9.269505 115.4371 -0.4042693
-12.00131 135.7706 -7.618589
-10.77883 120.6146 2.072843
-11.35064 123.7516 1.720982
-12.73608 130.7592 0.5540061
-13.35018 131.974 -3.41481
-13.69377 135.3934 -6.484477
-14.32815 134.1705 -3.702275
-6.744078 146.2687 -5.817466
-8.149499 145.9307 -6.669897
-7.919235 144.0153 -7.42136
-8.369931 146.0726 -6.159155
-2.75916 71.62571 -4.227835
-2.54436 68.52174 -3.865019
-9.34223 62.20986 -2.278489
-3.049659 74.95 -4.59557
-2.953718 83.63117 -6.553899
-13.9113 71.29784 1.109594
-14.4905 77.3944 1.063401
-2.072183 85.57024 -7.648278
0.05743084 88.38098 -9.083026
-2.790994 85.67326 -7.709188
-15.36378 86.33366 2.88297
-1.092717 89.21961 -9.409252
-1.665356 92.25034 -9.940647
-6.158188 90.19422 -9.704398
-9.145879 101.3719 -6.894993
-7.351111 98.70541 -8.7948
-7.665581 96.29414 -9.05665
-6.135623 103.5768 -7.58611
-10.0329 103.8955 -5.325756
-2.271297 106.3655 -6.330056
-4.414339 111.2937 -4.092198
-0.3715772 112.9853 -3.746206
-7.700285 115.7733 -1.999361
-8.945079 112.5644 -2.021271
-1.909688 115.8 -3.573183
-7.362496 116.8542 -2.283724
-1.564272 130.9941 -8.42762
-0.7805788 127.2535 -6.755276
-1.848809 137.9148 -9.487083
-0.3603275 142.8573 -8.089971
-0.8931763 143.6266 -7.893685
-6.041683 146.2158 -6.625844
-0.2258076 139.8184 -9.408814
-13.16848 63.00003 0.9038022
-14.02213 64.87247 2.361496
-13.37748 101.2876 1.907177
-15.15768 92.43171 3.232741
-13.69939 96.22202 0.2696227
-11.99476 100.1645 -3.222475
-12.32455 102.523 -2.402744
-11.69145 101.4338 -3.782903
-12.72733 104.3314 -0.8983175
-9.485192 119.6434 -0.8453852
-10.80662 121.5181 1.026052
-10.15577 120.7522 -0.3292845
-10.05625 116.9062 1.438283
-10.67999 139.9806 -8.56881
-9.822338 137.6798 -8.504358
-12.5455 130.4519 -4.071064
-12.03757 129.3395 -3.965488
-4.115512 64.48746 -3.257154
-3.913687 67.72414 -3.704744
-6.305426 61.29964 -2.642699
-9.875946 61.36651 -1.964287
-2.451891 75.23698 -4.666874
-1.12072 79.74537 -5.423498
-14.84039 76.59818 2.960243
-14.56922 68.06234 3.269479
-14.91631 78.80677 2.551261
-15.20561 82.57195 2.704171
-1.232182 81.83822 -5.943836
-15.39804 86.01253 4.087463
-3.628821 90.31543 -9.779872
-0.1633087 88.52544 -9.147671
-4.628362 90.64738 -9.872749
-7.339037 96.09623 -9.267571
-8.186642 92.96565 -9.133581
-3.996056 92.03536 -10.0471
-5.924341 100.495 -8.870451
-5.448219 98.20816 -9.471087
-5.593479 97.06957 -9.631896
-7.302125 102.521 -7.644855
-2.097842 108.1004 -5.416231
-2.530052 104.7361 -7.152039
-2.580596 110.9218 -4.252691
-3.164647 112.448 -3.831434
-4.619903 109.9845 -4.536757
-2.748456 112.4634 -3.830913
-7.022 110.0771 -4.134625
-2.585741 114.7816 -3.535257
-6.473135 114.6141 -2.898886
-4.134515 119.5059 -4.121466
-4.235137 121.3966 -4.605294
0.2138634 128.8011 -7.472347
-0.8366722 132.1308 -8.771826
-0.8016174 134.5671 -9.123483
-4.545303 126.3777 -6.335563
-0.1139356 136.2519 -9.276549
-2.164246 142.3565 -8.627003
-5.688007 145.3496 -7.642834
-6.503689 142.6345 -8.416416
-4.5593 142.2145 -9.123588
-1.067697 137.9335 -9.615845
-12.49192 63.63043 -0.0803866
-14.88805 94.24291 3.943104
-14.69506 94.93912 2.996403
-12.64725 97.16081 -2.205152
-12.11446 97.44398 -3.38083
-12.24581 98.28078 -2.898175
-12.32228 94.79733 -3.794406
-9.895439 121.5627 -1.477068
-10.36838 114.6519 1.623502
-6.454912 138.3117 -9.209431
-11.96382 138.7498 -7.986896
-10.75921 123.3513 -1.233098
-4.732282 70.39976 -3.955031
-6.082582 64.87026 -3.182343
-7.347767 65.57917 -3.120002
-4.403943 73.53202 -4.337244
-1.561676 80.71385 -5.630612
-14.43411 79.2701 0.617844
-14.40006 79.7556 0.3915203
-15.35991 85.18546 2.891793
-2.337413 86.55492 -8.239062
-15.34359 86.71301 5.127979
-15.39324 87.41507 4.636229
-5.231993 93.22878 -10.08214
-4.506929 95.80516 -9.90403
-3.925207 97.35442 -9.734901
-9.509932 94.97239 -8.015785
-5.076932 91.50185 -10.03485
-6.21487 92.55431 -9.892956
-8.485768 89.73406 -8.816696
-11.93762 95.9726 -4.234515
-12.92374 95.10434 -2.369922
-13.04725 95.229 -2.023204
-11.39139 95.69378 -5.410688
-3.573543 100.8469 -8.98175
-2.560238 101.9089 -8.544337
-3.674263 109.0345 -4.953908
-6.570377 106.6085 -5.79118
-5.485024 107.9375 -5.343278
-4.739614 112.5322 -3.729288
-6.208791 108.8243 -4.818254
-6.609332 115.8173 -2.74989
-0.7703224 125.0308 -5.872557
-3.249211 131.8095 -8.693256
-2.581661 131.2519 -8.512851
-2.596541 132.7963 -8.895582
-3.779995 135.8907 -9.217112
-2.173306 138.4911 -9.493413
-4.38905 147.0639 -6.168299
-4.843812 146.3113 -6.540833
-4.058941 142.2368 -9.172549
-6.043699 141.9884 -8.810512
-15.27725 91.41262 3.555611
-15.42055 89.62237 3.875062
-14.54114 95.76394 3.535272
-11.6947 126.5997 -0.6094283
-11.14465 124.4233 -1.110186
-6.461705 64.40399 -3.082224
-8.009462 64.49015 -2.890311
-4.298061 72.99094 -4.28539
-5.609577 74.87867 -4.347204
-14.10965 73.47845 0.4467237
-14.71864 79.39483 1.495722
-13.24276 72.97083 -0.4310038
-2.82941 86.97005 -8.484441
-4.226851 86.45552 -8.234706
-6.994006 93.37537 -9.604906
-6.597432 90.78001 -9.684741
-9.419456 92.3479 -8.281511
-6.261164 99.98409 -8.924912
-3.208424 100.1502 -9.170068
-2.539978 103.4569 -7.821041
-6.075658 105.1045 -6.75623
-4.989611 105.917 -6.418997
-3.736418 122.5077 -4.997311
-4.616717 125.2504 -5.890462
-2.172188 132.9681 -8.927164
-3.906808 130.9236 -8.41433
-5.548111 140.774 -9.157966
-5.643784 147.5068 -4.127593
-5.131097 142.6974 -8.868822
-4.3987 140.9637 -9.272802
-14.21068 93.20017 -0.2162807
-15.0155 91.83934 1.820424
-14.94982 93.0099 2.379758
-15.10978 87.43562 0.6778255
-11.66202 126.2124 0.09319533
-11.68021 126.3509 -0.1963114
-11.70479 126.8294 -0.915497
-3.491256 72.51079 -4.289289
-6.701046 74.44344 -4.145694
-5.701543 77.73936 -4.796055
-6.17555 81.8905 -5.754583
-14.05047 76.74295 0.3452614
-12.81962 76.78406 -1.566294
-4.30956 85.90314 -7.858889
-6.675348 81.20797 -5.574109
-7.702124 87.24021 -8.165109
-2.797968 100.4177 -9.069016
-6.188941 101.9048 -8.245255
-5.311666 102.4354 -8.273349
-2.311082 119.2565 -4.103265
-2.918269 117.8994 -3.832746
-2.842325 120.9294 -4.526846
-7.619656 121.8063 -3.681048
-3.188936 125.9317 -6.187941
-6.669373 147.4798 -3.01602
-3.49632 139.3354 -9.328504
-14.64787 88.96014 -0.7686045
-15.06338 88.87055 0.5379276
-11.84924 127.1758 0.1471896
-10.31443 124.7582 -3.283984
-5.82776 74.49253 -4.283994
-3.994822 76.39745 -4.708457
-5.745006 77.22511 -4.691385
-13.3527 77.85498 -1.141114
-5.909744 87.03724 -8.507709
-6.286135 118.3261 -3.168788
-5.993706 119.7304 -3.707493
-7.309859 122.4625 -4.137777
-7.024197 122.6918 -4.364287
-14.13309 91.77155 -1.208321
-15.23001 88.11687 1.349138
-14.99997 86.91094 0.235912
-9.054052 78.83327 -4.569229
-12.65242 80.18086 -2.672278
-7.357584 86.40375 -7.768566
-6.675498 120.7183 -3.678692
-14.73253 87.08388 -0.5072136
-12.85619 86.4792 -3.690063
-14.75482 85.83306 -0.3471326
-6.477229 75.23054 -4.280791
-7.930803 79.48412 -5.032695
-12.6906 78.68559 -2.235229
-9.39355 75.81287 -3.72468
-12.23091 76.95007 -2.287446
-6.255463 87.47518 -8.708561
-8.746414 86.28534 -7.191278
-7.120535 73.06059 -3.974854
-6.7412 79.46581 -5.171332
-12.49895 79.63001 -2.616141
-10.5305 77.49205 -3.603527
-10.08615 72.86567 -3.083355
-8.026896 71.57358 -3.714909
-12.10696 84.95177 -4.282849
-10.65317 84.77245 -5.458457
-12.74694 81.89852 -3.017698
-14.18732 81.86167 -0.8099964
-10.05568 80.82616 -4.781153
-9.719105 79.37297 -4.503129
-14.50343 82.29723 -0.1715478
-14.13468 82.00632 -0.9690672
-14.95261 84.57321 0.8384728
-13.97088 81.247 -1.14005
-10.63263 69.50941 -2.543756
-5.193938 69.33279 -3.794852
-8.210705 69.68619 -3.421744
-8.272056 67.9287 -3.283863
-6.716275 68.17894 -3.523483
-8.846275 69.43007 -3.209217
-13.28203 64.05405 1.063537
-13.88086 69.02071 1.627594
-13.13449 68.12093 0.06813466
-9.88337 69.24238 -2.863162
-14.03373 71.74145 1.362774
-13.737 74.60241 0.0442661
-13.49798 70.78137 -0.01280166
-9.670744 67.81445 -2.791548
-11.76387 70.18237 -1.807282
-10.71839 67.38908 -2.150097
-8.484676 64.21009 -2.753734
-13.20397 68.6529 0.1198945
-12.67418 69.35284 -0.8535829
-11.05535 73.95301 -2.650608
-10.77024 65.67909 -1.972518
-8.987534 65.28336 -2.73526
-11.8221 72.5425 -1.821286
-13.15713 71.79846 -0.6834655
-11.25534 73.16722 -2.398321
-10.09195 62.84233 -2.035735
-10.27347 136.5176 -8.296567
-7.866501 137.9684 -8.97858
-8.673306 134.4567 -8.664035
-7.355555 132.7783 -8.867292
-6.44021 135.9609 -9.192389
-7.449553 131.1038 -8.461514
-8.019656 137.476 -8.928191
-6.634346 133.9799 -9.093615
-4.63145 134.951 -9.15012
-4.689167 133.8872 -9.05109
-8.701867 132.0199 -8.360605
-8.986764 139.4257 -8.723267
-11.12749 134.8363 -7.788169
-12.31282 133.2058 -6.47788
-10.01926 133.2211 -7.985485
-9.614137 132.9596 -8.13559
