# .PCD v0.7 - Point Cloud Data file format
VERSION 0.7
FIELDS x y z
SIZE 4 4 4
TYPE F F F
COUNT 1 1 1
WIDTH 1655
HEIGHT 1
VIEWPOINT 0 0 0 1 0 0 0
POINTS 1655
DATA ascii
-12.33489 139.5332 -11.58238
15.88557 139.7617 -9.224744
-11.62366 118.0122 -1.93776
-9.836263 118.2214 -4.57348
-12.77527 118.9077 1.047626
13.57731 150.5181 -8.578125
6.448569 154.0755 -5.696633
-15.52713 135.8714 -2.367684
-15.62494 136.193 -3.32718
-15.55343 136.7304 -5.797841
-18.03832 145.6873 -9.661309
-10.31351 151.9599 -4.483209
-3.182707 155.4051 -8.256194
-11.44034 118.3884 -3.345445
-14.96669 149.069 -9.506686
-17.70647 144.6146 -9.931619
15.14129 135.2597 -4.882875
-11.69822 145.2435 -11.42623
-11.85527 118.4597 -2.082555
-18.35686 147.9544 -8.652208
-17.35381 140.8868 -10.0136
17.47802 142.4627 -10.08207
15.95097 136.9642 -5.825488
-15.86326 140.1643 -9.327605
16.70615 149.2685 -8.750556
-17.94083 149.6901 -7.440983
-15.72346 136.6974 -5.463276
17.84803 150.0825 -6.807471
-11.48635 151.9161 -4.885732
-15.28992 148.0098 -9.966055
-15.52356 137.341 -6.642426
-15.12469 140.1033 -9.793079
11.92701 121.2811 -0.9873412
5.324831 118.8982 -8.033911
11.72197 119.2555 -0.9492093
11.91156 120.8929 -0.8478798
-12.42532 119.8375 -0.6613316
1.046287 153.3969 -9.373864
8.066882 150.4255 -9.924238
10.38615 121.7071 -5.411587
10.12705 121.3416 -5.448129
12.03932 123.0617 -2.335245
-12.42217 121.7134 -3.47192
17.14186 146.4625 -9.850853
5.754345 118.8695 -7.776647
8.256914 119.572 -7.857191
15.29951 140.4912 -9.991831
14.07644 141.365 -10.74397
13.9031 145.307 -11.02943
8.385718 119.9515 -6.905843
-16.77207 151.1294 -5.097951
-14.09372 134.3566 -7.219017
-14.60791 148.6173 -9.845927
12.58069 124.8146 -1.52922
12.5088 124.0167 -1.186099
-14.56497 130.3368 -1.216484
5.048165 118.7967 -8.396713
-1.025179 123.784 -8.761353
-13.65272 121.7501 0.7531834
-10.50585 152.2559 -6.538338
2.603957 151.5085 -10.16918
5.649126 152.3481 -8.901616
12.29004 121.9757 -0.6836184
9.813284 124.2182 -8.503326
-15.39982 140.9704 -10.08792
7.903904 145.4574 -12.12123
-14.87434 133.2119 -1.198033
-15.06903 134.6447 -3.929282
9.234626 121.7376 -6.762753
8.601939 120.4668 -6.842597
15.41798 149.8648 -8.808444
-15.4709 136.9036 -6.243309
-15.27953 151.3281 -6.575825
-11.60571 149.1985 -9.967596
13.43826 127.5041 -3.536876
-14.42975 126.7453 0.1077876
-14.24484 128.8161 -1.522017
4.069648 117.3912 -9.018458
-6.892569 116.866 -7.094994
-12.72754 122.871 -2.95507
-10.50808 152.366 -5.6033
3.09644 151.9761 -9.844778
-4.495378 152.6201 -9.20637
-3.879313 155.5173 -7.792866
11.30345 151.9846 -4.385938
14.78996 133.2133 -2.237719
14.51968 132.0162 -3.009909
-15.59866 140.1154 -9.417094
9.082975 121.6055 -7.771248
15.40758 149.0607 -9.411983
-14.52526 150.1705 -8.78944
-11.24757 147.3649 -10.90702
12.47203 124.2292 -2.904882
13.84498 129.4251 -2.534529
-13.45432 126.1916 -1.834873
-12.77368 123.7223 -3.863494
-14.40174 127.699 -0.3718452
-13.47227 128.2161 -4.693121
-14.3714 128.7726 -1.13443
2.471061 118.1605 -10.6424
1.616076 119.2126 -10.54915
-5.242321 119.8356 -9.871848
-6.283571 154.2335 -5.723442
-10.7271 149.9735 -9.554076
-12.87658 151.742 -5.735355
-5.676643 153.7437 -7.508002
1.670987 152.0144 -9.945488
8.371859 152.4386 -7.223686
14.03125 130.2818 -3.703027
-14.83282 134.2225 -4.786455
10.94469 150.4558 -9.20375
-11.78276 150.7289 -8.678832
-10.46281 148.8001 -10.41415
-12.34708 142.442 -11.64505
13.03206 126.6884 -4.011945
13.87176 129.2698 -3.462795
13.33395 127.8524 -4.053395
12.21266 129.1309 -6.631915
3.484786 119.3773 -9.325067
-2.291009 120.2128 -8.360811
-3.411038 121.4693 -10.24294
-4.332789 120.6764 -10.55127
-7.006238 118.9662 -7.939141
-4.338236 119.4362 -10.09533
0.5368817 149.6254 -10.94055
13.90926 135.4054 -8.426632
15.72061 137.7195 -6.89796
14.17221 132.6803 -5.359331
-12.43032 136.3314 -10.17015
9.745409 123.2021 -7.121453
-9.355213 150.3788 -9.481339
-9.447857 146.2143 -11.67224
-12.84535 143.8633 -11.40952
-11.75525 137.2256 -10.94115
13.78922 132.9261 -6.713322
-11.29183 126.3713 -7.086697
-12.77842 123.4597 -3.473556
1.553136 119.8478 -10.61228
-5.129052 121.7095 -10.69956
-3.625309 122.1597 -10.69898
0.5353188 151.1919 -10.35003
2.999659 149.8604 -10.86172
1.736467 149.1106 -11.14535
3.932004 148.2577 -11.54603
2.859252 147.4705 -11.91971
1.824219 145.4102 -12.37409
1.251595 147.263 -12.01076
6.0783 146.797 -12.0178
12.394 146.941 -10.86681
-9.607185 138.3604 -12.16198
15.46896 138.2974 -8.075606
-13.52894 139.532 -10.69104
-7.507902 139.2542 -12.91503
-12.56326 139.5157 -11.55393
11.77022 151.3652 -7.595653
13.74279 149.1133 -9.727468
-5.983557 149.5028 -10.84554
-4.700757 149.8954 -10.78136
-7.579833 146.8586 -11.81116
-6.65395 147.1212 -11.84979
-2.492982 152.7003 -9.555931
-3.733645 149.7373 -10.91274
-3.184995 150.1201 -10.74331
15.94001 138.933 -8.516716
-8.482126 142.4327 -12.52807
-11.88833 140.6748 -11.76923
-9.155313 139.3282 -12.40939
-2.732226 151.7023 -9.984288
-4.495845 147.7556 -11.72258
-2.516635 147.1524 -12.02202
0.1064577 140.1941 -11.76894
-4.83162 142.7244 -12.64937
-8.433712 141.6138 -12.66143
-7.213468 141.9503 -12.67773
-6.587212 139.3402 -12.85202
-8.099298 137.3846 -12.43864
3.029698 142.8711 -12.47904
-10.73305 143.4984 -11.93073
-4.713846 136.7704 -12.84344
-7.342561 136.6888 -12.76639
6.771223 142.9731 -12.60841
-8.671268 144.8146 -12.15598
-10.02381 136.3374 -11.42681
-6.81165 134.8994 -12.66215
-11.19021 130.209 -8.752028
-7.348632 133.3518 -11.85236
-8.806991 135.2241 -11.49325
-11.19305 132.9704 -9.577123
-9.875077 135.9773 -11.37251
-9.372607 134.8556 -11.21507
-8.568126 131.6819 -10.13223
-9.92064 131.6636 -9.867814
-9.746571 128.488 -8.423038
-11.34344 134.9793 -10.22171
-12.17306 136.5788 -10.43298
-9.168763 128.9859 -8.823027
-13.90057 129.7514 -4.109928
-6.94694 130.6179 -11.53398
-10.02371 127.9076 -8.204658
-12.09641 128.3063 -7.158006
-12.49861 130.1082 -7.036071
-11.35352 129.0075 -8.144814
-9.862432 123.4731 -7.050823
-13.99916 133.4844 -6.659424
-11.80767 129.0066 -7.740154
-12.19472 127.3741 -6.736328
-14.03789 132.4083 -5.65381
-6.387808 127.0751 -11.36648
-8.246448 119.2708 -6.481795
-3.896996 121.5499 -10.65665
-7.215802 124.2743 -8.96037
-14.5393 132.9069 -4.34496
-7.396799 121.3805 -7.117201
-11.71254 121.6435 -4.709019
-10.93085 120.2795 -4.715506
-15.82484 143.2862 -10.4338
-14.73115 143.0832 -10.7336
6.436764 152.1515 -8.701178
5.15351 151.5589 -9.826199
14.58382 147.7887 -10.21337
14.57289 148.1355 -10.0929
14.80704 148.8974 -9.660811
12.53503 123.6049 -0.9140272
-7.853514 151.5636 -8.788863
-9.657042 151.758 -8.055366
-5.344879 151.7885 -9.475821
-14.06644 134.038 -6.999904
9.434254 123.2725 -8.490399
10.23473 124.2048 -6.452052
10.12313 125.6329 -8.850282
5.658493 123.7202 -9.229827
4.408487 121.5447 -9.839613
12.91816 131.9901 -7.900777
12.78459 130.5544 -6.981831
10.37655 129.1568 -10.0933
11.48617 129.4797 -8.854747
11.41734 131.224 -9.807647
10.99998 130.2301 -9.838676
-7.343303 118.9447 -6.528769
12.7023 133.199 -9.012129
6.329687 144.4305 -12.41861
12.61942 135.5767 -10.53985
13.05175 139.3588 -11.41182
10.80866 152.268 -5.830448
-14.2013 145.3224 -10.96083
11.41855 146.9206 -11.0476
14.14473 142.4294 -11.05709
5.944334 144.3802 -12.43224
-13.02522 140.8597 -11.62796
0.3230316 145.7783 -12.26356
0.7921966 144.1692 -12.81773
-1.012602 144.7367 -12.5747
-2.342729 143.8062 -12.92003
-0.9718401 143.7843 -12.881
3.797632 141.9978 -12.68899
-7.552367 124.8754 -8.365024
-7.036346 127.1146 -10.34733
-6.975611 125.2321 -10.34544
-6.500074 120.5238 -9.557286
-6.860694 120.9557 -9.094402
5.805285 149.8524 -10.65653
15.81053 148.8882 -9.363687
10.5417 143.3043 -12.00322
4.360496 143.097 -12.52745
9.655107 141.5545 -12.32511
11.49454 140.8554 -11.7738
9.360112 143.304 -12.25688
9.327049 140.3834 -12.42073
9.955691 138.3489 -12.10158
9.949199 137.3156 -11.86757
9.338065 139.3694 -12.41327
8.26711 140.1184 -12.63558
9.434441 137.2829 -11.99577
10.57269 132.7418 -10.93425
6.344151 139.0069 -12.98594
5.299436 137.8604 -13.16187
1.333058 136.9163 -12.05893
1.925394 138.3164 -12.36097
1.909169 137.6378 -12.34999
-0.3616682 136.9463 -11.50477
1.750965 135.5619 -11.98505
0.2346181 138.7647 -11.71666
4.272602 141.0854 -12.81036
5.74264 135.0356 -13.01196
6.516741 137.3454 -12.86895
-3.017571 137.5838 -12.65949
-0.8797047 135.3624 -11.21719
-4.054107 140.9564 -12.79561
-3.497917 136.6022 -12.73354
-6.265356 133.7127 -12.62013
-6.692227 134.1575 -12.51668
-4.520946 138.0728 -12.80522
-4.158874 132.2228 -12.32091
-4.75521 129.1131 -12.01164
0.3835479 136.2352 -11.28201
0.7358108 131.4519 -10.36
-5.985097 132.2504 -12.58674
-5.296204 126.5333 -11.65708
10.81159 126.6938 -8.336491
10.38126 123.6281 -5.926804
8.408616 125.6829 -9.715404
9.800582 125.7539 -9.345601
8.466127 125.0583 -9.61912
14.14584 135.0079 -7.820226
14.02483 140.7413 -10.78342
6.455297 151.4825 -9.353333
9.004292 151.6429 -8.103505
5.745872 154.2361 -6.816025
6.12953 147.0048 -11.94005
7.677203 147.0382 -11.7483
9.231164 149.6943 -10.08309
-5.569067 129.4938 -12.15043
-6.267517 123.4625 -10.67502
10.73762 144.8929 -11.73524
9.559902 146.2333 -11.64393
4.828747 134.891 -13.04908
7.280609 136.4279 -12.76137
8.064361 134.4225 -11.72266
5.183741 134.1472 -13.03083
8.615664 133.4813 -11.06744
7.434268 134.274 -12.17896
5.604537 128.7941 -11.78237
9.921309 129.067 -10.29951
9.943215 129.9262 -10.50956
7.071866 127.639 -9.781306
6.067081 128.0525 -10.81947
7.159799 130.2722 -10.82263
9.198836 127.9992 -10.17954
4.672709 127.2586 -12.1303
-5.027345 142.3577 -12.65109
-2.634813 141.74 -12.9452
-0.3778052 132.3184 -10.41388
0.4461165 132.9625 -10.70946
0.02055275 129.597 -9.852776
3.634964 133.9637 -12.31233
-1.986088 126.3261 -10.18571
10.9237 125.7402 -6.185943
11.56624 127.3844 -6.854865
-2.214729 122.2197 -9.136983
9.330436 150.3426 -9.666677
10.921 145.8009 -11.48829
-2.569296 125.3613 -10.59777
-0.7922231 126.0764 -9.286188
-1.545726 126.3024 -9.723013
-3.061793 126.1491 -11.07593
-2.859977 124.7201 -10.64282
-6.264179 124.2875 -10.89758
7.827855 134.9366 -12.12146
5.037907 127.4873 -11.92773
3.210433 124.3716 -11.94757
2.321942 131.4665 -11.08564
3.543859 133.9635 -12.23099
4.237593 133.3534 -12.78625
3.441213 134.8545 -12.16072
3.602248 130.7579 -12.41369
-0.7510424 127.7227 -9.648615
3.761118 127.0053 -12.20464
5.197478 125.3061 -10.78079
2.177659 125.505 -11.45182
7.648265 120.9377 -8.785602
7.756455 123.4064 -9.316165
3.311357 122.7324 -11.54136
2.371869 124.0389 -11.4862
-0.3300704 122.186 -8.484745
2.006181 122.2185 -11.2734
0.7884601 127.9097 -9.644827
1.056312 126.308 -9.662576
1.66889 125.8443 -10.56474
-0.9076523 122.486 -8.450111
-2.26596 123.6964 -9.688892
6.352018 120.4581 -8.219786
12.36095 128.3327 -5.558558
-17.40258 147.5934 0.3242146
-12.83401 148.6429 0.6246766
-16.47161 149.7858 -1.151639
-17.79109 148.7758 -0.8286278
-11.50847 148.646 0.05648353
-8.877604 149.0701 0.25699
-17.00545 149.2202 -0.8155879
-8.199709 151.6284 -2.61891
-13.58584 148.653 0.8287998
-17.61822 150.3144 -2.525321
-9.589786 149.6703 -0.5126595
-9.968933 151.8414 -4.078182
-6.091749 151.2984 -0.6280002
-14.04237 151.2482 -2.571995
-11.07327 150.795 -2.162318
-8.868641 151.6428 -3.065593
-12.94635 150.0275 -1.097611
-11.0894 151.4442 -3.438371
-17.22852 150.0234 -1.793639
10.03414 151.9178 -3.756925
7.629199 151.2425 -1.594585
7.540477 152.7787 -3.887046
9.775346 149.6788 -0.595572
8.17426 152.266 -3.532291
18.45351 149.9755 -2.584923
18.02941 150.4036 -3.714572
17.35906 150.473 -2.720939
8.139589 150.9642 -1.542012
17.38419 148.6807 -0.5796229
10.29503 149.7851 -0.8132747
10.40156 151.1271 -2.570204
15.92904 150.8908 -2.39835
10.86104 148.9096 -0.05258655
14.15049 150.5537 -1.565263
12.00467 151.725 -3.955689
14.22029 151.2537 -2.586006
18.9705 64.30701 -3.959026
-16.33112 107.3555 0.6026564
15.23874 106.5852 -2.867045
13.92013 109.8332 -2.538666
-17.09652 92.91658 -5.579469
5.293851 108.7492 -7.885808
18.48374 63.63197 -4.830331
19.2545 64.21577 -3.347816
-15.23504 107.7749 -0.7340561
13.46397 65.09433 -8.216184
-16.37107 104.398 -0.6545463
-13.55761 110.4121 -2.890948
16.00512 102.888 -1.927598
19.27339 65.7762 -3.1848
15.3418 108.6995 -1.606479
-11.81147 115.3593 -1.597571
14.3962 111.6073 -0.9983239
11.89197 111.5686 -3.922014
16.80606 98.11549 -3.704647
12.32622 115.6563 -0.489299
12.27652 117.4263 -0.02900321
10.00858 115.648 -3.403644
11.05738 117.3417 -1.66195
8.969832 112.5733 -5.251065
7.825532 116.5165 -5.790629
4.318799 111.9209 -7.897438
2.99436 115.6694 -9.091657
4.299712 116.3518 -8.686893
8.454222 116.0278 -5.26456
12.98846 111.8252 -1.558084
15.11013 106.7823 -1.575031
10.96442 108.1642 -6.917335
-9.218092 112.0941 -6.558451
-9.949331 114.7493 -4.500863
-9.095962 114.596 -5.347499
-14.97614 63.6579 -7.733555
8.197074 112.855 -6.636538
15.67953 103.3983 -2.407752
-15.58843 103.1929 -3.139611
-20.56236 77.87212 0.1971982
-19.83633 65.55172 -0.6474239
-19.722 67.66663 -1.794138
-20.1678 79.32545 -2.183054
-7.17503 71.87149 -8.803383
-16.48839 104.9356 -0.8916432
15.52184 103.7765 -2.678801
-14.86363 77.24615 -8.14232
-7.368693 115.1552 -6.306618
9.713185 116.8816 -4.09597
-1.377241 114.1571 -9.133282
-17.22528 101.2995 0.09348334
14.52788 111.1806 -1.15705
15.62477 101.3741 -3.850299
14.59047 110.1466 -1.85028
-7.756157 116.1158 -5.816601
-9.815449 109.9743 -6.347878
11.29524 109.2025 -6.363388
-15.92953 108.4324 0.3120843
7.577916 114.5888 -5.856643
-12.10275 114.6318 -1.846062
-11.02911 113.5603 -2.943523
12.72989 113.0781 -1.039801
-12.93998 115.7931 0.6902249
12.54756 113.9732 -0.5944979
-5.020542 102.6639 -11.48996
-16.82906 96.80598 -4.065863
3.565875 112.7376 -8.986018
3.184684 114.1435 -9.256481
10.44031 115.474 -2.764823
-10.84548 116.1057 -2.72327
-11.7887 116.3624 -0.9137799
15.20507 103.2851 -4.205338
-4.448603 113.932 -7.93662
12.10743 112.5641 -2.691964
-13.34613 112.5295 -1.729084
-13.49022 110.6686 -2.074162
14.58517 107.5226 -3.679382
16.6065 72.77404 -7.355698
13.64946 64.36178 -8.098557
10.32629 108.3782 -7.298653
8.727431 112.7098 -6.025239
8.3619 111.5107 -7.02709
-19.41735 78.9402 -4.000824
-18.03635 64.34079 -5.345367
-10.28805 113.1767 -4.448571
-8.826605 113.4504 -6.006512
-9.932005 113.0883 -5.213941
10.46698 112.357 -4.091695
-12.06841 112.1503 -3.517067
16.39566 94.11101 -6.376576
-17.69584 97.71749 0.02744462
16.95317 98.84513 -3.379296
-17.0557 98.11272 -2.743426
3.908281 110.1106 -8.029963
4.56038 116.1014 -8.564714
-5.683603 108.9304 -8.660787
3.582997 114.595 -9.077169
10.83225 115.8054 -2.226463
-12.51873 113.6099 -2.301196
11.86792 113.1 -3.215703
12.19333 110.1074 -3.959156
-0.3333989 116.2997 -9.141254
-14.01571 107.8725 -2.708379
-13.71256 110.9317 -0.6465347
15.33474 63.89246 -7.645517
18.97725 69.01736 -4.302856
15.5281 65.78648 -7.618363
7.973553 110.1512 -7.53694
6.367126 112.7096 -6.591861
-20.16009 73.24387 -1.313568
-19.85979 70.43764 -1.966318
-19.94521 67.5377 -0.004951979
-18.95502 66.40667 -3.958955
-10.08679 111.8162 -5.006911
11.2854 111.154 -5.34007
17.2772 93.89507 -4.868371
16.62208 94.9679 -5.611713
-16.84711 100.1449 -1.844415
-8.221989 109.7366 -8.176458
4.290374 112.3846 -8.063938
-12.5009 108.0899 -5.992955
-14.89627 101.2069 -5.321221
-13.75111 107.1473 -3.62608
-13.08024 108.2016 -5.38763
15.51999 72.34041 -7.996228
18.44136 68.31989 -5.142448
17.41653 66.15646 -6.181587
19.09879 80.48222 -4.529788
19.25343 72.86292 -4.061989
11.02666 64.01844 -8.110806
3.427185 65.65082 -8.446722
-6.207683 64.96331 -8.303104
-16.8979 63.30694 -6.549695
-15.26042 65.15997 -7.693256
-19.7846 71.20517 -2.431416
-18.37632 63.78996 -4.922441
-19.49178 64.16806 -2.499549
17.67756 94.38066 -3.560088
-19.11501 89.56904 -2.643436
-18.3504 94.19418 -0.444759
5.94236 102.8232 -11.06737
1.784368 113.0769 -9.596934
18.43345 69.45943 -5.266501
18.23458 80.03873 -5.691277
17.22038 74.4286 -6.873909
11.29213 64.45901 -8.18045
9.748121 64.88818 -8.264101
9.366726 65.24752 -8.332728
-6.788497 63.7659 -8.094951
-11.353 65.98835 -8.397442
-20.41602 75.64236 -0.3495688
-20.49374 80.07089 -0.9076016
-20.32286 83.58572 -1.156481
-20.12424 85.63563 -1.168898
-19.40632 66.3759 -2.772851
18.88194 89.5394 -3.299033
17.57464 94.26638 -3.941749
-19.13019 91.33425 -0.5953701
17.46067 93.31506 -4.782559
2.031776 106.7872 -9.142236
-12.82628 108.5632 -5.613917
17.71011 71.74603 -6.338487
18.07125 69.08443 -5.765946
17.98579 80.57864 -5.970454
18.79858 73.07365 -4.950899
19.04089 75.95329 -4.590911
16.85313 77.70138 -7.003575
11.09499 66.15365 -8.433367
4.705956 66.55163 -8.556252
5.232611 65.94601 -8.484702
9.644415 65.88918 -8.416814
1.920056 64.33507 -8.207295
-7.127628 64.23196 -8.172244
-8.491676 64.63767 -8.229067
-19.90977 88.10596 0.2245872
-19.73151 68.86265 -2.128864
17.29393 92.86063 -5.339982
-18.56697 92.44137 -2.182974
-6.960163 104.5973 -9.868325
18.69036 79.55366 -5.142307
17.6889 82.73827 -6.210344
17.84895 70.50952 -6.143085
16.50477 74.8026 -7.417795
19.43531 77.77249 -3.928957
-7.861058 67.34909 -8.622093
-5.157466 66.02105 -8.495681
-6.207343 70.69701 -8.567137
-9.694326 69.79137 -8.596323
-4.1762 67.82227 -8.648066
-7.877484 70.80346 -8.612304
-9.693092 66.95876 -8.565235
17.92495 89.53271 -5.265248
18.47929 86.5944 -4.987064
18.8825 84.45544 -4.640551
3.189178 111.1814 -9.042365
-5.729109 110.0821 -8.575458
-6.424711 110.1181 -7.763916
-11.41721 107.5957 -6.359573
-10.57845 108.8021 -5.723783
18.14032 82.42057 -5.76286
14.6392 72.52148 -8.357957
13.50939 75.24128 -8.648266
3.983239 95.73225 -12.71128
12.46208 73.60134 -8.795416
14.80542 77.26285 -8.164989
17.9948 78.25327 -5.985456
10.12315 68.73347 -8.664196
11.71847 67.38445 -8.546806
-4.233404 66.41881 -8.56721
-9.818384 71.84629 -8.744832
0.01907115 68.22186 -8.608416
17.11744 90.21376 -6.388269
-13.0267 105.9087 -6.346932
-9.618477 107.8874 -7.344345
17.22867 84.367 -6.611445
13.29025 69.53866 -8.607448
-1.12441 66.31334 -8.565806
-9.120936 73.00876 -8.976666
0.3324985 65.09504 -8.34819
4.569047 104.9943 -9.567534
-11.97386 105.8294 -7.240363
15.55271 80.48607 -7.679032
15.64709 78.59144 -7.688699
15.879 88.39634 -7.900569
-2.284562 67.5249 -8.645011
1.091339 68.8727 -8.566791
3.282194 69.83601 -8.535547
-3.80336 68.26444 -8.616639
1.658573 107.8285 -9.683578
4.880959 105.778 -9.312482
-9.506722 105.5516 -8.756202
-11.5003 106.5238 -6.958705
8.722808 81.7966 -8.775124
12.00301 81.26641 -8.634487
14.11097 78.37247 -8.310929
16.05986 84.96075 -7.563048
14.85794 78.29553 -8.056941
14.24859 77.17248 -8.359525
13.83286 80.02185 -8.308495
5.731416 74.25813 -8.917034
1.645628 67.24266 -8.647131
-3.527565 106.6592 -10.80169
-7.644737 103.6527 -10.38866
-5.542519 104.079 -10.62094
-9.10571 102.9809 -10.27857
12.03146 78.66725 -8.640007
-2.448996 70.60084 -8.583188
-5.185915 100.8141 -11.96925
10.25237 82.24393 -8.78747
0.5008544 71.78585 -8.795831
9.361073 80.39637 -8.661052
11.97849 79.30295 -8.622023
-1.094806 74.00515 -9.018937
3.290072 70.60142 -8.53986
1.817277 73.65953 -9.030603
5.166681 71.70952 -8.765087
0.3416843 72.0676 -8.871425
6.786868 76.37746 -8.744945
7.904512 75.73479 -8.767478
4.038407 82.64095 -9.039927
9.0522 78.21342 -8.679098
5.42347 76.00803 -8.750996
5.064012 72.94511 -9.082014
8.464048 77.03302 -8.740067
8.397598 77.76627 -8.699705
7.907894 80.39463 -8.679375
6.527487 74.13245 -8.92943
-2.408586 114.1275 -8.949236
0.2618554 113.4098 -9.371978
-1.084912 112.1402 -9.659162
-16.82647 102.4668 0.4348538
14.73558 107.5379 -3.622405
-5.677906 112.9551 -8.122266
13.86464 102.1588 -6.914384
11.752 110.1665 -4.748822
11.45214 107.1919 -6.808518
10.73174 109.5962 -6.545269
16.22842 98.57006 -4.584611
15.20636 99.3976 -5.742756
1.415073 113.7373 -9.333374
-20.25635 76.79489 -1.590716
-19.96864 76.58819 -2.533537
-19.39825 70.49681 -3.505568
-19.65364 86.84925 -2.362897
-16.68114 98.31338 -3.431231
-19.71731 80.8327 -3.3187
-20.36969 82.21235 -1.263232
-19.67596 81.37258 -3.42315
-16.28139 65.41458 -7.103089
-17.64626 69.90732 -6.334416
-19.37669 70.00419 -3.487615
-17.81744 72.52107 -6.259003
-17.65836 69.51675 -6.293033
-16.18244 66.06656 -7.24683
-19.35541 71.59037 -3.725056
17.75917 72.64556 -6.359699
-11.00181 66.1913 -8.429667
-9.446539 68.16976 -8.629323
-18.98901 90.43375 -2.469637
15.52447 86.26392 -8.037204
15.67645 86.15972 -7.914141
14.16741 85.39523 -8.701812
12.31838 86.12605 -9.715303
13.23222 89.46904 -10.1114
13.72035 87.97369 -9.550182
15.85549 90.01231 -7.966571
11.16535 92.89993 -11.51636
13.82657 93.79274 -9.530672
14.78204 93.74986 -8.590919
16.50795 93.07533 -6.573788
14.39995 95.30561 -8.578279
14.39463 95.98342 -8.362848
14.00968 98.40925 -7.881503
14.24902 100.6619 -6.984996
13.26164 98.44268 -8.661934
12.71017 102.2206 -7.643907
12.70918 102.98 -7.224407
14.78039 103.2719 -5.44599
12.70458 100.5652 -8.414222
11.36512 99.67847 -9.765604
11.07092 100.2353 -9.774859
5.646617 97.63165 -12.35402
7.508066 103.7245 -9.820021
11.39785 98.83044 -10.06756
11.26654 98.02481 -10.4443
12.25273 105.3867 -6.288167
12.59592 103.366 -7.063776
9.782375 108.2815 -7.084513
11.30451 105.662 -7.573808
9.573982 107.4327 -7.436268
8.119085 100.5715 -11.08146
7.113646 102.2698 -10.70933
6.95386 103.3645 -10.25809
4.616217 100.1192 -11.64926
7.346223 102.7084 -10.3701
5.080025 101.8757 -11.27936
3.292286 104.1642 -9.614539
7.14908 105.8682 -9.117517
14.67914 103.8144 -5.437831
8.011162 106.1862 -8.220671
8.891189 105.7398 -8.340832
-0.6524651 91.53012 -12.67092
-0.7021028 99.71502 -11.53051
1.473626 99.8986 -11.45187
1.880735 105.6641 -9.299835
-0.3322293 104.9439 -10.68686
7.194982 108.1056 -8.880458
4.350607 97.45929 -12.38522
0.8398378 100.5996 -11.09648
-0.2943852 98.58691 -12.01458
0.9093639 106.3849 -9.9935
5.112157 97.90226 -12.30043
-4.823647 103.5287 -11.24484
-1.930845 103.3137 -11.41119
10.2932 94.37762 -11.83252
-1.090037 103.6408 -10.86712
-2.828759 107.1734 -10.68705
-1.072846 109.5654 -10.01568
0.1572676 107.6365 -10.66102
0.9953298 108.3877 -10.38908
1.626727 108.0963 -9.784144
-2.655039 109.0553 -9.848758
-4.188138 110.4846 -9.065544
-8.179787 73.1553 -9.011494
13.27105 70.89086 -8.646047
11.06366 75.47485 -8.792535
7.917133 71.91531 -8.819077
12.06462 75.04306 -8.796484
12.58016 73.24987 -8.778883
11.35809 72.42105 -8.81683
7.462443 71.46898 -8.678323
9.864215 69.05597 -8.668463
16.69892 67.19942 -6.979051
6.201641 106.6735 -9.77134
4.925147 104.0566 -10.3848
-10.23361 103.4339 -8.807233
-9.058615 104.3967 -9.780473
-0.5778976 72.98078 -9.073453
-2.659104 73.73151 -9.057201
-7.614223 73.70243 -9.015796
-1.555771 77.25625 -8.691472
-4.959025 72.38323 -8.986406
-0.8027852 75.50282 -8.753746
10.07128 87.55968 -11.01623
1.984796 78.30724 -8.671946
-10.09997 104.7505 -8.373472
-9.583161 102.3486 -10.00089
4.394465 69.01473 -8.602555
7.623554 68.79102 -8.664634
-19.7932 73.15115 -2.715304
-19.72102 79.29624 -3.357515
-17.52603 76.34681 -6.508852
-18.9084 73.80695 -4.744638
-18.13377 75.9751 -5.873668
-18.25134 75.37009 -5.722095
-18.45843 77.12959 -5.443859
-19.34321 79.08654 -4.13498
-20.09034 71.31079 -1.078841
-20.11749 84.32817 -1.849973
-19.1939 84.06351 -4.184938
-18.2888 87.07403 -5.179108
-19.30831 87.48414 -3.12499
-19.16924 88.72948 -2.96076
-17.86805 88.4841 -5.58694
-16.74055 89.64613 -6.956626
-16.8161 82.13519 -6.961473
-18.13376 84.6805 -5.656806
-17.12509 83.54497 -6.711388
-18.59394 92.24391 -2.266453
-18.15808 81.14011 -5.782533
-15.67915 91.89029 -7.982488
-16.998 87.15517 -6.783408
-15.36685 95.59277 -7.315082
-16.53079 95.33597 -5.563543
-15.60101 92.67345 -7.91798
-16.87237 94.34539 -5.445583
-12.93668 88.58904 -10.15383
-16.36227 97.68629 -4.626464
-16.33953 93.0429 -6.849514
-15.4413 93.61946 -7.863578
-14.69503 70.65404 -8.295045
-15.06589 71.79169 -8.186924
-15.45727 72.29497 -8.013239
-14.13575 73.33083 -8.505093
-16.0065 76.15919 -7.659758
-9.310477 75.26624 -8.756569
-12.53129 78.11269 -8.639311
-14.0373 75.68001 -8.478746
-16.16485 71.6801 -7.645537
-11.30524 74.63652 -8.810969
-12.56827 74.11775 -8.780416
-7.02918 77.90099 -8.702211
-1.95318 81.00717 -8.773417
-10.79097 73.53979 -8.927621
-8.943645 76.74777 -8.755676
-11.36371 72.54321 -8.816637
-3.526584 74.77526 -8.870562
-5.402797 78.53106 -8.681557
-6.076726 74.32142 -8.922152
-10.56361 66.57108 -8.490979
-15.13172 67.87074 -7.979486
-14.26926 67.08182 -8.258472
12.13123 87.16839 -10.19443
9.113292 82.54721 -8.888488
7.999415 82.27555 -8.876841
9.621333 83.89885 -9.233289
3.189619 78.45205 -8.67202
2.347252 79.14313 -8.670723
11.45743 82.53876 -8.800838
11.56829 95.03841 -11.0407
12.37946 92.89324 -10.80326
12.34907 90.90043 -10.8131
11.15297 86.68191 -10.36745
7.627582 89.38413 -12.04662
10.14787 87.8649 -11.10347
7.954866 85.12418 -9.882161
5.900029 88.14796 -11.58705
7.178609 96.37065 -12.4812
6.469534 89.64896 -12.18116
7.473139 91.2074 -12.48134
9.342325 94.83242 -12.14548
4.88201 93.10088 -12.83528
3.616071 93.20463 -12.83076
5.799927 95.64642 -12.71372
6.198791 90.38623 -12.39834
8.432302 99.28909 -11.44739
8.666342 93.37759 -12.45229
10.70045 96.9769 -11.1108
6.350585 95.41132 -12.72314
8.152072 97.901 -11.94288
0.4888849 108.9975 -10.42844
11.08273 73.2117 -8.880033
-16.70038 80.65524 -7.013433
-15.32092 81.75294 -7.816519
-14.32617 87.22093 -8.97987
-13.3146 81.19892 -8.448475
-13.923 82.61518 -8.39726
-13.56676 80.60427 -8.376221
-10.40045 84.70865 -9.47396
-10.89106 80.20683 -8.643832
-12.13334 80.32693 -8.601955
-9.662708 79.05621 -8.659667
-9.777987 77.1442 -8.744574
-14.78717 89.73971 -8.982679
-11.2791 84.60872 -9.304126
-12.27667 86.4441 -9.849172
-12.97647 85.82883 -9.344916
-11.31268 88.39661 -10.88421
-9.808877 87.32804 -10.96694
-9.980164 83.25837 -8.992625
-9.497726 84.17276 -9.294012
-7.961257 86.04144 -10.42416
-12.99375 88.15797 -10.03457
-11.22567 93.10681 -11.45092
-11.49015 89.72059 -11.11814
-14.85667 90.51875 -8.939423
-7.405931 85.93515 -10.36107
-12.27231 90.75591 -10.85107
-8.297357 90.91488 -12.29358
-10.34489 94.92617 -11.73269
-10.0028 88.58722 -11.37893
-7.481339 89.84386 -12.18911
-6.675834 89.05702 -11.98985
-7.587152 88.95277 -11.90862
-9.017702 93.49664 -12.34344
-6.231655 92.47676 -12.76242
-7.110525 93.34602 -12.76026
-7.142793 84.62542 -9.617724
-6.27095 88.96217 -11.95927
-4.553127 84.41908 -9.592288
-4.194869 85.9741 -10.40617
-3.128143 83.19276 -9.185581
-1.182737 89.73286 -12.24164
-2.870604 90.11762 -12.35752
-2.774235 85.59567 -10.19851
-5.277287 81.11598 -8.750186
-3.968883 91.06386 -12.56573
-1.66745 89.16773 -12.05855
-5.704049 86.24142 -10.56047
-19.25457 78.56268 -4.269852
5.519643 81.21599 -8.77762
-0.3053467 84.22465 -9.569274
3.09091 88.26314 -11.65331
8.58436 85.46996 -10.07894
7.784754 84.37639 -9.52362
4.82131 80.56998 -8.717804
-2.492263 79.82473 -8.687645
-0.1317874 81.41798 -8.82544
1.833882 92.20287 -12.79128
2.671198 90.22588 -12.37907
1.494743 95.38667 -12.78076
1.591204 111.4577 -9.867193
-9.60418 77.5137 -8.719443
-13.61402 93.32021 -9.80969
-12.69438 94.29808 -10.40195
-12.24826 94.00933 -10.77191
-8.95119 95.00512 -12.27114
-7.032904 101.6663 -10.95413
-9.492103 96.52639 -11.81785
-11.82733 98.79338 -9.832148
-9.434976 102.6158 -10.06755
-10.9718 100.1758 -9.981299
-5.961841 79.56178 -8.672091
-6.122241 82.29178 -8.904056
2.43622 82.27419 -8.97482
4.724835 83.87167 -9.412446
2.694645 83.14397 -9.172771
-2.449164 83.05205 -9.152414
5.587686 86.48227 -10.71767
-0.06251139 83.9105 -9.44839
0.07731854 83.67644 -9.366755
1.437321 88.06799 -11.57455
2.572423 90.92673 -12.53318
0.06894448 86.77788 -10.87711
-0.5223522 86.66753 -10.81525
1.633523 87.17285 -11.10008
-2.831748 91.6759 -12.70389
-1.764383 86.02834 -10.44685
-1.883812 84.83385 -9.809233
-0.1120407 92.9283 -12.86158
-3.022787 91.14883 -12.58642
-4.506354 93.35069 -12.84545
-1.696873 94.59602 -12.85496
-2.382139 95.82934 -12.72644
-2.419801 93.8345 -12.86878
-3.508502 97.82543 -12.28418
-0.7830182 97.92243 -12.2412
-0.1251476 96.9596 -12.51942
-3.345309 95.05023 -12.81023
-5.925785 96.82744 -12.52073
-4.815989 97.93772 -12.26617
-5.635389 98.10797 -12.25474
-7.058601 94.93176 -12.68495
2.662359 98.06142 -12.21446
2.432075 95.05269 -12.79549
-6.79926 100.5594 -11.54638
-2.767985 100.6641 -11.50054
-8.691992 99.56023 -11.31439
-5.034655 95.09301 -12.79091
-16.01676 99.07881 -4.881487
-13.75774 100.7181 -7.07949
-14.12 101.354 -6.311798
-14.878 103.1493 -4.220243
-9.983068 71.3158 -8.697442
-11.68104 69.31788 -8.648964
-14.16464 68.83578 -8.398102
-12.82114 96.03362 -9.874464
-10.2927 98.58009 -10.86485
-14.05134 96.90194 -8.402344
-7.005113 77.35266 -8.724192
-11.18905 98.90686 -10.25407
-12.19271 96.13213 -10.35261
-13.07793 97.07006 -9.311675
-12.9017 103.7815 -7.135626
-14.29438 96.72466 -8.215032
-13.87641 102.1251 -6.239478
-0.01476682 87.6076 -11.35623
-18.55468 71.87762 -5.296573
14.15826 114.517 1.483226
-19.9214 63.7601 1.085676
-6.166389 117.124 11.11666
13.20816 116.3776 1.698011
-15.41307 109.4126 2.787629
-12.68147 115.7914 6.392412
-7.401372 117.4492 10.60934
-19.89334 83.5289 4.835131
-19.25433 64.16914 4.007722
-13.62676 112.7045 5.850698
-1.443076 64.88509 8.032158
-8.602789 67.21088 8.218539
-6.523268 116.3273 10.89566
-0.8814812 114.9821 12.43148
-20.29273 82.58438 3.694409
-6.068864 67.44209 8.290987
-15.63048 110.2294 2.218556
-17.21744 101.8359 0.7134252
11.27244 113.2759 9.6962
-13.42741 113.4944 6.909619
-12.86994 117.3802 1.689233
9.916488 116.6721 9.387949
17.6656 97.53404 2.852588
-15.9763 106.0027 2.023628
-9.728667 116.0832 9.206551
-9.164037 114.7355 9.696306
16.34865 104.7844 1.934804
-1.324594 117.8474 12.59888
-9.036226 117.7244 9.835629
-7.009943 117.7868 10.84924
-6.90824 116.6013 10.72869
0.8585188 116.5978 12.57437
15.13376 109.8583 3.455064
-17.49361 101.2571 1.384093
14.94938 110.8409 4.080396
15.68375 105.9471 -0.01239276
19.97906 63.29199 1.057302
-17.06678 100.3599 3.599848
14.52916 113.0111 0.6716673
15.55519 104.7684 -1.58816
20.22782 71.5074 0.1710901
20.51843 79.1603 -0.5808946
19.51199 67.51983 -2.636493
20.12819 73.61024 -1.554958
17.12369 98.25095 -2.37584
17.2731 99.88614 -0.1106638
18.67493 92.64497 -1.301721
18.35548 93.5184 -1.857635
-14.71126 109.1129 5.238719
14.87802 111.6582 0.5601148
18.05866 94.30097 -2.253808
-0.4316313 114.1411 12.48148
12.25778 110.8789 10.12923
7.498476 115.7439 11.73628
8.670451 116.9559 10.28397
-16.92903 102.7913 3.081477
12.68136 117.9367 5.672904
-14.85948 112.7343 2.278335
-0.5256559 117.0159 12.61612
14.18177 113.2625 0.2377397
13.42183 118.0108 3.262353
12.8511 117.8651 4.85081
-13.82263 115.1472 2.980418
13.5383 118.3925 3.114366
-11.34276 118.2376 7.955213
10.32213 111.6487 10.72326
17.55875 97.40121 -0.7958219
13.19383 116.4658 1.859763
-9.086937 113.9782 9.941445
13.76339 115.2583 1.690901
-12.39759 117.0577 6.14837
-16.66949 102.7179 3.749909
-19.63778 65.55652 2.804748
-1.784043 111.3363 12.13688
-13.75884 89.70305 9.890843
15.67941 68.71523 7.950334
19.58434 64.32735 -2.383878
12.14066 107.995 9.945519
11.0968 117.5397 8.018471
12.77149 114.7748 7.254114
-13.24399 114.0113 6.473558
13.47381 114.9313 3.797136
-11.13029 115.5562 8.355521
10.42043 114.855 9.194894
-8.69682 115.2651 9.691063
-16.10591 105.6755 3.936182
-17.83854 96.63213 3.302874
-17.32248 98.94942 2.763142
14.43747 111.8959 1.649566
18.637 89.44266 5.920797
17.6619 96.33939 -1.643193
17.50102 98.84019 0.6974697
13.01019 116.8439 4.687786
-0.6718253 113.4059 12.38985
-1.406839 113.1981 12.21486
-17.19273 101.4607 2.627283
-17.62103 98.00664 3.479029
16.74692 102.823 1.04202
15.59052 105.3429 5.454735
15.25536 108.7853 2.834841
-19.97448 69.15565 1.916033
-19.57306 64.48221 3.048636
-19.63382 65.67707 2.796349
-20.57226 78.03214 1.800821
-0.7073302 64.45101 8.028805
-10.10415 113.5089 9.731297
20.36593 78.75135 -1.371054
20.02542 69.73845 -0.8090441
19.44688 64.08788 3.561393
19.84114 66.0492 -0.9194407
12.10743 113.1089 9.041368
14.09669 109.0237 6.430524
-14.0808 113.0804 4.233669
14.60778 111.1373 3.448881
10.14744 113.9564 10.1321
9.457238 112.5585 11.26945
-6.900004 113.5557 10.82359
-10.23318 101.5729 9.448162
-17.9988 95.00548 3.85427
-15.721 104.6237 7.268088
-8.584238 110.4555 10.67259
-14.19751 110.9456 5.115606
-19.2295 91.03483 1.975374
15.69494 108.8031 4.462691
16.2424 105.965 4.139025
14.3246 111.2241 2.457703
18.91715 92.18995 -0.4208442
17.23568 100.1667 0.6929766
-16.16184 104.853 4.17988
-16.4725 102.521 6.207533
-15.23987 106.773 5.38509
-13.15477 110.6581 8.067711
-17.77216 97.9108 1.639943
-20.04219 70.00056 1.968849
-19.41395 67.67085 3.6909
-14.60903 64.01565 7.567833
-20.54914 78.98888 2.446855
-11.20225 65.18247 7.943774
-13.09713 111.8558 7.791054
-8.063579 106.0412 11.35299
-11.13476 107.1828 10.18537
7.007361 65.20506 7.9976
15.21785 63.65166 7.46117
19.78066 74.25929 4.432755
20.0044 69.54144 -0.912364
20.05118 71.99225 -1.517135
13.26494 112.6701 7.593166
-4.342365 112.8212 11.73022
-6.446743 111.1851 11.07529
-15.54637 104.4926 7.518169
-15.01665 103.9968 8.07638
-8.064499 113.156 10.21205
-17.98932 94.20993 4.420476
16.28166 105.8986 3.036248
15.56533 109.4767 4.380368
14.28858 106.9582 8.523043
15.06387 106.4904 5.871377
19.76401 88.32388 -0.8411216
20.23924 85.88042 -0.1393163
-15.80879 107.2382 3.697653
-18.21949 64.85898 5.65478
-20.24859 86.216 0.9449058
-20.58749 77.8243 1.202298
-20.00863 71.79501 2.942494
-11.19663 65.79527 8.007042
-9.554697 66.02506 8.068202
-6.3622 65.02966 8.031181
-2.974421 65.43618 8.03905
-12.00039 104.6342 9.123939
-11.22502 112.2164 8.821393
2.072003 66.52859 8.172556
20.29433 81.33105 -1.71779
18.42768 66.6701 5.422668
17.51929 67.24569 6.522939
20.30939 72.89897 0.2588152
20.01925 73.45817 -1.993784
19.22056 67.29542 4.117434
-4.595077 113.4156 11.63581
-16.67621 101.7148 6.013739
-18.26275 93.75301 3.593731
-19.47131 90.27328 1.240772
13.486 108.7436 9.002691
20.05547 85.68484 -1.462398
19.23354 90.10714 -1.840844
17.7183 98.04886 0.9954899
-19.72656 68.05772 2.653256
-19.60967 73.83559 4.804794
-18.45835 66.30491 5.421734
-20.44093 84.36646 2.014644
-20.39009 83.64732 2.837776
-20.62873 81.96296 1.297317
-20.01762 75.17979 3.960354
-20.43435 81.05896 3.040874
-13.62131 64.03742 7.789582
-11.74508 66.20927 8.036341
-10.80309 104.8897 9.589158
-7.436929 104.6371 11.08868
12.56976 64.15963 7.945163
6.458163 67.42387 8.278003
5.173748 66.19411 8.11642
20.31319 79.57184 -1.684554
20.61491 78.30705 1.158491
20.36373 82.77502 -1.237984
20.38614 73.90445 0.3624958
19.73283 67.45107 2.499269
18.48655 67.34473 5.416168
-3.775183 114.0118 11.83113
-4.380393 109.164 12.08367
-12.719 104.0749 8.82345
-19.87312 87.48861 3.135798
-19.0839 90.65087 3.720218
-17.90144 92.07726 5.994152
14.74609 106.5518 7.902359
20.40804 84.96983 1.133314
20.44238 83.52364 -0.5296221
18.84891 92.37983 -0.6785682
19.72394 88.50442 -0.8993633
19.63791 87.59644 -2.033336
-18.60161 69.14963 5.605252
-19.7314 84.22093 5.158558
-19.12132 74.20317 5.829464
-7.941894 66.12224 8.088525
-5.683814 66.96298 8.212031
-11.13037 66.99099 8.145725
-3.018583 64.36701 7.96733
12.28214 65.92769 8.030211
6.500313 66.15184 8.091918
5.210716 68.19838 8.424008
20.64839 81.01442 0.5491753
20.35546 77.71422 3.197731
16.99191 67.32528 7.032715
20.12658 73.4828 2.957551
20.07791 72.29393 2.801897
20.06728 70.26093 1.868461
-4.323546 110.5143 12.05309
-15.25229 101.4497 7.894508
-10.62382 105.6903 10.01304
-11.47338 106.5061 9.98287
-15.53004 106.1249 7.119185
-18.6582 89.93734 5.550649
12.5072 109.5394 9.974897
14.24484 108.5769 8.02705
19.86484 88.45699 0.8185362
-19.53102 75.37222 5.287208
-10.44808 68.61763 8.458896
11.21707 64.77287 8.034245
2.515073 73.73633 9.598497
4.05446 68.96593 8.555146
20.57449 79.3968 2.27026
20.50383 76.21996 0.6046873
13.26109 68.0289 8.238717
18.39047 72.80813 6.703885
17.62821 67.43777 6.445513
20.2199 72.8369 2.238512
19.79419 71.54516 3.694601
19.61417 68.71575 3.356682
19.76398 78.10365 5.190323
19.90673 70.65012 2.923099
-13.04811 103.0818 8.651826
-18.024 88.41895 7.375165
-0.844324 107.2592 12.24264
19.1145 84.19625 6.476739
-19.55231 73.85976 4.94233
12.31409 68.04568 8.28724
11.1112 69.96222 8.723651
9.984732 70.90045 8.863516
7.641771 68.33453 8.432923
2.765282 69.64605 8.64569
2.457788 68.76969 8.525982
20.50356 81.87337 2.780981
17.98276 71.15623 6.845022
19.58725 75.64348 5.208881
18.60904 72.1528 6.238918
13.71085 78.01663 9.923926
-9.831442 102.1887 9.56874
-13.22591 105.7041 8.996458
-19.27938 88.0594 5.039744
19.62359 87.2066 4.463683
19.30945 89.83697 3.55558
18.96194 89.49234 5.126872
11.80178 71.29227 8.945704
11.71445 74.59457 9.561243
17.00404 69.74727 7.447155
17.02472 71.48116 7.77354
-13.57324 100.7079 8.377951
-8.440493 102.6259 9.964105
-7.071674 103.7665 10.92777
-14.76208 108.5853 7.580999
-18.93574 86.77453 6.350935
-15.42272 89.2943 9.402798
-17.82423 83.67863 8.223104
-19.70697 84.77319 5.135478
-16.29639 87.38206 9.174993
-12.17464 91.25397 9.775772
-20.30603 83.68972 3.315354
-16.38448 90.92605 8.429037
-20.15301 79.46333 4.208101
-19.93396 81.49648 4.908681
-19.75357 81.26566 5.365985
-19.78682 86.82185 3.97122
-17.10319 94.96191 6.524839
17.54342 73.12189 7.697576
-13.25556 105.9224 9.053408
-17.43295 93.8691 6.062985
6.779741 106.3064 11.42726
7.609713 107.8671 10.92296
-12.38459 72.31439 9.132471
-13.03335 102.1513 8.621305
-17.65304 91.49032 6.802661
-15.31624 94.66058 8.310312
-11.38812 97.71486 9.321781
-11.81337 99.16058 9.155411
-15.75703 96.81723 7.591316
-17.73137 97.29939 3.712629
-14.4817 97.07171 8.585546
-15.1658 97.56669 7.974475
-16.84428 97.60365 6.544243
4.1458 116.0137 12.2831
-14.12617 113.7147 4.130445
13.87637 113.8702 0.4145791
3.161421 113.1112 12.28215
3.320007 112.1858 12.27443
4.459517 108.7465 12.08655
-0.8468453 110.7414 12.1944
0.69398 112.7261 12.54744
0.5467504 112.252 12.53089
0.7290767 109.6138 12.36687
5.787295 108.0058 11.67816
-1.605632 106.6687 12.28313
-0.614364 105.9006 12.25874
7.598276 112.2499 11.24943
7.383013 114.9862 11.89768
5.03559 111.8294 11.67352
5.386919 108.1284 11.82143
17.20344 100.3388 -0.07379454
-13.85627 109.8422 8.068027
-9.487885 108.603 11.08774
18.47633 93.85957 1.73395
-14.21169 71.46978 8.930858
-17.64308 69.55154 6.844835
-16.27999 70.80093 8.141495
-18.03695 72.24203 7.004508
-19.08618 70.29654 5.088824
-17.61001 74.26424 7.826007
-0.5875854 67.09862 8.262954
1.495576 68.00958 8.404185
-1.092381 107.5872 12.23484
17.05066 102.2935 1.951604
15.82287 103.6606 5.804019
15.67645 103.7682 6.946823
15.78804 100.3218 7.455078
17.35843 100.4653 2.971953
18.39246 94.16337 0.1886212
17.53724 97.61876 3.241527
18.32228 94.02081 2.855221
17.70553 93.59159 5.53869
17.39002 97.72111 4.106273
-6.123387 69.36289 8.615421
-8.772647 69.94875 8.708198
20.41241 74.978 1.697146
2.781486 68.51256 8.483319
2.726692 71.52649 8.878322
0.331816 70.07213 8.697079
-3.619021 70.26768 8.71823
-11.74076 88.14992 10.22791
12.9184 71.5275 9.000876
15.33071 70.93471 8.577052
20.03239 77.09969 4.358821
20.51134 77.01489 1.96738
20.49557 81.09146 2.946584
19.74065 86.1262 4.592271
17.94182 88.62879 7.415841
19.5978 82.36784 5.706916
19.58558 85.4968 5.25315
20.19711 81.33302 4.173007
19.15562 80.98767 6.521453
19.17825 80.45381 6.495581
18.13128 75.55534 7.472922
16.29284 81.65501 9.42498
17.78474 80.71431 8.294886
19.18361 87.20379 5.684268
18.72881 88.24807 6.270077
18.90256 84.89741 6.713774
18.72369 78.81293 7.126854
18.79808 82.64799 7.10905
18.6183 84.66505 7.242451
17.3346 84.34972 8.672359
14.63643 80.76639 10.00914
-10.82955 101.2007 9.334127
-10.09082 99.34785 9.699563
-11.78424 89.68288 9.975645
-13.02054 96.86281 8.996732
-8.977968 97.12904 9.661796
-8.004678 101.2933 10.07427
-13.68974 89.3978 9.923614
-14.03362 90.99203 9.650703
-19.20695 82.51578 6.455591
-16.54778 70.63628 7.917726
-16.00592 69.5791 7.983609
15.1876 72.66466 8.958116
16.33787 75.0718 8.838812
-13.11573 88.10341 10.1395
-7.198001 88.26003 10.46229
-9.703417 88.37443 10.35227
-10.95456 88.2693 10.25945
-6.431277 89.22771 10.1567
-4.905726 89.93045 9.868868
-10.53637 85.54614 10.16939
-7.062769 89.16875 10.18745
-11.60463 93.25717 9.557014
-12.40644 92.81806 9.577691
-14.75917 90.18464 9.561813
-11.01952 84.23326 10.18306
-9.801003 83.07711 10.22444
-5.739969 90.65153 9.698279
-13.48735 94.23776 9.220304
-9.952794 84.86116 10.08861
-3.661367 90.8149 9.68119
-9.839188 90.22698 9.840274
-9.405165 93.38218 9.64075
-4.226764 93.95234 9.806003
-10.42668 96.00448 9.446118
-3.969535 85.47408 10.01318
-4.219789 87.33714 10.50065
-6.458349 85.89811 10.10565
-3.77345 93.50862 9.760793
-16.33035 82.74784 9.40712
5.610651 110.3041 11.58009
6.146349 107.1427 11.61526
6.667057 107.8259 11.3045
9.82442 106.3351 10.17043
4.42156 109.8231 12.07505
17.08391 101.6557 1.306967
16.71605 103.6104 3.648357
16.57862 100.3811 6.253753
17.35984 98.51111 3.380609
-12.97013 68.88004 8.467886
-13.79146 71.87833 9.021665
17.91987 96.36323 0.512399
-17.75847 68.71153 6.526154
-18.45782 80.17348 7.557117
-5.764588 108.8214 11.63592
-4.366133 109.8373 12.06525
-7.202815 108.4632 11.15853
10.16011 105.4725 10.15938
16.26048 102.9827 4.961038
16.35932 100.9735 6.120866
17.73384 93.4526 5.548708
-18.83704 77.28188 6.793206
-4.250295 70.79126 8.772653
-6.604855 69.04649 8.567992
-11.08298 71.41738 8.938308
-6.374594 72.3802 9.125399
-8.748515 75.12093 9.716102
-11.11291 71.80161 9.016685
-1.6297 99.68066 11.04543
-3.279306 106.9683 12.29765
5.580052 71.22184 8.85984
8.014454 69.94178 8.710504
0.6544693 71.79334 8.948511
17.9055 85.35532 8.051901
14.73545 77.26489 9.688699
13.91914 78.20626 9.913848
17.01772 76.93356 8.666867
0.2036755 85.30891 10.00589
13.17992 84.28262 10.22621
9.910683 81.07799 10.41473
14.62469 82.29868 10.05434
-11.20143 96.63403 9.289965
-5.139097 98.66087 10.52172
-6.43037 100.356 10.39824
-17.51922 79.95927 8.498798
-14.58037 73.16451 9.177999
-13.44358 75.04193 9.55049
-15.19987 76.04605 9.411971
-16.14374 73.74181 8.735045
-13.85109 74.30153 9.433612
-10.447 75.32988 9.692096
-16.42496 72.24404 8.342155
-8.751982 77.82362 9.655611
-8.185848 74.85966 9.71341
-11.63626 85.4106 10.20423
-5.366846 93.47897 9.718307
-9.595312 95.16082 9.598049
-5.873204 84.83995 9.995061
-7.81834 84.9126 10.00598
-2.531493 84.92999 9.961194
0.6603777 85.70083 10.04564
-0.9602634 84.351 9.977741
0.5007978 86.78536 10.43833
-3.210605 82.88283 10.1626
-3.647922 83.92494 10.01839
3.247946 90.69177 9.669681
-1.940731 90.15551 9.794348
0.7523568 88.27639 10.55883
0.1065702 81.94552 10.35541
0.871018 78.7972 10.04963
1.92712 83.63788 10.0422
-0.8478926 95.27321 10.06164
8.077458 84.75407 10.09292
4.722923 85.42114 10.08593
-0.2535863 80.89055 10.60859
2.15045 79.65347 10.48577
-1.785207 92.63174 9.7023
6.53134 89.43346 9.979499
6.009022 85.81747 10.16317
10.18345 85.83848 10.22813
10.2906 84.68275 10.1771
12.68806 85.75456 10.25309
12.31771 88.33296 10.12848
8.555192 88.58768 10.24257
8.629041 86.74305 10.35146
13.59405 88.5507 10.04499
1.910246 81.145 10.54226
5.024522 82.81695 10.13379
4.1963 82.40439 10.17167
3.461877 81.34939 10.48568
7.30672 82.50684 10.17982
14.98912 85.02526 9.96554
10.34855 89.033 10.00101
9.903404 89.41964 9.930589
8.931621 82.20662 10.21025
12.36766 85.51727 10.24942
14.90831 93.19042 8.86993
10.80638 81.60522 10.26015
7.553174 80.65446 10.53706
17.52105 89.70503 7.657308
5.031707 79.2785 10.29685
7.315906 78.79008 10.02271
8.988992 76.7736 9.574335
13.88147 79.93171 10.09053
-2.572579 98.97368 10.79776
-15.93998 85.2308 9.547909
6.158984 104.155 11.50716
11.56487 100.708 9.40369
15.69572 97.22836 7.659624
17.6873 95.82724 4.592101
-7.198722 104.2466 11.02025
9.083523 105.236 10.66801
8.877713 103.6446 10.34152
11.51682 90.91393 9.813962
10.70948 104.537 10.09264
16.86945 90.66255 8.063645
16.53616 90.04594 8.562679
14.24647 92.24085 9.36974
15.59057 97.04365 7.698118
18.03313 93.01255 5.134401
17.10216 89.59267 8.153765
16.84055 93.4772 7.078072
11.74289 104.7985 9.62206
1.395705 72.8544 9.272543
11.98967 77.77457 9.821983
-6.8111 97.26991 9.94739
-4.576538 97.39269 10.22054
-2.859789 99.26513 10.85016
-1.395265 97.12869 10.41539
-2.398416 96.73647 10.28414
0.6762952 96.87818 10.40861
-3.11909 96.14379 10.13321
-3.824228 96.88396 10.20104
1.584315 103.0129 11.91991
0.03779136 100.2601 11.26562
-4.567628 100.5468 10.94018
-0.4985994 101.5877 11.61692
-18.70715 75.3867 6.714042
-15.14444 75.89812 9.417376
-15.81061 78.55376 9.488914
-9.407635 77.63829 9.622476
-3.812891 73.16993 9.415869
-0.5257456 74.75236 9.834928
-6.902658 95.769 9.825945
-3.5506 74.55919 9.766009
-6.061667 81.75186 10.41351
-8.016559 79.78875 10.34313
4.336108 94.43243 9.918562
0.01706999 98.59866 10.8235
4.082697 99.73238 11.03135
0.9253566 94.21581 9.914063
-0.3240948 94.10918 9.884245
4.322155 97.56802 10.50324
4.922998 98.91293 10.79643
3.64971 100.3491 11.19855
5.820365 100.0325 10.95294
6.99762 99.7366 10.75954
5.563484 101.4275 11.17855
6.176443 101.9209 11.05143
7.191285 104.2172 11.03913
3.041537 102.832 11.76991
2.814021 104.4631 12.07935
2.332133 106.0865 12.31353
1.301743 105.4314 12.27067
1.752881 103.3682 11.98195
4.572076 99.82148 11.03175
5.823069 92.71982 9.7609
0.7695582 107.8833 12.28241
2.227827 89.26403 10.24512
5.07378 91.35188 9.695271
7.129924 98.78358 10.63065
7.438426 98.35593 10.53382
6.766287 91.17806 9.716038
3.504636 91.85978 9.691878
0.4620077 89.2131 10.27092
1.674012 92.35674 9.715663
2.153714 89.97849 9.903859
7.138579 91.87842 9.727574
10.54215 101.3209 9.827303
1.724022 88.5631 10.44824
12.40314 100.3541 9.067822
13.37021 101.6215 8.467194
14.0485 101.3425 8.139847
14.31089 99.37878 8.22453
12.9536 95.90188 9.243052
12.75036 95.2243 9.453309
15.7716 93.4629 8.186926
9.316257 96.14121 9.923956
9.865872 93.53465 9.711307
14.04846 96.83123 8.524048
16.32487 94.83646 7.426779
8.624981 96.96153 10.15298
11.79897 93.66688 9.525531
14.02656 95.94824 8.7048
0.6765043 79.30109 10.32589
-3.109713 78.56544 9.926418
0.794342 78.00933 9.620544
-3.546312 80.3361 10.57774
-1.452417 75.27343 9.806059
2.845163 77.18312 9.414674
-0.3871271 76.09768 9.701587
-2.556077 75.77867 9.787219
2.989216 72.24137 9.053942
3.179991 73.52191 9.512002
7.083553 77.71545 9.576431
-0.8168021 76.27416 9.651948
5.633245 80.96057 10.55703
4.08646 77.39791 9.466177
-3.728792 95.80568 10.05472
-5.870845 103.227 11.13339
13.4929 77.54417 9.873473
-2.10254 103.1565 11.91364
0.7662709 100.6711 11.37187
-14.12358 83.67771 10.19752
-14.69657 79.71166 9.935479
-14.70064 80.28694 9.966604
-16.22861 79.81473 9.35659
-9.430359 82.35414 10.28041
-14.02497 79.90687 10.0579
-11.65619 76.6793 9.732211
-16.20379 79.12209 9.340345
-13.15505 82.33778 10.23957
