# .PCD v0.7 - Point Cloud Data file format
VERSION 0.7
FIELDS x y z
SIZE 4 4 4
TYPE F F F
COUNT 1 1 1
WIDTH 1662
HEIGHT 1
VIEWPOINT 0 0 0 1 0 0 0
POINTS 1662
DATA ascii
-1.912649 97.38321 -12.45752
-1.509866 107.8258 -7.755199
-2.583772 108.8967 -7.168756
-1.707004 115.3375 -5.672869
-1.503274 117.4179 -5.830574
-2.396257 116.7072 -5.817622
-1.73868 121.7385 -9.108921
-2.079108 122.4914 -7.749462
-1.534807 119.4688 -6.903801
-0.7187452 105.3268 -9.016378
-0.418435 84.70017 -10.00005
-2.204574 127.7078 -9.151745
-0.3904231 120.2632 -7.929766
-2.356961 119.4446 -7.589014
-1.294059 124.1087 -7.857121
1.07408 88.33355 -11.79772
0.2505951 91.87225 -12.78844
1.445741 90.79936 -12.59156
0.9824483 104.4711 -9.450465
0.7302827 100.5827 -11.56022
1.931377 72.60587 -8.769978
1.593047 76.02384 -8.734723
1.308289 73.98064 -8.767306
0.332701 73.81611 -8.768836
0.9650723 76.44568 -8.72531
0.4150459 78.9529 -8.728791
1.826961 79.71116 -8.774846
1.917667 69.98354 -8.72737
1.674877 82.70513 -9.257243
1.852326 119.8931 -7.897936
1.123113 122.8304 -8.224464
1.684584 86.09369 -10.6755
0.4854144 123.7762 -7.72329
1.720215 123.16 -7.470234
1.962158 122.0505 -7.50984
1.595061 110.0979 -6.596287
0.471027 93.68364 -12.92415
1.865333 107.8918 -7.704501
2.092984 118.1211 -6.275311
2.145263 117.8552 -6.092994
0.5972857 82.47745 -9.196342
0.4141536 85.33373 -10.29683
1.47644 127.7702 -9.175172
1.267622 112.1398 -5.989353
-0.389013 74.57496 -8.757903
0.2135623 76.78094 -8.717523
1.040465 120.5999 -7.964068
1.805959 115.9289 -5.716223
-0.103174 85.46619 -10.36938
-0.2886974 89.67356 -12.28159
0.1306798 91.31604 -12.69808
-0.3867888 67.59972 -8.65982
0.944593 113.58 -5.755531
0.02911679 100.2313 -11.69626
1.895145 120.3411 -6.500095
0.1107311 104.0225 -9.67798
0.00889455 107.8567 -7.722213
-0.04037362 109.1612 -6.995754
1.510342 107.0987 -8.151854
1.312565 105.5935 -8.904945
2.199934 106.8134 -8.295845
0.916 107.8275 -7.749961
1.559305 122.6544 -7.888697
2.224763 123.5922 -7.628254
0.209839 122.1388 -7.473117
0.9185016 122.1534 -7.024508
1.103781 82.27888 -9.15099
1.007683 124.4433 -7.966428
0.02970527 118.8316 -7.560763
-0.3270892 70.53597 -8.745485
-3.64975 69.72404 -8.719354
-3.491302 71.44318 -8.759335
-5.959102 125.5576 -7.865214
-5.723436 80.97568 -8.88623
-9.323103 126.1468 -6.731511
-3.927219 82.94577 -9.318011
-3.189207 80.99021 -8.904551
-8.399632 69.08649 -8.676943
-11.25762 94.63561 -11.28975
-5.254466 90.10316 -12.31823
-14.19454 69.89966 -8.426646
-6.028691 124.0467 -7.18991
-13.80151 129.0908 -0.6131224
-14.70484 134.1339 3.675373
-3.886371 98.45646 -12.17945
-7.35585 120.6169 -6.302159
-14.18337 131.6445 -2.022849
-5.032876 99.14517 -11.97534
-15.08764 94.01162 8.486972
-9.40306 127.5762 -7.501786
-3.524242 68.61617 -8.685369
-5.525557 119.0365 -6.119948
-4.551802 116.5888 -5.808029
-5.269409 98.55184 -12.14432
-11.52624 104.85 9.309785
-13.28568 133.7882 10.89869
-11.69045 128.7751 -6.327603
-4.69043 121.496 -7.99246
-19.27951 73.36395 -4.034928
-5.679723 72.64353 -8.77152
-6.375016 127.6048 -8.72227
-6.011313 70.23729 -8.726836
-7.798762 116.4732 -4.667904
-16.05359 91.55056 8.538037
-15.75595 73.32043 -7.859426
-3.276628 73.47323 -8.772354
-19.76963 70.94689 3.539075
-11.18884 102.2324 9.338736
-13.22844 69.56753 -8.571008
-13.81588 95.05665 8.935106
-9.827746 115.7224 9.02533
-17.46904 75.38447 8.136501
-5.147545 81.98991 -9.068279
-18.98537 70.81223 5.395027
-14.51617 87.54021 9.916311
-11.54673 78.23617 -8.696788
-6.534819 70.10521 -8.721942
-16.19853 85.97075 9.373735
-7.374684 76.40056 -8.742167
-14.01372 129.5199 7.4496
-15.89102 100.3567 5.941549
-12.67461 129.6628 10.59804
-12.84233 131.1016 11.33869
-12.74667 129.6938 -5.414616
-13.48451 130.3929 -4.137972
-6.331941 71.91424 -8.76337
-14.43718 136.1458 5.924532
-10.83155 127.246 10.64231
-9.706598 111.3488 9.440744
-16.51666 103.1962 3.505639
-10.76138 108.5815 9.529095
-9.206181 123.2399 10.55757
-20.35603 75.89048 2.70892
-8.892535 122.2155 10.67016
-17.66998 79.81962 8.370519
-6.972363 90.28575 -12.35228
-18.90306 84.54146 -4.620051
-17.42934 97.62166 -1.318338
-5.132372 96.93893 -12.52371
-10.42487 120.0725 -2.514997
-6.33345 117.9099 -5.087812
-9.877378 124.2313 10.20961
-7.518203 120.5032 -5.826805
-13.37173 133.1106 10.84976
-11.41964 124.9149 8.629805
-10.13438 127.7493 -7.089932
-6.254469 126.4316 -8.168955
-3.397135 124.0989 -7.78138
-6.845642 123.1385 -6.491928
-8.931821 126.9673 -7.387239
-20.07558 69.0784 0.5997946
-15.56271 81.27434 9.762396
-19.93189 71.30267 3.084929
-18.32711 72.42849 6.660651
-19.26483 73.5043 5.459677
-14.39412 133.4356 8.815926
-14.54698 134.7183 7.358561
-14.64802 133.1402 3.393976
-14.36617 132.1675 1.081229
-14.5431 134.7082 7.49223
-14.68604 132.0147 4.492973
-14.58497 131.336 5.138891
-9.02111 70.5517 -8.729983
-7.637647 70.69466 -8.736299
-6.159144 75.00906 -8.76086
-6.112784 71.03342 -8.747132
-10.35985 72.26795 -8.781418
-10.93526 72.12247 -8.7769
-7.972883 81.67535 -8.925184
-4.719738 76.73093 -8.730597
-12.95437 71.41285 -8.697958
-15.88058 87.90677 9.36326
-15.86744 89.20818 9.168395
-6.311874 92.20779 -12.72565
-7.404088 93.06583 -12.70469
-13.91368 97.43394 8.45509
-14.04078 99.21263 8.109198
-4.717432 105.0933 -9.215791
-8.568136 98.39458 -11.6524
-8.806433 116.528 9.73334
-8.863332 114.499 9.571258
-9.765632 116.3275 9.115191
-2.76363 114.3081 -5.752637
-4.99469 108.7053 -7.061171
-10.68556 122.666 9.275367
-9.851489 118.0617 9.450729
-3.42793 120.2627 -8.245921
-3.583821 122.4579 -8.459603
-3.357432 121.1711 -7.48666
-12.90212 132.2606 11.573
-13.42388 130.5894 10.33011
-12.05048 126.0873 7.882847
-3.197176 120.0756 -7.666955
-5.945161 126.9775 -8.525808
-11.75213 127.1892 -4.836933
-13.90466 130.3542 -1.888454
-4.317833 121.3679 -6.651848
-7.316226 124.847 -7.062385
-9.424026 126.8058 -7.057863
-20.0617 70.37659 -0.879843
-16.31637 77.94626 9.216382
-15.88522 82.9285 9.630382
-18.37012 73.38511 6.834321
-19.93862 69.84161 2.387388
-18.71348 76.30744 6.832858
-18.99752 74.93273 6.181871
-14.24265 131.76 -1.214046
-14.24624 130.4693 1.808753
-13.87632 128.7648 0.3798481
-14.09586 130.3769 -0.02262973
-11.84632 127.1691 -4.628087
-6.681641 73.82006 -8.774568
-6.639275 75.62953 -8.75331
-11.13522 70.38374 -8.717642
-3.205231 84.51332 -9.906752
-6.210968 78.70972 -8.730167
-5.75176 80.00201 -8.788798
-16.60836 69.28396 -7.207657
-17.33116 69.46854 -6.652243
-15.4419 88.19197 9.555602
-16.70729 87.94343 8.800852
-15.2054 92.6008 8.814038
-15.40527 93.29131 8.496059
-6.437928 90.81005 -12.46586
-6.958471 93.97266 -12.75716
-10.33629 103.7495 9.716166
-13.33248 102.0833 8.362288
-14.43479 101.8095 7.590563
-11.89441 109.177 8.663312
-14.40414 106.4479 6.942605
-2.861882 100.8255 -11.44516
-5.25297 106.0668 -8.615908
-9.887096 114.6132 8.908618
-10.61265 109.8031 9.312747
-9.793072 120.6512 9.845069
-10.24365 109.562 9.609402
-10.86932 107.1222 9.623743
-5.124626 115.8074 -5.368124
-4.568581 108.3775 -7.281135
-10.31668 123.7758 9.708179
-9.874287 121.5977 9.898118
-4.254902 120.1538 -7.801337
-3.707406 119.4176 -6.785436
-5.151218 118.0257 -5.596887
-14.39579 130.714 3.359017
-14.77542 133.0201 7.690494
-11.55943 128.8789 11.35289
-12.1807 127.2094 8.955883
-7.241906 121.4193 -5.985209
-12.74393 128.3416 -3.946878
-6.348603 123.3776 -6.793175
-6.570887 122.133 -6.191106
-8.626161 122.6559 -5.218914
-7.433224 121.8231 -5.625865
-20.14774 70.55712 1.389617
-20.05892 72.39434 -1.603726
-16.88907 79.97913 8.99895
-15.28789 82.22005 9.900734
-18.61509 75.40498 6.859909
-13.55643 126.593 0.9974132
-14.06237 128.852 3.444307
-13.72256 127.2477 1.811902
-11.87631 72.9906 -8.801863
-11.39728 70.59753 -8.725091
-5.145485 83.53613 -9.489556
-4.640842 84.49863 -9.865151
-4.647579 85.66864 -10.41248
-4.88237 86.7011 -10.93508
-6.83305 79.17102 -8.738636
-3.402552 79.56029 -8.762833
-15.33353 71.17793 -8.061536
-12.09942 74.10411 -8.796865
-19.41923 70.24059 -3.407062
-17.77008 72.51842 -6.310699
-15.97651 89.45607 9.057828
-17.90607 91.37808 6.327861
-17.33783 91.37827 7.270543
-17.89559 92.40846 5.846828
-17.20665 92.70471 6.917728
-16.28699 93.07174 7.8376
-14.19245 93.73979 -9.192692
-19.03363 89.97884 4.53553
-18.50561 88.34914 6.634439
-16.16581 84.20813 9.454023
-18.6155 83.99723 7.24226
-6.724739 90.05928 -12.29992
-11.28747 92.22175 -11.44072
-7.017149 92.44219 -12.71158
-6.081693 94.4181 -12.79744
-5.232234 94.86172 -12.81215
-4.142972 97.83932 -12.3313
-13.26448 96.45767 8.897107
-14.37052 94.31895 8.869473
-11.40158 100.6184 9.21647
-2.907828 101.8092 -11.03172
-5.496152 102.5414 -10.60649
-8.5213 105.0588 -8.667471
-7.398838 99.58952 -11.59459
-11.38988 117.9173 8.18098
-12.34987 110.5171 7.652517
-13.09553 107.3906 8.146163
-4.924789 113.7956 -5.521424
-3.476917 114.0474 -5.704956
-4.448754 117.4042 -5.845458
-3.632695 109.9023 -6.696387
-3.513904 107.2255 -8.013127
-6.713659 119.7012 -6.268422
-8.831326 117.101 -4.834175
-6.218277 117.1783 -5.773684
-9.538321 119.3637 -3.473003
-7.854779 122.5867 -6.86185
-7.396883 118.8749 -5.08153
-12.37293 118.3318 6.097044
-7.87183 117.5171 -4.356428
-14.16872 129.8516 7.081332
-13.15045 128.6488 8.582879
-11.50034 121.6313 -1.101709
-13.26473 127.2288 7.590575
-7.994776 122.4681 -5.652648
-9.133583 121.2105 -4.652157
-19.91952 70.10077 -1.549468
-17.82469 81.28843 8.201414
-19.17955 76.08372 6.110733
-10.63343 126.2123 -5.595474
-11.98774 125.9051 -3.366189
-10.59147 124.2455 -4.290135
-14.25942 129.846 4.086875
-13.52014 126.9536 0.3010967
-12.68637 125.8118 -1.612828
-13.47531 125.3876 3.024734
-12.54564 122.716 0.8710527
-9.802345 73.67863 -8.786602
-9.660175 74.45038 -8.783383
-11.44534 76.07308 -8.769545
-4.195946 86.00494 -10.59496
-14.79247 71.12334 -8.272491
-17.44061 71.62486 -6.64786
-18.65994 90.62944 5.003107
-19.46177 89.88316 2.508368
-19.25651 91.08945 0.3144518
-19.95868 84.88908 4.291603
-14.10812 91.76743 9.495932
-14.41085 91.81869 9.387053
-18.53424 80.72159 7.451696
-19.88686 88.17068 1.857975
-19.44068 84.79436 5.736164
-15.64712 85.31228 9.646994
-5.533104 87.58273 -11.35925
-6.1327 97.69373 -12.33098
-7.798038 97.85614 -12.03502
-16.43756 98.85713 5.466485
-14.33632 96.07518 8.482392
-14.26602 95.18488 8.706667
-7.074608 101.2155 -11.0889
-12.34815 107.2715 -5.166117
-7.915268 106.1671 -8.158052
-11.16401 111.7378 8.278184
-12.5324 121.5789 6.263205
-13.7119 107.6453 7.334116
-13.85564 109.3027 6.098447
-15.1855 107.3325 -0.2330105
-13.74711 109.2582 6.312061
-12.09985 110.9305 7.74997
-3.694438 113.7398 -5.74298
-12.38555 124.4879 7.358659
-13.22513 126.9404 7.713207
-12.846 127.4427 8.204074
-8.893199 120.8167 -5.031949
-10.42609 120.4124 -2.721716
-7.858591 123.4661 -6.216171
-9.522172 117.2473 -4.392026
-8.585902 116.9601 -4.799292
-9.190957 123.1417 -5.104402
-6.44056 122.9881 -6.922126
-12.58786 124.9602 -1.085164
-18.99237 73.53912 -4.629766
-19.38702 79.68449 6.08961
-12.799 123.5272 1.064693
-11.78141 125.3519 -3.308149
-13.16189 127.6123 7.224713
-15.06518 74.31255 -8.158325
-10.50791 77.04756 -8.734179
-16.49255 73.14782 -7.451478
-19.00947 90.97899 -1.900472
-18.84233 92.5793 0.2823031
-19.65556 89.3252 0.1679007
-19.0781 91.61245 -0.3244131
-17.45873 89.69584 -5.973086
-20.26334 85.92634 0.5874853
-18.7673 81.26051 7.169583
-20.39784 84.99376 0.6433427
-19.81804 87.44598 3.461143
-19.51325 89.08815 3.430265
-20.18427 85.9029 2.628199
-20.4769 84.28477 1.267089
-20.40917 75.72601 -0.4169322
-20.48743 84.08361 0.8395928
-19.89073 81.56389 5.018862
-3.93585 95.63663 -12.74059
-8.206787 97.146 -12.10625
-8.965582 96.42081 -12.02733
-9.701534 103.3356 -9.109291
-12.05517 121.8229 7.458382
-12.31228 113.082 6.378828
-12.66097 112.5777 6.0326
-12.09685 114.2551 6.332419
-13.20075 124.657 5.588513
-11.83047 123.3543 8.040321
-7.237666 122.9891 -7.073204
-8.895304 111.5931 -5.185874
-9.562847 115.4584 -3.44264
-6.390557 111.9604 -5.680013
-10.01434 113.3102 -3.819981
-9.796893 115.6231 -3.220464
-7.258636 123.4652 -6.688766
-8.764973 122.7497 -5.225188
-10.84192 121.7812 -2.520946
-20.52999 78.03229 2.28039
-11.43073 123.9735 -2.837489
-9.088614 120.8064 -4.028999
-12.31209 123.7901 -0.7694607
-11.73362 123.0068 -1.49226
-16.40522 97.68703 6.002676
-18.16894 94.95407 1.899597
-19.44564 89.34558 -1.42754
-18.08885 82.14655 7.973993
-19.95331 81.85855 4.818534
-19.81693 87.18179 -1.617088
-13.0815 84.43896 -8.948843
-18.78617 82.88015 7.085844
-10.50066 95.80087 -11.50065
-9.636103 99.02734 -11.02663
-12.29533 114.8553 5.504679
-11.56046 116.8842 7.189345
-12.99718 123.6241 5.605653
-12.24523 120.833 6.848557
-6.438418 113.4918 -5.247099
-7.22014 123.2094 -6.520593
-19.43419 73.98234 -3.680075
-12.37212 123.774 -0.5882988
-20.0979 75.09267 -1.958478
-18.66669 93.04501 2.106728
-18.43285 91.17294 -3.615519
-19.25296 90.40311 -1.321488
-20.115 78.99964 4.352163
-19.203 86.89129 -3.586685
-11.7591 93.98331 -11.0762
-14.06946 98.3503 -7.791128
-8.69763 100.357 -10.94439
-11.69695 119.6357 7.614239
-11.92292 118.3797 8.004005
-11.25161 117.2169 7.724593
-12.84572 114.2687 3.056288
-13.43276 109.9288 6.415518
-13.39488 110.7827 5.84554
-10.04133 111.8339 -4.528352
-11.53265 112.1844 -3.121141
-10.24444 123.4307 -5.408989
-12.27665 122.8856 -0.5361814
-12.71164 123.3539 0.3516192
-13.09503 123.6561 2.054132
-18.05104 92.81136 5.198326
-19.3875 89.64491 -1.407695
-20.124 80.78362 4.417681
-7.155884 95.27119 -12.65595
-15.09323 97.60731 -6.810837
-12.64876 114.2285 4.803385
-11.15924 112.4355 -3.35969
-13.17748 123.8786 2.981703
-20.58323 81.35674 2.232798
-20.02937 76.80975 4.243607
-9.134148 93.98795 -12.30465
-11.7231 111.8478 -3.136886
-13.49453 112.4371 2.316675
-11.46238 113.93 -2.183696
-12.5959 114.9478 2.056254
-20.19733 81.40411 4.189841
-20.41205 75.49976 2.206633
-9.466109 93.16831 -12.2275
-9.421907 92.26812 -12.18749
-12.11999 95.88945 -10.45907
-14.14233 110.7327 3.559193
-13.49894 111.9005 4.3832
-13.23675 113.0569 2.632042
-13.36741 112.5159 1.066441
-13.83433 109.8326 -1.630693
-13.17754 109.3403 -3.11391
-6.949689 108.6532 -6.831969
-10.85492 109.9341 -5.007055
-12.30619 116.5263 2.455084
-10.58269 115.135 -2.634136
-20.50648 79.43761 2.840221
-20.20059 72.17844 2.01955
-19.93577 72.51778 3.506135
-8.030519 89.91801 -12.13176
-12.6509 84.33004 -9.032186
-14.53759 92.51701 -9.097466
-12.7609 109.2335 -3.734093
-14.15706 110.2783 -0.1145838
-13.39589 108.2471 -3.459336
-14.6406 109.4151 0.6347895
-14.61404 108.2153 5.30463
-15.15518 108.199 3.594385
-15.33374 108.0158 2.300156
-7.353667 79.4809 -8.743405
-9.159592 80.802 -8.772503
-7.802412 80.61388 -8.802298
-14.75995 83.02502 -8.154076
-6.547045 84.96044 -9.999088
-11.12131 82.98773 -8.933087
-10.52824 79.65973 -8.673793
-11.91068 83.45703 -8.925169
-17.80568 87.99622 -5.723608
-12.85913 85.75172 -9.383537
-12.26147 84.30856 -9.109967
-8.264759 83.07761 -9.18883
-8.239919 85.26036 -10.04736
-14.83639 103.5634 7.064116
-15.70844 102.9788 5.872399
-16.9044 100.2389 3.673558
-16.2687 103.2844 4.460134
-13.37195 101.3573 8.329099
-16.36165 99.7266 5.313319
-17.20085 99.66347 -0.1594793
-16.15951 105.184 2.530987
-16.01846 105.743 2.506989
-15.10379 105.7382 6.081363
-15.61822 103.2765 -2.624591
-16.35327 104.2219 1.370618
-15.06056 107.4518 4.905903
-16.79042 101.3447 -0.244698
-15.74319 106.5354 1.278028
-16.67629 102.6529 0.7252489
-16.55286 102.2972 -0.4964881
-16.28806 103.9268 0.1959382
-15.50255 106.2715 4.806851
-13.61816 97.68446 -8.561253
-15.66938 102.4752 -3.063786
-13.64297 107.4991 -3.505655
-15.43555 106.7273 -0.01091351
-15.36092 107.8267 2.93672
-14.21362 108.2348 -2.102365
-16.97615 97.38931 -3.297908
-16.04137 101.8525 -2.593621
-16.67619 100.3107 -1.791167
-17.39684 98.77373 0.02703007
-17.38232 98.84377 2.178545
-9.246804 110.4591 -5.537436
-10.84406 86.51408 -10.38807
-15.59575 91.04394 -8.164738
-10.59935 88.52962 -11.16788
-10.24932 89.93019 -11.57705
-11.24368 87.98236 -10.82023
-13.72205 87.33221 -9.382887
-12.64761 86.78191 -9.803321
-9.555919 86.92184 -10.826
-10.16326 81.25911 -8.74469
-14.432 82.03534 -8.183006
-11.57405 78.55644 -8.677005
-9.892176 78.07527 -8.707643
-17.11283 84.03989 -6.692555
-13.28574 76.47164 -8.634986
-12.39242 78.749 -8.590907
-16.42436 82.05638 -7.212707
-16.22327 81.91335 -7.315077
-19.30049 84.68861 -3.890745
-18.42948 82.04434 -5.399971
-18.72007 86.82481 6.684481
-13.87043 100.2007 8.078353
-16.24013 99.40904 5.673377
-17.28758 97.04527 4.06024
-17.63214 97.38092 2.036707
-17.62201 96.94988 2.623814
-17.89166 96.20803 1.061192
-18.1263 94.37094 -1.867182
-18.33483 94.12065 -0.7633929
-16.56497 97.12971 5.948242
-17.65285 95.07279 4.568662
-18.58264 92.91412 3.135857
-10.54133 118.6819 -1.992761
-11.42416 119.6641 -0.4655047
-11.14696 120.7416 -1.617461
-10.27726 123.5875 -4.961277
-11.15996 123.5337 -4.517682
-10.24784 122.6167 -4.471906
-12.5885 124.4679 -0.7627313
-11.73545 123.6897 -2.195922
-9.914555 117.3785 -4.030719
-20.51584 79.70325 -0.715323
-13.68399 125.7536 4.84445
-13.45811 125.102 1.602166
-13.26023 124.9736 0.4391416
-13.203 123.7979 -0.2134821
-13.62034 124.352 2.330369
-13.42361 123.7928 1.813268
-12.01204 122.2058 -1.137616
-13.44436 124.0114 3.133531
-12.492 121.1168 1.926298
-12.6082 119.0414 5.046383
-11.90136 120.356 0.4106034
-12.66043 120.3123 5.123855
-12.55637 123.5215 -2.12092
-12.72457 121.8759 2.351615
-12.27047 118.8972 6.702957
-11.89383 118.1577 -1.057144
-12.97618 118.769 2.645437
-11.60625 118.0521 -2.280259
-12.09924 117.3337 1.683935
-11.9225 117.8205 0.7934521
-12.1955 118.4523 0.6416624
-12.9955 118.2875 0.9504395
-10.42106 117.8286 -2.502679
-11.25304 117.4757 -0.8680804
-20.14984 73.20365 -1.354374
-20.50206 75.95578 0.5011454
-20.27037 73.07857 -0.5920497
-20.53215 76.77271 1.423674
-20.47587 77.419 -0.5549001
-18.45606 91.73739 -3.245966
-17.54686 91.86121 -5.243035
-13.12207 94.46825 -10.01398
-15.80975 90.1678 -8.009713
-18.38021 88.07008 -4.840314
-15.76644 88.71069 -8.025164
-18.45036 89.57241 -4.286063
-15.64969 93.28672 -7.679934
-15.61108 92.14922 -8.017619
-14.36729 87.41788 -8.998878
-16.23989 93.27141 -6.876193
-14.28162 89.35403 -9.346943
-14.23857 86.20017 -8.826199
-18.59074 85.73732 -4.917434
-16.33807 93.85704 -6.568242
-16.85821 95.09891 -5.078387
-12.7298 97.08524 -9.617851
-13.3043 85.66026 -9.169977
-16.37229 85.59311 -7.310205
-17.04173 96.29799 -3.831779
-15.94075 95.70533 -6.419279
-16.12465 99.11261 -4.181651
-13.1819 97.70586 -8.9766
-15.32684 99.96857 -5.234657
-16.39926 87.58318 -7.36725
-14.39196 98.96873 -7.115298
-13.72067 98.63347 -8.078569
-12.15708 98.29149 -9.663445
-11.99509 102.915 -7.788316
-12.48698 101.3882 -8.084114
-10.84186 102.1902 -9.011822
-13.04837 101.8192 -7.317749
-20.56425 82.64557 0.6748087
-8.01868 100.7216 -11.04624
-19.77669 74.25607 4.480252
-19.84726 73.99372 4.221
-6.028531 83.52963 -9.453568
-16.78605 102.197 2.675812
-16.51047 97.36689 -4.462574
-17.24346 97.35409 -2.369593
-8.429193 108.7174 -6.548564
-14.14517 106.555 -3.24896
-12.98291 107.6066 -4.313158
-12.19376 106.9327 -5.469841
-12.33928 108.2864 -4.603878
-10.56553 106.9713 -6.631222
-11.49069 107.1829 -5.927023
-11.02595 108.3838 -5.618448
-6.604867 109.4662 -6.515375
-18.11456 85.1468 -5.636454
-18.29585 81.04573 -5.623641
-17.48548 82.67806 -6.413948
-15.04578 79.05562 -7.947451
-16.17743 76.01447 -7.563456
-16.94015 80.03916 -6.857908
-18.10179 79.92963 -5.846776
-16.96864 95.57095 5.75107
-15.69999 95.61009 7.510677
-12.25133 117.6525 5.54133
-20.08169 76.89602 -2.245822
-18.59484 78.85044 -5.272137
-19.65876 77.81785 -3.414359
-20.62313 78.69044 0.7061261
-20.08277 80.30768 -2.459591
-19.40611 82.0796 -3.880117
-20.46947 82.47681 -0.7372428
-20.62883 81.76285 1.525596
-17.33165 94.29596 -4.487859
-17.04761 93.39232 -5.57113
-17.6527 95.22097 -2.921141
-14.3384 101.6139 -5.830906
-14.81472 103.479 -4.104469
-9.85581 104.7048 -8.288614
-9.527151 104.2726 -8.707449
-12.94492 105.1971 -5.674744
-13.6731 105.7834 -4.445924
-11.52629 102.5518 -8.355454
-18.00724 75.4202 -6.044868
-7.803472 82.99564 -9.194892
-16.34963 96.61236 -5.229905
-12.45041 106.1438 -5.651531
-17.95969 79.38826 -5.999775
-17.62731 78.14093 -6.313216
-19.21176 78.76658 -4.339442
-17.32151 78.76204 -6.607215
-15.71146 78.16338 -7.698385
-17.70282 94.36402 -3.526581
14.60595 136.2484 4.578796
4.317053 113.1666 -5.724928
4.499964 68.06684 -8.655486
18.38449 81.23656 7.616351
2.219983 82.84034 -9.304107
14.38919 135.5369 7.069692
2.377442 125.924 -8.489776
9.474248 81.89556 -8.870557
7.177081 91.09104 -12.48128
7.144309 83.80132 -9.476515
19.32465 80.14667 6.203609
15.23195 89.77366 9.381991
11.56927 127.4369 10.15011
15.59607 98.22123 6.923512
18.84558 92.62395 0.4249153
13.58155 99.90902 8.292541
19.55433 69.20953 3.865516
11.18517 116.5624 7.644771
10.6511 105.3346 9.683619
19.60081 70.64647 -2.940356
10.79446 118.1318 8.676091
10.73434 120.5275 8.976149
11.63782 110.9828 8.180779
11.31207 124.1762 8.792257
13.95353 133.4489 9.91765
14.77707 133.629 7.229905
12.32213 110.986 -3.128425
5.270081 126.9607 -8.660568
2.74152 69.38711 -8.708256
13.76157 130.949 9.998905
14.72292 134.9131 2.126168
12.80606 117.0994 5.537934
7.436649 121.3424 -5.402316
20.24891 71.83658 1.10418
17.11213 77.6491 8.68021
8.86447 69.61998 -8.689986
3.640268 101.2037 -11.26249
18.70008 70.35511 7.157893
5.953432 87.93719 -11.52505
3.663409 68.63174 -8.68022
14.46366 131.042 4.132476
5.654052 110.2986 -6.339131
12.96294 113.8139 3.530404
3.309658 86.36947 -10.78685
3.384723 114.6463 -5.708217
5.454638 119.9548 -6.660385
3.078838 85.42762 -10.30962
17.22692 83.76614 8.741489
8.270476 122.5413 -5.391582
14.39258 131.1044 2.368944
2.494725 119.7382 -6.940058
4.553968 122.0975 -8.415318
18.42989 73.00641 6.660096
9.368311 128.5022 -8.065149
14.805 133.1117 4.314327
3.540322 70.13314 -8.726213
19.34481 69.68973 4.653512
2.0741 70.05499 -8.728818
13.30039 130.4579 -4.909266
13.52531 127.3333 6.816644
7.372337 103.3821 -9.984631
7.318104 128.612 -8.975781
2.355865 121.8248 -8.894381
7.222054 115.0388 -4.741151
4.191626 120.8347 -7.842839
3.529174 103.9824 -9.794638
20.11561 73.95707 -1.656668
15.69544 98.3868 -5.449232
13.4071 98.52132 8.541548
6.001481 110.6297 -6.178701
11.46808 119.6339 7.944308
10.83416 107.0242 9.653437
4.620934 117.8291 -6.059893
13.49319 126.6372 5.525488
14.36501 132.5893 9.18708
14.56651 133.0005 2.018271
14.52269 136.3621 5.270185
14.86525 133.4753 5.422857
14.65599 134.23 7.426825
14.72136 134.888 6.062193
10.39211 129.0973 -7.733397
2.151667 76.47438 -8.728907
6.811663 68.77001 -8.667579
2.727579 71.01534 -8.749659
2.602483 71.90431 -8.764502
5.766567 124.5249 -7.473909
4.318156 127.1805 -8.851865
7.291985 127.2951 -8.309045
12.67116 128.3585 -4.248695
19.3973 72.66384 4.997791
19.82335 71.01015 3.442212
20.06935 69.52676 1.346949
17.90566 83.07232 8.197854
17.59803 76.89483 8.208624
20.26869 72.19424 0.103759
4.311515 86.11733 -10.63253
3.536496 94.0059 -12.87889
15.85273 88.1076 9.329988
3.003356 99.70032 -11.81236
9.165545 98.98053 -11.26708
7.37272 104.3917 -9.397564
13.23356 98.14548 8.659781
13.3247 104.578 8.365035
4.42445 112.5548 -5.849677
4.150789 111.2116 -6.227647
3.063027 118.7084 -6.737648
10.28154 112.0444 8.895613
13.97953 107.3109 7.166347
4.560727 119.1813 -6.84161
5.378958 121.2082 -6.805641
12.25477 127.1787 8.725503
13.55221 129.8676 9.304764
11.88013 126.7249 9.02634
12.69929 129.804 10.78019
12.31824 129.1619 10.88234
5.038727 119.625 -5.960869
4.659589 124.1727 -7.614336
14.34149 130.646 2.825662
14.89402 133.1768 6.437819
14.70816 133.0315 3.421925
13.76435 69.60604 -8.514154
2.830579 76.06413 -8.739185
2.9367 81.52057 -8.991607
5.626642 71.60905 -8.756688
8.777625 72.07372 -8.76891
6.008948 72.16708 -8.766685
7.293294 73.96126 -8.780617
2.902684 74.81427 -8.758477
6.437122 72.82271 -8.773226
3.101905 123.9273 -7.743024
5.246028 123.2866 -7.117931
10.48162 128.6526 -7.323462
7.692261 127.0419 -8.051706
8.221312 125.6769 -7.067265
19.27512 76.37077 5.96594
20.32741 74.99683 2.555436
19.73612 73.55174 4.388456
20.03987 73.1615 3.310088
17.58611 86.08431 8.252242
18.42628 77.62298 7.418088
19.37935 69.62 -3.394334
18.36278 68.90108 -5.299896
2.456504 87.53963 -11.40285
5.296829 87.08778 -11.11119
5.720569 90.92828 -12.5421
5.385514 92.11167 -12.73911
16.64081 92.35476 7.664552
15.14553 97.73826 7.547528
2.516334 102.7841 -10.47503
3.933462 102.7786 -10.49431
5.159435 102.0088 -10.86295
4.942617 105.7946 -8.789624
4.179765 102.7407 -10.51458
11.86803 105.4262 9.167613
14.68544 105.4918 6.913149
2.902528 110.8418 -6.358909
4.027797 108.6017 -7.230463
5.653484 112.5574 -5.642222
4.215433 116.5312 -5.897558
9.200619 117.6421 9.892953
10.98407 121.0021 8.783655
10.00881 108.6693 9.873895
3.005822 120.0766 -8.181329
3.541147 121.3776 -7.369592
4.436885 120.1987 -7.458215
10.47858 124.5296 9.822167
11.69633 122.3477 8.155511
10.33638 121.3994 9.495886
10.90488 120.0866 8.718534
13.43062 126.7927 5.111413
13.89996 134.1171 9.597068
4.283656 120.8975 -6.490937
3.759702 120.9958 -7.368027
13.51298 129.1924 -2.26896
13.87684 131.2735 -4.054677
14.42112 130.444 6.522289
10.54414 72.29797 -8.775234
15.75021 71.02116 -7.863422
4.585243 79.3713 -8.767493
3.563306 79.55946 -8.77943
6.315024 124.8615 -7.451511
9.424677 126.5788 -6.8358
19.97515 72.72211 3.427608
20.35361 74.79408 2.258401
17.58853 81.52289 8.459435
16.94964 85.23131 8.908651
18.07355 85.49184 7.834982
17.52104 85.27478 8.429296
17.86042 87.22696 7.84727
20.15524 78.47673 4.108198
19.5736 78.44949 5.631928
16.97316 78.77587 8.854321
19.90874 70.44862 -1.768177
19.57305 74.08383 -3.373289
15.63932 69.65405 -7.826652
19.23462 73.34978 -4.017146
7.302599 88.88206 -11.91255
8.230704 89.56752 -11.98249
8.639945 88.23705 -11.53392
9.09192 90.12535 -11.98858
5.40109 89.94456 -12.28784
9.477226 89.19812 -11.67196
16.71261 87.52985 -7.069893
6.349403 86.48267 -10.76789
4.770036 85.66528 -10.39066
2.966613 83.69016 -9.582219
14.77102 90.74754 9.436439
15.16955 90.94077 9.218925
18.50218 92.02262 4.519627
17.56462 94.15887 5.505779
16.15681 95.64996 7.114229
14.16929 96.51954 8.503614
13.097 99.19189 8.602861
2.621472 96.57487 -12.61628
4.699712 92.76769 -12.81551
7.577859 98.56701 -11.86956
5.38361 106.4636 -8.3529
12.31601 101.7359 8.868752
10.82081 106.4818 9.66674
11.97038 107.2551 9.049476
13.51293 100.75 8.225842
5.434484 107.0285 -7.961324
7.053336 110.885 -5.928435
5.134011 107.6239 -7.617493
8.545984 107.8345 -6.967921
9.288156 108.8762 -6.207271
8.237075 102.7421 -10.04046
6.925512 116.641 -5.358177
3.499151 118.5604 -6.322906
6.526788 120.2385 -6.132133
7.421385 116.3341 -5.26511
7.744153 115.349 -4.483274
12.59939 114.6729 4.502016
9.193744 118.7122 10.03914
9.767954 112.9613 9.111966
12.18663 111.2618 7.446262
10.55936 109.3572 9.485186
5.75021 121.4356 -7.48107
11.68182 117.9093 7.422654
12.4342 120.9065 6.341726
12.7988 121.7568 5.04966
12.62627 122.5957 0.8580979
12.22254 117.3803 6.699585
12.38862 116.7613 6.854784
13.34604 128.9043 8.343483
12.97802 125.2646 6.087022
13.41558 126.499 4.998415
6.915795 122.4709 -6.152073
8.243431 124.7523 -6.557304
14.36061 132.2379 -0.7119744
12.8305 69.93135 -8.660304
15.77659 73.50072 -7.865252
5.84863 78.18526 -8.732165
6.585359 79.4525 -8.754952
20.38562 74.45677 1.461672
20.24722 73.07024 -0.7225842
17.35646 71.15801 -6.728041
18.28176 73.78835 -5.732799
11.30968 76.90005 -8.753638
10.71217 88.7966 -11.20574
13.58998 87.06208 -9.39914
14.06115 89.65392 -9.539676
3.827624 91.24703 -12.62576
2.88313 90.54205 -12.50104
13.47156 94.39433 -9.710553
7.797634 91.99261 -12.56869
7.979185 94.88094 -12.52869
12.0523 90.64091 -10.94911
13.9612 90.96635 -9.706583
11.87427 92.6683 -11.09699
13.63016 95.26286 -9.367191
13.83827 93.47017 -9.602149
14.40477 93.6907 -8.999287
13.3097 93.52274 -10.03856
11.53132 94.93071 -11.09329
11.54764 86.93047 -10.32084
5.917417 79.56389 -8.763654
11.64179 86.44895 -10.08442
11.08013 86.53481 -10.32636
3.215232 83.2753 -9.432086
16.69179 89.05115 8.658451
15.02459 98.86687 7.314789
15.06581 99.04816 7.226364
12.83979 95.92348 -9.854778
4.921526 94.312 -12.85107
5.045842 93.88074 -12.85708
14.51635 102.4508 7.483932
16.25977 103.6253 4.228017
12.80308 107.0855 8.463691
11.81758 108.4679 8.914758
8.754478 116.9924 -3.834664
9.762398 117.0386 -3.095722
9.456585 117.0555 -3.262977
5.58613 114.2922 -5.300523
11.20389 113.952 7.72574
7.293379 122.3596 -6.060385
12.76459 121.0584 4.269773
11.9971 121.2353 0.1485046
12.87555 122.2893 2.69397
12.39156 114.9768 5.233643
11.69765 117.706 -0.1783894
12.30353 117.3692 2.545024
13.34085 127.0054 6.865132
14.57569 131.2456 5.767412
13.98428 129.9453 -0.5470018
9.850243 125.9579 -6.127588
14.11661 72.53035 -8.500109
6.093442 77.3622 -8.732871
17.59847 71.17285 -6.477075
19.43778 73.1993 -3.563709
8.959996 84.58836 -9.636195
12.25704 84.37706 -9.124727
7.662921 94.23587 -12.62151
11.63006 95.6163 -10.88509
10.22691 95.30167 -11.73463
8.033617 93.40614 -12.61884
10.68488 98.07892 -10.77651
8.966467 97.10387 -11.88931
7.175901 96.03336 -12.52666
6.383456 98.59498 -12.08119
10.74855 99.51965 -10.25671
7.582516 100.0436 -11.43966
15.38091 91.25789 -8.349178
16.27063 93.40838 -6.80354
6.588215 80.14567 -8.789474
7.765316 79.24753 -8.731924
11.46843 85.59055 -9.772266
8.844904 82.61738 -9.023078
14.36544 97.99451 8.105096
14.9466 96.78461 7.947323
6.57181 96.45622 -12.54279
15.02246 102.8675 6.874763
7.62913 120.2239 -5.330698
6.243265 113.8369 -5.229278
6.151535 120.1211 -5.622316
5.362023 121.127 -6.250117
12.59639 123.5038 0.4736038
13.91401 126.0714 3.772342
12.48534 125.2883 7.213368
12.83691 116.8252 4.118165
12.20282 114.776 5.864194
12.5991 116.4026 3.417205
12.50215 119.2774 3.469828
11.76862 125.0561 -3.059293
14.04773 129.4523 1.122984
12.18127 126.8574 -3.763767
12.989 126.7711 -1.67225
10.99756 125.0885 -4.391251
11.0621 124.2896 -3.63382
7.715465 122.4298 -5.687295
4.648499 121.8238 -6.736502
20.44407 75.49767 0.03955562
17.55862 75.34737 -6.530624
12.14569 83.96128 -9.020391
9.907488 83.8661 -9.263263
13.56276 84.95374 -8.876468
15.00104 86.51469 -8.389122
16.00487 87.07925 -7.673233
17.54236 87.04701 -6.14222
12.13466 100.1432 -8.963319
14.0836 98.48739 -7.705386
9.336079 101.43 -10.25138
16.11488 95.09853 -6.421735
5.339052 81.18642 -8.926363
10.99226 81.81091 -8.76261
16.9894 96.55296 5.344516
6.421945 119.3113 -5.66541
9.07802 121.4883 -5.197684
9.358521 120.4093 -3.996024
9.317945 118.5611 -3.346111
10.34112 117.5192 -2.392607
8.460917 119.295 -4.197416
10.96875 121.8978 -2.410135
8.939579 122.0291 -5.673042
9.037756 122.8413 -6.110319
7.387069 123.0063 -6.826007
12.59613 113.1997 5.773696
13.10645 126.8667 -1.321622
13.1602 127.5804 -1.904776
19.16893 76.39683 -4.371006
20.28421 75.74898 -1.265397
9.954304 82.92143 -8.999479
19.6382 89.4512 1.372069
18.54803 89.77522 -3.990273
18.90451 85.56085 -4.458038
17.59253 84.42046 -6.205256
17.31927 86.34843 -6.479191
15.34689 96.20851 -7.053505
5.991761 104.5676 -9.512579
9.900175 104.6948 -8.263946
17.01454 88.36581 -6.719398
10.10159 78.20667 -8.702463
17.02409 98.6708 4.138148
14.97881 101.9855 7.067241
10.10376 120.1558 -2.789916
13.09369 123.4415 3.126878
11.36858 120.6743 -0.9885046
11.66395 119.7702 0.01935534
11.88534 118.7505 0.870285
13.02671 116.37 2.029473
11.50714 117.972 -0.5561073
11.31756 123.0156 -2.353818
13.08468 126.1549 -0.6929086
8.73302 122.7032 -5.281027
13.45267 126.4249 0.6072553
17.24657 89.98644 -6.209021
16.69109 89.62504 -7.019447
14.75175 96.34802 -7.816216
14.49588 99.40826 -6.786923
11.49205 102.1555 -8.544428
6.47349 104.471 -9.488502
7.933726 78.97742 -8.721506
9.158848 75.28735 -8.784004
9.999697 76.12077 -8.776245
17.88994 96.17618 1.332649
12.17224 119.922 1.387732
12.72895 125.8199 -1.490637
9.553044 121.9589 -4.445757
17.3925 98.56366 -0.01519427
12.94423 102.0584 -7.312044
16.61498 101.6507 -0.9558942
16.8339 93.69434 -5.822816
16.88009 95.085 -5.022972
16.17806 96.8601 -5.391636
18.33971 94.03254 -1.062881
16.18232 97.66547 -4.910556
17.25952 97.32062 -2.452284
17.6608 96.56792 2.923469
9.513151 79.87553 -8.705799
9.242705 76.85851 -8.748476
9.086655 73.29441 -8.783252
16.75418 95.44691 6.293489
9.978252 121.2653 -3.89487
15.44267 89.71733 -8.385774
17.18004 92.34574 -5.725602
13.06469 103.9246 -6.19918
17.1401 100.0556 2.747704
18.11677 95.28047 0.6081985
18.24233 94.83174 1.111127
18.61053 93.44081 0.864432
17.79699 96.75022 0.7172117
17.45835 98.72559 1.27711
17.1588 100.3172 0.468143
9.640187 73.35097 -8.786366
9.718298 74.45758 -8.793712
16.4236 96.53912 6.396358
17.35063 96.19892 4.552952
16.27655 92.54549 -7.049145
12.52571 100.6664 -8.355284
11.28085 105.4554 -6.987062
17.57235 91.37076 -5.377204
17.2126 92.76229 -5.432088
17.42073 92.75815 6.560763
17.21464 99.27111 -0.5720073
14.9938 92.21565 -8.670655
10.54539 103.9514 -8.285934
8.523604 103.8989 -9.327471
18.64569 93.06466 2.340846
17.22351 99.56113 2.646476
13.31142 102.7904 -6.554087
16.95846 98.90678 -2.14748
17.56491 93.60229 5.785533
19.16681 79.52404 6.471159
18.07714 83.92123 7.961106
20.31513 81.93303 -1.538743
18.16723 83.61851 7.873519
20.42665 80.86689 3.162565
20.51605 83.12736 2.190841
20.42257 84.75952 1.318301
20.35647 84.16212 2.639114
19.45575 86.86684 -2.971585
19.85736 88.25961 2.008191
13.27889 112.2304 4.748015
14.70089 109.546 1.970864
13.08767 112.1969 5.335708
13.37885 112.7365 2.222556
14.67653 108.5663 4.763356
12.31009 110.357 7.676706
13.94854 111.2761 3.046388
13.85338 111.0174 4.303138
13.29202 110.4925 6.285787
14.4468 108.3622 5.602959
13.66439 108.9026 6.697149
15.05026 107.913 4.428246
18.66527 87.3543 6.635039
12.8434 111.7359 -1.72449
9.006266 110.5313 -5.608248
7.674379 109.9124 -6.187413
9.855665 111.3214 -4.871633
12.14422 109.4868 -4.229142
10.48683 108.2602 -5.987146
13.08163 110.2544 -2.610141
12.44018 111.601 -2.531281
8.495807 111.839 -5.202137
13.11157 109.2845 -3.223383
8.476369 115.4825 -4.092658
8.239918 113.8894 -4.563174
10.92076 113.5788 -2.899209
11.92898 114.6674 -0.9563882
10.57663 106.7688 -6.735992
13.25609 124.2792 2.637336
13.21429 128.1323 7.402034
13.25069 124.2423 2.500754
13.87567 128.2112 2.24573
16.9275 72.56779 -7.118329
14.61302 72.72237 -8.368479
13.29945 73.17001 -8.690643
13.3179 74.84497 -8.671165
17.71716 78.36748 -6.255319
18.72893 76.19351 -5.08468
15.91838 74.54716 -7.773837
14.0509 74.24074 -8.525052
13.43077 124.3428 3.596821
13.70384 127.1092 4.039304
13.92434 128.1146 2.696235
12.05337 124.2611 -2.157472
9.237801 121.3427 -4.687846
11.93057 123.2685 -1.698347
10.6975 79.24518 -8.671873
9.61208 114.5982 -3.612097
11.89216 116.8485 -2.072247
9.425413 122.1441 -5.272751
11.98929 114.5323 6.41545
15.48865 103.3087 6.120311
17.07795 100.9725 1.735326
15.98446 105.8737 2.433584
16.52717 102.9695 0.1532288
15.63293 105.3349 5.160628
16.2402 102.7633 -1.28162
16.42498 103.5837 0.5351667
15.58042 107.1773 1.828284
13.67907 104.8517 -5.002122
14.60321 107.2221 -1.927384
15.4012 106.5872 -0.3066909
14.22062 110.7542 2.428483
15.3042 106.1485 -1.057188
14.07137 106.2808 -3.567811
11.97091 106.7774 -5.714428
12.90506 109.2796 -3.499377
12.86151 102.1473 -7.363618
16.2562 104.7412 1.522435
13.29433 106.2327 -4.667818
12.18188 104.3472 -6.891576
11.41761 104.2363 -7.570569
10.6833 105.3849 -7.44644
16.08923 103.4629 -1.178731
14.13428 102.4461 -5.703224
14.91931 100.8709 -5.384688
19.29899 86.03428 -3.64295
19.45843 87.77429 4.709328
18.8716 87.59542 -4.080818
19.25521 89.2559 4.297167
18.82465 87.09061 -4.272595
19.78024 87.7269 -1.278667
19.88923 85.19073 -2.341016
19.7706 87.35136 -1.692555
18.55315 87.84608 6.668445
20.19538 86.55984 1.231611
13.28348 76.4031 -8.637023
10.99121 77.8242 -8.706914
15.34167 77.66447 -7.90048
17.70072 83.86605 -6.086439
16.71061 78.00648 -7.105391
14.59115 81.39878 -8.090027
12.94801 77.83398 -8.588039
19.4566 83.43565 -3.781501
20.08166 82.69382 -2.325824
20.21715 82.11184 -1.914076
16.52876 79.32752 -7.135931
13.57669 80.35726 -8.347005
18.37526 84.2136 -5.400903
18.35148 79.0769 -5.560322
19.32039 77.84066 -4.154849
20.13193 78.9877 -2.212813
20.11515 79.31527 -2.347438
20.5304 82.0034 -0.4850644
20.60117 80.47559 -0.08856999
20.27955 78.62579 -1.766111
20.63689 81.50976 1.593347
20.58627 77.85802 1.553672
20.63863 81.44813 0.5482097
20.1878 77.79214 3.963295
20.5042 78.08254 2.407841
20.48723 77.13219 -0.2878907
19.604 89.6472 0.4166424
19.34605 89.07713 -2.177808
19.60635 89.15855 -0.8487893
19.18163 90.84377 2.800898
18.95837 92.09868 -0.241335
17.58238 95.8005 4.092414
18.68483 91.3252 4.505652
19.47193 88.76873 3.886355
18.96646 89.42063 5.133524
16.05151 100.1777 -3.63293
14.20316 104.2862 -4.608193
14.48818 102.3958 -5.283961
17.11194 86.28246 8.728168
18.04577 87.89964 7.413961
12.94698 112.778 -0.2158712
13.01041 123.977 1.531407
12.88201 125.1177 -0.3611475
12.15152 123.2866 -0.7200459
12.20794 123.3509 -1.092108
12.6784 124.6872 -1.022756
12.62444 124.498 -1.329373
10.65399 121.1741 -3.008821
13.69318 125.9252 3.777251
13.20623 124.4811 0.1004913
11.0491 123.1551 -3.744653
13.41375 125.0312 3.775105
13.43641 124.4061 1.253513
13.4923 125.9771 4.868173
12.10753 121.938 -0.3081369
10.70417 123.7243 -4.566631
13.25853 80.2384 -8.43817
14.42751 82.42174 -8.21535
17.20979 82.99802 -6.617978
15.3546 82.48131 -7.814126
15.9399 104.7555 -0.3239415
17.26277 80.50764 -6.603484
18.63417 82.41029 -5.138449
17.8065 81.02605 -6.115048
18.32604 92.61311 -2.873986
14.24345 104.3517 -4.500573
12.64533 114.7666 2.012686
11.37761 114.508 -1.953486
12.6495 122.9243 0.1112544
20.20542 74.46548 2.999114
20.40081 76.31448 2.535815
20.17352 75.70403 3.534224
20.27266 85.84817 1.864575
20.32489 83.09611 -1.335595
-3.867732 127.884 15.98165
5.949377 132.4603 14.5114
9.384938 80.5742 10.21706
-14.52962 69.91629 9.851902
11.79444 136.4739 10.803
-14.28212 81.63695 10.15304
-12.97145 86.35973 10.25281
5.487211 126.3176 14.46359
-2.92873 129.7185 15.26755
-7.15109 125.7827 12.11623
-10.76925 99.4978 9.462571
-3.645387 126.194 15.90965
-7.715507 115.6625 10.2332
-9.375571 98.99765 9.721937
-7.239256 71.11143 10.26745
-5.794702 126.979 13.59029
-1.238629 70.81478 10.15721
-2.233636 108.827 12.47543
10.28224 138.4171 9.901395
-1.053873 107.8639 12.89492
-0.0448731 108.7985 12.86216
-1.7927 116.3469 11.96327
-1.647279 117.7016 11.98045
-1.367277 123.0933 14.61413
-4.521617 130.7653 15.36321
-0.03259012 113.3909 12.27731
11.49422 136.4159 11.17588
-1.002352 121.6682 13.54622
-12.69273 137.1914 8.823422
-7.543545 80.65931 10.20789
-12.93131 134.1095 11.29216
-12.34227 134.8678 11.56532
-9.110511 125.82 11.31974
-7.573788 124.847 11.69698
-5.915895 128.0784 15.17923
-9.337548 128.546 12.4697
11.65175 137.3207 10.02653
-12.19047 138.3393 8.1515
-10.50005 137.3724 10.9701
-7.33076 132.6602 14.8456
-9.124126 139.3502 9.561741
2.134596 121.3206 12.69938
-9.24064 142.175 6.479849
9.844382 129.4418 12.63785
5.740132 146.3718 4.146856
-1.743688 126.8124 16.02542
-2.330575 127.6462 15.93845
-5.902565 131.8112 15.62053
-0.8321705 128.9007 15.00888
-1.450511 130.1771 14.76822
-3.990898 125.3521 15.42992
5.700923 126.8377 14.99097
-7.066014 144.3289 5.476337
-5.169548 134.4915 14.79184
7.117374 123.2702 11.60032
-5.405073 146.1423 4.508978
-3.842689 145.6705 5.722558
13.12276 134.2598 11.02612
0.2049476 122.8037 14.44703
1.240184 106.2265 13.14964
7.179125 127.3012 12.63257
3.292658 106.4599 12.77782
0.75214 112.509 12.36038
11.69198 70.85888 10.21175
-6.358511 124.8963 12.08192
5.420222 71.18846 10.24857
1.052035 114.1255 12.167
-5.669555 122.9801 11.95768
1.139794 122.014 13.83761
4.336048 112.7189 11.73339
3.474872 111.2426 12.05113
2.208587 117.1644 11.94235
8.336596 116.9696 10.06708
-0.1851968 120.4481 12.68862
-9.784148 137.555 11.18496
14.54034 85.31396 10.07565
12.79205 91.17859 9.792307
-11.00776 137.8597 9.99752
12.87737 70.24232 10.09812
15.97412 75.04892 9.261452
-2.508777 124.0563 15.05816
10.81778 101.97 9.498383
-7.619447 124.5428 11.61669
4.900762 130.769 14.60752
2.347101 123.7498 14.86149
4.834304 126.1279 15.45612
9.342196 124.6024 10.83367
5.474195 99.93965 10.52879
12.35804 70.38727 10.15751
-1.043696 127.8329 15.67978
-11.3917 70.28912 10.19652
1.837233 128.381 15.23205
-10.48119 139.4675 8.585672
3.344555 124.6578 15.28537
3.617903 125.1003 15.42832
-4.207496 123.0349 12.22147
8.374923 139.2284 10.45662
2.874225 127.861 15.57033
0.5680082 150.127 2.688675
11.79403 138.6502 8.243054
8.691511 132.4385 14.4448
4.553481 146.2316 4.863004
7.927201 134.5218 14.08501
2.561708 126.1953 15.77852
7.61098 126.6532 12.27237
7.785923 124.9187 11.70359
11.69206 128.435 10.92006
3.126883 111.966 12.04475
10.21844 127.339 11.51453
13.21811 136.2599 9.135234
10.57314 126.5996 10.78046
12.71121 138.3504 7.349923
1.519311 119.2991 12.09829
18.14873 69.85571 8.623278
8.565556 140.2059 9.099277
12.65314 136.6061 9.631259
10.82149 141.6667 6.035429
10.31763 140.1138 7.818759
10.80923 140.0627 7.656195
3.912564 72.92117 10.20812
7.560683 122.9952 11.41709
6.359158 119.8769 11.28769
-15.64765 71.37872 9.551762
-8.289025 83.7531 10.20242
12.2924 95.96844 9.219571
-5.843383 104.5966 11.54967
-4.997244 121.5058 11.86038
-3.07969 110.4955 12.22515
0.002531196 107.2396 13.07633
-1.91941 106.911 12.9326
-1.479874 110.1266 12.4428
0.6988624 107.7557 13.00572
-5.321844 111.9873 11.49819
1.915885 114.0166 12.06937
0.9504109 111.1737 12.52335
0.2101138 112.5806 12.37953
1.56837 116.7844 11.99411
0.8726847 122.3186 14.09641
0.4077148 119.0509 12.10927
-8.001107 137.9711 11.54786
-7.588471 143.4139 6.230188
-0.3333482 124.1596 15.26769
1.867956 125.7173 15.75199
0.2846223 130.487 14.72044
2.274695 131.692 14.78853
-4.172341 131.7089 15.01939
-4.502629 132.6714 15.35862
-2.548722 146.9725 4.895337
1.155023 149.0048 3.443785
5.843235 105.9556 11.73527
16.24961 74.24816 9.138426
4.962918 111.4151 11.7119
3.196936 114.5632 11.84826
2.665864 115.7733 11.90547
13.27742 70.74079 10.05203
16.36854 71.19717 9.313255
16.28013 71.77016 9.332244
7.01977 134.9972 14.01643
2.640601 133.3443 15.50536
10.09798 133.7696 13.42732
10.19275 128.3455 12.11675
9.283463 127.4317 12.12237
6.357917 141.8366 8.750312
-7.289009 120.4648 11.15024
-3.894862 124.9757 14.78006
-6.289899 133.9727 14.90534
-1.552246 121.9483 13.38173
-2.826137 127.8577 15.98433
3.314682 123.1674 13.42076
4.947342 123.0168 12.05525
-9.547687 131.8621 13.82477
-12.14892 134.5564 11.92329
-8.322231 135.6018 13.17179
-10.68162 136.9766 11.28166
11.21105 138.6824 8.804765
10.04898 137.2228 11.42713
9.403882 133.2666 13.93024
-15.91664 73.4304 9.283566
-15.0673 74.04908 9.597606
-17.08131 70.72153 9.033322
-10.25327 88.08836 10.06745
-7.086833 70.26487 10.27735
-11.41817 91.76453 9.766078
-9.911767 103.8129 9.874261
-1.927219 119.5154 12.05004
-3.038562 114.7881 11.85572
-2.483847 115.9302 11.90214
-3.588604 108.1082 12.27893
-9.121004 107.0046 10.2992
2.145558 111.1194 12.3104
-0.175054 108.0268 12.95477
-7.818514 113.0428 10.29371
-3.557111 111.2073 12.04044
-7.60635 136.1195 12.86191
-7.593524 141.4077 8.159822
-9.03091 142.9289 5.521791
-9.076244 141.5846 7.434328
1.443765 127.7268 15.61988
1.987875 133.1745 15.54928
-4.354418 133.0549 15.52467
6.685102 136.2209 12.73528
-4.701429 147.2476 3.801933
3.872042 146.4068 5.030012
3.199689 147.6489 4.111866
8.757577 107.0811 10.42059
5.385906 101.3518 11.06703
9.146832 102.858 10.13636
14.50223 84.3906 10.11606
4.733882 110.6161 11.85635
6.721084 113.0835 10.91861
3.376179 116.5996 11.81705
6.681557 116.1954 10.76548
8.516882 117.365 10.04762
2.940937 116.7586 11.87056
14.93873 70.56406 9.746562
16.40936 74.13061 9.05981
14.09424 72.80537 9.941992
0.5154016 134.7864 14.85978
12.33831 131.754 12.05753
8.694263 134.3881 13.84255
4.816535 131.8461 14.40487
10.64274 129.8663 12.54579
7.426417 141.5237 8.511456
-5.199641 124.2586 12.21742
-9.840252 130.4697 13.09026
-7.152265 131.2875 15.05901
-4.230304 120.3196 11.84171
3.908715 120.5385 11.88455
3.619958 119.0025 11.80029
3.559034 121.2155 11.97555
5.081713 121.015 11.76478
-10.03138 132.6144 13.56904
13.14179 135.1772 10.36065
-14.31154 72.87953 9.847793
-13.56818 72.58971 10.00227
-12.43775 74.95853 10.11536
-9.301353 72.23605 10.24831
-9.763037 80.58504 10.20196
-15.34179 79.7095 9.787416
-12.84373 83.65658 10.27065
-9.58032 71.1626 10.26155
-10.08984 73.45768 10.2212
-8.409052 72.00557 10.25809
-11.07963 73.09686 10.2021
-2.590139 69.89671 10.16744
12.23814 90.89719 9.84934
-8.757041 93.25259 9.630929
-9.96759 101.7335 9.770578
-6.895932 119.6512 11.09896
-2.58662 120.0299 11.99606
-6.741124 108.8445 11.18164
-2.43012 107.7459 12.62697
-8.458106 107.9857 10.51284
-5.588814 112.5219 11.36161
-5.955513 115.3701 11.10333
-6.402067 113.1404 10.98613
-3.411674 116.6565 11.78871
-2.868545 112.5422 12.02095
-8.430659 139.1315 10.38109
-6.323867 137.6002 11.78024
-5.851449 142.4237 8.27177
-6.864742 144.4136 5.524582
-6.468323 141.1977 9.22754
-6.37141 142.1931 8.282443
2.047804 143.9787 7.139188
-7.882259 140.8027 8.613352
2.03852 131.7767 14.8876
5.591787 136.0647 12.93526
7.475796 136.9446 12.25867
-1.983722 135.1809 14.30738
-3.058158 144.725 6.70201
-1.429799 146.4558 5.375102
4.150272 146.8453 4.453065
3.012729 146.9307 4.861388
9.018868 106.1909 10.31551
4.405108 109.1967 12.08098
5.680647 108.3241 11.70332
8.739741 109.0001 10.36139
10.41497 104.6526 9.745119
15.49129 83.01578 9.837699
6.307463 112.9873 11.09551
7.936419 114.9298 10.10538
6.047128 116.6436 11.05761
4.835386 116.7861 11.51027
6.608059 118.7626 11.02771
8.638395 71.5789 10.30669
15.831 79.02266 9.52837
15.17904 71.99672 9.680787
9.811562 97.07951 9.441705
11.49768 133.2315 12.75951
11.45179 129.5959 11.91835
6.591569 130.5644 15.05957
5.620532 130.3096 15.01595
7.333385 129.4149 14.64888
7.991282 133.3735 14.55201
8.679965 129.6166 13.08177
-7.83049 132.3922 14.66851
-7.877872 130.1218 14.28505
-10.14389 130.3854 12.9479
-14.11794 78.29452 9.94646
-12.51099 86.99108 10.21091
-11.21693 88.39049 10.0707
-13.31215 83.14182 10.27338
-3.584197 73.03916 10.19878
-1.663195 70.06125 10.15314
-1.798119 72.17445 10.17912
10.78673 92.60249 9.634196
-11.39874 92.42254 9.701995
-10.52838 94.85645 9.557036
-7.208961 95.54562 9.482563
-9.543097 101.4777 9.889428
-9.515667 104.2491 10.03443
-3.841257 118.1742 11.72024
-4.30959 119.1526 11.69974
-5.669681 109.2281 11.66776
-7.329969 104.8527 10.91032
-6.426313 115.4167 10.87147
-4.623559 139.7709 10.26266
-5.952172 136.4243 12.45059
1.582803 131.6766 15.09842
7.906359 138.738 10.91153
4.014691 136.1744 12.93025
-5.039356 138.06 11.30506
0.2731972 143.4518 7.433875
1.516312 145.9458 5.743103
