# .PCD v0.7 - Point Cloud Data file format
VERSION 0.7
FIELDS x y z
SIZE 4 4 4
TYPE F F F
COUNT 1 1 1
WIDTH 1660
HEIGHT 1
VIEWPOINT 0 0 0 1 0 0 0
POINTS 1660
DATA ascii
-13.89366 81.17882 4.873276
-7.503036 80.45138 8.282516
-9.456359 80.40274 8.039005
-10.38928 88.81075 7.013519
-11.06164 89.17948 6.716669
-13.41131 99.49986 1.839468
-12.88177 93.57493 4.866578
-10.23548 116.982 2.461376
-9.00928 119.6376 5.09016
-14.48417 135.716 -0.5117987
-6.285508 144.5819 1.556939
-8.614846 146.2161 -3.076639
-10.02481 79.25921 7.901487
-6.965711 82.65356 8.193081
-11.93523 97.96972 4.799253
-11.96265 91.80737 5.829384
-9.814721 93.16684 6.491069
-9.85042 120.6762 4.207159
-10.7148 124.8576 4.647463
-10.71592 120.4512 3.445807
-9.480835 122.5253 5.170329
-8.775427 123.652 6.163874
-10.86472 123.1297 3.272769
-7.660297 117.873 6.763784
-10.83899 121.9657 1.733749
-11.23124 121.8446 3.448358
-11.21708 122.2799 -0.5301756
-11.18649 125.0403 1.198092
-9.809527 126.4278 6.273419
-13.4222 136.2599 2.544437
-12.03854 135.8058 4.194424
-10.95527 144.571 -0.3559066
-11.10818 145.2104 -1.004413
-11.60567 90.47874 6.246336
-11.3904 93.34365 5.910447
-8.640032 93.63835 6.534803
-6.41466 116.9912 6.987448
-10.86682 122.2989 4.061172
-11.27977 127.5824 1.379727
-11.53316 132.0248 3.565439
-6.994848 91.44418 6.83445
-10.2205 90.63873 6.824653
-8.873657 117.7443 5.26954
-13.99583 138.8279 1.774482
-7.098895 91.01389 6.886636
-8.522573 90.78713 6.93257
-5.326616 145.6001 0.1920711
-8.72731 148.2891 -6.552402
-8.898627 148.1078 -5.624538
-8.80279 147.7383 -4.871331
-3.642192 144.6201 2.389894
-8.426602 74.04391 8.019479
-5.271087 80.09953 8.310405
-6.882242 75.29893 8.111554
-6.77541 78.5617 8.185049
-8.287972 78.56311 8.215605
-10.89292 147.3356 -5.210634
-12.63354 76.78184 6.326797
-11.50753 74.01812 7.130712
-10.19346 72.08578 7.852509
-9.951997 74.4757 7.766655
-10.13387 78.3234 7.851265
-9.143759 77.54468 8.082517
-13.19045 77.95287 5.70615
-10.41339 76.96053 7.732839
-12.43864 75.14911 6.365739
-11.08694 76.17155 7.325191
-7.993237 77.86745 8.180318
-12.4798 75.8709 6.294727
-14.00761 80.57118 4.695057
-13.80273 77.15637 4.661966
-13.45811 78.60339 5.403758
-6.10089 107.1511 7.852314
-13.74617 99.23503 0.5137031
-11.72909 109.9947 1.880947
-12.03979 108.5809 2.078004
-7.894121 104.598 7.119057
-12.01238 108.1763 2.500516
-11.39523 110.0824 2.623306
-10.86458 112.4504 2.941097
-8.396784 115.5219 5.86887
-10.82295 111.1139 3.389299
-10.62391 112.7748 3.350183
-9.777307 117.1927 3.17426
-9.467079 115.1374 5.002445
-10.87973 114.1365 1.076243
-6.76022 111.7145 6.853362
-10.34595 114.4906 2.430399
-10.09996 112.5519 4.098579
-8.438731 113.0118 5.503415
-8.120218 111.4724 6.02497
-10.21807 109.5543 4.98198
-8.85941 109.6199 6.023968
-11.13484 109.5962 3.544419
-9.320883 115.5152 5.092671
-9.988194 107.3346 5.703463
-9.374875 108.1157 6.010799
-9.366269 106.3851 6.253047
-6.52523 105.4857 7.708447
-10.26 106.1499 5.610099
-11.01571 107.1014 4.667497
-12.5764 105.7629 1.586791
-11.27159 105.149 4.60859
-6.247325 109.3214 7.5557
-6.307257 102.9258 7.612022
-10.57203 134.2625 5.408311
-8.265518 99.13718 6.616241
-10.713 128.9956 4.502497
-10.89542 130.6946 4.964033
-11.23148 130.1566 3.098202
-10.32638 128.0536 4.634271
-9.171781 126.4456 6.716901
-10.84335 131.6564 5.219308
-9.959414 128.6994 5.943267
-9.39651 129.1021 7.008739
-10.07931 130.2216 6.510855
-8.972301 127.7962 7.153366
-9.420471 127.7829 6.834534
-10.45469 128.6781 4.82449
-10.3925 126.5946 5.310753
-11.87704 133.5688 3.933484
-11.5793 132.5628 3.903516
-12.70343 134.823 3.137169
-10.69718 133.2252 5.600494
-14.53539 94.79971 1.846263
-13.80827 96.5158 2.879241
-11.60508 97.00874 5.162599
-13.18979 99.03017 2.855837
-13.79943 98.33984 1.560585
-13.24261 137.7292 2.710257
-11.01319 137.1884 4.04077
-13.31429 141.2232 1.230703
-11.56632 138.1193 3.360513
-8.214781 138.9034 4.123545
-10.60035 125.1108 3.276636
-10.57302 124.742 3.636407
-10.63356 102.7279 5.426775
-12.54927 104.7379 2.03332
-9.608386 99.89613 6.052784
-6.069613 99.74674 7.162995
-6.89355 100.6281 7.137731
-7.474824 100.9296 7.034564
-8.972364 99.02962 6.382405
-10.58579 125.6973 4.534916
-13.70758 140.091 1.529396
-12.88914 100.3115 2.597333
-12.97453 103.5631 0.8668866
-11.51021 100.2989 4.728034
-8.413795 103.5456 6.903497
-11.12007 102.4407 4.96207
-12.23454 103.0686 3.1182
-11.79582 98.94125 4.720454
-10.40816 102.0461 5.652942
-7.438846 73.80454 8.004635
-6.165696 73.11348 7.990357
-5.356783 72.07815 7.984275
0.1920021 148.0022 0.7899666
5.205495 149.4578 -4.07698
4.31722 150.3298 -7.218544
0.6418874 148.8884 0.8513502
4.693185 149.9313 -1.83384
3.312379 149.9314 -0.2737339
4.657111 150.451 -6.353477
5.023177 151.1211 -4.940654
2.584132 149.3997 0.2459756
-1.704149 150.2604 -9.216708
-3.692832 149.3945 -0.4632865
-5.210123 149.5935 -3.023275
-3.150248 151.0676 -8.140421
-5.247798 150.2809 -3.359196
-1.886001 151.531 -8.641512
-3.512973 151.3411 -7.66747
-4.938296 151.4657 -5.298717
-5.062757 150.8366 -2.466486
2.791705 151.56 -8.199493
-1.028992 148.1903 1.414627
-1.936783 150.2305 -9.182381
0.5788227 129.3757 8.677979
0.2726943 92.62566 6.827452
0.1352083 76.42646 8.089695
1.113789 116.8851 8.81039
1.042886 82.75629 8.207989
1.266484 126.0943 9.055697
0.7652439 86.11929 7.864064
1.205909 103.4254 8.687498
-0.02976285 90.7323 6.737241
-0.01624462 96.05619 7.295347
0.8546435 85.3057 7.851337
1.67712 98.92583 7.696459
0.802689 100.3287 8.069382
1.283555 69.00363 7.978827
2.649308 73.12245 8.066057
2.596131 76.15184 8.107976
1.51088 81.6285 8.385714
1.498256 82.98162 8.167269
1.525234 85.48731 7.84921
2.150754 88.28091 7.567314
2.00099 93.9744 6.932463
1.740651 89.49478 7.113772
1.036668 97.99765 7.577919
1.201251 104.7427 8.866997
1.228822 99.68364 7.898169
2.108105 70.67887 7.982102
0.1193239 106.4863 8.966738
1.117813 113.0519 8.631546
0.379131 89.62151 7.048124
-0.127314 118.0403 8.879722
0.9942857 105.1593 8.917274
0.2705671 121.4365 9.063879
2.012643 84.29735 7.910024
2.332521 90.47697 6.838161
-0.01034926 134.4019 7.515058
1.722106 120.4725 9.008853
0.09658518 120.0918 8.990293
-0.06592099 140.8561 4.471743
1.573241 142.2423 3.990296
1.808703 139.0489 5.582539
0.9104088 110.1741 8.741386
-0.3141624 114.39 8.697574
2.181114 115.2985 8.625784
2.004822 120.1144 8.969534
3.927636 118.5808 8.535627
2.350506 125.7266 9.068933
0.419548 146.2921 1.340435
1.798176 132.5749 8.148213
3.468143 132.0665 8.365005
0.07640229 144.1101 2.598659
0.9734693 135.8081 6.991807
1.552384 107.4665 8.95629
0.5079949 138.5046 5.691427
4.737647 68.92541 8.048474
4.563612 71.01732 7.991632
11.77046 68.16499 7.357356
2.484265 111.048 8.604883
14.96396 68.09074 3.412084
13.47927 70.68642 5.20911
13.92053 69.38924 4.850168
13.41185 101.6336 -1.766556
12.47809 108.5142 -1.921562
14.94217 70.62109 3.226492
16.30408 68.14224 1.648297
16.61662 69.24683 1.104211
3.307658 81.8139 8.37253
15.33863 75.02249 -0.3657498
2.250827 88.60218 7.450928
0.4981039 74.52924 8.113667
5.592253 147.375 -3.412098
1.372342 69.47507 7.97512
7.009234 72.16787 7.984843
15.421 87.09114 -0.5365864
0.4126433 70.11703 7.970263
1.373282 130.337 8.557348
1.956861 140.9061 4.753159
1.599299 145.0018 2.305989
5.803879 145.1751 0.6791384
1.968265 72.40231 8.036249
1.442188 77.381 8.108783
14.9824 143.2402 -0.6985294
4.986767 148.797 -2.363702
3.622073 150.2313 -8.246539
5.338728 148.8433 -4.423283
1.555848 121.7243 9.094992
0.6880392 114.4528 8.703384
10.80552 147.1767 -6.494327
2.994721 146.6197 0.9624047
11.73044 110.9915 1.093165
2.542177 146.0339 1.550911
11.24201 124.8482 0.51847
4.504634 145.2262 2.275014
5.152062 148.7691 -3.001062
2.862183 134.9722 7.361829
14.4683 146.138 -7.189845
1.803556 113.8827 8.61235
16.07107 138.784 0.171512
13.83518 135.008 -2.727358
2.053374 132.0936 8.265182
1.619707 141.0916 4.578398
0.3459136 142.7412 3.53621
16.57886 68.98607 0.1534266
13.4481 146.0089 -7.493555
3.03269 143.087 3.506719
4.54359 149.373 -7.958749
2.802198 146.4876 1.124662
2.279564 143.3257 3.504892
5.482417 148.2983 -4.894912
6.509028 147.6928 -5.009755
4.710427 73.77934 8.0755
5.20485 71.86958 8.00304
13.03711 80.88841 6.023919
10.37588 99.53786 5.664633
14.81111 89.95968 2.80951
15.11386 92.99292 -0.185906
8.859184 110.7833 5.673151
7.687938 114.7244 5.965791
8.213381 119.0484 6.702855
10.14123 121.66 4.491359
14.20061 72.22884 4.34738
16.18928 70.57139 1.500077
13.92842 70.27944 4.582372
14.53144 146.0147 -5.806638
13.48017 133.6302 -3.229045
11.25619 123.5622 -0.005303588
8.781779 148.2061 -6.777592
7.176195 147.4447 -5.846032
4.386468 145.6723 1.792848
5.834226 143.5729 2.571236
3.92647 73.69151 8.080555
5.25336 69.46902 8.074166
4.387232 72.08979 8.014187
8.791104 71.34988 7.915987
14.93709 78.58252 1.773176
2.588184 90.86361 6.754984
15.2993 89.79571 -2.096048
14.09623 97.7901 -0.8788089
3.930131 101.4039 7.919179
12.81113 107.0976 -0.8700468
10.95773 112.9312 2.952254
2.021068 114.4712 8.607791
2.54426 119.6113 8.884697
11.03041 121.0487 -0.7515365
8.540836 134.1704 6.546977
13.57411 72.52523 5.222666
14.8959 76.72945 1.400932
15.39231 74.18786 1.073554
9.760183 138.282 3.99353
12.45596 146.5247 -3.709784
10.95828 147.2532 -7.116228
14.75525 135.8849 -2.236175
13.32918 133.7269 -2.405852
12.69024 130.5571 -3.194234
4.967958 143.2328 3.562863
3.634096 142.4346 3.778687
7.778595 144.4003 0.9084659
2.544207 73.9046 8.10428
3.557225 76.62537 8.120711
11.93798 69.21038 7.207205
15.21741 81.87857 0.7296287
15.06597 79.22287 -0.7362792
4.278414 91.69193 6.702059
5.840145 82.25647 8.257021
5.417614 92.66133 6.736702
15.39482 85.78785 -0.4013647
14.84074 93.26692 1.325763
4.445207 101.2983 7.798738
13.5322 99.78207 -2.503887
13.71778 98.92077 -2.178717
13.42175 101.6399 -1.083636
12.92361 103.3834 1.021562
11.89817 110.7128 -1.442934
11.80364 111.0036 -0.2479513
11.68346 114.0777 -0.9017945
11.08026 115.4222 0.8652807
5.350533 110.759 7.736919
3.074257 120.2501 8.859701
3.001512 122.8671 9.124889
11.03391 121.5713 0.7801027
11.49124 125.0551 -1.355152
4.020443 127.1303 8.854396
2.324423 129.1972 8.722947
2.358194 131.4137 8.429033
3.154286 140.4306 4.771698
15.37561 75.2827 0.02529012
14.83444 77.71989 1.747276
15.84156 73.21382 0.8520687
13.89494 139.1964 2.133506
4.393697 139.3872 5.265244
14.21763 135.4987 -2.609919
12.33838 129.1084 -2.172814
10.9371 141.533 1.817126
3.806971 141.1706 4.400093
6.842514 143.9565 1.907712
4.694736 71.94731 8.009851
4.741812 74.22772 8.099057
6.48371 70.9248 8.015442
11.3349 70.05316 7.549475
15.28943 82.30669 -0.09894808
15.16259 80.58938 0.215298
3.390159 80.54974 8.342901
2.822914 89.89352 6.99865
6.209669 89.24947 7.194891
4.119202 93.94973 6.82854
14.8475 94.38996 -0.8276111
14.7372 88.12627 3.03215
3.244658 103.973 8.549368
7.520909 103.8932 7.277547
3.648953 103.4654 8.388445
14.52784 95.99187 -0.3513689
13.32673 102.2055 -2.229007
12.51353 106.3556 1.779677
12.75442 107.3296 -1.75958
11.54505 112.4997 -0.7663094
4.297639 107.5629 8.51381
2.793934 112.9704 8.432842
2.769174 123.6908 9.185587
4.686717 121.1925 8.584831
2.920613 122.0949 9.053006
10.86235 117.4315 -1.44369
3.6094 128.4361 8.784666
2.882238 128.9291 8.760056
5.718171 136.8346 6.226125
8.298286 141.3507 2.799108
15.38237 72.24496 2.331031
14.86723 72.27827 3.278295
14.51999 71.26417 3.584611
13.45272 70.01762 5.239052
14.97333 76.25298 0.8350738
2.557817 138.6564 5.688921
13.91773 135.5545 -1.62771
11.68586 126.4003 -1.751038
4.867677 140.4297 4.856586
6.814171 80.99087 8.250378
6.850602 75.23141 8.126528
15.3216 85.10278 1.105551
3.806853 87.69563 7.740568
2.514671 85.24006 7.843886
3.636478 89.13187 7.210557
3.985771 89.70247 7.072652
3.345473 95.35885 6.949209
15.11961 92.43198 0.4418681
15.46055 89.44086 -0.8310543
15.08389 89.25973 1.912702
12.93079 89.58699 5.521777
5.276809 98.51919 7.087077
4.67998 101.1612 7.724498
14.95022 93.66196 0.4065588
13.52033 99.78767 1.210994
10.91784 97.32641 5.552643
12.74943 98.3232 3.797153
2.506769 105.5216 8.833611
12.58869 107.1321 1.045189
3.063222 108.3021 8.752631
3.683769 109.7012 8.515883
2.275142 112.7081 8.528082
11.13903 122.9438 0.3804835
11.02774 121.7422 1.358939
11.0825 121.592 0.1652635
11.71029 117.2452 0.5896989
11.44069 118.2947 1.471258
11.55142 118.5193 0.6136146
11.03094 121.1322 1.741901
11.47398 124.5771 -1.544079
3.620804 127.4703 8.864633
3.644729 129.8071 8.686161
2.712204 136.5652 6.65158
5.392861 137.5601 6.002067
5.614004 135.3089 6.915612
6.048119 135.4034 6.77465
4.569406 132.6133 8.206485
5.424491 131.4224 8.476801
10.39233 132.5401 6.056239
6.454902 134.3541 7.178381
14.63394 75.07195 2.706843
13.84268 73.02699 4.863048
10.24898 72.1845 7.699557
12.70388 73.1468 6.220773
15.02046 75.04236 1.416438
12.72477 133.1201 -0.2820036
12.93385 133.9801 -0.6750029
12.45695 132.533 0.4052042
6.135825 141.8036 3.563929
6.351497 138.5136 5.148734
8.416089 142.1845 2.298024
4.545807 78.64845 8.217371
6.200393 75.48762 8.144857
6.013613 77.38479 8.139915
10.64955 74.71642 7.571396
14.4533 86.8039 3.844552
14.83822 79.37203 2.442961
5.923532 83.8539 8.045223
4.386421 80.63664 8.319814
8.432521 83.3076 8.064372
8.120337 81.5243 8.195395
4.11742 97.74979 7.131404
4.0799 108.345 8.519575
4.809505 133.8143 7.755343
12.8657 72.52741 6.096526
11.52031 130.7746 2.818509
7.003362 138.9204 4.643522
8.13663 139.5803 3.770115
10.19905 139.0794 3.434288
9.162001 141.4736 2.336376
7.103943 74.85306 8.099845
12.48843 77.68137 6.369706
15.18372 85.72052 1.941368
14.78806 83.24999 3.112525
7.597356 84.29099 8.000368
14.85277 76.24466 1.917949
12.29053 131.0713 -0.7297541
12.08062 132.9354 1.986504
6.437532 135.938 6.396668
9.676654 135.242 5.515656
7.556177 76.52402 8.181293
10.63067 74.08328 7.53323
12.16418 80.62418 6.831126
8.038139 82.22173 8.183703
9.562462 78.38277 8.013033
9.206124 75.76604 8.020806
8.4549 79.46436 8.228739
11.08282 81.5661 7.418936
12.41126 78.34689 6.523642
12.50626 82.58189 6.565885
7.311241 81.33755 8.242005
10.30146 86.15578 7.449808
12.65339 134.5913 0.6471285
8.253703 134.5022 6.47992
8.658272 136.6687 5.2164
10.68426 137.404 3.96012
10.6676 136.1703 4.809731
8.086432 142.3861 2.336576
10.80149 77.22453 7.627535
13.68025 80.33154 5.199973
9.56368 86.75073 7.519266
10.62719 134.9597 5.623975
14.63402 137.1471 1.590733
10.41958 135.5779 5.269652
12.32653 141.6743 1.123128
13.58728 145.1279 -1.7465
11.12187 145.6741 -2.391005
11.41792 76.29099 7.23031
12.97219 76.08208 5.94896
11.85111 76.10222 6.923713
14.27638 81.65388 4.267323
13.25708 78.53612 5.612064
8.918422 90.45529 6.983592
10.73938 133.5213 5.486187
8.718553 128.4954 7.407979
7.380632 126.038 7.720942
14.0843 136.4078 1.233589
13.16908 141.5976 0.8798133
7.332262 145.3916 -0.2999087
6.510883 144.4146 1.595705
9.063272 143.1386 1.417808
6.289309 144.8566 1.013409
9.359351 144.5233 0.2369233
10.78611 144.3267 -0.1278683
13.44991 81.65879 5.554046
13.06791 77.07994 5.78593
14.30062 77.69512 3.913656
13.90869 136.3146 1.299482
11.48744 144.097 -0.1400713
12.80635 84.33932 6.231372
13.07195 83.02214 5.977278
13.14764 84.16894 5.83918
13.90006 83.59292 4.943048
9.419469 85.0592 7.764552
13.88682 84.19393 4.937671
11.10981 84.76752 7.291085
9.736163 84.63381 7.758096
14.71693 86.27171 3.394504
15.21414 88.7509 1.53223
14.6635 88.68272 3.075901
11.12863 85.71548 7.128977
9.953842 87.86732 7.284858
4.941417 146.368 0.2960045
5.888894 145.6425 -0.7691343
10.98602 147.2472 -5.628424
12.0081 146.7086 -5.438137
6.739561 147.8209 -5.243516
10.49761 147.3691 -6.209241
11.16125 113.1951 1.566872
11.06388 113.2213 0.5774833
11.36948 112.581 1.449095
11.6498 110.3138 1.804798
4.073225 115.914 8.220512
5.897993 118.7131 7.556317
4.334324 114.8702 8.034741
4.553405 113.5633 7.887478
4.611705 113.0725 7.857628
8.66375 114.008 5.214108
10.39499 114.0341 3.901463
8.75736 112.7541 5.254725
7.567707 110.1719 6.716568
11.25212 111.9584 2.508623
9.663504 110.0354 5.323616
11.38021 109.8086 3.043303
11.79842 108.3446 2.949359
10.42759 110.1455 4.447004
10.0248 113.686 4.08191
9.627305 118.779 3.95815
7.627352 116.7449 6.30217
9.286462 117.916 4.733669
9.861368 116.8811 3.227087
5.634155 110.6766 7.617633
6.48756 109.7255 7.381989
12.63979 104.3665 1.914705
6.89479 109.465 7.225419
8.389542 105.5339 6.900781
12.08502 107.3535 2.785035
6.930407 106.5896 7.512714
10.44527 106.8386 5.284991
4.948903 106.1516 8.296541
10.98977 104.478 5.076602
6.168399 92.12448 6.695899
6.262857 101.1055 7.386868
5.488969 111.2222 7.598701
3.924736 122.7047 8.985943
10.51606 129.6365 5.372211
15.11454 90.53028 1.921298
7.674431 98.23963 6.641922
12.07715 103.8162 3.460369
10.94447 118.6822 2.543192
9.376208 117.5252 4.945752
10.13926 119.995 3.761757
10.60883 120.8103 3.893608
9.76618 122.912 5.148101
10.97163 122.5741 3.614487
10.90759 124.3417 1.925579
10.46483 126.5199 3.805089
8.65421 122.979 6.317258
10.52433 127.0741 3.718893
10.64556 123.5656 4.756139
10.64948 124.4427 4.066465
8.625646 127.2451 7.209141
6.929399 124.479 7.868108
6.346125 123.0574 8.169648
9.478428 119.6888 4.538113
9.492428 120.6824 4.722738
8.947147 125.7193 6.702663
11.19259 128.5681 1.750274
9.302592 126.0032 6.589982
10.08319 131.2722 6.495284
9.357628 126.7613 6.582818
9.88599 129.5552 6.367766
7.980942 96.23029 6.513105
13.59002 74.62305 5.112274
8.931344 134.2634 6.344033
6.384147 129.9697 8.617796
5.679045 128.7086 8.634383
8.377434 129.1532 7.783382
11.49793 138.3258 3.134771
10.51437 146.5068 -4.251136
12.73294 139.3183 2.389883
14.26659 139.8544 1.573231
13.3515 87.97768 5.253121
13.43046 89.29102 5.042784
12.71312 91.97558 5.361591
8.192521 87.94592 7.478707
9.760772 145.7559 -2.134739
6.251935 119.3908 7.557758
6.648155 117.3096 6.906474
6.797366 119.1694 7.349666
8.245488 119.2791 6.632064
8.978132 113.4869 4.982664
8.560275 116.4808 5.690014
11.85088 107.455 3.210925
8.930014 105.9905 6.607466
11.11275 104.6931 4.926059
11.96082 104.3016 3.641805
12.67734 106.2275 1.225012
11.73779 103.6625 4.088706
11.90381 101.5639 4.011947
12.27407 102.7411 3.296636
12.87254 99.70234 3.168748
10.60612 100.2578 5.488505
10.8139 98.63551 5.422588
8.835326 100.9805 6.574492
9.537469 103.1835 6.329185
6.528563 100.3395 7.191454
8.814046 97.19669 6.321578
8.310407 103.0696 6.942794
7.52583 104.906 7.3041
7.292313 102.729 7.305573
5.639488 101.5069 7.59735
5.560081 127.245 8.622394
10.68228 126.5029 2.89004
11.52209 128.6258 0.5596943
11.61813 129.6411 1.249213
11.35706 129.5745 2.182803
13.43005 92.32011 4.56089
13.14866 91.14248 5.065315
13.64394 94.01175 3.829422
9.009895 119.2336 5.064603
4.721266 123.8967 8.864804
7.43722 123.6691 7.495979
6.880509 125.6263 7.989662
10.86745 129.3991 3.965929
9.3992 130.6527 7.095153
7.593976 128.9181 8.125583
9.747249 147.1945 -5.187562
10.06223 145.9081 -3.060266
9.56866 146.3657 -4.345031
9.232616 89.36958 7.133554
11.27197 87.87109 6.834656
8.556897 89.05517 7.225423
8.512624 89.87828 7.1138
7.936642 146.941 -4.511307
7.857934 116.0449 5.953218
9.42499 115.9605 5.002105
12.88546 100.877 2.562307
13.51565 95.11058 3.867265
13.12706 97.21243 3.672292
13.19902 92.84872 4.698261
11.99159 95.61272 5.185315
11.57845 95.34468 5.47037
9.590827 98.91422 6.103683
5.777426 98.59856 7.021552
8.194983 93.46876 6.653635
10.5425 92.51888 6.413267
8.45364 94.20039 6.547127
7.027818 93.51112 6.717718
11.44245 94.73235 5.685645
7.949498 97.78158 6.548223
9.34796 93.90261 6.436418
6.270051 98.24592 6.876087
14.69443 93.85843 1.664651
10.96173 146.7576 -4.314495
12.15844 90.36319 5.970967
-4.21925 149.9552 -9.435635
-13.77808 143.3373 -11.49
-0.8860899 145.8443 -12.30203
-0.08514626 146.9839 -11.85715
-0.7153919 140.4911 -13.24435
-3.775326 147.2815 -10.76857
-4.665278 141.4669 -13.47238
-0.914626 149.8109 -9.542673
-5.263272 142.2356 -13.13736
-11.85709 146.2151 -8.44701
-6.475302 148.8532 -9.698979
-1.466887 149.0279 -10.27623
-6.498323 146.8939 -11.16111
-11.5635 141.0574 -12.73923
-13.25732 144.6268 -9.458293
-11.50375 143.0152 -12.14934
-5.199575 149.4964 -9.16344
-1.43045 145.4066 -12.30724
-3.935781 141.0664 -13.42331
-2.312928 143.8801 -12.58904
-9.517759 140.5148 -13.12418
-8.387695 141.7614 -13.15608
-7.655103 148.4922 -8.619711
-12.53265 144.967 -9.043371
-8.170555 147.8151 -9.497768
-3.810687 149.9548 -8.942827
-1.464122 147.1423 -11.82773
-2.673699 149.2583 -9.889882
-3.174899 144.615 -12.62679
-3.699645 145.081 -12.09125
-12.42693 141.0469 -12.52132
-10.89427 146.0423 -9.400089
-10.96696 144.6974 -10.72505
-8.33782 143.0652 -12.74209
-3.862164 149.3207 -10.09201
-3.364846 145.1073 -12.28889
-4.051924 148.4041 -10.33876
-9.919389 143.7283 -11.59847
-11.96848 143.4024 -11.71425
-8.550084 144.4748 -11.60311
-4.782143 145.0793 -11.97367
-7.224454 144.8811 -12.06842
-6.752578 145.2439 -11.99439
-9.109599 145.7258 -10.33006
-7.519703 143.345 -12.71284
-6.413375 146.2346 -11.52985
12.69497 142.1928 -11.89797
1.148268 149.0257 -10.21618
13.39079 145.6835 -7.854823
13.32502 145.2791 -8.339756
11.37094 146.4504 -8.416421
6.251926 148.8367 -8.992628
1.190515 141.9715 -13.42235
3.711637 147.8633 -10.81897
0.1932611 142.6385 -13.16181
9.963619 147.4066 -8.136235
1.082218 150.0136 -9.633965
0.3292227 148.4046 -10.29944
6.830482 148.7507 -9.178983
10.84296 145.168 -9.456055
1.896791 140.9917 -13.49436
0.0823122 145.6489 -12.47545
0.876688 144.4205 -12.53496
4.801889 141.1252 -13.38869
2.863799 147.6068 -11.40378
12.30009 142.3844 -11.95757
12.62735 140.8764 -12.02612
11.9715 144.9449 -9.162354
9.020361 147.0948 -9.235232
13.76853 143.6131 -10.8252
4.477404 143.229 -12.80273
6.049474 143.4708 -12.87211
5.344254 141.4879 -13.27337
1.866807 149.2481 -10.41955
3.53367 146.4774 -12.04013
6.942375 147.1357 -10.23539
5.536764 146.2726 -11.28877
1.960485 146.7619 -11.78818
11.03985 146.9897 -8.062547
6.343475 144.9982 -11.70649
4.409767 148.6208 -9.978536
8.429958 143.8878 -11.80897
5.033589 142.431 -13.0056
2.196255 144.8733 -12.4305
7.185168 143.47 -12.89345
5.984277 145.8035 -11.26978
7.433294 143.5873 -12.59499
6.748535 147.3423 -10.26062
9.887643 144.3339 -10.70551
12.42119 145.1458 -8.871044
11.68283 144.4505 -10.00632
-12.27836 106.6073 -5.403927
-12.42531 94.40135 -7.969191
-13.05953 104.4249 -3.722158
12.37189 67.41771 -5.080981
14.27728 76.92923 -3.364232
14.67848 76.67531 -1.847896
9.942921 120.2882 -6.442262
15.20873 81.98671 -1.323655
8.36587 67.71634 -7.503058
13.16503 68.33385 -4.388296
13.72729 98.18375 -2.705586
-9.340311 93.16063 -12.5903
-14.95697 73.1687 -0.865911
14.26215 94.1488 -3.733063
-10.34348 114.698 -4.158536
6.433082 68.26722 -7.893884
10.49835 93.54577 -11.39261
-1.78922 69.35259 -10.33289
8.579171 92.48564 -13.22364
8.7693 93.96989 -13.01537
-14.34833 86.00456 -5.722825
11.22031 107.5019 -6.847686
9.030191 120.3169 -6.321797
11.10556 101.7301 -8.99197
8.135538 103.2068 -11.26898
5.968089 101.4109 -12.81524
8.101194 102.5781 -11.54207
11.75294 129.2952 -9.148046
8.355792 101.1883 -11.84897
14.6661 71.0258 -1.750599
8.422158 125.5756 -10.0384
10.74421 120.7958 -2.771152
10.54947 120.4112 -3.173321
9.264027 108.4118 -8.228996
9.253736 115.5487 -7.717334
10.63021 115.1867 -3.079383
14.56984 84.85254 -5.004384
13.90856 134.1357 -4.248003
12.86101 131.0512 -3.563361
14.87525 134.9663 -7.586104
3.833089 118.0105 -9.029613
13.71147 138.6641 -11.94404
14.71502 135.0482 -9.142859
6.917099 127.5113 -11.45898
9.52981 136.0064 -12.74517
6.152262 119.6606 -8.214534
-6.256567 116.8113 -8.076016
5.444775 109.6014 -9.606129
14.28629 134.2105 -7.770166
-2.201133 134.7129 -13.47051
8.958039 124.3333 -9.490842
7.582338 127.7173 -11.2918
13.32608 67.82691 -4.10527
13.13002 77.67208 -5.721989
7.938186 140.1265 -13.26277
6.19311 139.8093 -13.55127
-6.08376 121.225 -10.28262
-13.85358 133.1902 -6.017436
-11.99916 107.9567 -4.814258
-7.812077 97.91521 -13.03745
-12.80694 85.74553 -7.958925
-14.75373 77.14454 -1.592849
-9.523347 93.43304 -12.42112
-9.334062 95.30383 -12.3171
-6.366623 92.55025 -14.14889
4.253921 111.3926 -8.678786
-6.486101 102.6758 -12.21748
14.04021 68.51109 -2.859571
13.01296 99.92583 -4.777121
-8.434003 100.6737 -11.9561
-8.697308 105.405 -9.96781
-3.502521 106.6721 -10.45624
-15.06178 80.92471 -1.551167
-15.3246 85.66853 -1.804113
-12.63168 93.55616 -7.834428
-14.64358 75.15602 -1.726237
-3.938866 118.3368 -9.908785
-7.139218 114.9415 -9.148301
-13.04751 102.0262 -4.249314
-13.57474 95.45326 -4.821051
-8.133864 126.959 -11.43316
-15.16841 88.91552 -3.356984
13.51705 68.72132 -3.861355
-14.58807 92.3444 -3.909361
-14.90054 92.00888 -2.806
15.84348 69.48769 -0.8042193
-3.750331 136.3194 -13.52983
6.541575 135.613 -13.49016
-6.498945 118.6158 -7.650641
-7.625338 120.3834 -7.544206
-7.373264 121.6051 -8.40355
-11.35054 138.4627 -12.62952
14.75807 68.39639 -2.011736
-6.892483 137.815 -13.51772
-6.110608 122.2354 -10.7387
11.60821 69.99283 -6.045844
-16.41814 69.68751 -0.2874045
-7.182973 121.2948 -8.946872
1.162866 110.1045 -9.287308
-12.38784 107.97 -3.429723
-11.47663 135.079 -12.16481
7.022523 112.5627 -8.767997
-10.56711 116.9773 -2.859124
-12.05052 126.2012 -3.524918
-10.58207 120.4896 -3.006673
-13.65971 67.38023 -3.846905
-8.020221 104.5081 -10.75485
-12.56963 80.22162 -7.066961
-13.69217 132.4964 -7.537784
-14.30367 134.1467 -4.781682
14.10181 95.38081 -3.373138
6.829341 110.6472 -9.228931
12.64553 75.95323 -5.890581
14.28739 71.84679 -2.558234
11.65945 68.12698 -5.794653
9.572967 67.2915 -7.042782
11.2797 68.48386 -6.12583
11.77222 71.7908 -6.118295
10.95375 73.40087 -7.006627
15.00726 81.09274 -2.198151
9.518614 94.55132 -12.36444
14.505 91.64738 -4.613364
10.22165 95.62492 -11.45842
9.449387 93.60228 -12.5027
13.86167 96.73321 -3.16378
9.787753 100.9754 -10.73573
13.27442 102.1304 -2.964771
8.989975 101.4618 -11.28441
5.132382 94.3913 -14.27006
7.284328 108.2408 -9.304309
9.990064 106.6067 -8.459757
12.98746 105.7982 -2.576061
12.17818 109.233 -2.772795
6.529659 103.2773 -11.92155
-7.604768 99.08931 -12.87528
-7.329089 106.4937 -9.989762
10.36415 119.8958 -4.323445
10.49139 119.2245 -2.466786
8.379481 115.5332 -7.935015
8.254625 115.8718 -7.58825
12.01021 124.4025 -5.100838
8.281057 123.4461 -9.516642
8.255743 120.7311 -7.0521
12.38677 129.2016 -5.381949
7.337252 111.7929 -9.103678
7.311845 113.2769 -8.320708
12.77737 130.5094 -5.126749
8.753063 126.6484 -10.18838
9.785429 139.7489 -12.95193
11.63821 137.1181 -12.26924
5.232148 116.7022 -7.867056
-4.095357 114.1032 -8.618415
-7.767904 129.2542 -12.24991
-3.390117 112.5159 -9.393555
6.913109 108.4373 -9.393164
6.668981 125.1738 -10.82238
11.9805 78.16545 -7.097311
-11.31264 69.97496 -6.334301
-13.64051 79.17924 -5.410575
-10.25581 94.09496 -11.63327
-14.38647 93.61398 -3.603283
-9.024048 97.26557 -12.35029
-9.345355 104.3616 -9.978599
-13.05011 101.2324 -4.409286
-13.13611 98.81062 -4.513449
-8.611876 102.275 -11.28419
-12.84253 106.1369 -3.48855
-13.05504 102.545 -4.13557
-15.45963 72.5055 -0.5160948
-14.90932 89.56092 -4.034542
-7.077384 119.5226 -7.57231
-9.538212 125.3028 -10.12695
-10.20848 119.906 -3.572664
-10.05158 116.8296 -3.657607
-11.50314 123.5193 -4.570907
-6.786969 138.3551 -13.54344
-7.611661 122.7478 -10.20873
-9.279394 124.7289 -9.008787
-12.48929 130.285 -9.021812
-8.122825 114.7107 -7.847305
-6.91009 110.5437 -8.837885
-10.44351 117.9998 -2.676276
-9.257126 107.366 -8.717649
-11.73341 109.3552 -4.452203
-11.18003 111.5789 -3.998816
-8.793598 139.8887 -13.24837
-14.04659 135.552 -10.95313
-14.33521 134.2532 -7.378626
14.69416 71.98971 -1.735064
15.0004 78.34727 -0.8157913
14.35215 78.87579 -3.792682
15.03285 80.70966 -1.789981
15.14952 87.63184 -3.659852
14.75751 87.36153 -4.791232
14.9142 91.98052 -2.978573
13.53605 95.09182 -5.185033
10.34281 99.85263 -10.36534
12.23883 98.02319 -7.324599
11.97178 99.63354 -7.658928
10.93894 98.44071 -9.833373
10.92016 103.2967 -8.929515
12.47466 94.97851 -7.732088
12.58152 100.2719 -6.096685
12.07499 103.0544 -7.273049
12.48157 97.61779 -6.827743
12.5996 103.3367 -6.015254
11.86099 103.879 -7.524652
9.848078 93.2314 -12.19526
8.682658 103.0259 -10.95289
6.699889 94.55067 -13.95338
-8.737985 94.26589 -12.95531
9.081395 110.5986 -7.40522
8.455548 105.8516 -9.937861
12.67592 104.4237 -5.571214
11.95418 109.1886 -3.887612
7.144339 102.2469 -12.11778
7.603795 105.278 -10.57652
-7.872107 101.5208 -11.97524
-8.052119 94.98861 -13.35538
-7.297041 102.8224 -11.81747
-7.621667 105.1723 -10.58139
-5.466325 107.6044 -9.895687
11.58937 122.9258 -4.041073
9.769802 118.7249 -6.787988
7.570525 119.1314 -6.928461
12.64519 128.2405 -4.08348
8.763548 125.2962 -9.838583
6.96537 120.7097 -7.877034
10.94887 120.7108 -5.738513
10.35649 122.5262 -6.288036
9.458037 122.901 -7.720305
11.06085 122.088 -6.057213
12.61332 128.6717 -4.180557
10.11277 110.7578 -6.274116
10.28611 109.3045 -6.910531
8.947141 113.8318 -7.483703
9.136335 113.8724 -6.708563
9.150335 114.4653 -5.744557
8.006016 112.9935 -8.833692
14.28588 134.0905 -6.410306
8.23368 127.4109 -10.9964
4.462733 138.7703 -13.59099
1.10699 138.9187 -13.43501
11.65745 140.0934 -12.49056
8.317958 139.8417 -13.20931
5.670483 121.4687 -9.263783
6.685534 126.5788 -11.14742
-5.979168 120.3997 -9.729343
-5.366912 116.3715 -7.971446
-6.759763 123.9714 -10.59158
-5.872909 113.4043 -9.546115
-6.078277 115.2616 -8.81058
5.546356 113.0228 -7.938685
5.709877 117.3541 -8.140396
6.720779 107.0287 -9.871878
3.133208 138.3039 -13.53734
4.966061 126.1755 -12.02491
1.522638 71.15275 -9.811087
-14.71215 79.66013 -2.664483
-10.72409 70.70776 -6.839405
-14.93125 77.52369 -0.7219695
-14.99339 80.27155 -1.643871
-13.00453 95.17673 -6.405372
-10.31094 95.25454 -11.27187
-14.17816 94.40604 -3.769334
-9.263126 97.59698 -12.08237
-11.86608 95.64244 -8.757076
-9.254943 101.5266 -11.05558
-12.78697 97.42506 -6.012579
-8.68754 102.8682 -11.02557
-12.68403 105.9065 -4.542704
-9.419725 99.79092 -11.41217
-9.996688 103.9444 -9.629579
-13.07809 103.2832 -3.966788
-11.53644 72.72174 -6.501433
-13.84623 69.6346 -3.837837
-14.638 72.24388 -1.950018
-14.10373 71.37061 -3.49842
-13.89272 74.38284 -3.925529
-12.42038 72.34171 -5.613078
-14.72704 86.92063 -4.772873
-10.84163 122.1342 -4.161142
-7.887646 139.349 -13.38612
-4.325229 139.2395 -13.60569
-7.544346 122.1762 -9.535629
-10.62062 128.0047 -10.42738
-9.291759 129.3528 -11.70254
-12.50663 127.46 -5.234695
-7.704802 113.7063 -7.807169
-8.940696 113.382 -6.076417
-7.555295 113.3143 -8.345466
-10.60738 113.4834 -3.609098
-9.341353 115.5967 -4.847647
-11.23752 107.0283 -6.887003
-9.951901 112.297 -5.634213
-10.20366 112.1231 -5.278606
-10.79567 107.1693 -7.468146
-13.60156 136.3302 -11.43424
-14.02299 135.3953 -10.82082
-8.410463 138.4274 -13.25148
-13.13723 131.4457 -4.568227
-12.35627 128.9907 -5.559149
-12.61867 129.86 -6.584174
15.12156 74.53236 -1.015996
13.69491 72.2185 -4.012793
12.96562 71.77345 -4.996966
11.04456 69.27657 -6.402535
14.71843 77.94188 -2.276764
6.260545 67.92724 -7.916317
15.25134 85.01033 -2.494835
15.18172 88.06802 -3.500239
14.38169 90.56988 -5.335183
13.93781 90.68114 -6.317837
14.17916 92.64914 -4.976423
14.71967 93.07811 -2.823797
13.10291 102.7137 -4.100616
13.12322 99.76483 -4.404989
12.23808 98.93296 -7.141647
10.75787 96.36086 -10.62158
12.03388 95.05717 -8.651849
12.29879 94.1188 -8.371504
13.52511 97.68369 -3.783415
4.662479 92.67839 -14.37933
6.663761 93.53579 -14.05281
-7.823209 95.12002 -13.49537
9.424693 104.3854 -9.866024
11.77367 112.6887 -2.43623
4.519073 102.997 -12.34733
5.504051 103.3594 -12.08579
-7.586197 100.7428 -12.3872
-5.671628 96.46986 -14.01966
-4.817137 101.1269 -13.11581
-6.599763 105.6126 -10.6317
-4.726474 111.6799 -9.741296
10.26842 114.138 -4.115378
9.60724 114.3543 -4.882002
9.970739 114.2971 -4.410033
8.235712 119.5963 -6.682835
10.44256 117.6031 -5.783483
9.993464 117.4806 -3.498673
9.015445 118.0543 -6.718814
12.0099 126.4706 -6.02272
12.21704 126.8164 -5.311631
10.65794 127.0137 -9.474353
12.8261 130.6681 -4.538236
12.43144 129.2634 -6.52327
12.60004 131.3856 -9.33335
11.46624 110.4172 -4.444165
10.94838 107.218 -7.341895
12.25862 106.0657 -5.816816
10.37695 104.5623 -9.096153
9.746349 112.1409 -5.920806
14.58219 135.5981 -10.12552
12.87919 134.9472 -11.21448
9.888772 136.2888 -12.61929
5.738266 139.1288 -13.58862
8.997332 139.4434 -13.10191
6.893126 124.3236 -10.54316
-5.448359 119.9777 -9.861642
-7.039123 128.4092 -12.19631
-10.82218 132.1624 -11.7086
-3.804471 126.8963 -12.05091
-4.680075 110.943 -9.852777
-3.104754 116.1657 -8.191638
4.140071 113.0974 -8.642749
5.516272 117.6356 -8.369966
7.137898 107.983 -9.38633
6.707853 125.2286 -10.80589
-2.88689 68.71632 -9.866529
-0.850403 68.03567 -10.71169
5.529084 69.20955 -8.17158
-14.85191 81.84016 -3.146715
-10.01612 70.02147 -7.172124
-6.833165 68.12051 -8.001097
-14.51738 75.7972 -2.474747
-12.89251 96.14838 -6.242054
-12.0067 93.8066 -8.950205
-14.02713 90.801 -5.944608
-14.59005 90.5108 -4.54786
-14.39709 90.60262 -5.210819
-11.09433 99.34706 -9.370693
-12.65751 102.9591 -5.774246
-10.73456 105.7383 -8.260489
-10.77329 106.3133 -7.930816
-14.62283 86.13823 -5.018786
-15.05699 85.94258 -3.640154
-11.93559 124.2591 -5.31665
-7.117105 135.8925 -13.40821
-5.441213 136.8014 -13.53853
-8.39001 134.8591 -13.05364
-5.624398 136.1838 -13.51044
-3.119839 137.4647 -13.57408
-2.62383 136.1499 -13.53011
-3.737868 133.9355 -13.43068
-3.521361 139.5472 -13.56166
-9.347402 109.2557 -7.704947
-9.839207 113.6131 -5.364999
-10.06295 108.2841 -7.656351
-13.86222 135.0505 -10.57113
-8.356986 136.3194 -13.18891
-14.23341 134.0834 -8.176758
11.82698 72.41069 -6.160475
13.15913 74.41917 -5.045151
14.03233 77.06539 -3.995239
14.42862 75.75166 -2.711225
14.53639 78.63044 -3.199049
9.710038 71.33175 -7.456546
14.56799 89.56268 -5.175683
11.87341 93.76096 -9.258289
12.82635 92.07347 -7.945662
13.50916 93.34354 -6.186747
3.81543 90.20943 -14.19285
5.284124 93.65389 -14.32936
8.119212 97.0999 -13.03634
8.345627 98.88126 -12.53281
-6.633859 93.4974 -14.06238
5.718801 99.87583 -13.28829
3.635215 104.2687 -11.72695
6.941041 106.4263 -10.12077
-5.403919 101.4694 -12.92503
-4.571182 104.2683 -11.70158
-4.797943 110.1485 -9.851851
-5.592382 106.1974 -10.48843
10.56409 117.8287 -5.87037
11.71799 126.6693 -6.348874
9.866596 125.4657 -9.294886
13.22103 131.5417 -5.760426
11.45601 103.506 -8.240974
9.092107 136.8524 -12.92329
3.812968 121.6519 -10.6203
-5.079059 121.0278 -10.64174
-7.006824 123.1764 -10.62664
-1.335736 131.9452 -13.27195
-4.189 125.8955 -11.70438
-1.523913 109.9383 -9.903028
-4.07663 114.4521 -8.330697
2.081484 113.4246 -9.039625
5.200251 110.3423 -9.599841
4.424713 109.652 -9.863409
5.008817 137.3422 -13.57922
-0.1324458 137.2583 -13.54859
0.1068281 133.8664 -13.42504
-0.8994547 136.4701 -13.54165
1.807877 136.2721 -13.52575
1.02332 135.0452 -13.48777
-0.9218932 130.4719 -13.02847
4.130208 124.7867 -11.88757
2.159755 133.6086 -13.39831
5.166645 129.295 -12.84579
7.585044 129.5454 -12.10951
-3.577243 70.69033 -9.28277
-3.380066 71.33465 -9.404546
2.851462 68.62217 -9.3009
-15.10028 83.76797 -2.854182
-14.3549 82.63779 -4.907988
-14.30705 79.89306 -4.152628
-11.25927 70.87984 -6.493105
-9.122239 69.43304 -7.52422
-14.60649 76.55159 -2.073844
-12.00778 97.04736 -8.057913
-13.27974 93.34628 -6.596816
-9.773833 93.99844 -12.17634
-11.44006 100.3523 -8.614023
-9.854959 107.3445 -8.334296
-9.934361 126.4968 -10.19494
-12.38014 129.3786 -7.981088
-11.42763 127.4898 -7.959189
-12.43346 127.9335 -5.947387
-11.40999 135.5525 -12.20331
-12.08865 133.4007 -11.25147
-10.67106 136.0737 -12.39472
12.08815 73.9232 -6.145794
12.95157 76.08212 -5.550345
15.08392 82.44662 -2.511197
13.07578 86.41175 -7.711831
2.036453 95.97192 -14.17478
-0.7539822 99.1151 -13.70265
5.561142 94.54124 -14.20195
5.426497 97.68724 -13.8714
4.988534 99.48733 -13.57203
2.722284 104.4478 -11.62275
2.754296 103.7279 -12.01742
3.513902 106.309 -10.62738
-6.796859 96.62254 -13.68591
-4.39376 98.20761 -13.87445
-3.475566 106.8763 -10.36895
11.80232 122.6656 -4.34855
10.63248 120.7736 -4.180326
12.03221 127.8069 -7.581044
13.71884 132.8069 -6.344623
6.058717 123.5913 -10.83766
-4.461646 118.3914 -8.621245
-2.841773 125.3528 -11.60468
-3.266979 115.0161 -7.904874
2.899009 114.2853 -8.916633
1.260536 113.6269 -8.860526
2.716123 111.2314 -8.476996
3.093487 138.5499 -13.52968
5.57004 134.8973 -13.4787
-0.6704472 69.76701 -10.44309
-13.76647 80.97664 -5.635384
-11.02728 71.2023 -6.70245
-7.997757 71.49311 -8.078824
-8.064807 73.33213 -8.241641
-13.60937 75.02745 -4.385279
-11.18057 96.15361 -9.974245
-12.3718 98.50082 -6.796833
-11.72616 97.69215 -8.452703
-11.62282 98.59538 -8.466503
-12.29602 91.58533 -8.879445
-12.54735 92.14822 -8.34774
-9.412493 88.28194 -12.09578
-13.26335 90.17892 -7.507156
-12.16222 85.96971 -8.810895
-12.0842 89.21138 -9.279922
-14.80883 87.4282 -4.529736
-10.63451 126.5304 -9.420999
-10.34197 126.1222 -9.497513
-6.827775 136.9302 -13.49106
-6.164046 132.3391 -13.21216
10.47391 73.4869 -7.293464
12.72848 77.69205 -6.22885
10.76778 77.26313 -7.730605
11.87361 80.57784 -7.803204
4.633629 68.89097 -8.472055
9.978644 72.18378 -7.398473
13.79835 79.46277 -5.070132
14.20486 89.15061 -6.147955
-4.775823 93.80839 -14.3345
2.427509 96.55126 -14.11651
1.504947 103.2964 -12.23392
11.39987 127.8707 -8.561627
-1.954804 114.649 -8.159431
2.097155 110.6862 -8.877652
-0.0003722476 118.3572 -10.11244
3.312849 138.0535 -13.54332
2.957409 133.3542 -13.37797
-1.549535 71.73581 -10.04143
3.47045 72.49318 -9.067457
1.755473 70.06649 -9.899135
-9.377049 69.14854 -7.378591
-10.31713 92.2401 -11.67536
-12.90426 92.63815 -7.630123
-11.76286 88.38548 -9.623994
-13.24795 86.29302 -7.434408
-11.82034 106.8206 -6.153949
-11.46199 126.476 -6.674582
4.372816 70.30498 -8.673138
3.426649 69.92406 -9.153832
1.138636 72.67957 -9.655625
5.331127 75.96746 -8.720746
5.910574 72.88113 -8.284119
5.945171 71.63605 -8.144071
15.02459 83.57825 -3.153607
14.33938 86.86217 -5.830473
-2.263799 95.30125 -14.23999
4.502778 99.22912 -13.68717
0.4116131 102.7178 -12.51076
-2.420615 102.3596 -12.66452
-0.2232109 105.8879 -10.86424
1.468704 106.985 -10.35772
1.050598 107.4964 -10.25759
0.2147905 104.7326 -11.48832
6.58979 134.8191 -13.47799
7.626947 134.6574 -13.26247
-0.3415335 113.0382 -8.154523
2.278535 111.7285 -8.412837
-2.471952 72.56879 -9.685137
-9.809546 91.65294 -12.22341
-11.68269 86.5835 -9.369017
-9.427172 123.4779 -7.60611
-11.65495 127.4626 -7.007484
13.29517 81.70723 -6.564997
14.31489 82.31767 -5.025895
14.17485 80.59586 -4.699338
12.883 82.89433 -7.38096
13.69201 87.48587 -6.975073
11.56407 82.65193 -8.559302
11.50414 83.99946 -8.884341
9.839652 78.15649 -8.472515
11.46238 73.82311 -6.66208
7.713568 71.40089 -8.049134
7.290819 73.96453 -8.370933
-3.669061 91.50372 -14.32257
2.578264 108.8989 -10.10135
2.482465 106.81 -10.41822
-1.564051 103.7773 -11.99885
-2.413201 108.2388 -10.05265
5.845104 133.8494 -13.40197
7.39726 133.782 -13.26844
4.46078 131.9096 -13.19738
-0.3605014 114.4833 -9.089778
-1.468958 71.12009 -10.15715
-13.918 82.42293 -5.816317
-13.70044 83.56406 -6.361636
-14.0027 85.71464 -6.301632
-11.19355 122.243 -6.454855
13.03683 85.30036 -7.644988
10.18294 74.14365 -7.500909
0.6475497 91.6826 -14.31667
-1.91312 91.59708 -14.3179
-4.28485 89.50129 -14.08834
0.9975457 108.2144 -10.21177
-0.5475414 111.0177 -9.16207
0.1585347 111.5225 -8.796593
-2.909839 103.2036 -12.27614
-2.372937 107.0188 -10.3473
7.969093 134.0076 -13.13054
3.575257 133.3417 -13.36969
2.315899 130.826 -13.10146
8.189478 131.251 -12.65126
11.2465 129.7562 -10.13651
8.862454 128.1287 -11.03878
5.00742 130.8574 -13.07903
-1.48656 115.0457 -9.007584
-2.331858 113.6102 -8.201398
-10.0659 123.7504 -7.183271
14.31938 87.45914 -5.879138
12.4113 85.6567 -8.512459
12.35829 87.78677 -8.80111
11.83758 88.1006 -9.549545
11.42329 91.21038 -10.3374
11.97101 90.41925 -9.54226
-2.088675 93.2851 -14.36001
-6.027947 91.00024 -14.11763
-5.459993 90.40784 -14.15084
-8.347838 90.73275 -13.31809
-2.570304 112.3694 -9.216003
-0.4932283 102.7537 -12.49325
-2.182521 101.5215 -12.99656
0.3311386 125.9224 -12.0792
12.23108 130.2285 -8.985066
-10.6119 121.4407 -4.643788
-9.895163 120.5728 -6.881557
-10.29963 121.2069 -7.03073
-8.80238 118.8718 -7.771973
-2.490065 101.7508 -12.90608
-1.130372 99.71458 -13.56419
0.6934047 97.79415 -13.94708
3.087748 129.2206 -12.8843
-9.625304 119.3615 -7.380513
-0.6954006 100.5112 -13.34119
10.32411 129.7047 -10.89188
13.39583 133.3914 -9.244059
11.79615 132.0491 -10.70791
-8.414627 117.757 -8.313042
2.995516 100.7698 -13.27864
2.665752 98.24706 -13.88216
-2.07212 98.41691 -13.84243
-2.980711 97.82805 -13.94749
-14.05365 133.6543 -5.86657
12.01653 97.15901 -8.073771
14.23448 134.7271 -4.681223
13.88245 133.4913 -7.629742
13.6728 133.5164 -8.69819
10.18796 131.8329 -11.80639
0.2864059 116.7961 -9.969354
3.012599 116.6412 -8.574747
1.333857 118.7064 -9.566689
2.676296 120.038 -10.39726
-11.2614 102.5783 -8.600933
-12.10503 99.85761 -7.297908
-14.42744 73.84649 -2.786754
-8.541636 115.7391 -6.355845
-9.327867 117.6978 -7.82326
-9.194371 116.7755 -5.020001
-10.9193 109.6395 -5.746456
-12.50781 132.9025 -10.41685
-11.55656 131.687 -11.11857
-13.60827 133.4684 -8.964932
11.22477 124.8712 -6.966311
12.98681 130.6225 -6.330916
-13.48654 92.56244 -6.551472
-4.398103 133.7079 -13.40536
-4.701805 130.4027 -12.77028
-4.131886 131.0455 -12.99477
-2.06689 131.0326 -13.12695
-2.209859 133.5254 -13.40871
-4.562924 127.9702 -12.23134
-9.810943 133.2068 -12.5022
-12.27149 133.9304 -11.49498
-7.57605 130.348 -12.60963
-7.649653 133.2167 -13.15202
14.88253 87.06927 -4.446302
-4.096399 98.87985 -13.7824
-3.918315 117.8947 -8.853647
-4.158414 70.37761 -9.018033
-5.117815 72.32827 -8.555135
-7.881879 71.22841 -8.047533
-6.844448 77.17072 -8.864396
-12.51152 78.80276 -6.772038
-0.8137462 94.02473 -14.3201
-4.798229 119.2825 -9.952941
-3.123084 126.0782 -11.87165
-1.542518 121.6037 -11.36195
-3.081076 121.7852 -11.18386
-13.23249 83.30515 -6.965732
-12.73234 81.65154 -7.263826
-11.48646 83.56673 -8.788314
-11.61052 79.33955 -7.689547
-11.68584 80.26392 -7.875302
-8.412271 80.33875 -9.427432
-9.794905 80.61373 -9.092358
-8.962224 79.65285 -9.102678
-9.773811 79.0481 -8.709553
-6.6176 83.76778 -10.60742
-11.54353 78.66013 -7.546063
-9.912798 82.85235 -9.624215
-4.072108 86.73478 -12.72681
-8.948339 84.95792 -10.80029
-10.2991 83.98955 -9.725209
-5.709025 82.06491 -9.996908
-8.195583 83.22832 -10.17837
-5.943674 81.36274 -9.81216
-8.737356 82.20825 -9.766182
-1.220054 77.94304 -9.104368
-6.216829 73.05299 -8.392719
-12.63144 72.92433 -5.50159
-8.664144 132.9131 -12.84586
-9.833696 132.4502 -12.36339
-11.70678 130.9585 -10.57686
-11.51962 90.93573 -10.15101
3.300901 74.34211 -9.045424
1.761654 76.30973 -9.05267
1.00897 74.12776 -9.475141
9.484662 80.29773 -9.144519
9.737763 77.53077 -8.342784
8.86799 78.02586 -8.722391
5.819476 74.58392 -8.504779
2.536123 82.82492 -10.37218
6.03622 76.06937 -8.706628
8.930579 81.54604 -9.589458
11.00052 83.89534 -9.238732
10.29813 81.55241 -9.208512
6.640288 75.06323 -8.559225
1.414147 76.34782 -9.074207
4.211693 74.64234 -8.756591
7.607047 77.93736 -9.009292
1.524374 80.39636 -9.63817
4.790449 79.71738 -9.471981
-0.4146442 79.50266 -9.416387
-4.146807 75.33502 -8.851039
-3.743608 81.57985 -9.907109
0.866191 74.51228 -9.422542
-0.1437627 73.25015 -9.798112
-0.4635762 78.66689 -9.240553
-4.832268 82.41418 -10.12677
-3.235556 83.41085 -10.59712
3.316648 81.26279 -9.877766
-3.611098 88.90289 -13.827
-1.992105 80.93631 -9.760148
-6.273866 75.2766 -8.656978
-2.882224 75.48846 -9.228765
-3.074253 80.88093 -9.743242
-1.804122 80.41519 -9.635032
-0.1079856 79.42326 -9.398955
2.031593 80.85465 -9.76198
1.820669 80.68401 -9.715158
-3.077158 80.00158 -9.538084
-10.22847 124.6457 -7.852418
-3.255803 96.92317 -14.09608
-2.351969 96.96686 -14.07587
-1.485043 92.55206 -14.36351
-0.7315385 93.22881 -14.35286
1.7367 92.868 -14.35424
2.966808 94.17499 -14.31081
-1.40981 83.76631 -10.80329
0.8740394 90.30943 -14.17419
-1.430209 89.9989 -14.11033
6.088165 91.53709 -14.18357
9.997663 91.65557 -12.11293
3.558734 91.58389 -14.34441
6.884069 85.30808 -11.64813
11.03037 85.80679 -9.962306
11.52186 85.55149 -9.374458
9.937425 90.54612 -12.14203
11.52065 90.45693 -10.20346
10.71749 90.7552 -11.2739
11.91181 91.40144 -9.571838
7.981216 90.22005 -13.27433
8.832064 89.3304 -12.87646
8.184522 88.45618 -12.84501
3.591613 89.45731 -14.08033
6.744202 84.42426 -11.09142
10.08351 84.91302 -10.2229
8.450838 86.23642 -11.65324
7.428264 82.19593 -10.02253
8.591352 84.36049 -10.65678
7.635284 83.15946 -10.17477
6.965652 83.02226 -10.21433
6.801936 83.18753 -10.28199
-3.074937 110.2902 -9.853567
9.44985 133.0349 -12.51539
0.8899612 116.9135 -9.744782
-0.5615242 120.4985 -10.9653
-0.05791733 118.5663 -10.1291
0.4067885 120.058 -10.65382
-3.293192 120.8781 -11.11343
-2.0257 124.4193 -11.31489
1.539701 124.7557 -11.81542
-0.7984177 114.9992 -9.371367
-9.656631 123.3087 -7.294191
0.8276059 89.53337 -14.00335
-2.237124 89.62035 -14.04229
-2.820255 85.23339 -11.72673
-1.057675 85.02189 -11.57832
-6.355399 85.12035 -11.50806
0.8923658 83.63184 -10.72334
4.349134 84.88379 -11.46668
2.040989 83.66275 -10.74065
5.806403 86.37274 -12.46357
1.274394 84.44814 -11.19412
2.365767 82.96213 -10.41972
3.259871 82.46976 -10.24049
3.917087 85.89565 -12.16679
-1.041701 86.56403 -12.58742
3.3657 87.74815 -13.26863
1.038159 87.09657 -12.90815
-0.3759053 87.00921 -12.85661
-0.4619442 90.00837 -14.10557
2.355492 88.35622 -13.56101
-10.76858 88.58588 -10.95061
-10.21153 87.04409 -10.92039
-10.33269 89.54372 -11.57493
-9.321045 118.3304 -6.206633
9.848838 134.6241 -12.57672
10.86994 132.5975 -11.70129
12.44237 132.2836 -10.30193
13.40822 134.6979 -10.70079
-0.9262161 131.9467 -13.27479
-2.484865 126.1982 -11.97153
0.8823205 128.3895 -12.758
-0.275069 127.4599 -12.51304
-2.618158 99.04692 -13.72896
-2.60436 72.13509 -9.730927
-6.161939 74.3976 -8.564412
-8.26289 74.51747 -8.301676
-13.25201 75.64616 -5.044745
0.8322918 96.14703 -14.15395
-11.07764 75.17804 -7.0718
-11.12308 76.02543 -7.193918
-9.102785 78.04957 -8.646159
-8.466743 78.66657 -8.98455
-10.1076 74.44201 -7.562701
-7.522148 77.0519 -8.829508
-7.988529 86.55801 -12.01539
-7.445947 87.31673 -12.60534
-5.893316 85.82147 -12.12597
-6.87317 88.90857 -13.43248
-3.367119 86.64462 -12.66638
-4.614879 87.50368 -13.17164
-5.274491 84.09634 -10.89334
-2.701233 86.42293 -12.52577
-10.44779 71.41235 -7.08237
5.92794 81.26468 -9.875518
7.40396 80.88665 -9.793417
4.354334 80.75269 -9.742985
5.050713 81.88355 -10.04104
-1.9346 75.39524 -9.318026
2.949864 79.19347 -9.345979
-1.173857 94.87019 -14.27049
-1.522745 118.5612 -10.46481
