# .PCD v0.7 - Point Cloud Data file format
VERSION 0.7
FIELDS x y z
SIZE 4 4 4
TYPE F F F
COUNT 1 1 1
WIDTH 1659
HEIGHT 1
VIEWPOINT 0 0 0 1 0 0 0
POINTS 1659
DATA ascii
-10.34153 124.9974 7.620964
9.699211 130.4931 11.08249
10.31557 123.3706 7.82261
11.19024 125.7839 4.988501
9.398207 123.4609 9.55528
10.54799 125.7703 7.04521
10.87097 129.8867 8.42594
-9.583058 128.5371 10.42851
-9.750156 127.0353 8.883486
-10.57098 127.8219 7.258015
-10.48796 126.2616 7.150758
10.32779 128.8944 8.983334
10.6903 127.2428 6.738083
10.91916 126.3992 5.928945
-9.794025 125.4656 8.698948
10.71973 130.7113 9.528106
11.09053 128.0643 5.621147
11.17889 128.3739 5.47349
10.94959 128.4553 6.38291
11.39939 129.9306 5.805769
5.585743 126.6763 12.40515
5.404161 124.8104 12.81595
7.4288 125.4536 11.57427
8.275853 126.824 10.74139
6.491221 124.7263 12.29123
9.493386 126.0286 9.156436
8.97749 126.3343 9.893904
10.22328 127.5568 8.072182
-10.30921 130.8796 10.33682
-7.463413 125.4556 11.50393
11.12212 129.2338 6.416942
7.131675 127.4591 11.8632
9.828534 124.8721 8.743752
-15.13133 92.62614 4.901699
-15.02595 90.67872 6.124564
-15.24037 89.21441 5.678628
4.674961 121.8765 12.89785
-12.41468 107.8703 5.539989
9.863818 121.034 8.363307
-0.2565876 124.9934 13.46782
-12.83115 104.1895 5.528002
-15.16088 85.4586 6.184873
-14.6006 87.2123 7.681802
1.335288 122.3933 13.40393
-2.486912 122.6226 13.36867
-11.26521 86.7672 11.19405
-14.94679 88.25009 6.787432
-10.0756 87.70322 11.50387
-0.1267523 85.35451 12.19342
10.5812 120.2492 6.130605
2.272189 122.8053 13.41061
-13.03468 100.7251 6.369104
-2.097114 123.7402 13.48199
7.414303 122.4528 11.71912
-11.71596 110.7832 5.804374
2.775583 122.0066 13.27541
10.02332 114.5394 8.217363
-10.99079 116.0515 5.972638
9.498172 120.0938 8.76604
-9.188502 119.7919 9.120564
-9.374461 120.204 8.975032
-6.946542 120.6065 11.555
0.09378269 125.1264 13.46395
-5.738 121.6794 12.47123
-10.27739 120.2665 7.09762
4.808028 118.9499 12.25213
-8.865537 121.8298 10.08585
5.827134 122.3 12.57875
12.11214 108.3996 6.21028
4.290775 87.18662 11.89049
-8.29253 120.7891 10.35072
8.590008 118.6821 9.624222
-8.89694 121.332 9.845064
10.99337 85.99917 11.47647
14.47552 86.80038 7.862746
11.50399 108.7747 7.480576
7.829792 88.16069 11.71701
11.83863 109.4074 6.298206
13.62137 95.37971 7.772631
13.83612 87.15744 8.923767
10.07165 117.7868 6.866835
14.2799 95.96897 6.146859
12.40665 104.8027 6.76639
13.6915 96.10734 7.375963
13.11367 100.7845 6.134473
10.33493 118.9244 6.430043
14.74842 85.90453 7.30937
6.158003 121.6244 12.25567
0.09181634 123.6464 13.47256
-7.423487 119.7343 10.97041
-8.164305 121.2122 10.59153
0.8991318 122.1028 13.3798
2.573652 121.3435 13.20965
0.6195037 122.7576 13.43376
1.28846 124.0471 13.49572
-6.876531 121.3469 11.83487
10.35829 117.1094 6.218227
-0.02909341 124.4249 13.49307
5.668214 122.6558 12.7238
10.59845 119.5588 5.743192
8.141259 115.4325 9.570495
-10.37726 121.1918 7.279318
10.85264 121.4607 5.762576
-9.053795 117.7072 8.957199
11.48796 112.2524 6.172985
-14.54338 95.10434 5.594012
6.726178 120.9275 11.81114
-10.30113 119.2573 6.656733
-10.56967 118.2696 5.253036
9.600551 117.6521 8.024917
10.96903 114.7645 7.286604
11.07278 114.5285 7.130216
10.48831 117.1264 5.953138
6.822417 119.0821 11.25372
9.077397 118.9347 9.062806
8.311364 119.5709 10.14868
13.00857 101.7902 5.819909
-15.06279 87.28649 6.469891
13.9913 93.7083 7.636881
12.5694 88.058 10.29454
15.02022 87.06955 6.728542
13.48721 86.93245 9.344893
-10.8536 120.4792 4.395859
-11.91286 107.6675 7.099133
3.335282 91.61143 11.3258
-0.9815415 122.6545 13.41935
-0.04282456 122.2466 13.39302
-3.118107 115.8457 12.56595
1.95186 119.1764 13.053
-2.133204 120.9389 13.20324
3.651328 120.1685 12.84338
-0.8128957 116.1342 12.90061
3.955858 121.9567 13.09746
-10.63397 118.8014 4.971496
9.736275 113.5329 9.109281
-13.70053 99.52753 4.774727
-13.17622 88.25869 9.63566
12.83893 92.86855 9.24773
-15.36283 87.97532 5.350332
-14.54894 86.37641 7.807771
-12.72279 85.50161 10.54487
-9.753059 86.42649 11.70531
2.291712 88.71832 11.67974
14.9652 92.63138 6.04018
13.83119 93.84953 7.894882
12.83017 88.06011 9.999422
-11.36127 114 6.01536
-12.25119 106.3708 6.748657
-1.040487 98.78539 11.99902
10.89699 108.263 8.75648
-10.43177 117.3218 5.808646
10.17605 113.8482 8.62159
9.633761 115.4601 7.932803
8.809308 112.9002 10.08275
10.93948 110.3942 7.740909
-2.692459 85.36821 12.19259
-5.089243 87.22717 11.83684
-14.84223 93.59285 5.586536
-14.31502 89.23169 8.053322
-15.1244 88.03322 6.222148
-14.20095 86.93105 8.461258
-13.86673 87.88827 8.92345
-13.6686 88.94889 9.027814
-9.294461 85.81292 11.95277
9.356068 86.78313 11.81907
0.7263021 87.30826 11.85278
10.57728 87.69696 11.38701
14.2942 89.95179 8.039247
13.97316 96.35759 6.683572
14.29675 88.49737 8.167539
11.5594 87.91776 10.92534
11.60592 86.67596 11.04739
-11.3258 112.3914 6.599352
-10.48738 116.6685 6.167852
-12.28703 107.7749 6.02321
-6.207708 108.236 11.98839
13.34937 97.93091 7.023778
12.05982 107.8948 6.648654
9.759764 116.9683 7.468826
11.15627 112.9338 6.554646
9.841159 113.0111 9.227597
10.79786 110.9471 7.762793
9.949373 111.0171 8.959992
9.720709 109.2401 9.745135
-14.21679 97.00275 5.088789
-14.42647 93.10439 7.106329
-12.55295 100.5103 7.421878
-9.047018 86.80345 11.78676
1.953884 85.67224 12.13387
-15.02552 92.44876 5.503854
-13.83676 96.19415 6.970631
-13.84718 90.56383 8.554841
-9.679216 86.10686 11.78957
-8.473396 86.29016 11.9431
-12.64171 87.44852 10.31953
7.906204 87.77039 11.7802
12.11708 87.13264 10.68267
12.54487 88.4347 10.22782
10.97723 89.51912 10.8786
8.258876 86.5317 11.9635
14.71532 93.78235 6.132736
13.80408 92.92802 8.144903
13.71615 95.85346 7.420375
14.04793 97.15097 5.982218
13.97423 88.64616 8.64157
-10.39118 113.8322 7.217404
-11.69549 110.1754 6.223297
-11.86239 109.2841 6.352545
-11.74949 108.443 7.143317
-12.89439 103.508 5.499717
13.40908 99.37277 6.201756
12.44472 105.9409 6.377188
12.39932 106.6929 6.241042
12.4312 102.0557 7.248129
8.884002 110.7571 10.08628
-14.48138 95.82259 5.145945
-13.00111 99.08778 7.230406
-7.217952 86.78889 11.87719
-2.431469 85.67345 12.11843
-1.091434 86.55196 11.9512
0.7485963 87.95367 11.77434
-14.01933 93.82499 7.672786
-14.5889 88.8187 7.596592
-14.70487 90.47939 7.113472
-13.30758 86.46922 9.688835
-7.756505 88.74352 11.61302
6.321137 88.85942 11.62589
5.556672 89.785 11.3962
5.130373 87.39542 11.86221
2.667654 85.95241 12.088
12.52727 89.92346 10.01531
9.141651 88.19334 11.59268
9.865531 87.68542 11.556
9.905954 85.84185 11.85747
13.02077 96.32172 8.252502
13.37006 93.12714 8.649575
8.939522 91.26195 11.12619
13.90622 92.3792 8.140954
12.37864 91.37675 9.863168
11.98055 93.5556 9.826597
13.21858 92.27133 9.025365
14.24747 94.42913 6.941256
14.64017 91.24481 7.178355
13.38954 99.9566 5.868786
12.67574 100.9434 7.193372
12.70927 97.42649 8.275826
-11.17794 112.9721 6.659089
-9.925978 116.4555 7.819107
-9.330783 116.2773 9.339398
-8.01324 113.8451 10.06775
-9.465615 117.4308 8.256019
-9.939252 111.7282 8.649612
-9.9388 113.9308 7.666727
-6.352186 107.507 11.98298
-5.569896 115.4645 11.5406
-7.406026 111.6667 10.74016
-7.139744 113.5298 11.0702
-8.640133 117.0592 9.788443
-8.33029 117.2023 9.978777
-10.06537 118.2008 6.932237
-7.235764 110.2056 11.16724
-9.451077 111.1073 9.422092
-7.602337 116.4435 10.49407
-9.914129 117.6531 7.249584
-5.019536 113.4887 12.17879
-12.28134 107.0068 6.423273
-13.18221 102.6798 4.706445
11.77326 108.8782 6.800931
11.60757 108.1012 7.577696
10.55599 105.1264 9.623695
10.8153 108.2478 8.885233
10.14577 107.1209 9.81516
7.611409 106.0617 11.51686
10.81501 105.224 9.308136
12.76123 102.581 6.405239
-14.37832 95.10833 6.307945
-13.61532 97.50782 6.892101
-13.26365 96.6694 7.811351
-12.78417 101.6893 6.595692
-13.0311 100.0283 6.721087
-13.31986 100.3245 5.800661
-5.662297 86.36971 11.96117
-6.135642 88.66762 11.65712
-7.731778 89.34212 11.50659
2.876823 87.45437 11.84598
2.318584 87.43859 11.84648
-1.110242 88.99953 11.496
-14.04516 93.41385 7.72379
-14.3198 91.98021 7.693968
-7.308922 88.27053 11.6797
2.77638 86.54866 11.98427
9.069067 91.71655 11.05138
12.56716 100.6147 7.531991
11.9011 99.61912 8.60299
10.66237 101.5225 9.683251
11.51637 99.59723 8.992152
12.8059 96.86827 8.350745
9.605202 94.61137 10.59786
-11.13601 111.3839 7.212051
-5.745039 117.2209 11.69652
10.49689 106.9123 9.512787
9.032609 104.4592 10.82751
11.68095 104.4965 8.224806
10.97341 104.2712 9.273143
-4.478036 87.94308 11.75966
-12.21517 92.1983 9.806454
0.6256444 87.75691 11.80003
1.69727 89.35686 11.50969
2.566924 90.84644 11.32201
-3.90611 88.61844 11.69781
-1.995561 89.07117 11.5407
-4.254101 87.72373 11.78261
-2.841987 89.90612 11.43638
-2.434651 88.83309 11.62836
-2.804506 91.17799 11.35981
-13.317 91.76716 8.986644
-8.38122 90.9628 11.23951
-14.05599 91.72089 8.217392
10.86767 91.00993 10.75114
9.510169 90.37421 11.18802
8.487423 89.05865 11.51041
12.0593 92.17944 9.909479
9.317086 93.76203 10.70513
10.73416 99.1413 9.716049
-5.874298 115.1822 11.43586
-5.014584 114.742 11.86083
-4.632378 115.8393 11.96394
-4.98474 110.6587 12.2
-3.484411 114.2675 12.44114
-2.625283 114.7483 12.64926
-4.361096 114.4005 12.09411
-8.018447 110.3083 10.68258
9.595079 107.7681 10.20061
8.991527 108.8697 10.41737
9.890844 105.9829 10.18843
9.374734 102.5397 10.59688
10.19955 102.8665 10.03791
-5.394094 88.78489 11.63361
-9.166951 89.65772 11.35712
-9.621913 90.31387 11.13164
-8.562062 91.20346 11.18836
0.1535125 90.57388 11.38472
-11.07511 91.71516 10.5312
-12.88309 92.94466 9.236471
-12.26225 92.8517 9.715197
9.945162 93.697 10.60953
10.38073 92.70697 10.65101
10.4407 93.68382 10.49767
11.74678 97.72675 9.141555
8.175075 92.55988 10.97724
6.003116 92.1881 11.17335
5.403107 91.04781 11.31178
10.1637 100.5306 10.04618
9.79778 95.36681 10.43123
0.5942112 114.9265 12.87955
-3.890323 115.6002 12.28989
-0.6387543 120.2042 13.21908
-9.126535 111.3482 9.660188
-8.638346 112.26 9.718863
-9.381986 110.4891 9.687014
-10.34902 109.4637 9.027452
-6.984819 110.3687 11.27538
-11.00934 107.0814 8.935661
-5.579376 107.9508 12.27455
-7.430194 92.18463 11.0854
-5.71537 91.95728 11.12347
-13.56865 90.50999 8.934497
-10.0254 89.50125 11.24899
-12.89325 89.02372 9.755888
-12.09703 90.18201 10.29426
10.66291 96.98454 9.911775
11.7402 96.48807 9.406244
4.377577 90.69865 11.24677
4.141539 89.0139 11.58107
10.97642 97.82462 9.665704
-2.740573 114.5132 12.66792
-1.415537 114.8263 12.83128
-3.425007 113.4843 12.59277
2.348877 118.0182 12.88178
2.344552 118.6673 12.93395
1.646733 116.0571 12.90354
-4.905395 116.713 11.91277
-11.59413 107.9279 7.73376
-11.31834 106.3697 8.609934
-10.08933 110.5681 8.969048
-11.68423 109.2597 6.9038
-9.716478 90.77815 11.06859
-9.544489 91.24081 11.05595
-7.180201 91.60867 11.18419
11.52717 93.72419 10.02821
10.08634 96.83681 10.13253
9.492799 95.58552 10.4941
6.104263 93.16158 10.98245
3.032901 89.97197 11.29992
3.354218 92.33077 11.15804
8.758616 101.6331 10.92182
8.429597 98.20097 10.70624
-4.537666 117.3066 12.17271
-3.195587 118.0803 12.70323
-12.20746 103.9635 7.416302
-11.80692 104.921 7.977248
-8.636879 108.0068 10.8064
8.419327 95.89293 10.70972
6.856712 94.30128 10.92181
7.667958 93.79771 10.87527
-0.1595893 118.3572 13.06765
-2.163747 119.5429 13.09135
0.08313666 118.2492 13.05619
-5.304379 119.6938 12.25729
-10.56873 106.6653 9.503704
6.424237 97.82452 11.09239
-6.508369 118.7495 11.47287
-7.742371 117.1039 10.51915
-5.975296 122.4818 12.56273
-4.200496 120.0067 12.70218
-3.750298 120.679 12.93992
-4.987085 121.3519 12.72177
-8.548058 108.9924 10.66178
-10.45294 103.6388 9.810975
5.229216 94.31139 11.00255
4.467231 94.99156 11.09831
-5.740478 91.35662 11.31313
0.8841073 94.3219 11.30504
-3.523626 120.1853 12.91531
-10.7791 104.7318 9.464512
-9.385783 106.5374 10.50657
-7.772144 107.826 11.29438
-12.23123 101.2151 7.846971
-8.23652 96.38332 10.74606
-8.999964 105.5065 10.82643
4.098671 113.9649 12.35713
-1.54394 95.53114 11.42701
0.5401841 110.1574 13.00348
-6.244767 106.0121 12.08384
-5.993238 105.1617 12.1679
-6.13656 106.1789 12.12244
-4.919338 112.1638 12.23756
-4.6298 106.369 12.68148
-4.61391 109.5452 12.47728
-3.888951 107.4071 12.87228
-6.58455 108.9009 11.72277
0.2817799 111.2855 12.95321
-3.121134 110.0935 12.86924
-4.318967 112.0587 12.4879
-5.622252 109.4228 12.11045
-6.797372 109.4543 11.53844
4.018504 120.0616 12.72109
2.683351 118.7389 12.87847
5.654727 118.8768 11.88551
4.631904 116.8319 12.04508
3.213811 117.3797 12.6476
2.870548 114.3905 12.71051
4.971917 119.1557 12.21461
5.265292 118.718 12.04001
-0.339066 113.6029 13.07687
-0.1660179 113.9737 13.01937
1.049449 114.4258 12.91972
4.724806 114.6222 12.10591
-0.293056 113.0693 13.16481
6.489054 108.729 11.79633
7.625616 109.3253 11.10703
1.274085 112.9119 13.18997
1.888961 113.2726 13.06928
3.268802 111.8385 12.70519
-0.7273489 110.5587 12.99176
5.328036 113.6718 11.8081
3.779774 116.2679 12.39192
5.582433 114.8852 11.56965
2.036554 113.0647 13.06886
-3.968209 109.1884 12.72407
-0.5281004 107.4101 13.2282
-1.971023 111.7514 13.12979
0.9601415 110.807 12.96066
0.93604 109.5915 13.04306
-2.218072 107.7959 13.1427
-0.5240895 108.2619 13.16184
-2.541609 106.3611 13.13014
6.948786 117.6557 10.82416
5.967615 116.6862 11.28612
4.031323 116.6842 12.31326
4.377696 113.5402 12.22843
-3.296812 110.8122 12.7839
-1.68114 109.7975 13.01835
7.777374 118.5756 10.42548
6.49361 120.1084 11.71101
8.069667 117.4222 9.912897
8.817754 113.6486 9.602713
7.456548 112.9479 10.92969
3.85564 112.6027 12.53962
7.246471 114.5928 10.37628
6.031028 116.8523 11.25867
7.042419 115.2777 10.5362
6.037707 112.3156 11.80494
5.099085 110.9579 12.10867
7.757836 108.7882 11.15193
6.071015 111.9978 11.71224
5.259589 112.0439 12.00983
8.644701 110.3321 10.27427
9.420103 110.7656 9.548191
8.191329 117.1184 9.736902
-8.635124 119.3689 9.67193
-11.82969 101.7382 8.387076
-11.61486 102.8719 8.50556
-12.05367 94.45737 9.530666
-13.44808 97.3798 7.313124
-13.02028 99.4652 7.036768
-9.451304 92.60018 10.87612
-12.45767 96.96861 8.786862
-12.94381 95.92068 8.487365
-12.2589 94.74479 9.292355
-2.006695 89.94393 11.37002
-3.795235 90.25535 11.41615
0.3411638 91.39748 11.41765
2.908519 92.12557 11.23383
-0.6022254 91.79715 11.31148
-2.553203 91.74418 11.18195
-2.433475 92.27438 11.13088
-2.825137 95.77829 11.36174
-3.946923 93.22916 11.0636
-5.432572 90.38754 11.27987
-2.536208 90.90376 11.40489
-4.343656 91.83385 11.20809
-2.574712 93.81721 11.16717
-6.445614 93.15849 11.0065
-4.809377 93.84422 11.05223
-7.995864 92.66207 11.00262
-6.853049 94.23542 10.93465
-4.136556 94.68214 11.1108
-0.1929266 94.76702 11.38911
-4.91856 95.82236 11.14995
-9.088877 95.37617 10.63937
-6.646815 95.42873 10.92476
-9.448934 94.25161 10.66613
-7.927188 96.0494 10.81271
-10.11211 96.52241 10.21125
-8.225259 96.84368 10.76622
-0.7006614 121.6113 13.33303
-2.643466 120.1392 13.08347
-11.37701 107.0485 8.37511
8.620429 98.44772 10.68165
7.247626 98.89693 11.06612
9.127152 96.81755 10.46559
-6.511412 117.5936 11.35372
-0.1984694 92.67117 11.13545
0.6714569 94.96233 11.40782
-0.8203821 95.28687 11.45479
-0.7003347 97.02147 11.70161
-1.782333 96.68724 11.57005
7.202465 99.95977 11.25235
1.61593 96.38564 11.52307
0.9291499 96.21327 11.54405
-3.623884 98.33599 11.60963
1.001067 98.96568 12.04256
-6.757515 101.7433 11.62413
-4.104339 98.44185 11.55482
-6.577143 95.64668 10.93644
-3.062016 97.95256 11.6186
-9.406387 99.27438 10.44807
-10.44752 98.73102 9.863261
-7.794817 102.4665 11.38706
-8.189476 104.7989 11.28261
-7.586788 100.4722 11.20755
-9.323175 103.3769 10.65864
-4.45094 102.8621 12.37604
-4.280234 111.4337 12.45445
-2.925162 108.9859 12.97934
2.9092 111.3658 12.7942
1.780323 109.3447 13.04828
2.441072 110.1789 12.94414
3.753712 110.0304 12.6999
1.071033 108.5694 13.12548
2.854125 107.0442 13.09635
4.343048 109.1591 12.62844
3.59986 107.7376 12.93577
1.335219 107.9158 13.18323
4.401967 107.51 12.74985
7.562609 105.8976 11.5408
5.690949 106.3326 12.30435
6.539725 106.3733 11.96286
10.14128 104.4569 10.05703
9.431083 106.5644 10.47478
9.365747 105.0036 10.63983
8.949944 103.8137 10.89401
7.34796 103.8753 11.5994
6.456102 104.2088 11.95629
9.430405 105.0731 10.59414
7.797604 102.1295 11.34627
5.272383 102.6322 12.13736
8.586845 100.3224 10.87286
5.431962 103.9333 12.26265
5.250678 102.621 12.14092
6.241321 110.1314 11.69634
-12.8053 101.9071 6.463879
0.2485509 91.62547 11.38305
-0.8586668 94.0083 11.2697
-5.496595 96.46143 11.16907
-3.854785 95.49496 11.22511
-9.799964 98.26061 10.25684
-9.646301 96.53979 10.42106
-9.343298 97.52299 10.44785
-5.119925 97.87153 11.29756
-3.84714 97.60036 11.43353
-6.72729 98.93108 11.21236
-7.417058 101.2348 11.37586
-6.248777 97.04062 11.08317
-6.02691 102.8039 11.95217
-5.375464 102.4232 12.08092
-7.673485 102.8257 11.45857
-6.490972 101.1113 11.59227
-9.691111 95.5104 10.49401
2.535228 93.39196 11.09308
1.719826 99.60625 12.1232
-0.435176 104.9362 13.19118
-0.9817192 100.1838 12.30395
2.547549 98.60939 11.81395
-1.986959 99.90644 12.15933
-2.335657 101.7667 12.54696
-2.78907 100.7377 12.25015
-2.082561 101.3298 12.48096
-5.648189 100.9017 11.75642
-4.257139 100.3728 11.92447
-10.96235 102.2879 9.402431
-10.96866 103.1599 9.356833
-10.03304 100.9073 10.18196
9.173187 108.4636 10.38589
6.716586 108.2659 11.75466
9.375104 105.9222 10.57435
5.205739 104.6061 12.39128
4.154175 104.7455 12.70349
2.300667 104.3626 13.00959
4.485311 102.6158 12.32293
2.716342 101.4446 12.40968
2.196655 100.6314 12.30314
2.611222 100.7029 12.26345
-1.57424 102.4835 12.77284
0.2957512 101.563 12.63068
0.846844 105.2022 13.20446
5.180488 103.8799 12.33491
4.739755 99.72021 11.69935
1.816538 103.2161 12.87583
-9.530682 98.54404 10.37228
-8.514202 100.123 10.89431
-9.912132 102.4717 10.27843
2.837957 96.52692 11.40488
2.310398 95.345 11.33237
-3.983221 103.0437 12.5107
-2.831737 102.4722 12.60893
0.06820229 102.7927 12.89264
2.908607 105.9156 13.06452
4.181374 104.87 12.71286
2.478915 104.8379 13.04215
-0.2316578 102.2515 12.78491
-3.935178 106.4242 12.87987
-1.681615 104.973 13.13883
-3.144655 103.1874 12.69424
-2.683945 104.2144 12.93707
-3.81724 105.4272 12.84706
4.507979 100.795 11.96231
6.414008 101.9778 11.74641
3.753462 100.1627 11.96764
5.71438 98.3588 11.27872
7.574043 97.81348 10.89319
3.252331 98.55393 11.70169
0.3714803 104.2969 13.115
-1.990985 102.5375 12.74529
4.828885 95.51582 11.09035
6.415499 95.07011 10.93233
7.454453 97.04344 10.86617
-1.207263 87.25333 -8.690046
-8.54417 114.6904 -1.732276
-2.732256 119.0106 -4.706461
-0.9556375 90.3614 -9.838294
-13.50449 99.96881 2.226689
0.2172759 92.11672 -10.01584
0.04513216 114.4419 -4.466906
-8.097614 87.41438 -8.015439
-0.5142962 87.90971 -9.050593
-14.18563 86.66932 -1.760136
-0.6143695 117.5521 -4.662206
0.2924813 101.0542 -8.858554
-3.160685 105.0683 -7.014865
0.3796124 97.82016 -9.632556
-5.67125 118.1269 -4.321603
-0.2750181 116.1154 -4.685027
-4.726012 118.9329 -4.268299
-1.256019 113.718 -4.975559
-0.2137812 113.7117 -4.83677
-0.6740226 116.304 -5.007435
-3.080982 116.6762 -4.784739
-1.831662 117.5734 -4.030882
-0.01153488 117.3684 -4.255243
-4.537556 118.3953 -4.547779
-2.337693 117.1745 -4.372447
-3.338561 116.8489 -4.891821
-3.32572 119.394 -4.343535
-5.135104 116.4196 -4.832329
-0.4253219 118.8918 -4.482335
-15.19581 86.05956 1.290965
-14.42814 86.98349 -1.222441
-1.260359 114.5532 -4.933141
-15.37973 86.70411 3.909445
-11.21892 114.1958 3.468406
-1.741859 110.7431 -5.818491
-15.14856 92.21205 3.243631
-12.93678 105.2785 0.5848736
-9.738439 119.8235 -0.6166626
-5.172615 86.53629 -8.251999
-10.0843 112.0966 -1.780079
-12.46988 108.5048 3.72422
-11.83382 110.3547 5.617438
-12.30533 109.1341 3.92843
-12.12374 109.7954 4.398951
-8.590346 119.2303 -2.13589
-10.60406 120.3148 1.1006
-8.47488 119.7247 -2.092236
-2.016218 85.15598 -7.141968
-10.69073 120.7121 1.525823
-10.98326 114.9271 3.285023
-15.24492 90.58588 2.647908
-10.71951 118.0763 3.875499
-5.447649 119.1269 -3.995008
-10.47069 119.4436 1.788881
-10.87107 116.5306 3.020496
-8.738131 84.74348 -6.42509
-0.1605787 85.01674 -7.081145
-14.0464 85.36244 -1.8587
-0.001057834 86.32398 -8.087842
-1.479669 84.90619 -6.974382
-5.862603 85.38556 -7.167123
-7.142431 85.84151 -7.43433
-13.65745 99.86134 3.768555
-3.320917 109.5678 -5.475187
-13.52717 86.12689 -2.754168
-15.24975 91.24051 3.329619
-10.11235 118.7278 0.7129751
-10.54546 120.0729 0.4814779
-9.707315 117.8937 -1.104895
-10.74911 119.7689 3.519106
-11.90214 110.6593 4.66532
-13.11569 104.6641 2.429788
-1.690635 112.9429 -5.129706
-1.438491 106.9588 -6.026916
-4.794941 118.167 -4.521731
-1.482066 113.2638 -5.105891
-0.4688276 112.5526 -5.120652
0.1562726 92.34122 -10.03076
-2.766588 88.208 -9.223587
-0.5381615 90.3531 -9.833275
-2.301438 85.51996 -7.395884
-3.289785 85.13001 -7.092207
-4.474902 86.74764 -8.360662
-2.086553 85.92768 -7.740377
-10.34769 85.22458 -5.833143
-14.87409 92.56142 1.839801
-13.39723 101.512 3.686706
-5.17804 103.7421 -7.607115
-6.220743 95.9606 -9.605693
-2.297308 107.6458 -5.661249
-12.90791 90.68604 -3.731033
-14.69948 88.08663 -0.5698554
-15.28281 91.27442 4.897994
-15.00675 93.56422 4.489568
-15.18806 89.33871 1.563811
-15.309 90.91874 4.650731
-15.36357 88.52554 3.306182
-6.809057 119.3254 -3.870176
-12.87 106.0266 4.109261
-9.379392 116.4869 -0.2768877
-11.69207 112.3581 4.833978
-11.89767 110.7713 2.958868
-12.98344 105.7352 2.703517
-1.316969 110.1338 -5.674265
-0.1710065 112.1035 -4.923604
-1.895815 108.5931 -5.385014
-2.439349 106.1754 -6.445396
-1.495581 107.4391 -5.766388
-3.720151 114.4659 -4.022147
-5.182236 114.4775 -3.754931
-3.361589 112.1929 -4.180158
-2.29166 110.76 -5.760386
-1.109322 92.51537 -10.01995
-1.90571 92.50993 -10.03046
-6.205863 88.67912 -9.195636
-5.002304 85.41873 -7.223333
-9.934012 85.0351 -5.986412
-12.3109 85.0911 -4.166869
-15.08191 92.64953 3.055477
-14.06109 96.7151 1.951756
0.09429654 98.80274 -9.452449
-6.494297 97.31373 -9.37484
-2.224128 106.1185 -6.47535
-11.26601 85.46735 -5.165206
-15.36651 88.21861 4.924613
-15.38103 87.30678 3.428439
-15.20262 91.36275 2.815168
-14.81818 94.62333 4.42078
-14.27324 92.58134 -0.3793224
-7.484949 118.3504 -3.704139
-8.411452 117.9528 -2.753753
-7.97335 114.8599 -2.542045
-13.18797 103.5853 3.234304
-13.14316 104.3992 2.12467
-13.17089 104.1142 2.637846
-11.87287 111.2131 3.685463
-12.27882 109.29 2.905336
-2.902093 108.6959 -5.465397
-2.581189 111.5902 -5.131959
-0.8750726 107.373 -5.78905
-0.07664924 104.7498 -7.179747
-2.465298 109.1264 -5.456908
-5.886229 115.7582 -4.492064
-8.982489 87.66866 -7.7022
-1.392259 90.42102 -9.846125
-6.592031 84.70808 -6.716609
-7.992351 86.51232 -7.635639
-13.96734 97.45556 2.269514
-0.003062618 103.5233 -7.807674
-1.184249 97.90707 -9.617126
-2.125903 94.00128 -10.02234
-0.1200001 97.22515 -9.726182
-0.9524409 99.48178 -9.2958
-14.26705 88.86729 -1.484686
-14.61153 85.08835 -0.5937301
-14.968 87.48773 0.2812352
-13.39792 85.3687 -2.836632
-13.00481 85.87985 -3.418958
-14.83662 93.64939 2.596907
-14.12349 93.90959 0.08952869
-13.73396 97.03461 0.9507404
-15.10363 89.82938 1.238665
-6.883358 116.6931 -4.291749
-12.86101 106.5916 2.248499
-13.00124 105.1108 3.873329
-11.57492 112.685 3.239866
-11.84807 110.5377 1.970248
-12.66421 107.714 3.139707
-1.179042 105.2623 -6.915787
-4.198619 105.5103 -6.730879
-3.829054 104.9631 -7.046862
-3.560619 106.8367 -6.05345
-5.690145 107.6734 -5.457411
-2.234601 91.2305 -9.951015
-0.9327261 90.76645 -9.885035
-8.219341 85.74659 -7.040946
-14.44553 96.43111 4.40241
-14.3782 95.98674 2.816878
-13.20021 100.8926 0.586165
-13.74394 98.10735 1.755871
-0.6023763 101.6831 -8.630309
-3.611253 100.9621 -8.87087
-1.57438 104.2915 -7.414625
-0.02931087 95.65032 -9.903382
-0.4912906 94.15681 -10.00873
-3.353482 94.52798 -9.996734
-3.458121 95.58005 -9.919403
-1.452366 100.1115 -9.140706
-0.3033915 99.57941 -9.273203
-14.2947 90.8459 -1.071176
-14.88464 85.48814 0.1257724
-10.81859 86.88331 -6.119137
-14.28943 95.06312 1.503473
-13.36899 98.00359 0.2035661
-14.29091 92.77869 -0.1705692
-5.868621 100.6862 -8.70963
-13.99514 92.76961 -0.9743765
-13.01685 104.9984 0.8151549
-12.66021 107.7278 3.367346
-13.01878 104.8334 0.6792817
-12.99454 103.7438 0.03273695
-12.62489 103.731 -1.379195
-13.01057 99.6299 -0.4134704
-12.29682 108.5871 1.352211
-12.62462 107.1815 1.097781
-12.84198 106.0304 0.8168558
-12.25284 107.3965 -0.4446992
-11.50814 107.0355 -2.334885
-12.27167 108.7332 5.227015
-2.348271 106.9007 -6.05678
-5.65977 112.2762 -3.648739
-3.186149 90.60453 -9.88446
-3.001647 90.54328 -9.876774
-7.04521 86.48743 -7.875631
-6.026529 87.21781 -8.518138
-4.930198 91.48265 -9.97336
-8.65642 88.60011 -8.249044
-10.61671 88.28028 -6.654628
-9.331385 89.5755 -8.183855
-5.321043 91.57548 -9.956809
-2.900207 93.26434 -10.0561
-3.485435 94.00217 -10.03509
-4.092618 95.83504 -9.88674
-3.040012 98.93777 -9.427171
-14.49222 91.57609 -0.2838645
-15.05798 89.18723 0.6879758
-13.44609 97.61182 0.269058
-13.50521 93.38873 -1.797959
-13.22492 92.79156 -2.656128
-14.28793 91.62601 -0.8390554
-13.14749 102.2363 0.5807102
-13.11059 101.4707 0.2361747
-13.14921 100.5094 0.2844587
-11.93315 108.8755 0.2015875
-12.0161 109.8941 1.886417
-2.821761 107.06 -5.965292
-9.460084 91.46388 -8.205977
-8.003757 89.13483 -8.762752
-8.581822 91.21944 -8.824026
-6.049077 91.94598 -9.896392
-2.797234 95.43605 -9.928795
-14.52703 90.24087 -0.6637607
-13.44494 95.12383 -1.044757
-12.34827 93.92508 -3.976876
-11.21416 90.4864 -6.237621
-13.25882 98.87055 0.2392738
-11.71398 110.5928 1.404126
-6.573386 107.8383 -5.225879
-5.663782 106.4422 -6.055578
-6.658973 106.3304 -5.922191
-6.104644 109.6366 -4.830928
-3.967278 103.8266 -7.635265
-10.16968 89.15639 -7.301518
-10.86802 87.35813 -6.154822
-11.43297 91.43421 -5.944059
-10.67999 91.34846 -6.924736
-7.207007 95.00813 -9.400958
-9.448457 95.2257 -7.972618
-9.250494 92.41944 -8.36896
-9.999483 92.97184 -7.688888
-11.30789 94.12083 -5.814517
-7.698698 91.18021 -9.277928
-6.042916 86.52553 -8.128149
-7.392604 88.68436 -8.851008
-5.325314 90.04721 -9.713936
-4.467836 90.74493 -9.90762
-4.461338 92.6264 -10.06577
-6.744104 96.86896 -9.357707
-11.28854 94.34267 -5.814715
-2.939913 103.5588 -7.792607
-11.99276 90.37236 -5.142144
-14.02089 89.45589 -1.946741
-11.8532 92.23748 -5.206742
-7.506037 93.94329 -9.346989
-7.22996 91.96943 -9.518636
-5.777376 90.41977 -9.715167
-4.461748 87.80099 -9.020423
-8.358081 98.94657 -8.119861
-12.7282 93.73969 -3.283273
-3.393397 103.13 -8.004073
-2.753436 101.7565 -8.61734
-7.728988 105.3212 -6.1421
-12.68521 89.18172 -4.104426
-14.0571 91.43512 -1.474011
-7.882898 92.81178 -9.259879
-5.586037 94.40589 -9.876796
-8.86825 93.92472 -8.56077
-6.380061 93.87173 -9.741072
-7.051142 98.16718 -9.002207
-3.840919 100.4526 -9.029616
-2.785973 102.3739 -8.366314
-11.6263 89.77253 -5.677371
-13.67099 89.39612 -2.626983
-8.96065 96.45924 -8.201706
-7.544916 97.89729 -8.846671
-4.870828 98.30024 -9.472626
-10.39623 97.78078 -6.432271
-3.769943 101.6406 -8.645843
-4.3541 98.88799 -9.403789
-11.46554 90.06009 -5.911431
-5.788345 98.04987 -9.384386
-3.421594 98.80894 -9.445409
-4.794243 97.94195 -9.551869
-5.398195 98.9269 -9.284029
-7.906193 99.5856 -8.206588
-9.060187 101.4557 -6.835912
-8.309094 103.0977 -6.810721
-9.661201 97.02496 -7.427863
-10.60691 96.90372 -6.39475
-8.378447 100.7253 -7.608871
-8.772713 102.9988 -6.559196
-10.74435 100.0311 -5.457143
-10.26602 98.40829 -6.481597
-9.455567 99.4278 -7.105734
-10.87234 95.81183 -6.178395
-12.33982 102.0885 -2.315166
-9.713553 99.40942 -6.870087
-11.00583 98.53539 -5.3785
-11.64208 97.29722 -4.479502
-12.18007 96.20239 -3.646756
-12.12456 97.31874 -3.437623
-12.21741 97.32201 -3.224613
-11.37442 99.40257 -4.503471
-12.90552 96.69408 -1.725266
-12.83091 100.3389 -0.934651
-12.89185 102.5534 -0.5889987
-11.65584 104.6949 -3.142155
-12.69592 104.8097 -0.7708306
-12.3277 100.4668 -2.413246
-12.35665 104.5836 -1.774194
-12.52519 103.9473 -1.586908
-11.82803 106.2854 -2.094758
-11.72971 105.805 -2.539038
-10.5097 100.6178 -5.58856
-11.70943 102.9957 -3.526439
-11.99073 100.914 -3.176017
-12.88038 96.55671 -1.830799
-12.67031 96.40846 -2.434283
-10.26558 102.8692 -5.355507
-10.06274 101.7264 -5.828872
-10.38579 101.3077 -5.575255
-11.4184 104.5005 -3.609197
-9.010592 104.9571 -5.622229
-11.34834 105.7598 -3.147797
-10.2085 103.4995 -5.258041
-9.107546 104.0478 -5.971956
-11.11654 115.434 3.978052
-10.85501 117.2716 5.024269
-9.472804 117.949 -1.39787
-10.25562 117.4946 0.2701281
-10.72553 115.9435 2.738309
-3.055902 112.9077 -3.963865
-2.322248 113.8746 -4.110752
-6.880815 110.3463 -4.366695
-4.1324 111.5662 -4.429238
-5.522069 113.447 -3.520036
-5.480195 110.8103 -4.612597
-6.47438 109.6597 -4.717705
-4.942912 111.0458 -4.603128
-7.161911 109.3546 -4.555039
-6.267251 112.1384 -3.560745
-6.749051 112.778 -3.211766
-7.655981 109.4847 -4.299788
-7.89479 115.2315 -2.426066
-7.401719 115.5134 -3.40059
-7.439984 110.8145 -3.984806
-9.055615 113.8703 -1.866447
-7.702985 116.9569 -3.410919
-10.64274 108.5261 -2.553304
-8.140239 113.1517 -2.943682
-7.47608 109.857 -4.278674
-8.373899 110.1966 -3.717241
-7.451194 112.71 -3.080905
-10.49395 110.8911 -1.564228
-10.87094 111.1314 -0.8961288
-10.89314 114.236 2.598707
-10.8048 112.3193 0.4351277
-9.960072 114.1611 0.262891
-11.38742 110.0525 -0.2692173
-9.08767 112.6508 -2.635334
-8.332415 111.298 -3.379973
-11.22487 108.2761 -1.914826
-7.655185 108.4777 -4.675092
-10.40751 112.2176 -0.7232658
-10.56254 113.5872 1.105524
-10.49087 111.9767 -0.9524966
-11.47381 108.781 -1.001778
-9.660194 108.5982 -3.493693
-10.3558 105.8151 -4.295008
-12.30594 108.2744 0.9378145
-9.055731 108.7092 -3.88055
-9.151978 108.0513 -4.117086
-8.545226 105.5243 -5.657616
-8.383549 104.6309 -6.15739
-8.882371 105.7253 -5.378688
-9.722196 117.6586 -0.9773992
-9.154837 115.2776 -0.6047482
-9.559409 116.1114 0.1427176
-7.539472 107.1543 -5.267576
-8.175592 90.44196 -8.988906
-11.03315 96.37119 -5.836992
-11.5934 96.04756 -4.889591
-10.95175 94.76865 -6.266172
-10.15028 95.48486 -7.231349
-12.12097 93.10558 -4.616047
-13.57337 90.7107 -2.635154
-9.088229 95.84076 -8.202182
-7.618258 96.45359 -9.03904
-12.36026 99.73547 -2.36043
-9.686615 109.0104 -3.257853
-7.750777 108.2087 -4.743048
0.1185508 119.8597 -4.293633
-8.36042 127.7382 -6.458999
-1.973128 120.1563 -4.335244
-0.02026397 125.6792 -6.075151
-8.896259 144.4575 -6.374248
-4.795722 120.5458 -4.283616
-9.495209 126.8445 -5.445003
-3.431241 123.2404 -5.189854
-10.34358 121.8191 -0.6193892
-3.598644 127.5756 -6.790487
-1.883094 121.5173 -4.673564
-6.318783 121.5845 -4.168093
-0.3417394 140.0072 -8.81523
-8.875992 124.9364 -4.53415
-1.228108 130.8829 -7.969361
-0.7354709 133.8595 -8.590564
0.2783843 130.6069 -7.898733
-0.7658491 136.6317 -8.796947
-0.1300281 141.3643 -8.719803
-0.8860135 135.6636 -8.776139
-9.527974 123.974 -3.427112
-10.48826 124.0987 -2.318602
-10.69467 123.1353 -1.00209
-3.515798 141.7869 -8.729977
-4.768869 125.6716 -6.053992
-4.339261 138.15 -9.290888
-1.78366 130.9026 -7.987668
-6.460865 119.8704 -3.54289
-10.28387 122.2391 -1.208408
-7.767314 121.9813 -3.607869
-8.868146 121.1237 -2.46101
-4.797617 127.867 -6.892541
-7.06203 131.8961 -8.726419
-5.820319 129.2847 -7.647744
-7.997071 120.5919 -2.862265
-6.484696 128.7408 -7.334552
-10.87659 121.3126 1.707886
-6.836036 128.9075 -7.409893
-4.756645 122.1013 -4.750476
-3.663874 128.8289 -7.29352
-7.653678 120.4582 -3.029923
-9.931193 120.7011 -0.6853185
-3.71072 132 -8.384233
-0.2327082 120.483 -4.403958
-7.500087 133.1917 -8.837934
-4.632425 142.7475 -8.403069
-2.714675 129.7405 -7.628828
-8.121168 144.6086 -6.622109
-10.54011 125.9404 -3.547342
-4.529303 139.5392 -9.379643
-10.89181 123.9575 -1.324285
-0.239558 126.7997 -6.501046
-10.44762 145.6216 -3.253545
-12.25235 145.7706 -1.228879
-0.007962053 121.415 -4.630987
-1.340751 122.3901 -4.936609
-3.893107 124.0215 -5.468249
-11.48966 125.8329 -1.269215
-7.746549 123.2473 -4.250066
-8.911099 123.1911 -3.488009
-9.359793 125.0387 -4.260819
-9.030543 126.3002 -5.228702
-5.389902 122.8487 -4.858963
-7.645305 123.6098 -4.480897
-10.20774 122.6956 -1.721444
-0.5879007 124.3913 -5.601578
-0.892952 125.2975 -5.938631
-2.896116 125.3768 -5.976789
0.1307878 127.4705 -6.754768
-1.765097 125.1906 -5.903039
-2.551276 128.3247 -7.084284
-0.4587513 129.4545 -7.506152
-1.933403 128.7535 -7.250639
-1.658134 132.1641 -8.294956
-0.9759836 135.0438 -8.724392
-0.2714469 134.5841 -8.665662
-1.934286 135.3492 -8.811012
-2.288445 134.0844 -8.674428
-0.6725945 136.8946 -8.80076
-3.782275 139.9954 -9.191245
-2.198529 139.2743 -8.845328
-1.095167 140.7967 -8.780196
-3.65121 141.3347 -8.876128
-0.6298096 140.8157 -8.767233
-2.913486 131.9964 -8.308531
-6.160429 140.8002 -9.027527
-8.023503 141.6235 -8.526754
-10.7086 144.3428 -5.902253
-4.16578 126.5869 -6.416438
-6.556243 130.0069 -8.050836
-7.770266 127.31 -6.340567
-5.206583 129.4193 -7.641205
-4.793271 130.9736 -8.208608
-5.615428 130.9372 -8.340509
-3.645726 130.0234 -7.765685
-6.47527 132.8153 -8.848735
-5.593516 132.1561 -8.691224
-6.662801 131.3659 -8.56576
-6.054972 134.5129 -9.054001
-11.41225 145.8288 -1.059364
-11.00788 145.2237 -4.291215
-10.02203 145.7804 -2.731077
-10.55349 145.5389 -3.433458
-10.59456 145.903 -0.2230081
-4.199063 121.2411 -4.533018
-0.7087722 123.1973 -5.197053
-2.908103 124.7159 -5.729351
-3.447321 120.6809 -4.46405
-10.08597 121.6898 -1.057255
-6.04206 127.8264 -6.850972
-6.368994 126.6089 -6.230639
-6.484652 124.1521 -5.113834
-5.866721 125.1466 -5.693864
-5.170531 124.8486 -5.700812
-2.867583 136.9828 -9.033563
-2.113724 130.8623 -7.982834
-3.951369 142.6743 -8.430619
-4.010977 138.7792 -9.390267
-5.517114 139.4842 -9.260212
-6.232215 141.7073 -8.78159
-9.937827 140.4414 -8.317319
-9.622064 140.2 -8.386976
-9.701461 141.8907 -7.945201
-10.2775 143.1008 -7.160888
-7.822878 143.3698 -7.638927
-5.128544 134.0845 -8.941715
-3.308243 130.4227 -7.890677
-3.831829 133.3736 -8.673717
-5.178238 138.9388 -9.293901
-5.470409 127.0574 -6.534894
-7.598505 143.3178 -7.717935
-8.22825 142.3388 -8.211039
-7.537138 140.1874 -8.980281
-8.137638 138.6011 -8.883209
-4.624876 136.5046 -9.168603
-9.551478 143.2316 -7.317568
-8.638397 142.6353 -8.020053
-6.883339 140.1504 -9.072455
-5.785626 133.9529 -8.972874
-7.704284 138.7734 -9.009253
-7.096907 137.1832 -9.125003
-6.430856 137.6958 -9.22244
-8.977786 122.7043 -3.174306
15.08795 86.08996 6.280998
15.11199 88.23213 6.420242
11.35377 113.9853 5.247298
15.31891 91.10697 3.703128
0.8276502 114.9999 -5.38034
2.472975 115.3033 -5.543756
0.5346909 117.5176 -4.52457
15.30433 85.8734 2.074991
15.35967 88.9394 5.427957
13.93042 98.64423 4.657701
0.5206633 116.472 -4.530759
13.66106 99.68588 5.143754
11.55382 112.4506 2.845982
2.065427 115.8543 -5.37304
12.86147 106.1116 4.18456
0.7342128 113.0471 -5.141868
11.57864 113.0542 3.934766
11.25006 115.6081 5.679298
13.43412 85.62282 -2.862774
11.41725 113.9843 4.357719
10.80064 117.4642 3.942405
10.73471 118.6704 4.467918
10.38365 118.8103 1.282692
10.74909 119.565 3.541388
10.43887 120.1856 0.5645725
10.08662 120.2491 -0.4389026
0.5915549 87.52958 -8.868221
9.654023 120.0932 -0.8128795
12.21465 109.2301 4.819974
9.231993 84.35632 -6.051586
1.72112 117.9709 -4.351075
7.927724 86.19103 -7.594021
8.064375 84.36271 -6.507253
2.948621 113.5714 -4.931384
5.06637 118.9793 -4.300714
2.230478 117.3453 -4.557681
2.014328 86.35622 -8.132736
6.575507 118.9725 -4.039517
11.69807 111.5454 5.265639
11.89014 111.103 3.914032
11.57423 112.4145 5.344411
0.9902182 106.0653 -6.496222
0.6609492 106.9658 -6.00071
11.8672 109.7728 5.971117
6.445986 114.1322 -5.03324
4.977374 119.2911 -4.071016
3.874774 116.8374 -5.505286
5.441325 119.3735 -3.825704
5.943234 114.4042 -5.343083
3.148021 84.64924 -6.880968
11.65432 111.7538 2.122455
0.415255 114.4457 -4.752612
8.826611 117.3294 -2.574498
0.5475017 114.1696 -5.031029
0.4707718 118.9344 -4.211554
0.3193225 116.0914 -4.188755
6.032592 96.75453 -9.607972
1.447931 108.3485 -5.270767
5.232976 91.34237 -9.999454
0.5698375 86.82044 -8.461801
15.11556 88.07882 6.425358
15.28604 85.59959 5.205064
15.20192 85.39931 1.330307
14.51182 86.52563 -1.086327
14.78742 94.85297 4.947714
1.49366 98.48605 -9.519492
1.924463 90.53395 -9.857775
3.838351 87.64266 -8.93466
1.281747 88.91678 -9.487665
2.933547 88.21533 -9.205622
12.45195 108.3191 4.898638
9.590392 117.8118 -0.2856184
10.57162 119.7757 1.360493
12.34224 107.8543 5.850336
4.638505 118.0115 -5.408536
3.501777 118.823 -4.631011
1.96327 111.045 -5.554082
1.97181 116.0736 -5.308537
14.89729 92.87418 2.070438
15.1573 88.28038 6.250096
15.38311 88.9882 3.202722
15.3225 87.5564 5.624946
15.41666 86.72401 3.838609
14.61656 85.43201 -0.6365627
15.41821 86.69798 3.909565
15.35601 87.01995 2.457251
10.48048 85.26638 -5.751114
10.4158 98.5835 -6.270825
1.515432 97.49201 -9.696733
7.536166 100.2549 -8.246336
9.370454 85.60526 -6.588679
11.2154 96.32226 -5.56642
3.265352 89.41138 -9.694163
5.779869 92.87704 -9.930016
5.317717 85.62708 -7.652041
2.006445 87.20787 -8.695732
1.316159 89.8901 -9.735276
8.641871 118.9536 -2.496202
5.537359 118.3547 -4.355423
13.20949 103.2573 2.769852
9.027602 117.8053 -2.219472
11.84845 111.592 3.269868
5.937722 117.0185 -5.399303
1.913329 105.9389 -6.559886
1.631386 112.5434 -5.259329
0.3843052 108.7139 -5.372296
15.22655 91.99882 4.668086
14.33845 96.82793 4.314883
15.24018 90.31758 2.182947
14.94099 86.80173 0.04816512
13.05482 85.23828 -3.298486
12.24338 86.06901 -4.442007
13.96545 98.2053 3.038289
14.19891 96.93223 2.840953
14.13437 97.64511 3.757883
12.54821 107.7867 1.644195
3.494805 94.85773 -9.95362
4.069662 96.96467 -9.796143
1.182774 97.32896 -9.716785
2.560814 95.51732 -9.9179
2.483934 98.41649 -9.549298
8.711515 85.08237 -6.660292
1.273681 91.07825 -9.929613
0.5802972 93.44895 -10.03449
5.343199 85.94207 -7.911147
6.686986 85.99499 -7.847533
2.842657 88.60863 -9.384402
7.466079 87.63898 -8.480126
4.869794 88.70217 -9.456237
8.472238 116.7197 -3.149012
12.69875 107.1029 4.474728
10.07274 117.1012 -0.09247287
12.41059 108.8004 3.493673
12.15004 109.5661 2.428984
5.379306 115.246 -5.600043
4.522457 116.6193 -5.590101
4.247727 118.1997 -5.362709
1.311851 106.6741 -6.158223
1.41486 104.5288 -7.292085
1.365252 110.7517 -5.35476
2.141502 109.902 -5.573492
2.249104 110.0738 -5.603155
14.10459 94.16648 0.3018349
14.81836 85.73034 -0.1729645
14.84573 87.23845 -0.2117163
13.58944 99.87448 2.934844
11.59989 100.7246 -3.980322
13.19932 101.7122 5.215281
1.252473 98.18188 -9.578902
0.8110065 100.8378 -8.921726
5.202605 98.70432 -9.415696
1.923651 92.7872 -10.04295
1.4357 94.76742 -9.978256
10.24783 87.09436 -6.788134
12.66808 91.40815 -4.035793
12.48623 85.67441 -4.073684
12.55543 87.23861 -4.169891
3.604914 91.28741 -9.968615
4.089621 92.68214 -10.05824
3.944798 85.95222 -7.871352
4.418303 87.13156 -8.671301
3.727196 87.68834 -8.957225
6.893448 88.16638 -8.879868
7.64544 116.5198 -3.967603
12.53078 107.4916 5.274682
12.09974 109.8345 2.984975
11.94344 110.5805 2.313409
9.593257 113.01 -1.132437
5.412747 115.5542 -5.604931
6.275146 116.3715 -5.339234
2.552387 112.3174 -4.853644
2.280677 114.882 -5.639642
3.302571 106.0206 -6.500509
2.062534 104.9066 -7.09479
4.977914 104.8541 -7.02223
2.675556 102.4713 -8.338462
5.926713 109.6926 -4.673677
4.79668 109.4031 -4.826973
2.487656 107.7027 -5.634669
15.30225 90.94473 2.969031
13.69853 85.3231 -2.427202
12.97855 86.79072 -3.569067
13.13725 102.3439 4.968362
13.23816 102.661 3.413378
13.30144 101.873 3.844569
4.111872 101.0301 -8.851396
4.035 99.77294 -9.210126
5.66486 98.09981 -9.473672
10.91263 84.99564 -5.340827
6.985129 115.8835 -4.508577
7.759645 116.5526 -3.856956
12.92179 106.1723 3.231558
13.0519 104.9171 3.591218
9.662911 105.1844 -5.06894
11.34207 112.4386 1.951462
11.19178 113.9458 2.744624
6.447304 116.3969 -5.147972
4.964096 110.9758 -4.443595
1.519243 103.7867 -7.676038
3.215747 101.3721 -8.776202
1.973256 101.719 -8.644113
3.410426 111.9827 -4.688019
14.53549 95.28924 2.620394
14.99797 92.08646 1.951547
14.8158 93.09407 1.885449
13.13893 86.87495 -3.362352
13.3935 87.80622 -3.096235
13.67198 94.71135 -0.6768177
12.43668 88.76719 -4.469573
14.55007 91.97104 -0.02960839
13.00494 89.02475 -3.67625
13.24723 90.64919 -3.224199
11.74203 89.39662 -5.495829
14.1493 88.66956 -2.009431
14.09231 88.71095 -2.140249
13.31249 98.09769 0.05581865
12.93505 101.5547 -0.5743696
13.17343 103.8916 2.728101
3.867938 103.4426 -7.845872
5.378203 100.2278 -9.010039
8.463244 115.3213 -3.074446
13.02573 104.5758 4.107178
10.97536 105.8095 -3.597098
11.32157 114.4763 3.441712
6.970512 117.056 -4.637351
6.095945 115.0271 -5.440718
3.558744 104.0731 -7.523609
5.460226 105.926 -6.360445
4.383285 101.5093 -8.694162
3.904349 104.959 -7.038938
9.524441 101.6657 -6.406473
6.184658 104.2771 -7.188652
6.876168 100.2708 -8.531803
7.063343 101.3033 -8.131407
8.965623 99.93273 -7.444744
7.005255 102.8887 -7.586712
4.538179 112.3385 -4.437121
4.749273 110.7398 -4.526079
13.54412 92.25659 -2.279178
5.622756 96.5042 -9.712539
5.487675 98.55341 -9.402999
8.096214 99.17754 -8.250968
10.2261 116.4671 -0.5170135
7.74072 113.9093 -3.172091
7.867336 112.673 -4.046121
12.65395 107.6362 2.362955
12.86392 106.287 1.752898
10.61516 116.4778 1.087911
9.881059 114.881 -0.4560979
10.5417 115.4273 0.2314143
10.40398 116.807 0.6569917
10.08745 117.1347 0.03321235
10.58812 118.0181 3.07833
11.13003 115.0292 2.445095
10.7956 116.5043 2.215277
6.503491 99.08052 -8.99736
7.740008 98.17799 -8.678535
8.451878 97.69424 -8.347045
7.632761 103.439 -7.037792
8.889938 101.4516 -6.990302
8.96655 102.5876 -6.583715
2.550425 101.0128 -8.872356
6.895387 112.2449 -4.252266
15.09095 90.23634 1.181002
14.75563 88.64064 -0.5094474
14.02595 89.46758 -2.155595
14.53634 89.22708 -1.031771
13.73549 90.62703 -2.373202
12.56997 93.85592 -3.57711
9.469815 116.8855 -1.954276
9.988062 113.8306 -0.1366382
9.358446 99.90056 -7.117895
10.9929 101.5918 -4.812367
12.35301 104.3014 -2.026596
9.748756 102.7033 -5.95182
10.72607 103.4165 -4.763529
14.94515 87.40743 0.08554558
13.99687 89.78417 -2.116416
13.14201 91.20325 -3.29171
11.96674 89.07478 -5.161509
11.47786 91.1796 -5.931445
13.27187 94.54408 -1.789276
9.363314 112.3414 -1.941817
10.27509 111.6006 -1.273131
11.4273 111.6707 1.291114
10.6206 111.2434 -0.9522376
7.877851 114.6777 -3.271717
8.530471 112.2163 -3.372176
8.815848 111.3236 -3.450708
6.81145 113.0794 -4.763991
9.781859 100.1555 -6.598012
12.94578 101.0633 -0.5545576
11.78074 105.6211 -2.559606
11.15942 102.6512 -4.390042
8.278875 103.6346 -6.600817
9.117879 103.8471 -6.035701
9.086563 103.8593 -6.051336
10.35607 104.7813 -4.64537
11.09576 104.7624 -3.879689
9.843512 107.3163 -4.002744
10.73315 106.7664 -3.470932
9.772803 110.3002 -2.863049
11.16425 108.1259 -2.123769
11.45173 109.7886 -0.316808
9.250281 110.8358 -3.280207
4.330367 113.031 -4.664802
11.30181 97.25528 -5.173081
10.47086 113.7536 0.710897
10.02471 111.655 -1.661251
8.996221 108.5917 -3.981422
9.181564 100.2596 -7.146879
12.16357 101.3879 -2.777779
13.17812 95.76704 -1.441482
11.69789 100.669 -3.788295
12.38716 98.18665 -2.565834
12.37848 102.999 -2.185356
11.54428 101.2769 -3.982449
11.9991 102.4787 -3.030606
11.76786 107.871 -1.250015
11.42805 108.3355 -1.550349
11.15054 109.8215 -0.9713551
12.78197 105.883 0.4777873
5.462732 110.1779 -4.574831
7.318714 109.8133 -4.301492
7.052507 110.4056 -4.344928
9.566456 109.1574 -3.306233
8.289639 108.2848 -4.494127
7.07768 108.2955 -4.890796
12.51269 92.61949 -4.056445
12.06877 92.29825 -4.879257
13.45578 93.47541 -1.914494
12.77167 98.25784 -1.540452
14.07213 95.37804 0.9122167
10.83247 108.6133 -2.300122
11.72881 97.82202 -4.189705
11.3054 97.95152 -4.999409
12.38588 99.26518 -2.326526
12.50935 94.89886 -3.366985
12.75027 99.06271 -1.401942
13.41771 97.78554 0.2744884
12.45448 96.61385 -2.889044
10.92739 90.46467 -6.684103
13.06367 97.75859 -0.8474219
12.08936 94.339 -4.379608
11.6625 96.15537 -4.73411
13.13694 97.10849 -0.8546285
12.47435 100.6443 -2.038693
11.88336 108.8212 -0.07343727
4.901113 110.2863 -4.604407
6.693562 107.6127 -5.307415
5.422312 106.2904 -6.165157
13.72487 95.16829 -0.2689718
14.42721 95.20816 1.962359
10.93925 100.2191 -5.128452
11.09315 99.19158 -5.042367
12.76851 100.1235 -1.20028
12.71919 103.4325 -1.166001
4.51148 105.9426 -6.460428
4.020974 109.0026 -5.028644
8.931537 104.327 -5.929469
7.270726 105.5139 -6.197933
5.622762 107.6248 -5.473385
6.987275 105.0842 -6.508214
5.719414 104.606 -7.073626
4.121393 105.7163 -6.611401
10.70309 118.618 4.15018
4.439856 96.17262 -9.853447
4.751007 95.54596 -9.887466
2.538939 97.1871 -9.746446
7.352084 89.25483 -9.09806
8.895239 88.14055 -8.01275
5.950101 88.89082 -9.384293
9.416637 88.92835 -7.915578
10.90795 89.17467 -6.60094
10.81921 89.80156 -6.769876
11.22037 90.25401 -6.301401
12.06425 88.69102 -4.984741
13.14104 103.0789 0.8145216
13.26027 102.605 2.704628
10.3288 96.33572 -6.866048
8.228062 96.44599 -8.656783
7.997004 96.93689 -8.76452
8.0989 106.2674 -5.502275
9.491915 107.1401 -4.357007
10.81131 90.20229 -6.811091
12.43857 105.4597 -1.232535
12.68504 107.3963 2.097032
12.60233 106.5989 0.252629
13.06977 105.1883 2.584031
13.06974 102.4855 0.2356088
12.95766 104.6006 0.2513526
5.111611 95.6107 -9.859361
4.161288 90.9649 -9.920298
6.184644 91.98932 -9.868152
7.641895 90.47714 -9.248471
6.810721 93.26228 -9.653775
8.557942 93.2042 -8.832884
9.673057 91.64431 -8.014572
5.391462 94.57526 -9.878694
6.269988 96.25788 -9.61287
9.184233 91.14508 -8.439024
10.02015 90.71977 -7.668035
10.03426 93.31918 -7.645362
10.49688 91.89007 -7.186477
9.532793 95.06413 -7.924997
9.384435 95.11206 -8.06703
10.31286 94.04037 -7.254497
9.036352 94.15168 -8.412704
8.235368 95.76608 -8.723578
8.747571 95.31968 -8.471372
9.222637 89.88294 -8.23299
11.42925 93.53676 -5.730332
12.15613 91.90005 -4.789767
5.392192 91.92078 -10.09469
5.140359 93.78127 -9.984797
10.60325 120.9191 0.8342635
2.82304 123.3445 -5.221212
11.60207 126.7382 -1.293764
11.02662 123.0946 0.1838752
5.878683 124.1736 -5.251981
5.563066 123.3471 -5.041981
10.87571 122.0284 0.7824101
8.172347 120.1291 -2.506098
7.95422 129.4576 -7.652563
10.24761 122.6141 -1.547457
8.031104 126.3192 -5.772472
6.960725 120.6967 -3.475656
10.06429 120.5369 -0.3799488
11.10169 122.724 1.005521
11.24555 124.9311 -1.064506
10.97621 144.0792 -6.119742
11.56068 145.5458 -2.813659
11.55121 145.8045 -0.7530695
6.126781 128.0444 -6.994389
4.032112 124.664 -5.663244
10.19699 122.0474 -1.134307
8.865773 121.5466 -2.591192
