# .PCD v0.7 - Point Cloud Data file format
VERSION 0.7
FIELDS x y z
SIZE 4 4 4
TYPE F F F
COUNT 1 1 1
WIDTH 1665
HEIGHT 1
VIEWPOINT 0 0 0 1 0 0 0
POINTS 1665
DATA ascii
-11.35352 138.2905 10.31847
-13.72092 146.0149 2.696913
-15.07632 143.4584 4.76732
-10.29999 144.6497 5.64055
-10.31797 152.8431 -4.199075
-3.443971 47.37288 8.500893
-2.950765 47.71526 8.318096
-0.7276993 132.1988 14.06687
-0.6602683 128.397 12.3528
-9.144707 127.9019 11.61255
-8.571713 137.8539 11.45834
-9.010098 139.5211 9.439911
-6.48863 150.8846 -0.298096
-8.379204 152.1871 -3.629498
-7.847391 151.3633 -1.863315
-0.1862928 135.5199 13.42721
-5.679117 150.9283 -0.08159198
-4.261763 148.2052 3.912741
-20.15744 48.19424 -1.534837
-16.7749 47.0317 2.5014
-11.70155 46.57322 5.357154
-0.2717594 62.39296 8.89566
-1.745186 73.22549 9.277014
-20.41613 79.4583 3.159512
-1.812664 82.18225 10.06786
-19.80178 88.77765 0.5593639
-6.947386 95.21397 9.187885
-18.19028 94.94705 0.8260997
-16.31383 104.3692 1.281044
-12.42651 115.0744 5.234412
-10.45137 126.5307 10.0542
-13.42067 125.1658 4.120236
-12.38211 133.0774 12.00915
-14.2981 130.2807 6.559956
-13.03578 118.3267 3.426784
-3.556379 115.7895 12.09575
-13.92181 137.8975 6.092553
-15.02526 136.0678 2.40705
-14.68011 137.1846 3.72126
-14.205 135.6495 7.619606
-14.65161 138.8017 7.95317
-12.1464 145.9693 3.964219
-12.25575 148.8413 1.141551
-4.013012 47.49253 8.897477
-2.423356 53.01525 8.264833
-1.776112 130.259 13.78083
-7.901764 132.3862 13.91486
-8.056195 130.5959 13.51271
-4.807588 140.1081 9.956674
-6.036012 151.5701 -1.008524
-6.077084 147.8672 3.481796
-0.559437 121.5765 12.32447
-4.781621 150.7826 0.7822275
-19.19308 56.66995 -0.2107736
-14.56211 48.0907 3.776976
-12.14623 45.7261 4.973589
-19.20516 59.44278 0.1340389
-2.265805 61.0978 8.540145
-3.196975 71.76319 9.102843
-2.597226 78.15919 10.06362
-19.84035 86.11777 4.214613
-19.98877 71.52071 2.930335
-2.853282 82.6628 10.03017
-2.071861 87.77699 10.07784
-1.868197 86.71154 10.69998
-2.235062 91.83303 10.18234
-18.65511 93.30139 0.678766
-16.90271 101.8991 1.843794
-16.18495 105.1071 1.994267
-13.84624 112.231 2.934337
-0.8508241 112.48 11.64362
-10.80991 128.2222 11.81702
-13.77665 121.8872 4.357015
-11.22222 133.9255 12.75847
-14.92643 133.3333 6.571271
-13.70214 127.2491 4.502947
-13.44488 115.5395 5.654327
-0.7202944 114.1892 12.5983
-14.73058 139.7969 7.709752
-13.53781 138.1762 9.18255
-12.35299 136.9689 10.6848
-12.56787 149.6359 -0.05136984
-12.22056 147.9947 1.974179
-10.45928 151.512 -2.060787
-4.962397 46.90892 9.560528
-0.4774227 58.20608 8.735897
-0.8637971 59.10918 8.64018
-2.236375 132.4795 14.08224
-6.418821 129.8658 13.51135
-5.122947 130.3862 13.67409
-6.530802 132.6611 13.97836
-1.045854 123.6068 12.08659
-5.471532 142.7181 8.103873
-0.918467 136.276 12.74897
-1.423508 134.9748 13.75319
-8.205182 149.085 0.6341365
-2.258068 146.4566 5.805772
-2.072785 120.9051 12.99229
-2.953862 120.5201 12.85998
-4.57476 147.1353 4.884758
-19.93245 54.66446 0.841901
-19.12178 59.26987 0.4052627
-10.52636 47.60308 6.401059
-18.89468 60.91787 2.115856
-2.023901 62.42971 8.580788
-1.984248 59.758 8.498796
-1.382911 71.63077 9.092263
-0.7735878 76.51712 9.723827
-0.3609635 71.05107 9.031471
-20.38417 76.48045 2.806826
-20.40521 83.04054 3.046059
-20.12381 71.99198 2.482364
-19.82643 68.4715 2.362305
-1.041153 80.98067 10.21652
-6.992082 84.83662 10.33766
-4.562843 85.79466 10.66118
-19.82803 88.70844 0.8573037
-19.64688 84.79798 5.270388
-19.21739 88.50121 4.985293
-18.64074 91.43602 4.620048
-1.00949 98.38529 10.59316
-0.4318854 101.4729 11.58033
-17.11709 100.4337 2.54539
-16.68655 101.6975 3.987864
-17.75976 96.84146 1.614365
-13.79898 109.8204 5.811745
-2.032246 106.8998 12.32935
-0.3309957 111.4844 11.83224
-12.65574 119.6145 2.890732
-13.19002 117.7888 1.583459
-3.239356 117.1906 12.49777
-14.67281 134.2343 7.530474
-12.9971 135.2904 10.44842
-13.15224 144.3815 4.647489
-11.93704 151.1941 -1.715018
-14.09442 150.261 -1.251784
-3.3504 49.95039 8.456771
-4.096304 57.89682 8.725291
-4.230242 49.74891 9.016968
-9.46351 135.5639 12.90703
-6.213768 134.9191 13.5469
-1.629601 127.2716 12.19711
-3.291317 122.8524 12.11734
-3.381169 122.5548 12.125
-4.364853 137.1667 12.05101
-6.800919 147.6936 2.931664
-6.03799 149.1627 2.231709
-18.35419 58.44071 3.442062
-20.02718 62.93995 0.1441011
-3.904653 72.06261 9.13705
-1.139463 70.40093 8.975439
-19.93837 64.82008 0.644226
-19.40351 69.08694 4.060581
-20.01532 87.63483 1.357103
-18.58609 92.12782 4.082686
-1.621622 98.24561 10.49567
-0.8820617 101.2518 11.51038
-14.56534 109.5554 3.797808
-11.82292 133.6243 12.38812
-4.644521 120.9965 12.80146
-10.01524 122.6772 10.10254
-3.478338 116.9946 12.35304
-6.341077 114.7796 11.85042
-4.544924 115.0689 12.32364
-14.43404 134.8191 7.910856
-9.028338 147.05 1.614816
-4.764641 52.45742 9.265711
-6.57654 52.46368 9.359447
-7.898089 49.24435 8.542181
-2.06202 50.40738 8.219385
-6.879224 125.2704 12.14996
-5.675565 128.3123 12.03208
-2.401968 127.6753 12.11245
-6.082175 124.2283 12.17523
-4.909742 135.9837 12.89848
-10.47575 147.1043 2.745116
-18.19991 57.00774 3.908995
-3.828022 66.90701 8.810331
-19.9726 75.25573 4.107823
-20.13357 77.60013 4.021843
-19.46783 79.92697 5.950471
-19.88488 68.44769 2.108175
-18.89913 71.45143 5.67566
-3.565641 78.51517 10.11833
-16.74567 90.09904 8.326505
-5.073498 102.2188 11.06873
-6.578908 117.8786 10.89639
-3.769387 111.1504 11.93297
-14.28642 130.5034 7.711244
-12.48221 129.9073 11.16516
-13.19167 131.7269 11.09235
-13.89584 130.0612 8.826442
-6.569906 53.10376 9.368701
-4.4099 129.2398 13.18625
-4.096052 136.8357 12.28184
-18.84492 57.03136 2.043463
-20.52472 81.12241 2.665534
-18.3799 77.37345 7.41437
-19.25241 81.83739 6.342396
-18.77445 65.20876 4.185647
-2.321619 78.67747 10.16665
-7.225899 105.7635 11.03294
-7.820722 104.5283 10.61564
-12.37762 118.7314 6.609809
-9.078053 106.4162 10.45649
-13.94879 58.50188 6.630819
-5.000208 125.9562 12.59095
-18.63578 60.01014 2.523262
-4.743368 78.55949 10.11069
-7.720937 105.1324 10.60922
-10.33709 102.6681 9.527502
-12.14639 103.9883 9.03785
-8.30888 102.4326 10.14326
-12.44239 116.1766 4.374766
-9.018223 116.051 9.673619
-2.101961 108.5133 12.25652
-17.69328 62.01588 4.771989
-7.15012 80.33408 10.23757
-13.80857 115.3156 4.041185
-4.345052 107.5764 12.14595
-13.8139 58.86339 6.716321
-18.46458 57.20972 3.799628
-7.103749 107.0656 11.06997
-5.400042 108.8071 11.781
-13.94516 114.6176 4.051848
-2.274523 106.0591 12.31035
-16.31043 58.74104 5.669341
-8.518712 105.2997 10.35906
-7.907351 111.8908 10.54081
-11.17158 115.0662 8.560679
-16.38591 57.59201 5.248029
-15.45849 57.45897 5.985294
-11.28345 104.5333 9.379021
-15.35252 54.17879 5.268657
-11.77615 106.0216 9.210209
-13.36431 49.33601 4.472235
-14.76902 57.09964 6.10037
-18.21958 53.93224 2.952871
-17.66212 50.59246 2.821655
-12.68746 54.00672 5.633347
-11.55215 51.35913 5.648984
-12.31319 58.1083 6.628895
-13.4596 60.08235 7.014699
-11.13236 62.94499 7.708287
-18.55866 69.21804 5.682315
-16.20458 48.5643 3.323753
-13.37977 54.40823 5.705385
-7.559857 150.3735 -0.2158464
-13.21524 124.1751 4.725533
-13.5685 129.1539 8.411448
-13.55305 125.1433 7.587701
-14.3028 123.0142 5.851496
-13.88751 122.8568 6.142288
-11.73356 121.0829 7.864233
-12.63914 120.1729 3.522808
-13.51948 123.8692 7.562065
-11.84598 122.9782 8.300806
-9.945409 122.6312 10.16521
-9.182539 124.6735 11.14485
-11.06038 123.361 9.774946
-14.10699 129.6518 5.924627
-5.616639 140.8636 9.44805
-4.719957 139.4648 10.45278
-3.365242 143.2545 7.805781
-5.410637 142.6579 8.137635
-5.836072 136.8473 12.30478
-17.99971 49.61137 2.261238
-4.164433 88.26708 9.908125
-17.16846 94.55855 6.063021
-16.0515 93.28506 8.030085
-6.976659 94.71236 9.134164
-6.330328 93.10673 9.587931
-4.35614 97.10622 9.863612
-17.06487 97.04262 4.858284
-15.7006 94.68103 7.909821
-14.93682 96.92511 7.845022
-15.48233 98.02505 7.149521
-15.4915 100.1992 6.672493
-15.44753 103.2441 6.309242
-14.6807 104.0146 7.102828
-12.7369 104.7772 8.781842
-7.975063 100.6359 9.872128
-13.98585 104.4598 7.904952
-15.42937 105.6836 5.441741
-8.680089 108.9767 10.43291
-13.12526 112.51 5.184423
-12.95621 148.9118 0.4143458
-12.26703 49.98755 5.040615
-16.82677 50.94858 3.696173
-2.433495 75.54122 9.567828
-19.95426 83.7863 4.671555
-6.441147 84.48727 10.23811
-2.76476 86.19182 10.7702
-9.904369 82.61824 10.12082
-12.43042 77.17233 9.834284
-10.99818 81.78408 10.13702
-9.597293 79.62254 10.16133
-7.848566 86.84891 10.46994
-15.0152 82.17949 9.948388
-14.37791 82.46328 10.1426
-11.37528 83.11124 10.17653
-10.05867 83.522 10.14285
-6.15746 83.16196 9.998445
-14.01349 83.70756 10.17524
-17.24666 78.46085 8.633076
-17.73915 89.72404 7.348647
-13.73924 80.15636 10.09978
-15.03903 84.45966 9.969728
-18.97932 87.22533 6.115414
-15.85507 84.64641 9.600228
-18.53994 86.2411 7.139212
-6.477086 85.72462 10.5821
-15.1835 88.03535 9.673978
-16.53062 88.08283 8.905732
-14.25537 88.20358 9.954652
-14.22169 89.93491 9.750888
-5.748152 87.01637 10.50584
-11.21931 90.12047 9.890079
-11.93686 90.00376 9.89433
-9.656924 90.87083 9.935268
-9.041284 92.73274 9.720717
-12.82956 112.239 6.022977
-5.141129 119.6366 11.70934
-5.079759 62.65581 8.988394
-6.250813 62.44167 9.328626
-10.41236 58.96042 7.279987
-8.134983 56.95855 8.925891
-11.50332 55.50123 6.278599
-8.45169 58.10062 8.790094
-7.780372 62.13671 9.304642
-7.532041 65.43125 9.206366
-6.856939 61.67873 9.325787
-6.015204 66.93665 9.021981
-8.176525 63.61338 9.251204
-9.293307 146.7466 1.957211
-9.433272 144.4254 4.377875
-20.24294 83.5092 3.65559
-19.13582 68.30906 4.594111
-17.66469 65.0967 5.665416
-16.53319 67.70541 7.398145
-19.18799 71.08119 5.104542
-8.088936 70.46146 8.949029
-15.17095 68.6316 8.19299
-15.51459 66.73139 7.919369
-13.97317 71.64024 8.987723
-11.78489 66.32053 8.148578
-12.89176 68.10545 8.421758
-10.07574 66.28846 8.78003
-9.929695 67.94303 8.821891
-11.67668 69.78669 8.777639
-13.5229 69.03436 8.55001
-12.74026 73.78655 9.360632
-15.34905 72.52375 8.867013
-9.590593 115.4199 10.20734
-19.34757 80.45439 6.17309
-9.632156 97.56982 9.340736
-6.381586 98.64706 9.824327
-4.355075 54.32539 8.96085
-4.08893 55.77079 8.78035
-4.943779 56.22064 9.234876
-4.99927 75.50134 9.56988
-5.55916 76.39856 9.711181
-11.77062 114.0275 7.102356
-12.20121 111.1203 7.526787
-11.78364 113.3086 7.179807
-10.60827 116.3726 8.442472
-11.94748 114.6353 8.801293
-8.564265 113.2773 9.827215
-12.93295 114.6021 7.027813
-8.976295 109.5847 10.16739
-8.573023 111.099 10.07599
-7.315155 108.9593 11.00854
-11.42582 111.7655 8.06809
-12.20506 60.71496 7.130096
-13.04738 60.80188 7.156356
-16.50095 64.23481 6.946812
-7.066756 143.26 7.660573
-6.470373 144.5397 6.781283
-6.161421 146.8288 4.59417
-7.222888 143.2366 7.403559
-5.868185 95.01826 9.130757
-7.426579 97.21295 9.571621
-11.56381 98.76118 9.034904
-10.2984 96.65061 9.247863
-9.45425 95.81128 9.276549
-14.72145 97.59428 7.951565
-14.66396 94.09632 8.77903
-13.10286 107.2156 8.173434
-14.42174 109.0186 5.058003
-15.60521 52.26335 4.665785
-5.144482 72.16055 9.146885
-4.149419 70.20731 8.955743
-7.321564 71.07263 9.014589
-7.22986 73.22409 9.27932
-7.721189 75.52114 9.581003
-8.088212 73.94307 9.372533
-12.16883 77.90977 9.922834
-8.878396 78.33759 10.0114
-14.04026 78.78233 9.961732
-13.47713 77.01633 9.815233
-11.94132 76.65913 9.765078
-17.79648 76.21297 7.915158
-15.46283 76.66598 9.440321
-13.91138 78.09834 9.922621
-17.06908 79.88892 8.86634
-7.045926 69.2842 8.901871
-19.03859 73.44508 5.846087
-8.314407 89.18664 9.788622
-8.733409 87.29919 10.29163
-8.985616 88.34666 9.958717
-16.88921 92.50421 7.40775
-15.18615 91.8496 9.036125
-9.970319 92.27571 9.894518
-11.92739 91.64421 9.786341
-11.94504 92.84716 9.576755
-15.02421 94.40707 8.496882
-12.06932 93.9678 9.448515
-6.985637 120.2012 11.57929
-10.21436 117.9332 9.359027
-6.630165 122.7932 12.11482
-9.987418 121.0125 9.988098
-10.82402 119.4525 9.039596
-10.08842 54.66238 7.066653
-8.218965 53.96552 8.684517
-12.22205 63.06526 7.567882
-19.19217 76.33157 6.107128
-18.38784 73.40876 6.800489
-18.69372 74.53981 6.578672
-16.33071 75.14129 8.869124
-16.31413 71.65134 8.293608
-12.7023 114.4249 7.358796
-13.15622 64.41782 7.811423
-8.592853 96.50827 9.383396
-15.14576 107.9956 3.934188
-4.144131 67.63144 8.846398
-11.06713 62.47497 7.614849
-10.8126 53.44743 6.418614
-15.92131 101.7041 5.822159
-12.04169 57.54469 6.528916
11.78227 125.7279 8.448619
11.65248 152.2224 -3.294646
6.653605 153.1017 -3.483961
10.53592 141.4972 6.80295
9.656176 152.9602 -4.556383
0.424465 81.38926 10.19109
0.426137 60.60104 8.79262
0.825449 93.09372 9.524983
7.72966 47.07839 8.658674
1.398049 69.04504 8.869287
0.2950749 100.9977 11.45268
0.8870536 108.4012 12.29443
0.7484712 111.3951 11.85608
1.096673 87.49426 10.25082
13.63635 126.9182 4.551096
0.2160729 126.1728 12.74656
15.09985 150.2345 -1.279339
6.060994 136.8848 12.26947
14.91167 135.8219 3.445481
-0.04815342 151.4107 2.751183
14.21911 151.1465 -2.141793
9.280043 139.7655 9.074299
10.02523 126.7419 11.6455
10.7246 126.8877 10.80712
4.149372 151.4778 0.5690757
9.471566 141.1537 6.872225
2.448347 53.9053 7.428952
1.013847 50.31337 8.064603
20.37835 79.63866 3.457543
18.97625 46.15371 0.787627
19.46099 90.27168 1.02509
15.3905 107.7879 2.576767
13.27206 112.8732 1.582297
17.98844 95.78844 1.467693
1.826368 108.0325 12.30452
20.02633 46.667 -1.015646
8.601911 147.3764 2.008796
19.26691 90.52831 2.862062
20.60816 78.03028 1.139366
20.42733 83.48779 2.778649
18.63918 55.55119 2.994311
10.481 133.0805 13.28978
0.4154373 126.5442 12.68783
13.78815 114.8144 2.297369
12.62651 119.5167 2.819715
11.7014 130.2917 12.06505
14.51264 151.8505 -4.71615
18.61611 93.36253 1.812518
5.790071 107.8199 11.72278
12.05405 46.31085 6.21069
0.6506502 83.22131 9.964238
13.30701 124.362 4.128613
14.28793 130.6411 2.311253
10.56053 132.3347 13.24607
14.94197 137.6214 1.321399
15.58144 146.7786 2.149512
13.54087 116.1192 1.065123
20.42794 84.65452 1.290805
19.30545 88.64118 4.662689
13.94848 99.09251 8.183351
5.559866 111.5172 11.45537
1.558065 118.2782 12.37057
2.335019 122.882 12.11413
1.120501 127.263 12.36563
5.007012 135.0862 13.59948
5.955264 135.0468 13.53391
2.31705 143.0901 7.214361
10.97613 142.7238 6.445541
14.12005 127.7348 4.164957
5.261652 149.5337 2.019376
9.624354 138.8732 9.639914
12.37108 137.881 10.51585
13.26898 134.8985 10.32432
16.46996 48.80091 3.052719
19.44822 51.79457 0.7183841
14.49853 131.5923 2.743527
13.63148 143.5548 6.42653
14.66096 150.3923 -1.327464
14.8621 135.9138 3.957573
4.995826 65.19714 8.433993
1.603116 49.67015 7.5234
2.638221 48.36893 6.943726
4.197359 50.76238 7.388224
7.390599 46.52217 8.584955
9.394731 47.23488 8.314028
19.10225 62.40532 2.464351
4.342267 69.74546 8.911651
19.92574 78.83875 4.845294
3.158736 83.2855 9.980553
3.883022 93.73622 9.245428
16.34132 103.8743 3.699782
1.84034 100.9095 11.34254
1.035049 108.0507 12.31179
14.81476 109.2908 2.972372
0.6654582 117.8061 12.78604
13.69004 121.6906 4.870186
1.200926 125.8525 12.65276
8.678891 129.564 12.94332
9.015726 125.5232 10.54622
9.664265 135.6765 12.793
6.719976 137.6428 11.68579
0.5973489 146.0396 5.760377
2.043495 150.9961 2.108511
13.28621 124.7017 2.023148
13.42119 125.1094 2.725754
14.16807 142.2549 7.586812
10.60157 135.3115 12.653
19.32408 56.43779 -0.7220516
12.70597 47.05555 5.571866
14.24325 47.07791 4.09483
12.88743 145.9841 3.911493
14.89619 151.6802 -3.956717
14.22323 149.6278 -0.4111298
14.9461 134.512 4.150424
1.213222 52.64453 8.010827
1.479382 52.25677 7.756756
8.409958 48.97536 8.663378
5.142841 48.11325 7.551255
18.72736 59.64593 2.344925
19.98764 68.03216 0.6888701
0.5016298 65.94165 8.877539
20.62384 79.27596 1.464184
20.45505 72.84577 0.4512689
3.099992 80.79005 10.24759
18.52631 93.67725 0.4468511
0.6506098 91.95369 10.19219
1.8055 97.69903 10.27706
17.2914 99.66505 1.7078
17.91237 96.09236 0.582427
2.847838 101.3182 11.31592
2.077407 104.5976 12.17805
14.14998 110.9645 1.67395
1.983258 120.6032 13.18146
12.63198 119.7854 3.306304
4.296974 121.586 12.00185
5.01694 123.7524 12.40598
7.543348 128.1282 12.44968
2.629184 129.9446 13.73381
3.114908 129.11 13.00965
0.5571349 127.5571 12.14374
9.845602 131.5904 13.41577
9.284636 136.9682 12.03347
0.2033475 139.1957 10.4656
2.192518 141.8378 8.203392
1.378353 144.9676 6.07831
1.351468 149.2776 3.50703
12.12018 131.0925 12.03563
10.12118 127.3896 11.55393
12.89392 122.541 5.399292
13.45422 126.1736 4.747538
11.72853 135.6501 11.65428
12.21259 136.7004 10.40341
13.53406 139.047 8.163131
11.52216 48.49826 6.75123
14.82073 132.7694 4.522871
14.82631 136.9635 2.963901
1.97845 59.32274 7.952122
1.426277 49.95783 7.679864
4.772452 53.46031 7.865669
19.86212 66.68153 0.8136215
19.99321 68.3444 1.170894
1.375724 73.51444 9.314276
19.77349 80.93572 5.31144
19.96256 75.68111 4.251173
20.30485 73.83918 3.491656
20.33211 72.03332 1.134726
1.411702 78.38274 10.16627
5.843112 79.81193 10.23121
3.82621 85.96867 10.66163
0.1798427 84.17408 10.11414
18.85528 92.57936 1.423469
3.085105 90.32418 9.929074
2.495102 94.78471 9.282314
0.7919368 95.51201 9.645001
17.48509 98.58399 1.147807
17.09233 100.7616 0.853534
16.20494 104.6516 0.8650538
3.256137 99.87815 10.80017
5.145861 99.75001 10.29953
3.296276 95.64172 9.612413
3.82115 96.52795 9.745327
7.674433 98.48215 9.778275
0.6801663 104.4694 12.1888
2.151847 111.8521 11.83364
14.55618 109.9471 2.892398
13.70643 114.2784 1.288723
2.80345 114.2666 12.16879
2.777208 121.2206 12.20718
12.89759 119.5031 2.133787
12.95053 121 6.518672
4.044797 129.8516 13.70039
2.908165 137.167 12.01017
3.481478 131.4942 13.97201
5.739788 135.5941 13.25772
5.84268 136.4845 12.57329
1.460258 138.7869 10.74445
1.783294 144.2076 6.510141
2.990577 147.5378 4.051256
13.22311 130.2967 10.42756
13.05272 121.5428 2.652885
11.82974 134.8123 12.04138
13.41015 138.625 6.525763
17.95463 49.57186 2.421558
11.73363 52.23399 6.539463
12.111 48.08538 6.155177
13.35364 48.83948 4.866158
14.54864 136.1888 5.566734
6.02232 56.35259 8.452023
19.22469 64.93987 3.033318
19.57053 70.98271 4.118268
19.92524 76.49305 4.560338
20.11478 69.7356 0.6159392
0.6217316 68.045 8.825159
0.9477924 75.09904 9.501738
9.081227 87.96655 10.1414
17.53537 77.41099 8.317328
19.19137 78.63966 6.384309
20.53973 73.76054 2.682699
20.2831 85.89256 1.021554
19.16392 85.92056 6.09532
19.80297 83.26674 5.131799
1.613913 82.78158 10.00047
16.6128 102.8859 3.175469
17.88878 95.4762 3.170533
6.433804 98.19144 9.813967
4.981287 101.9887 11.00542
3.753351 104.6556 11.94853
4.134365 113.3368 11.68952
15.21287 108.2778 2.815877
2.958968 118.6655 12.05316
5.339803 119.2908 12.25301
1.679418 132.414 14.08607
4.14993 139.5657 10.07876
7.428556 138.6443 11.07678
2.434458 138.7074 10.79765
3.213519 149.5355 2.522374
14.37494 136.7833 5.497765
13.94451 135.9325 7.981803
18.56253 53.19471 2.268648
3.182928 63.20539 8.100646
3.768808 54.13129 7.385676
18.81221 57.01909 0.6826851
18.05777 59.03851 3.919957
18.7916 68.85858 5.283195
18.81375 66.45432 4.568308
5.679094 67.90553 8.756634
0.7244441 72.13107 9.149858
19.44849 72.53552 4.825395
18.35336 85.35113 7.522573
18.62117 86.91298 6.818547
9.174268 100.2783 9.549947
9.906652 90.1011 9.802789
9.365222 106.759 10.25029
1.768166 111.7204 11.84308
6.663026 140.0757 10.06018
5.318174 141.2016 8.711987
14.81971 132.5373 7.009186
14.3952 135.6067 7.118498
18.24411 48.82688 1.927543
18.924 55.63366 2.496061
2.539667 75.72082 9.590938
16.92996 71.10842 7.78515
19.11856 72.44313 5.519265
17.72443 90.89876 6.93217
5.208572 95.40694 9.463732
2.584984 109.5873 12.17123
9.54357 119.6899 10.09519
10.99792 125.252 10.50727
14.13793 131.8898 9.495798
14.92139 133.2094 5.704266
17.74226 71.74341 7.225085
3.208552 74.23778 9.407879
16.09927 76.64178 9.164824
18.78362 75.89581 6.681827
7.778566 94.75301 9.207237
8.260968 100.4656 9.890795
4.064416 109.1066 12.12425
6.935138 107.6012 11.33255
6.951609 107.9625 11.29958
4.165794 143.5206 6.571903
14.01319 130.3996 8.915967
9.368431 56.88188 8.719086
11.96924 51.5835 6.27679
18.32674 68.44767 5.843
7.651101 102.2978 10.25551
9.967986 102.1716 9.571976
4.187875 105.3683 11.97587
5.21428 54.70932 8.034494
8.479152 52.99076 8.85648
6.178658 50.62802 8.34865
10.99391 52.3036 7.366367
7.570785 56.79975 8.918663
12.24185 49.23614 6.002603
3.439597 56.42407 7.553587
16.24942 72.97006 8.549844
16.09006 69.3089 7.930124
17.1947 69.72256 7.291379
17.35886 67.93056 6.786234
9.812205 108.4044 10.00254
13.94495 130.0881 8.842422
11.20598 52.04096 7.130589
11.45438 101.5801 9.122308
10.69659 104.8959 9.595663
11.53545 127.7272 10.26585
9.536698 61.49274 8.879031
12.68806 105.7255 8.747792
14.38829 127.5923 4.905491
11.16297 54.14164 7.183164
9.658916 59.03589 8.773447
13.08143 50.5098 5.077595
13.21909 125.5827 5.970399
14.19899 129.0042 6.080953
15.76742 50.69095 3.872057
9.342141 121.8386 11.63052
12.12242 59.93514 6.849771
11.34794 125.192 9.085042
10.82086 123.9983 9.6204
13.11782 122.5394 7.869654
12.62313 123.6467 9.18918
7.255597 120.847 12.63505
11.0833 119.6309 9.265941
13.37671 120.7701 5.669186
12.24538 126.6755 8.938124
11.73198 120.5411 8.024029
12.36399 117.7953 3.869242
9.900965 144.7113 3.445554
5.252936 144.2056 6.011995
5.242606 143.3253 6.77746
4.564878 144.8848 5.471145
9.992422 144.9017 3.274518
10.24438 146.7991 1.87885
6.627235 149.129 2.219542
13.35495 151.036 -1.809052
10.26729 151.7281 -2.709349
8.186926 148.8472 0.8329977
9.804054 150.4912 -1.493545
11.45187 148.2568 0.8351785
19.88881 87.80627 2.613346
7.878624 127.43 12.13765
4.863639 126.8389 11.78877
6.504251 125.9569 11.53869
6.796898 123.7636 11.68884
18.71296 55.86369 0.7332039
17.33374 51.43435 3.272626
17.78034 54.52961 3.326172
17.40228 53.32314 3.413757
16.7525 50.39521 3.421811
15.47966 49.48698 3.564766
6.333054 82.52505 10.06032
5.29902 85.54078 10.51499
13.78943 83.01802 10.20995
6.706447 87.82576 10.15518
5.035495 89.68771 9.60421
3.386099 87.3966 10.33459
7.765715 87.62888 10.26651
10.21972 87.81336 10.19567
13.98612 106.3165 7.546272
11.14302 117.9454 8.032978
18.78838 49.06451 1.259422
18.35628 92.10593 4.910971
10.06446 94.09673 9.335691
18.14331 87.71033 7.329473
15.59682 89.88328 9.169075
15.40247 89.92625 9.271071
19.54956 87.67704 4.35106
13.16319 91.27165 9.722232
11.76891 91.15834 9.839692
4.739976 114.4054 11.73622
13.00033 116.7171 4.742178
12.98341 118.5321 6.871381
13.30879 118.3007 6.088593
7.879832 111.3836 10.27259
10.90623 118.1953 8.422004
13.53241 111.8403 4.686999
10.52401 120.7337 11.11319
13.30354 114.9853 5.288452
13.27852 114.8216 4.154789
3.365952 61.53607 7.946251
5.8037 65.56784 8.59223
7.490878 67.08376 8.915713
4.016554 65.37295 8.371418
14.08549 87.00445 10.05998
17.10029 83.3783 8.900801
16.63026 86.02683 9.068579
12.54613 88.11997 10.1475
11.35069 84.20086 10.17957
15.18485 82.67239 9.901329
17.60456 81.31395 8.477729
17.99846 80.81727 8.083044
11.41394 83.4553 10.20326
13.68758 80.39072 10.10511
18.66794 78.11266 7.142143
14.90568 79.59991 9.885644
15.23396 79.32861 9.761307
13.8558 78.97675 9.970399
12.6755 79.42838 10.08431
6.578539 77.38808 9.860636
7.634988 79.98027 10.21153
7.337026 79.19813 10.18573
6.999913 77.64573 9.911925
10.53469 74.93312 9.526986
11.33828 75.60242 9.619812
11.32948 74.97334 9.535955
8.984445 74.76105 9.499652
9.928378 98.65276 9.387848
12.36577 101.9126 8.846755
10.06305 99.09712 9.352242
13.14701 96.66942 8.872046
12.34861 97.69028 8.93559
8.645881 93.68832 9.365911
17.08141 97.72729 4.388453
12.56595 100.6618 8.741912
16.35106 96.22732 6.660167
15.4476 104.4208 5.973527
16.4364 103.5243 3.616093
16.29066 96.0059 6.79867
17.15597 97.17499 4.435138
16.92922 99.23435 4.143264
14.74311 91.72171 9.268798
10.52891 91.59788 9.994856
7.241268 90.44331 9.877989
17.66293 93.63938 5.58662
14.14083 93.46995 9.160932
13.10841 94.45538 9.264592
7.276304 143.2242 7.508819
8.4004 144.2217 5.348489
3.543905 72.81449 9.232377
5.52921 57.56739 8.250605
4.119461 58.6504 7.761191
10.88444 59.68693 7.712747
8.72129 105.3213 10.36591
13.25664 56.73688 5.844897
12.82415 109.1087 7.758389
13.84832 104.4749 7.968462
13.11764 106.0238 8.435083
14.83939 105.0332 6.800852
15.58734 102.0567 6.247623
14.9814 105.9475 6.237463
15.4839 107.0337 3.954252
14.81218 108.0345 4.963026
12.21711 59.04222 6.655578
4.479079 118.4867 11.61174
8.838061 117.2212 9.957501
11.18058 146.9072 1.991356
9.587037 147.5134 1.772156
9.76471 148.54 1.007125
7.239458 149.2032 1.2363
12.38002 151.0034 -2.047931
13.48896 111.4563 4.993751
14.52621 108.8424 4.967601
16.24834 56.99894 5.193981
17.93406 60.84849 3.97136
18.42316 62.29702 4.065745
17.87672 61.32398 4.644349
14.50323 57.65166 6.064093
14.01877 59.09169 6.415139
16.02975 53.36422 4.58433
6.508321 111.7201 10.98202
10.12242 121.9155 11.482
8.469601 113.906 10.09065
4.779784 60.65911 8.072131
6.459161 58.60286 8.678252
8.195983 69.66022 8.891529
13.14737 66.15198 7.974046
9.685141 66.96458 8.95655
13.38735 69.17079 8.558882
8.605145 69.0837 8.879333
9.11755 71.22704 9.022079
11.01453 70.03174 8.851364
6.487115 65.69988 8.760077
11.15746 85.55334 10.31859
17.51557 74.18168 7.882329
15.36682 77.3503 9.516044
12.85419 77.50497 9.876777
7.582227 73.43871 9.318754
8.936576 141.6087 7.684785
10.43027 60.97194 8.352386
9.814645 64.54041 8.926203
10.75093 66.0814 8.688278
14.0567 62.06048 7.058498
17.76646 65.41879 5.715516
18.2074 64.13492 4.91749
15.368 105.9914 5.383899
9.537951 118.0703 9.980039
8.231615 115.0224 10.63
7.642806 111.0511 10.45581
5.021268 116.1319 11.52865
6.888781 81.65846 10.19403
5.883335 84.56486 10.18153
5.629037 109.8558 11.614
10.67268 109.3798 9.405031
6.393928 112.2329 11.03299
9.056089 111.6756 9.672802
7.755613 109.5687 10.79992
11.41497 111.3871 8.228587
9.88871 114.8536 9.397264
9.476587 114.3865 9.446923
9.768584 74.65583 9.48738
5.218941 73.43763 9.314135
14.68869 92.89854 9.030932
13.14364 59.42414 6.479352
13.65266 59.55101 6.494797
13.9429 62.21918 7.091082
10.78785 63.27398 8.214255
3.244724 95.72157 9.648836
5.75316 152.7433 -1.829203
3.715075 152.7185 0.6599088
4.788515 156.6329 -6.878543
-3.602434 157.434 3.562155
2.00888 154.4208 3.351654
3.451406 159.6841 -6.90543
-1.202821 154.2065 2.466745
4.258909 157.6822 1.111132
-3.857252 155.8018 -7.694559
-4.958747 154.3239 -0.876272
-1.847499 154.7016 2.126552
-1.321223 153.7069 2.235955
-3.957829 160.0632 -6.38501
-1.781611 154.6351 2.143218
-4.109502 157.9594 3.064392
-2.576574 156.4911 3.865167
5.355802 157.8395 -4.455527
-5.128145 159.9823 -4.463771
3.577694 152.3906 0.8134536
0.6938482 152.2836 2.587324
-5.206707 153.5952 -1.218617
5.345439 159.0355 -0.5555711
4.079865 157.5352 2.437755
3.248329 155.2455 -8.281704
5.480192 155.3853 -6.641529
-4.064257 154.8017 -8.031141
-2.647118 159.6342 -7.484175
-6.078661 153.0823 -2.213485
-5.209931 159.516 -4.374768
2.812746 155.1717 1.479301
1.727651 153.9631 2.280715
-4.936939 153.7758 -1.039347
6.40735 154.2157 -5.297714
5.856282 155.4908 -5.15279
3.055138 156.6101 -7.915177
5.47683 156.8831 -5.469949
1.859885 159.34 -7.832311
-4.971086 157.3864 -6.420118
-2.424953 157.2338 -8.035005
-5.298376 155.4486 -1.554211
-5.460635 157.9685 -4.31434
-4.664904 155.9807 0.9166833
5.159537 156.0701 -1.500762
5.632456 156.0407 -3.459835
-5.622968 157.3142 -3.105121
-4.714965 154.8919 0.4791696
-2.639365 152.7269 1.900623
20.69397 49.32316 -2.049076
11.27113 106.6226 -6.393098
11.42453 71.79861 -8.75738
19.36694 58.79985 -2.1368
-14.50361 132.2915 0.08659833
-20.71708 49.77229 -2.814648
0.106351 117.9078 -5.854084
19.2779 54.60077 -1.222263
15.1491 100.5652 -5.206529
17.11292 100.117 -0.1744975
20.38906 74.23044 -0.8497731
-13.41445 114.5098 -1.448964
20.43201 49.63689 -5.783164
11.4971 127.0697 -5.375515
15.39357 139.0855 -7.428805
1.79061 61.52422 -10.00085
14.24913 109.79 -0.535799
10.43041 126.8077 -6.409165
18.58158 47.15158 -8.992088
0.3230262 71.69568 -8.88327
8.344132 110.4885 -6.091314
3.738702 64.55439 -9.703202
2.089345 152.8816 -10.07049
15.27042 137.3315 -2.017433
-13.75603 109.1734 -2.581827
-16.48125 144.1282 -11.75958
-20.1259 49.47876 -5.792525
14.73997 133.6891 -2.43958
15.18834 135.6255 -5.480601
-8.121258 47.35113 -8.839987
15.60158 140.1977 -8.2983
15.40709 143.8289 -11.14456
-13.45494 85.73621 -9.11628
2.439073 56.43073 -10.04817
-13.32522 113.614 -0.4834942
18.59756 70.98515 -5.285368
5.846745 46.75139 -10.40069
7.485701 124.2858 -6.710533
4.26633 151.8981 -9.714152
-4.082836 154.4549 -8.19172
6.743924 153.8512 -5.569293
10.34407 129.9738 -8.28863
-11.94429 118.6317 0.5028458
4.35427 154.3644 -8.096746
16.05009 144.4373 -12.08372
13.58964 47.18209 -9.981815
-1.490685 55.46278 -8.128386
-15.98772 48.0839 -9.300117
12.67047 138.7751 -10.91343
-13.90092 46.77872 -9.598481
-6.438224 149.6457 -10.78389
-1.029671 149.5906 -11.09359
10.65645 107.0993 -6.700818
-14.1709 110.7571 1.107367
-2.660117 154.2592 -8.866101
-14.4083 108.9291 -0.9994374
-5.945793 106.7548 -8.081967
0.8073019 150.7874 -10.68149
-19.90271 61.97113 -0.6523858
-19.9857 55.98289 -3.432663
-19.33179 64.20334 -2.658711
-14.86981 140.1236 -10.21061
-18.45663 92.76322 -2.252617
-15.70854 106.4657 0.9070424
-16.83782 100.8378 -0.8276424
15.08322 135.3605 0.3283285
-20.14515 86.80325 0.3378057
15.01238 137.3297 0.9226941
-7.168452 118.0796 -5.179623
-7.012679 125.3202 -7.432699
-7.658087 120.3195 -4.913231
-10.56335 115.2392 -2.673481
-13.84637 115.4066 0.6680022
-1.008037 154.6463 -9.178716
-5.737625 151.9916 -9.235113
-15.62727 145.6438 -11.98298
-9.813868 126.8328 -7.34146
-9.686595 152.8422 -6.985351
-16.44103 145.5022 -11.81458
-11.5044 114.7767 -3.335807
-8.758308 118.0748 -5.111321
-10.97629 121.7299 -2.144194
-9.53272 125.3955 -6.115371
-6.524774 124.7391 -7.333522
11.51411 113.706 -3.852783
-13.75613 152.0777 -4.701699
-16.86828 150.0354 -8.281726
-10.02619 147.9917 -12.22052
-3.902667 46.49051 -8.436742
-1.289348 152.489 -10.22851
0.2017224 153.3267 -9.537352
19.66707 53.0273 -3.172359
20.93966 47.25299 -3.129477
16.81047 46.62246 -9.670434
6.584066 59.88089 -9.947515
5.385423 57.64335 -10.22452
19.73196 88.31593 -1.033793
9.95749 49.6011 -10.15831
5.270266 47.13826 -10.35042
11.93419 110.0474 -4.233939
15.30264 107.6194 0.7081549
12.45055 106.6829 -5.377355
13.86485 111.5237 1.134457
9.217398 115.3396 -3.787053
13.61826 126.3887 1.671456
12.63381 121.5355 0.004383911
10.14602 123.1146 -4.596136
15.24575 136.3663 -1.191057
8.548167 117.9157 -3.912189
12.66276 118.8121 0.2285734
13.77377 115.5477 0.3254955
12.71172 145.8654 -12.09028
7.404647 118.1654 -4.62581
-7.678119 121.3118 -5.260246
-8.1179 128.3506 -8.590136
-4.174855 46.64392 -8.465723
-9.505477 46.85133 -8.999889
-20.35469 54.6214 -2.216771
-14.03693 52.67924 -9.888832
-15.49821 106.6195 0.06909653
-15.59494 106.3318 0.102398
-10.91529 107.8667 -5.958339
-10.26692 111.0626 -5.894863
-13.77333 114.3193 0.05490429
-20.55512 50.17199 -2.063987
-20.52458 80.11977 -0.6353748
-9.84931 116.0082 -3.952431
-9.983788 113.9776 -5.324777
-11.16599 125.1829 -4.231639
-13.11282 124.5545 1.245864
-15.10408 139.2396 -9.618521
-9.867143 118.5204 -4.465578
-12.93825 120.5713 -0.439815
-15.13613 135.1332 -0.8484911
-15.24656 136.1933 -6.215622
-15.95556 149.3991 -9.01735
-16.97645 151.1106 -6.030389
-15.46881 147.5653 -10.30722
-7.727921 153.5742 -6.171898
-8.498585 151.7415 -8.39485
8.084724 152.9202 -7.45671
19.17517 57.23448 -2.42873
20.3592 50.39028 -4.382765
20.39874 48.00594 -6.963891
20.63462 72.80023 -1.8309
20.45303 75.68802 -0.05962703
17.23548 85.26601 -6.568587
4.306523 56.7778 -10.16311
18.4283 93.6601 -1.17922
15.11463 106.4037 -1.38184
1.984359 53.06224 -10.02767
5.283799 51.69615 -10.25767
9.939853 111.4473 -5.854389
-9.227162 108.9186 -6.698983
8.208453 108.5052 -6.771674
11.01166 113.6511 -4.530622
10.0203 125.306 -5.670133
13.35075 125.5947 0.6193402
9.974862 121.3492 -3.856719
15.36638 136.4135 -4.727359
15.09271 137.754 -0.149008
12.01348 130.3764 -7.098292
12.98756 133.7525 -8.309967
11.65767 120.0314 -0.4760464
16.07882 145.4653 -12.65002
-7.365535 115.2035 -4.712912
-7.911188 112.7327 -5.446171
4.091599 119.7719 -6.561254
8.606377 115.0662 -5.648524
8.335803 126.1656 -7.439849
-8.013523 118.5917 -5.680608
-6.703783 124.0273 -6.929225
-8.513138 126.0202 -7.894717
-9.184156 134.0477 -10.98818
-3.747575 49.98363 -8.383948
-6.71327 49.49524 -8.606133
-15.43081 48.82573 -9.382318
-19.35653 57.57429 -2.316074
-3.549203 72.83521 -8.781906
-20.02148 70.20588 -1.944363
-16.453 103.6091 0.6942739
-14.26216 109.4764 -1.302098
-14.12755 110.602 0.05596437
-17.70319 96.67806 -0.7737164
-20.62936 73.39949 -1.448797
-11.889 116.7959 -0.5713652
-10.23975 122.7582 -3.777027
-13.50916 128.2328 -1.221161
-12.30826 122.2976 0.4082882
-12.39792 130.0024 -6.30828
-15.48583 137.2865 -5.177482
-9.219522 121.4815 -4.183544
-14.34932 131.8266 -0.7752227
-14.65395 132.6605 1.266428
-15.14958 137.3534 -7.976448
-12.30319 145.8728 -12.6338
-11.66705 152.5742 -6.22983
15.61558 148.5006 -9.77186
-8.988837 152.201 -7.958479
9.014194 152.5573 -7.876956
12.39252 152.4171 -6.159335
19.41694 48.86912 -7.569046
19.90836 50.00224 -7.014888
19.0134 50.54396 -7.018417
18.67496 52.73296 -7.069258
19.39027 52.3592 -6.652316
20.15391 52.36813 -5.60038
20.8036 73.11322 -1.220625
19.91217 83.13755 -2.673799
2.340918 70.6835 -8.739731
19.65192 88.31558 -1.481417
19.42924 57.96018 -1.666566
19.32397 60.40483 -1.607877
2.464602 59.34935 -10.05333
17.07095 99.20933 -1.445973
18.30065 93.95231 -1.496389
15.73618 100.9183 -3.876956
14.97959 102.5579 -4.385232
16.65872 102.3802 0.1111567
8.715356 49.65507 -10.23226
8.081808 49.9729 -10.27043
2.45487 54.26472 -10.05582
2.854977 50.23769 -10.09336
12.95883 108.9971 -3.720167
11.86115 113.9198 -2.06937
11.81839 113.129 -2.305924
14.92375 107.4612 -0.9504253
13.35361 111.0133 -2.264752
-8.728719 109.6578 -6.099324
-6.747507 112.9672 -5.817277
8.715105 113.3821 -5.424514
12.75696 126.7851 -2.359386
13.85899 124.2897 0.010982
14.08203 129.7935 1.019096
11.22126 122.8062 -4.301429
14.94854 134.4274 -1.898545
13.95286 131.1434 -3.450629
12.84444 133.4629 -8.257902
9.89002 119.7934 -2.929909
11.35755 122.0248 -1.733866
10.1874 117.3582 -2.527512
12.9388 120.635 0.8871731
13.69598 145.5752 -12.33691
13.42335 138.4829 -10.35017
-7.030844 118.8737 -6.036634
8.865098 112.3673 -5.205633
6.578826 116.5465 -4.89651
9.710682 128.1592 -7.673733
-7.982737 127.0739 -8.025349
-9.274777 131.4938 -9.65171
-3.113889 58.49675 -8.253073
-1.770366 53.91245 -8.163898
-15.25539 47.71939 -9.517797
-18.29572 48.62269 -8.723587
-1.51588 64.59846 -8.288607
-19.76354 66.28596 -0.9100797
-19.47503 65.82657 -2.370244
-20.45243 75.15349 0.457995
-16.14871 103.7258 -0.6674716
-11.87163 113.7977 -4.045045
-12.29658 113.47 -2.872458
-12.56545 115.1783 -0.5440201
-19.56604 50.94217 -6.181079
-19.43933 86.78178 -3.01657
-12.4824 117.5001 -0.8428347
-11.39915 122.1206 -1.596574
-11.17163 129.6067 -7.426942
-12.29684 133.4206 -9.023952
-10.26582 121.885 -3.238148
-13.94516 129.1782 1.039957
-14.56202 150.2892 -8.674413
14.3747 147.8186 -11.15732
-7.937005 151.7153 -8.496684
-12.05843 149.6733 -9.789952
-9.094792 150.4328 -9.928615
6.173209 150.3916 -10.2291
4.700546 152.4839 -9.20763
10.41167 152.9656 -5.664202
16.37466 48.52823 -9.658494
19.93993 67.50421 -0.1079047
20.52108 77.78766 -0.2028837
1.314204 68.08256 -9.616261
0.2372304 72.64625 -8.789694
19.76102 88.82031 -0.01627158
18.5254 55.95295 -5.101117
18.65081 59.04275 -3.909777
19.01663 58.66171 -2.980912
18.39655 61.07891 -5.521672
19.54304 64.5834 -1.818652
1.818747 60.8756 -10.00006
17.79099 96.32358 -0.7568888
15.30053 99.90943 -5.280956
15.68503 97.65161 -5.827161
18.99891 89.48081 -3.012522
17.22889 95.56722 -3.938848
10.6781 47.41732 -10.09636
-7.403753 110.8324 -6.058038
-7.678181 109.0065 -6.730092
-3.937045 107.7837 -7.679375
8.325664 110.0624 -6.531502
8.075251 112.0061 -6.584007
12.58816 127.1122 -3.226389
15.20569 135.9695 -0.9605281
11.96806 122.3594 -0.66844
11.92962 119.4044 -0.3144825
14.48272 151.3568 -7.154273
-7.470918 118.1041 -5.726318
6.056806 117.0326 -5.147676
7.506683 112.8887 -5.946127
-5.724531 124.7617 -7.592466
-7.049921 127.7514 -8.620973
9.023485 132.6476 -10.2943
-5.069334 130.5887 -10.4149
-3.021252 57.25807 -8.227779
-11.49907 48.53355 -9.302733
-20.70858 52.99839 -2.162674
-19.72552 59.07964 -3.508663
-3.29012 67.40252 -9.150383
-5.885427 67.74305 -9.041622
-1.170307 69.82512 -8.641459
-18.72685 64.79826 -4.211072
-12.41376 60.14114 -8.937071
-19.89062 62.03278 -2.596216
-19.95418 73.87583 -2.644435
-20.22497 71.71425 -0.5195169
-16.36567 103.6124 0.1914881
-14.31128 103.5021 -4.891914
-16.01521 101.4511 -2.926252
-15.6903 102.0512 -3.292675
-15.91362 99.12292 -4.609727
-17.48581 97.25838 -1.416729
-13.72513 115.1042 -0.2330305
-11.47102 111.5176 -4.296407
-20.8159 49.87199 -3.77991
-20.24583 51.0383 -4.887278
-18.3736 51.91776 -7.04034
-19.2485 90.97073 -0.316584
-20.00396 86.35158 -1.286783
-20.15101 84.06716 -1.701876
-12.48119 117.8278 -0.393423
-11.88075 125.3314 -3.10874
-11.59064 124.9104 -3.296332
-12.85852 127.5259 -2.827747
-14.88548 150.0156 -8.831007
14.53068 146.3609 -12.77033
14.83716 149.9936 -9.070255
0.8997349 148.1637 -12.37788
-8.419307 148.4685 -12.18492
7.959736 150.192 -10.2145
20.02989 68.91573 -0.2455717
20.47445 75.84524 0.1147197
19.78942 76.48913 -3.082837
18.37893 70.26853 -5.453228
20.31816 78.89263 -1.63288
3.450985 66.07942 -9.26922
5.667349 63.82912 -8.968726
19.00241 85.92197 -4.235272
19.38308 62.3937 -2.868132
9.448868 57.92839 -9.408567
16.62502 94.3624 -5.869459
13.70358 106.6526 -3.911757
-4.981459 106.9645 -8.060465
11.65911 124.2252 -2.689189
14.40971 132.12 -0.6750312
12.06337 115.3318 -0.6481916
12.77274 138.7124 -10.83822
-5.151382 119.7422 -6.186301
-3.217347 118.0968 -6.02281
5.346316 118.9698 -5.649136
4.469601 120.205 -7.616895
5.409204 114.1192 -5.451534
-6.342534 123.9382 -7.046055
-2.903253 120.0316 -7.527747
-2.545078 123.5288 -7.603083
7.804489 130.0793 -9.582251
-2.455323 60.95026 -8.276793
-1.770357 64.63909 -8.360249
-5.056543 65.42912 -9.471414
-9.215605 65.9529 -8.54301
-4.141644 71.06787 -8.776706
-18.59306 67.71999 -4.797778
-20.19819 76.31648 -1.711655
-19.50938 77.20278 -3.745182
-16.46776 98.52789 -3.760712
-11.60567 106.2421 -6.336627
-18.03308 94.75417 -1.766498
-15.3964 52.73725 -9.587911
-16.0874 51.41473 -9.444091
-18.38953 93.51863 -1.696884
-17.93069 92.43707 -4.160697
-18.33017 90.92734 -3.999861
-19.82 88.25252 -0.4877325
-18.96098 88.58369 -3.528508
-20.11301 83.15382 -2.196614
-19.26168 78.04298 -4.239607
-20.05832 79.69187 -2.56558
-11.498 117.5254 -1.738735
-14.70698 147.3256 -11.0795
13.10379 149.8724 -9.33548
3.259619 148.1907 -12.95431
2.293775 146.6988 -13.40318
12.27017 67.45135 -8.648818
19.79672 86.45518 -2.115842
19.07315 88.57478 -3.243746
19.90237 87.77541 -0.433008
18.47476 58.80897 -4.372111
16.27205 97.86875 -4.642904
11.83345 115.1936 -1.651218
7.889013 107.6373 -7.218967
3.814143 117.2973 -5.821095
-4.911264 120.2092 -6.240317
-3.448657 128.8203 -9.607131
-7.916431 133.5277 -11.10225
-13.71533 71.91383 -8.599195
-2.856654 73.55775 -8.78403
-15.32775 106.5188 -0.622083
-12.60656 105.9163 -5.611587
-13.89961 102.686 -5.900194
-16.27777 51.76689 -9.303423
-17.75372 89.86498 -5.477241
-17.86586 86.6993 -5.786461
-18.28074 86.12468 -5.306598
-13.44379 133.7045 -7.780901
13.63443 149.1875 -9.788958
-1.494914 148.0717 -12.66113
17.72674 59.6869 -7.096645
-10.54679 104.1085 -8.237348
-3.916293 130.6352 -10.46376
-5.291152 133.4804 -11.44618
-9.106757 64.286 -8.652944
-6.490101 67.32628 -8.964025
-1.085385 74.59521 -8.77745
-9.208756 104.3802 -8.788517
-15.26116 50.78988 -9.653435
-13.90809 133.3338 -6.727194
-14.49647 134.1694 -6.232699
-14.82793 134.4427 -5.197222
-15.21148 137.1841 -7.541742
-5.943504 146.8361 -13.16251
12.17915 151.8938 -7.426871
17.36894 90.577 -5.938199
3.718229 116.7493 -5.825271
-1.876076 132.8843 -11.21408
-5.831976 125.6583 -8.255482
-4.349607 134.4528 -11.75682
-8.607509 107.0283 -7.405107
-17.16417 52.99678 -7.683474
-14.26213 133.1906 -5.698721
-14.55112 133.0839 -3.240095
-11.18214 135.8712 -10.69463
-12.21482 103.5477 -7.267553
-8.143847 103.5147 -9.687815
-0.02259474 131.3567 -10.91212
-7.225 135.0065 -11.7285
-2.238287 73.4011 -8.784429
-8.006928 107.9177 -7.331634
-7.217142 56.47538 -9.217075
-13.05681 130.9595 -6.07137
-13.47988 129.8184 -3.513533
-4.789267 143.9266 -12.50053
-9.879621 104.6986 -8.277729
-7.929053 105.1133 -8.808169
-3.852719 104.3703 -9.621582
2.925243 114.522 -5.711988
0.1223007 130.8044 -10.75926
-7.128506 70.34759 -8.726702
-3.689947 73.11894 -8.783415
-9.275146 74.10998 -8.796777
-14.41101 132.2506 -1.539041
-1.33972 104.8405 -9.356259
-1.364762 135.3022 -11.98936
-6.357405 70.78422 -8.742747
-6.350159 73.19785 -8.787655
13.70428 82.13385 -8.421004
-17.42583 83.21122 -6.44558
-9.662585 101.0058 -10.26182
-9.689125 103.2472 -9.184186
-8.60605 75.57784 -8.795764
-5.563846 79.18223 -8.688673
-8.069602 74.38653 -8.795831
-1.435592 73.25518 -8.784532
-4.792465 78.1882 -8.702506
-17.00162 82.17857 -6.821023
-7.656128 100.9745 -11.05705
-8.971807 79.05186 -8.662737
-14.17001 55.74578 -9.73855
-10.66681 54.39148 -9.522945
-7.672801 81.73265 -8.768123
-13.81226 53.01648 -9.892243
-14.38553 79.24511 -8.154698
-13.61186 55.86689 -10.00076
-12.03649 54.07323 -9.655435
-16.75253 83.88834 -6.995504
-15.34474 82.32038 -7.810791
-7.997068 58.37619 -9.58633
-12.27847 79.81914 -8.579041
-9.846128 74.89352 -8.801248
-12.09141 76.96239 -8.744071
-13.53425 76.53023 -8.588892
-15.41714 77.32333 -7.890445
-13.10917 58.02582 -9.878218
-17.05628 75.18781 -6.959952
-17.90648 74.52438 -6.185689
-11.2725 58.7352 -10.09703
-17.11932 78.19781 -6.798798
-18.82033 72.09274 -4.921366
-18.3247 72.37886 -5.628357
-18.19455 71.09811 -5.761555
-18.869 70.32413 -4.63639
-13.38409 74.5081 -8.685854
-14.99029 73.03123 -8.232966
-14.33406 67.30753 -8.249924
-3.889118 151.9781 -9.793014
-0.5179681 148.2838 -12.12619
-1.021956 147.896 -13.05886
-3.058683 145.3559 -12.74439
-5.828937 145.6343 -12.62249
-9.624866 147.5916 -12.56728
-5.723998 150.1619 -10.53847
-5.483758 151.4051 -9.84341
-9.861383 146.3335 -12.81195
-13.14024 147.3759 -11.94376
-13.4963 148.846 -10.05197
-13.40285 144.8735 -12.07981
-14.00977 142.3996 -10.97284
-9.421219 142.7736 -12.33984
-10.51144 141.6319 -12.11494
-15.078 135.6207 -6.139234
-4.918005 135.8867 -12.1152
-10.56398 142.9287 -12.15621
-11.02707 137.9609 -11.54234
11.35287 109.1953 -5.344463
13.03379 105.0424 -5.654139
13.27006 104.654 -5.588989
14.80632 102.6809 -4.603049
13.77552 136.7898 -9.386453
-6.9323 49.85774 -8.589978
-11.78951 119.7577 -2.264189
-11.41704 121.178 -1.06383
-11.98126 120.6848 0.1053849
6.992589 50.87976 -10.294
8.469998 50.04319 -10.24112
10.66807 123.9396 -4.065739
11.98548 135.1096 -9.88195
13.45712 131.8489 -6.098282
13.72816 130.4474 -3.439299
14.34205 132.9069 -4.868843
-7.128021 117.0531 -4.66037
-3.336709 115.4815 -5.702597
-1.496391 112.8257 -5.895175
-8.061182 113.5819 -6.476964
-4.151084 112.6176 -6.637207
-6.032449 113.4505 -7.064688
-0.7703097 113.6324 -7.526682
-4.827774 113.5897 -7.646608
-2.832556 112.4475 -7.922978
-4.56361 112.8941 -8.016245
-0.8890499 116.4836 -5.840985
4.801075 113.8476 -6.610496
6.766006 113.5989 -6.845231
5.531569 113.6843 -7.235296
4.293002 113.0461 -7.627948
5.653088 110.2062 -6.69777
6.290716 111.3449 -6.086021
-0.1393706 113.4277 -7.175462
0.6397373 113.5034 -7.176454
4.747355 108.6105 -7.206466
6.57027 108.0342 -7.198247
1.610201 105.8773 -8.784838
2.676711 104.9006 -9.317509
-0.849123 108.6716 -7.328357
-2.375147 109.264 -7.054381
2.05032 111.2766 -6.541966
1.911594 109.9168 -6.785413
2.887463 111.8515 -7.469333
5.218498 124.9183 -8.574153
2.293082 126.4246 -9.19894
1.030089 124.8521 -8.476668
-6.396578 52.35863 -8.492697
-10.13826 53.39656 -9.48778
-9.056847 50.37236 -8.90109
-9.12052 50.82616 -8.974512
-9.774663 54.736 -9.48301
-7.119011 58.07378 -9.35414
-12.48269 125.3562 -1.777835
14.39233 49.74131 -9.940742
14.89643 51.75907 -8.52753
15.02102 52.17048 -8.195053
16.27102 50.79158 -8.183038
1.205909 71.58832 -8.771145
11.03539 128.4283 -6.811282
3.637264 120.2605 -7.733702
4.122676 122.9873 -7.275291
4.606583 123.6935 -7.453991
2.591539 123.1444 -7.49941
2.451147 121.3136 -6.960783
-0.005052348 119.1136 -7.406293
-0.1592239 123.1303 -7.689875
-1.708006 124.3649 -7.845977
-4.40261 125.504 -8.255462
-3.395767 128.1496 -9.32546
-0.3789113 121.0897 -7.166012
-2.368062 126.1349 -9.372106
-19.25232 54.13122 -3.92073
-17.83965 53.49137 -6.292303
-17.95195 52.54785 -6.62144
-19.62776 58.07121 -3.302772
-13.87163 62.79646 -8.104496
-18.1248 58.21065 -6.114693
-12.92391 59.41533 -9.23385
-16.90619 57.86559 -7.182734
-13.75982 59.08313 -8.352675
-14.91406 61.55833 -7.65717
-16.64054 58.28549 -7.367012
-10.94557 64.53239 -8.340693
-15.16893 59.67637 -7.237788
-14.28245 63.94757 -7.934166
-17.80457 68.82609 -6.066289
-10.29868 61.34048 -9.714285
-15.87634 72.29265 -7.813689
-13.73966 70.00571 -8.520924
-16.81809 69.32504 -7.062278
-9.602174 67.58382 -8.636458
-13.31727 68.57136 -8.531196
-8.892467 65.25591 -8.580855
-13.28894 69.30647 -8.577816
-18.58558 66.55717 -4.687264
-17.93053 65.63382 -5.491379
-8.588777 64.69138 -8.751716
-7.466487 56.30327 -9.260703
-14.43375 68.67808 -8.303077
-8.822933 56.86491 -9.604108
-11.50917 122.8153 -1.85142
-12.1378 150.4755 -8.964527
6.499187 150.1402 -10.35061
18.98027 71.90081 -4.711687
20.00231 71.89488 -3.239425
18.28053 76.78578 -5.693394
17.64418 76.72362 -6.396332
19.05556 83.37732 -4.485778
15.52589 75.28204 -7.956491
18.8554 79.37454 -4.913097
18.73895 78.09975 -5.063624
19.35083 81.61954 -4.071433
17.17393 62.19416 -6.756825
17.78832 64.52568 -6.021914
18.20828 63.88812 -5.461783
14.54116 61.11649 -7.694383
17.4434 69.55051 -6.518044
17.48012 72.29233 -6.646849
17.35434 66.58486 -6.402078
17.30917 71.61834 -6.793803
15.11127 67.89617 -8.058867
10.19577 66.73402 -8.788889
15.16195 63.71978 -7.631018
14.40841 69.19488 -8.341715
14.72347 71.94652 -8.260089
13.89315 72.90269 -8.564499
13.28329 73.62711 -8.699219
13.21587 68.73227 -8.563455
14.10584 75.81183 -8.474704
12.74722 75.41119 -8.752022
16.68349 75.36015 -7.2567
16.56811 81.08127 -7.074337
17.19359 79.86253 -6.669501
17.21626 77.53017 -6.74718
13.1228 81.11648 -8.487441
18.76014 83.49909 -4.934048
13.6349 82.16005 -8.442858
12.50029 140.8203 -11.3617
10.94931 138.2832 -11.6452
-5.109403 61.11747 -9.041348
-13.4716 100.9536 -7.280322
-13.76968 108.3524 -2.835158
