# .PCD v0.7 - Point Cloud Data file format
VERSION 0.7
FIELDS x y z
SIZE 4 4 4
TYPE F F F
COUNT 1 1 1
WIDTH 1669
HEIGHT 1
VIEWPOINT 0 0 0 1 0 0 0
POINTS 1669
DATA ascii
-6.761934 131.4598 12.58262
-5.920785 118.6078 11.65845
-7.114851 116.167 10.43624
-8.548969 134.141 10.80355
-4.809943 132.1211 12.63721
-12.80324 145.4875 2.241118
-11.42564 143.7131 4.526747
-4.576427 124.0068 13.20966
-3.002193 125.2498 13.36862
-9.431957 138.931 7.793418
-8.401918 135.2144 10.45409
-10.83691 135.4337 8.654433
-9.031491 137.2061 9.247501
-6.439792 139.7297 8.5919
-8.079063 136.6195 9.809807
-8.710455 135.8313 10.09639
-5.005268 136.7744 10.49316
-5.875991 134.9022 11.27974
-5.831371 114.9566 11.26652
-2.02069 116.8736 12.89195
-4.231932 112.0502 12.31312
-5.087638 124.3186 13.02723
-2.683856 120.2727 13.08979
-4.148685 120.8284 12.90438
-5.533081 123.9567 12.85886
-3.449777 122.2754 13.26845
-6.239 121.5843 12.29591
-7.805343 122.8294 11.42127
-5.610129 120.5732 12.38822
-7.644372 118.8434 10.41547
-4.433035 115.4068 12.03364
-6.700172 119.9219 11.5995
-6.772449 119.0404 11.30999
-5.74501 118.1733 11.65833
-9.501941 115.531 8.015707
-10.38256 128.7341 8.391014
-7.707167 126.2654 11.42102
-8.206566 123.0936 11.04928
-10.56122 108.6221 9.111716
-11.08799 110.7825 7.379143
-7.560801 119.3421 10.67067
-8.832448 143.7551 5.502582
-3.092108 125.574 13.29724
-9.8319 137.5411 8.912487
-3.437865 132.9631 12.42728
-4.82786 135.0007 11.47758
-2.651254 117.9799 12.85272
-9.005415 121.1678 10.06194
11.24983 145.619 2.447224
5.658646 105.3209 12.311
1.079816 119.2978 13.15398
5.24974 107.6996 12.45438
12.05756 142.9567 4.734008
1.179162 105.1637 13.19873
13.73519 138.1896 5.858722
10.7461 118.0482 6.654018
1.552494 106.9606 13.27516
10.88105 119.521 6.053483
11.77716 146.1746 -0.6998172
11.97699 137.5904 7.732629
3.538668 133.3671 12.29614
10.53276 105.9724 9.670497
12.67861 105.9939 5.409718
5.54953 138.3046 9.55748
11.95411 110.4086 4.235362
7.059709 139.6409 8.437615
6.789346 140.4566 8.147758
8.280081 142.1411 6.677197
8.83243 144.0161 5.326025
12.07207 109.2321 5.674288
2.803769 120.167 13.04908
3.363359 108.3763 12.98895
11.5152 112.5022 4.265483
12.21159 109.6279 3.1407
5.541102 113.429 11.53394
13.38356 139.5609 6.345482
12.6344 131.657 4.53576
4.596513 137.2393 10.33838
11.37088 128.9539 4.212606
11.41767 128.6474 3.958878
12.34693 141.8494 5.541013
13.82603 145.4379 1.936072
11.82316 144.7161 3.62652
11.10773 145.8738 0.8836174
12.09795 145.7357 1.81249
2.66725 109.5605 13.01834
11.87538 146.046 0.2809355
14.0032 143.9171 3.658298
8.01935 105.3773 11.36178
11.20591 146.5312 -1.91596
13.35163 145.7639 -1.31125
14.53645 142.447 4.492329
11.30802 146.332 -0.7342868
0.381858 112.4011 12.87721
2.179872 111.1212 12.91287
2.179403 106.8406 13.25748
12.60017 105.9886 5.788696
11.95243 110.4064 4.359881
12.08458 107.7626 6.778557
12.00767 129.3083 2.111692
11.20387 124.8609 5.057668
1.8937 129.7943 12.98363
12.93221 132.3086 4.741483
13.07352 137.4926 6.305478
10.93748 145.8455 1.675814
2.56576 116.9437 12.78888
10.75133 116.8871 3.756751
11.10129 113.39 4.958278
11.37389 122.7327 3.541615
11.11685 122.5733 5.14193
9.818829 105.7941 10.31453
1.873615 114.6448 12.80124
4.741955 108.4992 12.5787
5.814155 110.4932 11.84583
12.56857 107.4354 4.998526
11.6856 130.7486 4.321677
11.06952 129.4805 5.595976
13.20041 132.4435 3.377621
2.824241 132.6179 12.51988
9.532928 145.6989 2.822273
2.534134 115.8074 12.71363
6.242373 121.0449 12.22212
1.278558 124.2199 13.50465
11.01596 118.7611 6.538694
10.7014 113.4009 6.152533
10.51899 117.7455 6.750847
10.18528 119.4537 8.344005
11.41979 124.5181 3.423196
8.379646 108.1181 10.96341
6.47208 112.0568 11.19622
3.100219 111.2735 12.75759
5.274714 106.9731 12.47548
11.49498 108.6875 7.575091
9.499035 109.3063 9.93069
11.23973 111.3722 6.393274
10.42132 128.746 7.799446
10.97943 131.4266 9.514359
12.35712 131.7486 6.477431
1.048452 129.6512 12.98491
1.952752 127.0481 13.28272
0.8038636 116.005 12.89006
1.84924 115.5367 12.81577
3.290732 117.8059 12.67806
4.251239 116.7616 12.26198
6.097118 118.863 11.65035
5.203167 117.2984 11.99469
5.4937 118.6306 11.89732
6.081596 115.2233 11.09977
6.446722 118.2969 11.31236
8.315934 117.4725 10.15102
6.362924 122.7319 12.44032
0.8962388 122.2429 13.4172
2.949408 126.0182 13.24618
7.887872 118.8362 10.8975
10.02387 115.5482 7.43821
8.21139 113.3154 9.809143
11.39025 110.679 6.636897
11.54909 111.4908 4.977046
11.1719 124.6933 5.184009
9.972306 124.4878 8.499359
9.941138 127.2188 8.31273
7.67574 115.7236 10.30174
9.205414 115.5344 8.562061
3.731681 125.0544 13.31829
6.27482 120.3088 12.04513
3.872943 119.9765 12.77793
7.620395 121.9885 11.43871
5.990538 121.4861 12.41704
4.667641 112.352 12.10042
6.266933 114.1699 11.01326
11.05115 108.8275 8.337822
10.67993 122.9079 6.785511
10.48716 120.5544 6.893185
10.52568 128.18 6.884397
9.076997 124.9792 9.939084
10.05562 125.5175 8.252096
10.4782 132.709 9.823618
11.23628 130.6584 8.148225
10.44551 116.7226 7.610743
8.228692 120.0695 10.48471
8.015786 120.9525 10.96913
6.073336 123.1657 12.63517
8.998321 124.6355 10.10822
5.494736 112.2815 11.70186
10.5984 121.8036 6.868812
9.804461 133.8199 10.04325
11.94963 133.1273 6.776672
5.788594 126.1021 12.58402
9.326455 120.5552 9.645831
8.858211 123.6117 10.35338
5.319418 124.7246 12.92272
9.249847 128.0896 10.4967
6.792074 124.6529 12.19575
5.212272 109.387 12.28436
4.354002 109.7596 12.58989
8.568672 111.3727 10.03756
9.79543 130.2012 11.03746
9.756342 122.3268 8.894146
8.659438 121.9283 10.47303
7.750989 125.2098 11.36425
5.397427 109.7537 12.15913
9.79696 134.4071 9.832257
9.245349 134.7579 10.22587
8.179342 110.3875 10.56948
11.22983 133.15 8.568313
7.863759 134.7332 10.87999
9.705977 110.529 9.268674
10.81086 111.6116 7.23716
7.959543 135.6776 10.38326
4.606278 135.9325 11.02409
10.04448 111.0059 8.713044
10.10019 112.2021 8.129036
6.415306 134.3307 11.50128
5.969394 133.9913 11.7836
6.88869 128.95 12.69333
4.051339 131.1391 12.87825
3.483619 132.626 12.52671
4.465271 133.2155 12.30959
10.51837 130.0256 9.440434
8.187147 129.3387 12.21338
6.76707 131.6977 12.54326
7.21215 137.4236 9.518103
10.53039 129.5865 8.360484
2.578464 131.7791 12.72239
3.834232 130.1774 12.98582
9.877533 127.5976 8.647882
8.172618 127.6306 11.43266
2.616604 127.9036 13.09151
8.995288 126.477 9.951212
11.3609 142.2676 5.315775
11.98285 141.5221 5.849801
10.95259 139.0685 7.856524
10.99978 139.4294 7.567369
9.895909 140.6357 6.695075
9.334069 140.4948 7.04213
9.801557 141.832 6.146036
10.26858 144.5785 4.305888
10.02627 144.8203 4.141172
12.58204 138.9104 7.127944
9.682997 113.819 8.241932
7.117199 125.0974 11.94863
10.30227 134.7686 9.285363
11.36094 139.213 7.713904
8.801071 135.7262 10.15096
8.082034 136.5728 9.855141
9.586272 138.8042 8.097168
6.929248 137.5315 9.558401
-14.21629 64.74054 5.136853
-2.556011 102.8214 12.73978
-14.55362 70.27664 5.106296
-1.661444 103.9859 13.04747
-13.3626 97.34668 7.562572
-14.10458 63.63457 5.709589
-1.642622 62.11855 10.36301
-8.93671 101.4493 10.85441
-13.63665 62.60153 7.00305
-15.40018 85.209 3.698175
-14.90685 90.04779 6.809745
-14.77848 76.11557 6.037475
-14.24008 65.76649 5.373394
-0.06507771 95.50606 11.50722
-13.1081 61.35697 7.6479
-14.20409 97.18829 3.140898
-13.03128 90.20981 9.540621
-11.92027 104.9265 7.869016
-15.07604 82.3687 6.226232
-4.701778 86.95198 11.93852
-12.31886 104.1751 7.249998
-3.973057 85.02652 12.19051
-13.441 101.3818 3.052009
-13.71014 67.49627 8.092401
-9.284481 61.77323 10.18906
-0.2418533 74.03548 12.26299
-7.466832 66.27311 11.25921
-0.00851137 82.77335 12.38376
-13.28741 62.45043 7.623677
-1.635216 68.80191 11.63997
-0.1120705 91.96867 11.04118
-1.083215 62.4393 10.4334
-1.581882 95.93956 11.49168
-4.000613 78.41823 12.47307
0.2446894 99.39204 12.17673
-13.05746 101.5648 5.782667
-15.16429 80.85603 4.571652
-10.22538 100.5738 10.02244
-3.363779 104.5377 12.8891
-6.129441 64.1861 10.82613
-14.02755 67.06503 7.056628
-11.66599 78.27689 11.42833
-1.544793 73.44855 12.20942
-14.63641 72.66102 6.154904
-1.490187 74.73379 12.31583
-13.93642 89.07396 8.732469
-1.612404 83.70339 12.3165
-15.42696 88.9298 4.085382
-13.95442 97.49368 5.949521
-1.79581 93.45532 11.18434
-10.83426 104.2281 9.28704
-13.10997 103.2333 4.57998
-13.02534 102.5302 5.345085
-12.58539 105.5754 5.989064
-0.5933755 63.74561 10.719
-1.790897 62.87784 10.53301
-1.676596 99.37089 12.08356
-1.576786 96.21688 11.53405
-8.579621 104.8727 11.10251
-5.517154 100.9572 11.80721
-10.64888 64.94529 10.55585
-13.77626 68.44335 8.065638
-6.155396 61.21954 10.16515
-8.658317 63.48543 10.62961
-0.5947098 72.03481 12.07057
-14.02705 76.81541 8.604375
-14.75847 85.44667 7.561924
-2.073224 77.62739 12.45184
-2.180446 74.75076 12.31799
-0.6343744 81.40341 12.43607
-15.32112 90.21322 5.608455
0.2645358 84.22519 12.26992
-2.422061 80.3059 12.4633
-2.810267 82.39577 12.3989
-0.7694018 89.56978 11.46799
-14.99732 88.80482 6.625311
-15.02632 93.3417 4.479585
-15.24678 91.95522 5.048784
-14.13027 89.81507 8.40178
-13.36786 91.41445 8.941163
-14.65907 95.37264 5.040053
-15.07015 92.86212 3.80773
-15.19232 92.33974 5.178952
-2.523311 94.54917 11.21305
-2.695493 91.34547 11.0528
0.3240748 98.27512 11.95687
-13.69385 98.64893 5.973979
-12.84997 105.2225 4.970609
-3.254488 64.86945 10.95846
-6.535315 62.32798 10.42879
-4.098938 66.95399 11.33629
-9.579286 105.0643 10.54529
-13.54222 62.88241 7.338343
-14.17049 71.55447 7.669936
-14.53597 72.4226 6.528153
-11.27396 62.23941 9.648811
-2.685649 69.84454 11.80475
-13.50936 76.52745 9.478255
-14.3726 79.00633 8.087387
-0.6160529 76.9663 12.43185
-0.5571328 73.38641 12.20428
-2.030324 79.4739 12.47187
-15.35787 85.62167 4.693713
-15.2464 82.40369 4.804332
-1.82896 84.05952 12.28504
-1.860458 81.42788 12.43494
-0.7317134 87.83226 11.78631
-13.75852 91.6655 8.294072
-14.58646 92.96436 6.909693
-13.87539 95.58578 7.311427
-13.25384 96.88514 7.865015
-14.23511 97.42746 4.435431
0.1781092 89.02903 11.58418
-0.193201 97.31202 11.77395
-12.43956 100.7664 7.743505
-8.99434 103.0908 10.90952
-13.52318 99.94832 5.288112
-6.961403 63.96828 10.78176
-3.644792 66.70802 11.29411
-1.14949 66.07327 11.17562
-13.72334 66.24437 7.739172
-13.04383 68.57599 9.290266
-13.94024 65.56351 6.932402
-13.81673 70.23167 8.251104
-13.59582 71.42601 8.867713
-13.84152 70.84145 8.312937
-14.79727 75.04711 5.029968
-10.12082 64.1832 10.49821
-2.610269 69.08118 11.68679
-14.12534 78.25031 8.540864
-13.61911 72.06398 8.907451
-14.70705 79.29493 7.140933
-2.906447 71.15694 11.97848
-3.209686 79.88877 12.47438
-15.18309 87.96096 6.02314
-15.20075 83.8432 5.963769
-6.543836 87.15568 11.90923
-3.578334 86.2973 12.0327
-12.92665 92.06732 9.352128
-12.04073 94.80624 9.577862
-11.90646 95.45032 9.651733
-12.86927 98.56416 7.865517
-13.98008 96.68128 6.584029
-2.979658 90.35328 11.29115
-4.567249 99.79464 11.75232
-3.62318 98.01892 11.54137
-10.20879 102.7677 10.07072
-8.083433 99.94123 11.04243
-12.50311 100.8272 7.646823
-11.31096 100.8243 8.965397
-11.95924 100.5955 8.416862
-11.0582 100.2101 9.292668
-8.627847 99.00671 10.78448
-11.42519 98.72559 9.326467
-11.90796 97.58324 9.158655
-1.528769 67.60223 11.44043
-6.132558 69.20979 11.72344
-6.792817 67.72014 11.46277
-13.26263 63.75891 7.984782
-9.269253 64.85613 10.88091
-3.76047 71.38596 12.00888
-13.68999 75.3327 9.10524
-1.573179 77.29956 12.44185
-3.843184 80.30835 12.47239
-14.4528 80.90689 7.932091
-14.93082 81.70551 6.70283
-3.092804 85.29414 12.16331
-4.362834 89.57242 11.47459
-6.125189 102.8956 11.971
-9.600413 98.54221 10.43013
-8.198305 98.21915 10.86556
-7.516471 99.40565 11.09412
-4.161955 99.81432 11.82516
-2.154272 101.3446 12.48689
-5.889357 101.4352 11.81809
-14.68831 81.09268 7.395176
-8.912636 102.5914 10.93155
-13.01673 80.89688 10.34866
-13.06304 81.11925 10.28
-13.11437 83.70484 10.19464
-9.76799 78.9218 12.27424
-12.4471 77.18252 10.83213
-10.62081 76.64308 12.02338
-12.07976 83.15044 11.11265
-5.846063 75.36655 12.37161
-10.64511 75.36797 11.88504
-8.306544 77.7636 12.46793
-10.5157 74.60635 11.85941
-7.655992 77.68929 12.48917
-10.44326 73.66692 11.76186
-7.784544 79.3866 12.50057
-8.827705 82.28609 12.35059
-7.966051 80.4887 12.52717
-6.888412 81.28716 12.43082
-10.07271 80.47103 12.21124
-10.05101 78.4285 12.17887
-10.30146 89.37582 11.23667
-11.25238 93.6637 10.22268
-11.73478 91.31012 10.35009
-8.706306 91.27054 11.17987
-8.849072 92.35887 11.00667
-12.26545 93.94494 9.637163
-10.71295 90.15574 11.00959
-5.83258 87.35383 11.87338
-5.075534 88.52116 11.65784
-10.87777 94.79249 10.21971
-12.0798 96.39452 9.190183
-9.056339 87.37434 11.79613
-5.912527 89.61034 11.47
-4.982181 95.03262 11.05458
-9.529602 97.56299 10.4105
-4.074464 92.43988 11.02897
-5.34208 90.36028 11.32501
-6.04684 91.53271 11.08433
-5.683246 89.97727 11.42141
-9.491118 66.7984 11.21053
-7.986807 69.37808 11.77343
-13.13647 64.47892 8.326962
-13.10136 66.30437 8.783192
-12.57393 66.67914 9.474996
-11.88103 66.34339 10.06688
-9.692521 69.55334 11.60642
-9.617038 67.40544 11.28386
-9.092982 68.21826 11.55309
-14.02288 73.52238 8.243402
-6.921283 69.89995 11.84
-11.67935 69.18803 10.59939
-8.728827 68.85497 11.69559
-12.53131 72.31999 10.33741
-8.306453 69.6388 11.80745
-7.749178 71.03815 12.01045
-7.803556 69.8284 11.83832
-5.024403 72.53489 12.12588
-6.009992 72.25547 12.10296
-9.208488 72.60442 12.09317
-13.31489 86.92602 9.774899
-14.20299 86.68977 8.502277
-13.25108 84.87573 9.970179
-13.86018 86.02243 9.146872
-10.03642 87.28148 11.6607
-11.89798 87.17566 10.84585
-6.147825 84.49052 12.24451
-7.201475 96.75387 10.87538
-2.158626 97.87103 11.72146
-11.0226 82.46601 11.77648
-10.30361 83.23949 12.07142
-6.485103 76.67931 12.43956
-7.461267 75.56208 12.39129
-6.897674 75.38361 12.38186
-13.36658 73.55576 9.442276
-6.655422 82.50972 12.40099
-12.11082 91.00456 10.17447
-8.050897 95.18562 10.81409
-9.464234 85.12202 12.02755
-7.642048 84.33614 12.25318
-11.03584 85.17003 11.63693
-10.77844 85.56832 11.68563
-9.16754 84.37447 12.19968
-4.776467 84.89543 12.20662
-12.13916 85.4214 10.93117
-3.374507 89.51976 11.48346
-5.204335 97.57875 11.22953
-4.956254 97.06539 11.18741
1.623855 66.36227 11.21996
15.33725 84.13228 3.514774
2.225395 97.05502 11.57906
2.570446 80.60325 12.45365
2.991987 62.77836 10.49948
14.7842 93.63857 2.287194
0.820493 62.5026 10.44278
7.029521 62.13742 10.33911
13.40962 101.1212 2.061417
4.987541 89.40319 11.51706
3.291357 97.34632 11.50179
1.651119 103.1774 12.92449
2.377461 103.1452 12.8302
12.99002 104.8632 4.394912
13.91611 90.42359 8.623034
3.072969 85.39039 12.13614
3.637386 104.6669 12.85019
2.032634 100.8592 12.38698
12.24514 105.4744 7.129247
5.369009 61.2319 10.13192
15.35272 85.53794 4.758931
12.00671 75.81703 11.01145
15.30508 91.14053 4.252697
13.77708 60.73571 5.951876
14.0361 61.026 4.495094
5.654877 62.44075 10.41498
13.97245 60.32272 4.581793
14.06115 61.91028 5.032299
12.45921 95.42053 9.093756
14.39517 96.71736 4.583899
2.915227 61.99583 10.32018
12.92733 105.6916 4.16292
2.024477 90.00089 11.3476
15.35657 89.76151 5.471508
0.3937753 103.5164 13.03243
14.64253 73.59956 6.193037
1.583051 72.46628 12.11693
14.63957 95.31805 3.391949
15.43589 87.2967 3.587866
13.19047 60.26729 7.27692
1.581635 68.26763 11.54754
14.35788 67.52705 5.707417
14.47299 75.26503 7.231647
15.32955 84.6907 4.806103
15.12062 80.28945 4.730297
2.543767 66.31912 11.21099
7.639527 61.48883 10.18246
1.897565 63.74184 10.71255
0.6989803 96.64167 11.65952
14.79762 93.26696 6.06297
8.54355 105.067 11.131
1.155736 101.791 12.68157
15.33723 86.64708 5.624116
14.51413 96.0384 4.026524
9.088697 61.41188 10.16824
14.17863 63.98934 5.072989
13.76538 64.0042 7.020481
13.37781 101.8343 3.510383
10.89277 105.0459 9.363915
11.67587 104.4545 8.332346
4.18633 72.87706 12.16543
1.52833 68.83514 11.64144
14.58134 71.56203 4.237099
14.33204 66.45312 5.006006
14.7773 74.72232 5.441881
14.9143 76.88073 4.315103
15.25249 82.17429 3.514879
15.26084 83.17387 5.183421
1.0124 83.38593 12.34304
3.067756 89.60201 11.4679
2.226768 86.76346 11.94185
15.03583 78.95898 4.19108
3.988159 68.40998 11.57007
7.813913 63.60059 10.68582
7.835383 61.78092 10.25394
1.029712 91.89391 11.05295
14.12803 97.60013 3.566959
13.97783 98.36701 3.626945
7.765307 104.8098 11.48943
11.37267 104.9428 8.768755
2.312434 91.24101 11.10086
1.124347 93.01644 11.15558
15.35252 90.55356 3.3927
15.36543 90.23098 4.640273
15.03631 93.31012 3.793727
10.4742 61.65125 9.851599
13.30839 62.02969 7.279918
13.22855 100.6434 5.863501
1.635158 70.40028 11.87329
1.750447 75.25101 12.35881
4.671114 78.05639 12.45673
3.662277 79.49399 12.45589
14.64795 71.91071 4.578553
14.21198 74.31152 7.897319
13.32912 74.26331 9.547936
14.244 71.35347 7.358375
14.70776 76.77177 6.631731
14.73465 81.75031 7.396008
11.24021 80.91953 11.75695
15.27501 82.5798 4.483181
1.106441 83.76288 12.3137
3.563391 88.6998 11.64335
4.054909 80.44373 12.45527
1.402743 96.79294 11.62823
5.40027 96.35809 11.08273
13.91838 97.99805 2.545545
14.64106 95.13923 2.784555
6.571177 103.8376 11.90306
3.378814 102.544 12.56656
5.443849 88.09173 11.74322
2.546771 91.73954 11.03127
15.334 89.73182 2.946249
15.41034 87.83239 3.155081
13.78984 96.0245 7.543523
14.15612 93.53073 7.577995
15.37844 89.83663 4.926501
10.72133 63.33351 10.14823
13.17959 64.02631 8.121993
13.86045 65.52235 7.016978
3.391317 70.11418 11.84016
13.36257 101.4739 4.481748
13.82574 99.08279 4.537628
12.34012 102.4641 7.20752
13.13085 102.7058 4.705809
3.34879 70.81374 11.92978
4.140538 70.6786 11.91383
4.652404 75.74705 12.40224
14.72818 77.55545 6.749143
14.58994 76.25239 6.981343
14.04017 83.58868 8.98019
14.92508 83.18843 6.975219
13.18376 84.84444 9.990582
15.01846 83.43535 6.668301
14.86599 79.21645 6.057575
14.69713 80.01577 7.280181
4.640279 81.98581 12.43334
6.784572 80.61881 12.45975
4.678331 98.72878 11.51597
3.821969 98.64861 11.63519
1.675812 99.07699 12.02047
14.21685 97.49812 4.50239
14.6681 95.0333 5.470674
6.475834 101.9758 11.77508
6.361442 101.6743 11.74872
6.874285 99.9487 11.3346
11.65195 101.296 8.664128
4.688456 102.3516 12.25638
8.434132 85.1778 12.0903
9.377769 93.78585 10.76587
7.403118 93.87328 10.95611
15.0132 84.42172 6.688202
8.664829 85.73567 11.96545
14.9435 93.79739 4.969769
13.78407 98.27432 5.99957
12.91359 100.2049 7.067128
4.18272 72.41989 12.11591
5.346253 76.70631 12.43839
4.23032 76.53586 12.42896
13.95555 84.36232 9.10556
4.805376 79.8177 12.45182
11.85588 82.22203 11.29254
6.908041 82.18567 12.45415
6.06455 102.6288 11.98128
11.5137 101.6733 8.802113
6.46048 88.91308 11.59051
8.824512 86.91918 11.88505
13.75217 96.81168 7.175564
12.40191 99.25726 8.253952
9.192128 98.41273 10.52115
12.10001 97.03886 9.0939
11.67703 99.5511 8.936919
7.617384 100.2104 11.20397
7.032085 98.28712 11.06842
11.2623 83.83488 11.57357
9.128087 81.77529 12.36895
5.300479 77.75826 12.46023
7.745929 79.55671 12.43441
7.295579 76.832 12.45081
9.701276 78.29313 12.26007
8.1754 77.10013 12.45595
9.654529 101.2243 10.41477
4.29073 86.7961 11.92762
7.066603 86.72146 11.9192
5.885124 83.89307 12.31295
5.663151 83.32468 12.35663
9.648009 84.96334 11.94043
9.216635 88.54066 11.57374
11.354 96.30046 9.749736
5.479147 98.13309 11.26789
10.18126 83.43626 12.06782
6.563743 81.5896 12.45888
13.27395 79.55077 9.98777
11.95832 78.84444 11.10559
10.97328 78.33613 11.8718
10.46451 77.2766 12.0403
5.993264 88.06084 11.75119
10.98135 97.356 9.788584
9.234021 96.91814 10.51488
8.096944 97.10748 10.76986
11.09625 85.7457 11.49003
13.53643 88.45328 9.274737
7.517966 87.24932 11.83859
10.44614 88.99696 11.22535
8.791953 94.90471 10.74235
13.10642 86.43324 10.08003
11.75463 88.17725 10.81118
4.210459 94.98158 11.11979
13.20129 95.33867 8.437223
13.20175 93.69954 8.81138
13.701 87.94319 9.139866
12.96685 88.71197 9.791851
12.48043 89.55463 10.15185
9.70172 95.50442 10.54695
6.575029 94.87864 10.92351
7.147998 95.19498 10.85513
8.098075 92.2922 11.03733
8.557385 92.88212 10.97326
6.506622 90.8987 11.2021
12.1011 91.9285 10.06464
2.820254 93.02856 11.1031
13.98671 91.32849 8.356315
3.120977 65.16457 10.99951
12.43688 66.94566 9.732155
14.17607 67.32526 6.564687
13.06761 75.75423 10.06882
12.22211 72.94715 10.68786
15.23313 88.75288 5.949325
3.192107 68.08862 11.51217
4.416963 69.60397 11.76906
5.248547 68.29839 11.55007
5.214387 68.77469 11.63811
6.825945 66.96835 11.28241
10.52229 72.55299 11.64536
8.268046 63.80332 10.73023
6.884033 65.55391 11.08615
9.118669 68.35811 11.53609
7.890958 66.90556 11.24324
12.91039 71.69733 9.788088
8.489142 66.4897 11.19384
8.244719 67.82575 11.43815
6.929257 69.15105 11.72944
8.489568 73.51026 12.25066
8.355191 71.24034 11.97266
12.25126 71.00789 10.32478
9.176796 71.03967 11.91682
11.68851 66.66444 10.24677
8.093793 68.60098 11.64643
9.123704 72.42065 12.08905
10.08571 74.51392 11.97847
11.29981 75.71096 11.53397
10.02502 72.21638 11.84315
6.47753 74.6514 12.35397
9.133237 76.30412 12.32566
13.8922 77.15739 8.94423
11.67661 81.57906 11.43419
12.58005 90.40791 9.920591
12.86901 70.69465 9.668174
9.747666 68.77275 11.38226
13.98138 68.87364 7.634657
13.95828 67.64702 7.44212
12.91772 73.68298 10.11553
10.01546 76.8469 12.16989
11.13012 68.70084 10.77991
5.343431 98.84425 11.4329
14.44271 143.7415 -5.556137
10.54452 115.6604 3.34
9.659082 114.2341 -0.7134354
7.173589 117.0407 -3.936179
9.954499 121.6992 -2.687229
12.82018 106.9264 2.438371
12.27334 107.8524 0.1013838
11.53101 111.1465 1.293039
1.403888 109.1809 -5.088224
11.65033 111.4551 2.517991
13.12667 131.3441 -1.599613
0.1325293 107.0442 -5.979616
6.110936 133.293 -9.078196
12.53417 107.3651 0.5918205
1.253017 124.3928 -6.625239
13.34455 141.5499 -7.406452
9.356172 143.2305 -7.541294
4.000334 139.8814 -10.23032
10.32502 145.9442 -3.995183
11.31616 145.9921 -4.049298
1.686204 134.224 -9.128998
0.7438203 141.8739 -10.53499
0.1340896 106.1402 -6.439141
1.009515 108.9883 -5.152916
11.40919 122.7861 2.165498
10.09791 113.8643 -0.6116323
6.255887 106.6577 -5.822411
12.93734 132.8907 -5.387423
0.4402257 110.1406 -4.764105
0.9887185 114.7779 -3.732677
5.726275 139.2158 -9.456544
4.57963 119.9934 -4.698733
5.659338 143.5624 -8.076952
-0.08746638 116.6667 -6.062688
10.39145 122.9209 -2.570555
0.3749937 135.1405 -8.9451
11.36863 139.5715 -8.095997
1.606238 137.6384 -9.351402
0.6542863 135.8993 -8.99063
12.17303 109.4684 2.095341
4.840637 128.8624 -7.479021
11.59749 110.0118 0.3154573
11.96809 107.5172 -1.103517
11.95022 107.2026 -1.440766
11.50246 117.7273 3.251863
3.852966 131.2142 -8.859237
13.82011 133.4656 -3.771563
1.437092 107.4547 -5.773456
3.062993 108.7742 -5.134399
4.125094 107.2832 -5.776275
14.08327 144.0925 -5.339644
13.99312 142.0522 -7.019686
2.322582 136.8667 -9.042356
3.450197 140.4807 -10.44185
11.45929 122.2864 2.619
12.54669 131.7809 -5.221581
1.471617 122.6463 -5.189405
0.1714262 128.9677 -7.535122
10.80419 113.8782 1.216099
9.53397 108.7369 -3.571513
1.618533 113.5251 -3.908542
11.08195 118.3881 2.578847
10.72383 118.6068 2.142978
1.548655 131.7538 -9.083745
11.55016 137.3011 -8.269423
13.60523 133.5591 -4.637333
4.115749 106.5284 -6.155511
6.542899 115.3148 -3.478271
1.832792 110.142 -4.84484
11.78983 138.8747 -8.040459
1.189336 134.5336 -9.061441
2.092641 139.5047 -10.48764
2.562893 138.456 -9.782871
11.47904 122.5399 2.719727
11.03984 120.9849 0.5909628
12.00302 126.7535 1.022424
12.3599 130.1241 1.189873
1.477487 116.2164 -5.592028
0.5637702 122.5806 -5.148621
1.016624 126.6098 -7.105721
10.01978 111.0407 -1.714342
11.31185 107.0968 -2.628354
9.166695 108.718 -3.837571
0.583416 115.2559 -3.82897
0.1365171 111.45 -4.407224
11.05885 118.8327 2.982453
3.076933 131.163 -8.867481
13.47462 133.2029 -4.563227
8.413568 107.8051 -4.730917
7.65772 109.16 -4.374981
8.535637 110.4504 -3.268461
9.195745 113.3249 -2.39411
1.754006 110.4427 -4.791713
3.846345 134.6373 -9.138103
3.950581 136.0038 -9.104692
3.549498 131.7654 -9.021881
3.584337 143.2639 -8.261148
10.79745 122.0254 -0.1376803
10.92325 120.7807 0.5097625
12.14462 128.7567 0.6897042
11.66062 126.7478 -1.406571
0.284966 118.7061 -6.08185
2.315339 120.3263 -4.298045
2.199467 129.0034 -7.508463
9.925406 114.8735 0.1032163
10.49477 111.267 -0.9484162
3.361011 116.0502 -4.650821
2.073492 115.8185 -4.991941
2.585865 111.4213 -4.437542
10.80894 118.2563 2.121932
11.08398 137.921 -8.214478
10.5127 139.9668 -8.464355
10.91251 135.3051 -8.306161
12.16797 135.113 -7.487689
3.744176 108.6537 -5.130677
8.258574 108.047 -4.700804
4.274073 109.9178 -4.587724
7.519492 135.0535 -8.987903
5.578609 129.2328 -7.70802
5.105451 139.7285 -9.785824
12.14082 129.4613 1.617731
12.50274 129.7358 -2.236439
11.51363 123.8835 0.3806846
10.47473 124.4364 -2.41766
10.47484 121.4495 -1.36075
10.25798 122.5949 -3.093846
12.4734 130.3473 -3.918424
1.383285 119.0889 -5.847219
2.839787 124.9566 -6.756713
3.648152 126.5745 -6.880718
2.186574 123.4896 -5.996107
4.311842 122.6117 -5.184859
10.18953 115.4285 0.3861824
3.274599 113.1947 -3.757413
7.318439 115.3684 -3.349179
10.06198 119.263 0.2063559
5.406919 108.8606 -4.922822
8.391654 116.1696 -3.333874
10.94023 112.9038 1.381494
7.439482 141.4926 -9.284023
8.787061 136.0142 -8.718357
6.46265 139.4046 -9.417184
9.220804 137.1238 -8.576884
9.659443 136.5969 -8.56046
9.273552 131.4423 -7.940584
7.271091 133.6655 -8.969442
12.03069 128.1683 -2.694736
12.34264 129.253 -0.8434489
4.178098 117.0451 -5.553316
2.990885 117.9767 -6.20181
4.646515 124.2023 -6.320284
2.103624 114.4771 -3.67492
9.117651 117.4602 -0.8632394
7.623402 117.027 -2.929508
11.66384 142.7329 -7.36273
3.06067 130.1541 -8.30491
4.750425 129.7558 -8.001354
4.747988 127.9977 -7.037915
9.06477 124.2806 -4.272995
7.983043 128.4518 -7.077938
5.789849 131.8154 -8.897744
8.400726 130.3636 -7.858274
11.11899 131.3033 -6.622667
10.30608 131.062 -7.191587
9.731829 125.6416 -4.791317
11.64019 130.1377 -5.204498
12.57867 134.1616 -6.870374
11.26586 123.2758 -1.256971
6.170578 118.3064 -4.462591
9.126986 120.1575 -3.386753
6.422801 121.9306 -4.467777
5.549544 123.3896 -5.278309
4.270144 120.6033 -4.514945
4.426747 122.1891 -4.976084
7.082665 124.5551 -5.989874
6.725074 123.6656 -4.929141
8.2053 120.964 -4.107002
7.091733 121.8517 -3.957896
7.698983 120.646 -4.268497
4.207022 119.7831 -4.939744
8.827451 140.8993 -9.126678
8.213563 141.8552 -8.916695
9.808118 144.0598 -6.753151
7.562718 131.8811 -8.659309
4.871581 117.8387 -5.037959
8.020458 119.7071 -4.39366
7.736873 119.798 -4.661024
7.271053 118.2414 -2.787685
8.815882 115.4815 -2.146485
9.382857 118.7513 -0.7401368
6.837905 128.6638 -7.323673
9.60463 128.601 -6.51341
5.216046 124.6713 -6.423913
8.64768 118.7816 -1.579869
6.450104 139.701 -9.547972
7.500414 137.963 -9.075564
10.14597 139.1658 -8.436816
8.9116 125.6882 -5.678898
11.52237 127.498 -3.591052
9.769145 125.5456 -4.524445
9.753891 127.7471 -5.919454
11.21714 144.6376 -5.776364
13.14248 143.3329 -6.361027
12.81796 133.4331 -6.049098
12.45575 131.5549 -5.213182
8.00001 109.7897 -3.913345
5.823435 110.2389 -4.311563
5.272961 143.2221 -8.249139
6.582976 142.4157 -8.843814
6.140496 143.9772 -7.900124
2.048662 112.4724 -4.118743
10.0773 116.4658 -1.269757
9.57937 115.1229 -1.148685
8.345234 115.9452 -2.657944
12.60409 130.9583 -4.375589
11.49003 128.7645 -4.555767
6.955622 113.1056 -3.774536
8.000763 113.2784 -3.410269
4.271801 112.4724 -3.877365
5.952893 114.1429 -3.201097
10.00637 113.4235 -1.146136
3.900472 133.7837 -9.164628
10.27142 144.8898 -5.739148
9.39265 117.5091 -0.3526654
7.644198 118.933 -3.41621
-13.71135 141.925 -7.087569
-0.3934169 112.6931 -4.081704
-0.5691342 140.3159 -10.74698
-2.944716 128.2014 -7.160826
-0.5593942 116.1009 -5.418115
-5.19208 115.4857 -3.326765
-0.6322322 137.9037 -9.684502
-1.250189 106.8033 -6.101082
-3.353298 139.9932 -10.38923
-13.16747 139.4807 -7.740358
-0.1192864 135.3182 -9.004218
-0.121509 143.5007 -10.17823
-1.738333 106.1042 -6.449807
-0.5540262 127.0509 -7.025217
-1.486341 137.9271 -9.726498
-3.171138 141.1363 -10.66446
-10.85138 146.4459 -3.531517
-14.01389 144.7283 -4.550025
-12.28994 142.364 -7.270221
-12.41558 106.293 -1.015689
-12.18093 107.2647 -0.9259701
-13.002 105.8956 2.90157
-12.28473 144.2183 -5.917244
-12.22119 144.0829 -6.099884
-11.80411 126.3865 2.45965
-11.72917 124.8007 2.256377
-12.38308 129.4382 0.2461651
-6.59518 129.2824 -7.741354
-5.465507 105.7165 -6.497216
-7.755161 142.8788 -8.255936
-10.80198 143.4729 -7.349827
-10.94897 146.584 -3.095631
-14.22559 140.4991 -7.399129
-12.66945 145.2649 -4.572147
-8.625745 107.8397 -4.588045
-12.60369 107.4695 1.344267
-0.4546609 118.1731 -6.26188
-13.8995 141.0004 -7.420598
-1.169705 136.3682 -9.018678
-9.205108 121.8565 -4.066722
-11.58691 123.6821 0.3008885
-12.36288 129.1259 -1.727062
-1.483552 132.1443 -9.203544
-11.27975 106.05 -3.167647
-0.6964751 108.0699 -5.491706
-1.03338 107.8273 -5.608665
-4.048024 107.7286 -5.573985
-2.084533 114.6169 -3.773814
-10.49144 106.6872 -3.838709
-12.22497 109.5052 2.906111
-11.76862 108.6723 -0.6440349
-11.54656 114.8995 1.629647
-4.98461 140.2219 -10.21866
-3.321589 140.8905 -10.61193
-1.524217 142.9391 -9.243993
-2.822624 137.6606 -9.440657
-6.500119 142.2652 -9.21255
-5.817306 143.691 -7.938822
-5.895751 139.2596 -9.814208
-9.704674 143.0462 -7.95609
-8.764014 138.3264 -9.030256
-7.492407 138.2122 -9.259624
-9.44869 138.451 -8.765873
-9.917746 136.225 -8.690962
-11.21568 137.8217 -8.260139
-9.910726 138.1545 -8.523086
-9.609763 140.0907 -8.992203
-0.4146837 142.6831 -10.57758
-14.53759 143.0125 -6.229084
-11.73883 137.3438 -8.210238
-2.001799 121.1486 -4.478211
-0.2450052 123.4664 -5.896884
-11.1998 122.3392 3.271618
-10.62521 117.8734 3.97828
-11.96149 127.7528 -0.2543329
-2.059269 132.5627 -9.185665
-0.2016634 128.8288 -7.467543
-1.78869 128.1722 -7.164826
-9.076122 106.315 -5.019739
-10.03339 107.2565 -3.904385
-1.542031 115.0806 -3.778156
-1.434034 115.7823 -4.432507
-3.737747 110.0146 -4.591333
-6.524077 108.0266 -5.154315
-11.06387 107.5635 -2.699209
-11.0334 113.1628 0.8409272
-1.412367 138.7176 -10.10045
-0.5026951 134.5705 -9.027184
-7.012991 137.2212 -9.142669
-14.07257 135.7494 -6.460044
-0.8041268 119.6283 -4.823511
-2.163445 122.7582 -5.038552
-10.79931 116.676 2.902344
-11.65348 123.8417 0.5345604
-10.63142 117.401 3.096701
-11.97916 126.6687 1.004095
-11.92216 128.4563 2.182368
-13.26383 131.5262 -1.779637
-0.855448 130.9827 -8.851149
-4.223935 128.0205 -7.09466
-6.678671 130.4444 -8.317704
-6.125649 128.7351 -7.419252
-6.060089 127.3236 -6.840796
-7.490188 129.6007 -7.82578
-1.236564 129.1235 -7.72222
-0.582068 125.1648 -6.979765
-7.880944 107.6174 -4.996865
-3.266261 116.8358 -5.962801
-4.838045 111.6383 -4.003217
-3.514699 111.8161 -4.269592
-2.034905 113.8981 -3.979249
-3.611113 109.6843 -4.715649
-3.856552 116.2841 -4.039581
-5.306028 120.5427 -4.29594
-1.598533 116.6811 -5.984905
-3.124986 116.9738 -6.027366
-7.054016 107.5879 -5.245063
-11.38498 107.316 -2.463869
-9.310858 110.1381 -2.975242
-11.06114 112.6215 1.252495
-11.66445 114.1415 1.72492
-4.83654 135.5981 -9.161676
-13.63254 133.809 -5.211011
-10.61985 122.2257 -1.337048
-11.41447 124.1409 -2.617268
-13.01438 130.9884 -1.181335
-2.950642 132.3149 -9.183372
-5.081014 110.2039 -4.402066
-4.033544 119.9113 -4.561247
-10.05341 110.1881 -2.212557
-9.435738 110.7055 -2.54008
-11.15628 112.918 1.186183
-10.79429 116.4424 1.352826
-7.238619 133.9231 -9.050593
-3.487563 123.5508 -5.296891
-11.04888 122.7288 -1.185999
-10.84011 122.6356 -0.7603027
-10.76647 121.0804 1.345749
-12.86493 130.7265 -3.280199
-7.146621 110.0292 -4.116867
-8.980766 112.5417 -2.303096
-3.567099 119.1585 -5.120248
-6.014341 137.3616 -9.291905
-3.696915 119.0805 -5.323179
-5.276746 122.1327 -4.686193
-8.929211 117.9835 -1.201232
-9.832048 121.1705 -1.274028
-9.73049 121.0762 -3.207629
-12.974 133.1256 -5.603141
-8.408031 113.5685 -2.361695
-3.85521 112.9715 -4.083502
-3.688393 118.469 -5.983557
-9.034506 124.509 -4.935789
-8.577352 119.1227 -1.938798
-8.296358 117.5676 -3.066006
-6.875747 116.2337 -4.345303
-9.955596 116.9728 -0.292316
-8.836568 112.8675 -2.411279
-9.814192 116.0608 -1.916258
-8.933761 117.2049 -2.425882
-8.05082 115.3822 -2.047448
-4.80099 120.9444 -4.426147
-9.737795 117.1206 0.4350059
-10.41684 110.4961 -1.508243
-9.663939 113.0754 -1.186229
-9.141519 115.8308 -1.848036
-8.270751 116.2529 -3.408235
-8.056802 119.8561 -4.271443
-6.698733 117.4833 -5.394226
-6.830513 118.0899 -5.409019
-5.003403 119.5934 -4.70407
-5.514964 117.848 -5.766533
-9.998636 143.8483 -7.251297
-10.81495 141.9151 -8.104251
-8.992177 145.0064 -5.853066
-10.07948 141.0796 -8.721238
-12.1717 142.201 -7.403949
-9.314138 143.2176 -7.930267
-8.826812 135.2208 -8.866364
-8.308413 131.0726 -8.277958
-5.897216 133.391 -8.9778
-4.074376 132.3665 -9.125025
-5.548329 135.5501 -9.183723
-9.61822 131.9569 -7.916741
-7.928767 134.6311 -8.991735
-10.06367 135.1041 -8.533342
-6.69786 134.8711 -9.160673
-4.162636 136.2016 -9.15294
-4.709938 133.6957 -9.01327
-13.32083 138.0525 -7.873048
-11.82285 137.4148 -8.18335
-12.62319 133.4382 -6.292218
-11.86782 127.513 -1.244412
-1.880017 135.167 -9.036226
-11.87064 124.3276 -0.9396421
-11.87332 127.4966 -0.7990153
-5.500566 124.9352 -6.142273
-6.489174 123.6151 -4.954175
-8.158759 124.3103 -4.669278
-9.615517 121.1902 -3.517326
-7.45243 124.7142 -5.594973
-9.823957 122.7363 -3.383217
-7.164081 123.5334 -4.671574
-9.511149 125.0728 -5.339198
-11.11032 125.7276 -2.437299
-8.463093 125.3784 -5.991598
-8.32212 121.9513 -3.734004
-10.65866 126.3798 -4.012805
-10.72963 128.0117 -5.472155
-10.38768 129.8875 -6.643713
-9.421519 128.1694 -6.349836
-7.705355 128.813 -7.350017
-6.075628 127.9327 -6.951891
-6.254599 127.0983 -6.841538
-9.370867 130.2492 -7.507804
-10.21543 130.7432 -7.168715
-7.974821 125.8639 -6.387096
-11.33913 132.8652 -7.156179
-13.15338 133.7431 -5.836216
-6.144149 114.9088 -3.050546
-9.203404 116.4475 -2.658458
-7.139077 118.1229 -4.375074
-6.090822 116.36 -4.042601
-9.940732 134.3614 -8.40519
3.828425 103.5894 -7.762366
13.90802 93.23141 -0.9772493
-0.180589 102.9653 -8.048743
1.696053 104.8202 -7.131217
12.77557 105.6909 -0.01006758
14.87331 80.81985 1.639475
10.84347 93.40598 -6.673848
14.4329 79.06344 0.6860189
13.2666 79.99573 -1.862934
-0.03205442 105.0265 -7.021079
14.48135 94.33764 1.608959
14.8104 79.27364 1.934102
13.03798 105.3056 1.533841
15.13905 81.29937 2.943986
13.17942 101.5727 0.5345706
15.32063 84.89956 2.558391
15.10618 86.05107 0.818696
12.98669 103.8843 -0.1850861
4.525379 60.65926 -2.423203
3.183192 102.8209 -8.14055
2.662345 61.00093 -2.452292
5.085195 60.54092 -2.41566
13.76068 63.66183 1.955844
0.2131813 64.49917 -2.846637
5.213565 64.10911 -2.790641
-0.4841862 69.88721 -3.543078
6.600908 99.2492 -8.952431
-0.4677569 77.7793 -4.728842
3.002964 81.94153 -5.9017
4.419626 79.65564 -5.196778
1.450794 88.11678 -9.047745
2.793036 101.7405 -8.607881
0.5020695 93.06218 -9.989456
13.0014 64.53428 0.4446852
-0.1117875 93.94756 -9.974033
1.338107 98.08251 -9.574448
13.15671 65.45204 0.6626033
1.024505 103.9777 -7.562702
13.90571 63.74446 2.521661
2.220423 100.6768 -8.993865
14.00272 61.73362 3.21869
2.049214 79.14011 -5.074322
14.33059 87.08772 -1.530336
-0.03444104 68.89466 -3.436556
14.22001 72.40852 2.053429
3.631368 94.82429 -9.960278
1.717035 101.8158 -8.55842
11.55761 97.71964 -4.565197
4.572273 92.51725 -10.10617
13.20205 103.1914 1.075895
12.50582 99.72403 -2.003636
2.605366 87.38892 -8.720655
1.722662 60.09625 -2.38454
8.622549 59.89027 -2.286629
6.49438 60.51275 -2.414507
3.377088 104.1669 -7.485703
1.042301 101.6603 -8.608778
14.08983 71.52295 1.817513
10.66561 60.42466 -1.414792
0.1673343 82.1692 -6.004265
3.582514 81.31918 -5.690054
1.287166 83.2773 -6.454299
1.866401 84.46246 -7.039518
14.61906 90.48937 -0.3871116
14.36791 81.64456 -0.337718
-0.042717 71.35735 -3.696026
1.989975 66.24251 -3.097006
-0.4553457 76.3987 -4.417305
14.12387 71.87936 1.841938
14.13325 74.10785 1.380045
0.09771638 100.165 -9.112632
10.45064 103.7679 -5.015719
13.86217 97.69379 1.831632
0.9080802 95.25573 -9.907498
0.1679568 88.05746 -9.026547
1.656645 89.09882 -9.44045
15.08597 87.5504 0.9983084
14.07455 93.33743 -0.5015857
7.840684 61.11564 -2.451156
9.161277 61.34217 -2.273456
1.828448 63.32862 -2.688649
13.49184 63.80621 1.448865
12.5535 63.31466 -0.02112882
4.301129 77.9171 -4.755288
4.823872 80.49818 -5.42818
3.142723 86.84445 -8.433966
14.74158 78.32842 2.002419
15.11111 83.02102 1.740478
14.7534 77.05811 2.7101
-0.3805844 72.09053 -3.772057
0.1940532 76.5604 -4.454917
14.25849 68.62971 3.020351
12.81811 72.38863 -0.6915712
0.3077993 98.67545 -9.462189
6.219139 104.383 -7.127755
13.88608 95.93938 0.6638388
2.494164 96.09903 -9.860838
12.85585 100.6348 -0.9460093
0.9336812 89.17488 -9.451805
1.505921 93.83734 -9.978693
2.931575 91.82202 -9.993929
12.44091 88.52489 -4.446686
14.48013 93.98905 1.298637
9.195647 61.19329 -2.24255
6.103112 65.32157 -2.988838
0.0449276 65.47574 -2.989788
5.116753 102.2488 -8.371048
11.9106 62.4337 -0.6908514
2.978616 65.83488 -3.041964
0.2495483 77.78407 -4.732062
2.314219 79.81249 -5.254183
2.640286 85.92781 -7.883598
4.16512 87.27534 -8.706961
15.30312 87.55286 2.148962
14.33565 76.92226 1.106253
14.42721 80.67422 0.1336422
12.29299 82.23264 -3.519571
14.93311 83.15785 0.9374776
13.54631 83.87701 -2.349201
13.93644 77.73178 -0.1206492
13.32683 75.71335 -0.5561556
1.643891 67.15812 -3.220537
1.61385 74.12168 -4.013167
11.80079 68.13186 -1.258309
13.60421 70.95312 0.7625675
1.773051 98.73793 -9.457666
10.16168 104.0997 -5.146449
11.30111 101.8199 -4.385365
10.52941 101.5046 -5.496029
8.414772 103.8672 -6.518155
5.337862 101.0021 -8.801885
4.66907 103.326 -7.88708
13.31907 95.49191 -1.21308
-0.2327509 94.73005 -9.94615
3.710212 96.80314 -9.827313
12.94246 102.8711 -0.5053662
2.164718 89.17572 -9.484446
4.016532 93.43729 -9.984311
3.515372 88.75574 -9.398133
14.4214 89.90225 -1.118653
14.54015 92.72048 0.4175883
12.72333 94.4697 -3.057587
10.59935 63.00545 -1.743108
2.271858 101.3298 -8.757419
1.988535 100.4147 -9.06408
4.639433 100.2834 -9.120399
2.756012 103.7429 -7.691856
10.75062 71.27738 -2.522051
13.16213 81.3096 -2.327359
13.50059 85.23521 -2.713005
14.55233 84.77495 -0.7048653
13.21597 85.65757 -3.152613
14.36488 74.77028 1.854093
2.149918 68.33169 -3.370824
14.06028 67.40372 2.660092
13.71167 66.66148 1.699029
9.852498 98.01805 -7.12703
11.04526 98.78649 -5.236942
12.2172 98.22438 -3.020225
8.593883 101.7627 -7.168331
13.36933 94.58105 -1.525128
12.23738 97.53454 -3.150109
13.49772 96.59888 -0.09506732
9.17955 88.4525 -8.038916
2.093225 92.03955 -9.980695
3.552229 101.3319 -8.797191
11.23894 71.98102 -2.243036
2.670561 69.35421 -3.496652
3.317723 71.83942 -3.756707
7.122533 98.28571 -8.968894
7.644861 100.8941 -8.068678
6.348235 97.08896 -9.49437
9.711096 99.17548 -6.883782
9.75316 97.50046 -7.295124
10.37881 96.47101 -6.844746
12.90336 93.0845 -3.286041
11.07991 94.57092 -6.15509
8.920098 93.80091 -8.599751
6.228562 87.73473 -8.862536
4.998391 91.06346 -9.97829
2.214499 70.12096 -3.577541
3.711508 74.75883 -4.097103
8.761434 98.12515 -8.103738
8.109735 100.333 -7.96174
9.117905 100.5196 -7.080114
12.07612 96.13656 -3.908515
7.768275 90.66973 -9.275024
12.69878 67.6293 -0.067653
10.64008 67.71629 -2.195186
3.132945 70.8301 -3.653762
7.025219 72.08604 -3.792755
10.24007 94.25022 -7.27478
8.495901 91.81959 -8.966332
9.710734 93.85359 -7.908782
9.182948 96.33231 -8.098583
8.127037 88.4049 -8.553908
5.6196 69.01829 -3.468238
11.63355 94.9991 -5.108078
12.99176 90.42773 -3.643125
12.56384 92.23973 -4.050655
9.028282 89.93617 -8.621187
11.6355 91.36747 -5.69301
12.71528 86.51811 -3.894355
11.85767 89.41288 -5.375525
8.595985 91.41295 -8.906762
7.831003 96.66773 -8.937548
8.126928 91.36041 -9.143876
7.514059 92.9893 -9.439335
4.80768 92.94138 -10.02736
2.983789 93.16439 -10.01603
5.189143 95.74373 -9.848744
9.708125 89.62213 -7.951104
14.043 88.95617 -2.038329
11.98532 87.63939 -4.976065
12.63268 87.31536 -4.078186
7.039975 88.12143 -8.857814
11.93924 88.41209 -5.125091
11.87261 83.85302 -4.270559
10.44423 85.15869 -5.766462
14.07944 88.2132 -1.972243
11.36748 82.80659 -4.404679
11.60979 83.20316 -4.312836
11.13078 81.12605 -4.211065
9.038799 85.80685 -6.84859
2.732627 63.1325 -2.662486
3.225154 64.56097 -2.861302
4.649385 67.07401 -3.198796
4.906271 62.41447 -2.577333
6.079232 66.79845 -3.156807
8.466569 65.85538 -2.937198
8.669788 66.63173 -3.00057
7.819164 65.40951 -2.985186
6.811699 64.13426 -2.794071
9.170321 65.78344 -2.726403
9.662808 68.22265 -2.818576
11.94426 66.3937 -0.9595558
3.346135 82.71615 -6.170962
5.165525 82.8672 -6.136275
12.75826 100.1319 -1.275522
3.449097 82.46012 -6.066798
4.374118 84.2841 -6.849108
9.853856 83.49664 -5.401295
7.472961 85.46111 -7.296558
6.024952 82.10558 -5.848712
5.326008 81.1404 -5.604908
9.337346 82.24055 -5.343364
4.320248 85.47372 -7.616304
11.65369 71.45605 -1.877037
12.40018 73.30198 -1.339715
12.46168 71.59579 -1.000222
10.92562 72.79136 -2.562206
9.004972 72.90881 -3.514561
6.774052 70.92756 -3.678029
10.09065 71.83118 -2.946017
7.730742 71.43884 -3.719957
5.058851 72.49026 -3.826964
5.729576 74.7429 -4.074587
11.08678 75.7735 -2.842487
9.486559 75.76112 -3.712883
9.80967 69.85474 -2.953533
8.705474 71.69714 -3.493717
12.81214 103.5737 -0.9560841
6.210944 86.18674 -8.019016
11.09373 76.81244 -3.103518
13.39809 78.38194 -1.157743
5.64958 79.06934 -5.030066
13.80285 78.99963 -0.8390076
10.86991 81.98166 -4.606356
12.01214 78.22694 -2.844875
6.382573 76.03894 -4.313581
9.546264 76.07468 -3.762396
6.671217 63.43058 -2.684278
4.474147 80.18909 -5.345746
5.328759 78.29411 -4.836899
8.989723 80.71395 -5.098264
7.262115 78.96925 -4.967979
4.884499 75.81849 -4.285938
8.371886 75.39312 -3.979257
3.090417 77.15205 -4.583
7.874424 78.18029 -4.678041
9.887965 78.2627 -4.161894
-0.9099627 72.4259 -3.807494
-6.221737 85.20974 -7.322889
-13.99942 64.15202 2.841528
-0.8512583 75.46349 -4.235662
-13.69259 74.3561 0.2919327
-1.479952 61.10014 -2.46381
-11.98775 100.499 -3.241423
-8.921235 101.568 -7.000765
-0.9522888 60.65185 -2.426833
-13.21899 103.5094 1.606315
-11.83991 65.03831 -0.8957878
-2.074615 95.0608 -9.943777
-13.22486 61.93367 1.005925
-9.874574 85.38321 -6.221396
-0.5591548 89.85392 -9.648078
-4.933801 89.64961 -9.794237
-0.548343 84.26917 -6.932408
-13.35477 101.2827 1.718577
-0.8721967 104.3161 -7.385062
-1.808119 84.12154 -6.841486
-14.40869 68.435 4.207543
-5.920478 103.0634 -7.880221
-1.183274 76.85007 -4.509177
-15.16274 80.90187 3.922884
-15.08795 81.98877 2.176496
-13.81322 62.76334 2.240257
-14.05233 61.57809 4.274756
-15.16325 82.7785 2.266089
-12.81068 105.6609 0.2975816
-14.21145 64.1039 4.167871
-10.28087 81.17345 -4.735791
-14.99874 86.93464 0.2019915
-9.724077 104.4958 -5.321858
-14.86399 93.28365 2.603554
-15.4187 86.78075 3.24334
-13.80058 97.89606 1.780303
-12.84628 95.60422 -2.337719
-2.839891 81.23916 -5.652838
-13.10141 105.0648 2.824542
-8.603062 104.9651 -5.883511
-13.69825 61.67676 1.9281
-3.737552 65.75417 -3.033013
-14.50658 71.16603 3.4311
-2.08025 78.13066 -4.806366
-15.31954 82.96928 3.72215
-0.9065323 82.94637 -6.300292
-2.02407 64.77921 -2.887109
-3.545932 61.13286 -2.473898
-2.742321 62.79778 -2.614079
-1.977719 63.05804 -2.642829
-1.104263 93.27338 -10
-13.34109 100.3499 1.187053
-5.482657 104.4805 -7.194931
-0.5477453 102.0005 -8.467931
-4.933943 103.0425 -8.021657
-6.394034 100.5411 -8.711295
-15.18693 87.54671 1.025045
-6.971657 92.74511 -9.693243
-13.31991 60.27144 1.212794
-14.02668 63.69844 3.027824
-12.97623 102.2583 -0.3999074
-12.02774 105.6499 -2.141404
-12.40964 102.9839 -2.174047
-3.16931 73.4967 -3.932403
-4.463026 79.4606 -5.126745
-14.77169 75.41058 4.018215
-0.7943607 78.56533 -4.921389
-14.23796 77.27929 0.7840452
-14.98498 78.14021 4.346665
-15.02212 80.92808 2.364302
-14.45377 81.15238 0.06095013
-2.101727 67.03407 -3.209713
-6.501919 61.2086 -2.491848
-2.239842 98.41129 -9.530725
-14.18696 93.84438 0.1284239
-14.69011 92.08286 0.5311615
-14.52318 93.37835 0.9108129
-9.579097 105.5638 -4.99867
-6.721962 101.4028 -8.287566
-1.098955 98.57605 -9.484324
-6.879073 99.36348 -8.828938
-15.24875 88.39235 1.49076
-15.13291 88.5721 0.8631172
-14.74439 93.13028 1.800601
-3.618946 95.57764 -9.927482
-5.026837 87.78177 -9.0034
-11.74647 60.16076 -0.6594748
-13.10366 65.9008 0.5095411
-12.1714 103.9423 -2.53525
-11.37763 104.3581 -3.745161
-10.85588 102.4927 -4.844869
-12.6741 99.90288 -1.453994
-2.869975 69.2552 -3.470618
-5.236538 73.11971 -3.875423
-0.6348689 68.07458 -3.340834
-2.710306 77.58986 -4.67213
-14.69758 73.3798 3.984209
-13.83453 70.30478 1.423395
-3.023663 82.24017 -5.973454
-3.186189 80.68697 -5.485293
-15.03746 79.02063 3.644373
-14.6882 75.58961 3.14541
-15.20329 81.76181 3.15714
-1.833623 95.73537 -9.883223
-3.124287 94.93996 -9.977726
-13.92926 95.88337 0.8245788
-13.50156 96.89854 0.1791533
-7.434664 104.1749 -6.828969
-5.574138 99.44273 -9.202631
-15.2514 87.68777 1.549818
-15.16133 84.63104 1.615705
-13.78135 90.56522 -2.327711
-13.60108 89.32214 -2.859059
-13.02474 89.85053 -3.648061
-13.69382 89.96107 -2.614198
-11.64135 92.68937 -5.569659
-11.06329 91.04306 -6.520354
-13.43803 92.8199 -2.282581
-10.76476 90.43143 -6.854609
-6.9496 90.75351 -9.561441
-10.57772 93.06263 -7.032956
-11.8924 93.2478 -4.999495
-10.61452 92.57868 -6.999228
-12.4661 94.79298 -3.490594
-13.89003 93.04385 -1.120079
-15.18258 90.33038 1.832005
-4.525892 85.78603 -7.880678
-2.083526 89.86255 -9.706988
-3.384534 89.80939 -9.757785
-14.14068 65.83861 3.120258
-10.6237 100.1909 -5.617839
-12.79159 101.8344 -1.159376
-11.70476 100.3917 -3.818237
-10.17654 99.48526 -6.360948
-8.753456 102.3358 -6.883177
-6.352481 101.0051 -8.577581
-4.42303 70.66298 -3.607044
-2.927848 69.0374 -3.448563
-12.75102 77.45533 -1.783216
-2.624182 75.88486 -4.298334
-5.404018 75.43123 -4.175035
-14.12557 66.63908 2.905155
-14.44425 74.02156 2.346193
-14.28444 68.75361 3.068226
-14.27165 69.81037 2.9943
-2.644723 84.47532 -6.996573
-4.263098 83.06962 -6.243634
-5.117048 80.35894 -5.359317
-14.87132 81.17226 1.405549
-12.49482 78.34398 -2.300788
-14.56356 77.67758 1.52737
-13.09925 76.45313 -1.085238
-10.87329 77.01579 -3.294756
-15.05159 83.13724 1.372634
-4.37751 93.86951 -10.05012
-3.47407 97.56135 -9.68243
-13.4496 93.76603 -1.775444
-12.17514 97.15945 -3.387919
-3.231946 99.20131 -9.399783
-15.02734 85.70457 0.4532096
-6.154875 87.02385 -8.476056
-7.971011 95.54058 -9.053864
-8.158202 87.87641 -8.246506
-2.167661 89.25803 -9.532351
-1.195387 90.11282 -9.721292
