# .PCD v0.7 - Point Cloud Data file format
VERSION 0.7
FIELDS x y z
SIZE 4 4 4
TYPE F F F
COUNT 1 1 1
WIDTH 1662
HEIGHT 1
VIEWPOINT 0 0 0 1 0 0 0
POINTS 1662
DATA ascii
-2.079687 144.6267 5.811352
-11.20317 71.75994 8.999617
-3.323784 76.59244 9.757778
-3.274673 145.9821 4.844788
-20.4609 79.82297 2.931666
-18.05965 73.53503 7.229451
-18.49663 74.79155 6.89621
-19.69014 89.13499 1.808351
-3.366641 86.21161 10.17
-2.442631 78.67941 9.998183
-4.965975 77.06953 9.817322
-17.74432 96.96497 1.311713
-7.605045 94.70866 9.239862
-6.061185 91.97527 9.567673
-3.385939 93.35018 9.185919
-0.4397322 96.09114 9.830441
-5.221935 97.84058 9.845036
-3.3004 95.56026 9.530036
-0.8834898 97.86003 10.4205
-6.985851 98.09041 9.63472
-15.59078 103.7306 5.948139
-15.58548 107.22 2.378714
-4.236901 105.0098 11.91776
-3.830241 106.6658 12.20084
-13.62287 129.0735 7.286932
-2.08826 114.3785 11.94077
-0.4552571 117.1406 12.06798
-14.31942 136.9431 5.802342
-3.822433 128.5115 13.00687
-3.610044 127.4361 12.77425
-2.834985 136.3185 12.37737
-1.701834 134.4094 13.36453
-14.72383 143.9945 4.191987
-13.36077 142.0229 6.052965
-0.3735742 139.9306 9.404721
-3.032968 143.0896 6.810247
-0.6916954 145.6535 5.201614
-18.44302 72.79073 6.629454
-13.11485 74.50143 9.472473
-16.00712 74.57771 8.923706
-16.93349 74.09171 8.268743
-10.72029 73.11916 9.239981
-0.9256196 85.67545 10.23188
-5.836748 84.41873 10.28892
-20.00504 86.47826 3.320087
-16.92838 99.61808 4.013462
-8.417982 89.92503 10.10143
-7.593513 87.06305 10.11296
-1.791153 102.9739 11.89722
-2.679452 108.6984 12.25999
-4.67666 111.171 11.78881
-3.877951 108.9623 12.16058
-4.694153 107.9331 12.04308
-0.8981031 118.3205 12.09448
-2.229785 120.6608 12.11824
-4.597433 120.237 11.79528
-4.033497 117.6331 11.74239
-1.611387 130.2541 13.45069
-2.081761 137.5386 11.4306
-17.0521 75.31726 8.425643
-4.164889 82.78736 10.25539
-19.74824 87.91691 3.402374
-19.20829 89.67014 4.192158
-19.11639 85.78814 6.209228
-3.610568 102.9688 11.63408
-3.231414 99.96075 10.82251
-5.741406 110.198 11.50487
-4.089644 105.5794 12.02017
-5.318403 117.6649 11.4481
-4.493029 117.0464 11.6275
-13.51619 128.2747 5.333831
-19.48583 76.19778 5.489781
-19.21231 80.38717 6.366351
-18.81313 78.03531 6.892285
-3.323908 81.2434 10.15533
-18.76598 91.03862 4.532229
-20.47572 83.10822 2.550058
-20.02656 84.99414 4.000938
-20.49693 82.23454 2.549093
-11.1143 87.11217 10.1504
-2.726675 115.0736 11.89524
-5.217435 103.264 11.25327
-5.486491 114.9847 11.30182
-6.736459 144.3326 5.054634
-18.43928 77.70007 7.397012
-19.50985 80.91211 5.83547
-6.463253 110.0151 11.20057
-5.265103 103.8669 11.36434
-4.370715 114.2085 11.64921
-11.36427 145.0742 4.460638
-6.532564 117.922 11.07328
-12.74369 147.4921 2.046337
-7.439555 105.6892 10.92853
-11.9912 148.6803 0.1354914
-14.22418 147.497 1.20511
-8.375909 146.4757 2.596882
-17.58334 95.76938 4.106328
-17.84634 93.41406 5.261702
-16.94468 96.5108 5.421052
-12.03727 114.6056 6.474779
-12.57786 111.6809 6.866499
-12.62322 113.8557 5.678776
-12.58912 119.1027 4.988346
-12.84072 116.2399 4.355857
-12.38693 118.9844 6.659472
-10.5253 123.9553 9.441143
-10.30725 118.6428 9.114169
-9.207293 118.524 9.892731
-11.52292 116.1115 7.885677
-10.4264 116.9582 8.669856
-11.40493 117.7709 8.06341
-13.03143 123.7644 5.597855
-13.23287 124.4589 4.989338
-13.69848 136.3012 8.450487
-10.44767 133.5674 13.25556
-13.94532 136.888 9.756495
-14.98139 75.63816 9.414291
-4.154675 143.5624 6.321421
-3.359397 145.5424 5.130678
-6.193454 145.1891 4.566748
-4.029938 141.853 7.688852
-4.204322 141.3323 8.11068
-5.071848 141.3028 8.072601
-11.12058 138.6605 9.615872
-7.670548 145.0203 4.166431
-9.47961 144.3955 4.432174
-8.002585 147.5248 1.912438
-9.12622 141.6536 7.471169
-7.687375 138.0689 11.12518
-10.10037 138.8108 9.962048
-10.48859 142.6702 6.805742
-9.569419 146.1214 2.712713
-7.178124 143.4312 5.75697
-10.03811 141.1709 8.153469
-9.373062 139.4454 9.631451
-13.38918 140.9886 7.020861
-7.406196 141.7337 7.393233
-11.7354 142.4839 6.275123
-11.7558 140.1368 8.052444
-11.85351 138.3867 9.603022
-12.70658 135.9331 10.89627
-14.25682 141.356 6.635612
-10.26313 138.3665 10.27201
-12.81137 137.6728 9.883311
-13.58084 136.2483 10.34566
-15.15871 138.0549 7.691258
-12.65323 134.4662 11.45641
-14.80623 108.0955 4.852723
-10.9038 129.363 12.00703
-2.727379 131.0046 13.61077
-4.375643 129.0112 13.10344
-4.760952 80.79598 10.13428
-5.246561 95.14901 9.365609
-4.588694 97.14315 9.786894
-6.910162 99.42766 9.937641
-12.85948 104.7907 8.69771
-12.85593 107.5109 8.339183
-13.28634 108.2222 7.628758
-14.61087 108.4272 5.084294
-11.96525 113.1039 7.504576
-12.42333 110.8332 7.409395
-3.640354 129.7833 13.32729
-15.27282 144.4101 3.741935
-5.97082 85.93079 10.20895
-10.9258 86.4115 10.18934
-10.33933 89.1842 10.07566
-5.361718 89.23637 10.15911
-9.900135 88.19718 10.09836
-7.995128 87.65282 10.10464
-17.99518 86.11794 7.812003
-10.4461 89.76858 10.05092
-12.70006 91.06161 9.818858
-11.15864 88.04105 10.10385
-7.90836 92.24052 9.533504
-15.87258 88.42139 9.258552
-13.48957 89.94555 9.893272
-13.80174 88.37226 10.03115
-15.16051 89.1727 9.53116
-16.80953 89.73431 8.37783
-10.18054 91.53317 9.726284
-17.30892 89.65446 7.894866
-17.05505 84.50582 8.881251
-17.5893 87.19075 8.101717
-17.7983 87.69629 7.81829
-3.922533 112.6539 11.79615
-13.09703 129.1039 9.419222
-12.86537 126.9615 6.617903
-11.55185 127.2181 8.813974
-18.70889 91.33764 4.493709
-6.759841 111.6727 10.87804
-10.0056 114.9371 8.981711
-16.64146 79.17811 9.051949
-7.528582 112.9677 10.36567
-13.54858 147.7156 1.508571
-14.94915 92.49429 9.007143
-12.48631 92.34656 9.647414
-15.23457 94.73022 8.245393
-11.20117 93.75867 9.426481
-13.0732 95.57105 9.058143
-13.92247 98.20609 8.339753
-18.0469 90.61717 6.50179
-11.07463 95.65069 9.276618
-8.33882 96.08221 9.384949
-12.38282 94.28477 9.369202
-14.75731 97.75706 7.846896
-14.41856 97.23244 8.18284
-15.53625 99.6939 6.718314
-16.09951 95.22086 7.325269
-8.648315 95.93513 9.370642
-9.053866 94.8686 9.278565
-13.04641 97.53822 8.746498
-11.12076 98.24609 9.138998
-12.8428 112.2641 6.54515
-11.62618 111.4557 7.986938
-11.60978 113.759 7.697784
-9.928818 111.1194 9.359779
-10.40722 112.1222 8.784872
-8.878657 112.0799 9.715655
-7.360931 119.4456 10.95689
-7.279147 116.827 10.65269
-11.74999 121.249 7.833916
-9.582458 122.1244 10.17492
-9.463085 119.2975 9.844102
-14.54406 132.0057 8.521238
-13.57645 131.025 10.26607
-7.197453 72.77142 9.181812
-6.893365 72.58046 9.149204
-4.469341 72.7101 9.173004
-10.35675 74.16754 9.412944
-12.05211 73.42888 9.295375
-12.79828 75.11323 9.562368
-8.550642 78.19194 9.946507
-9.936211 75.21795 9.572532
-13.28182 76.88437 9.798865
-8.911476 77.82801 9.907746
-9.087633 76.80339 9.784903
-12.87708 77.8576 9.916514
-8.31449 75.86398 9.659939
-6.186116 79.74834 10.07734
-2.476014 141.0966 8.40272
-4.143977 140.015 9.285033
-14.74623 141.9082 6.057049
-9.419031 137.4689 11.37605
-8.621994 138.6982 10.38446
-3.563581 138.7377 10.4345
-1.504242 137.3268 11.5943
-8.511211 137.4959 11.58333
-6.334136 137.3691 11.77563
-7.244063 134.2379 13.64088
-3.444409 134.9235 13.16115
-5.162162 136.6182 12.25017
-7.157045 133.4062 13.85983
-6.283931 133.8595 13.68114
-8.461105 136.2651 12.70441
-10.79216 133.084 13.147
-10.15663 132.948 13.43329
-6.286981 135.596 13.04785
-14.89094 103.6709 6.967706
-12.78745 104.4836 8.749872
-13.33561 104.7509 8.411754
-15.07458 101.2367 6.966618
-11.17846 103.2542 9.340761
-14.03577 101.7643 7.907562
-11.69811 100.1868 9.026561
-11.98405 102.4074 9.020832
-11.37999 101.2272 9.128663
-11.04582 104.5896 9.455503
-11.23051 106.8446 9.458427
-10.67715 102.8833 9.467362
-8.857554 100.6134 9.699547
-6.77067 104.0787 10.88189
-5.925117 99.65986 10.18714
-11.43392 106.3576 9.371681
-8.484308 99.62197 9.71241
-8.779825 107.6187 10.46931
-10.36598 108.7704 9.699394
-10.98746 107.4712 9.540306
-13.28583 86.10906 10.20631
-7.202893 82.19494 10.20376
-11.51136 80.98624 10.13582
-11.75787 81.77917 10.16767
-12.18504 80.41547 10.11705
-10.69303 78.87337 10.00849
-15.24329 80.50751 9.778055
-13.64095 79.16024 9.99781
-10.09712 85.28426 10.24923
-11.74657 83.81593 10.26413
-16.08842 83.28635 9.531823
-10.0029 90.96137 9.893521
-6.910969 92.47444 9.442651
-18.49609 84.88407 7.313083
-19.12918 84.03688 6.4184
-18.81669 81.4972 7.039743
-15.38043 82.87779 9.856907
-15.10488 85.42815 9.882419
-10.25993 84.7166 10.26016
-8.740451 85.0831 10.26025
-15.91603 81.00285 9.601624
-14.16293 82.83382 10.16908
-18.85543 80.54721 7.002937
-16.60423 96.97345 5.91427
-6.444361 121.092 11.4782
-12.20542 126.9762 7.680415
-7.600249 124.1121 11.322
-12.27907 128.9355 10.52079
-12.68109 129.6453 10.68871
-11.25802 127.2346 9.223899
-5.933209 128.3806 12.81179
-9.446085 129.3716 12.63768
-9.346822 125.4441 10.43632
-9.385983 130.5489 13.24675
-9.255146 131.6416 13.61384
-12.5328 133.5245 11.8318
-10.52966 127.825 10.88211
-7.573764 127.1373 12.04252
-8.40334 128.16 12.16783
-8.570747 128.9419 12.57273
-11.93575 133.2614 12.41596
-17.90094 79.06379 8.017666
-8.891673 119.8352 10.32347
-9.427146 118.0115 9.648531
-9.134088 114.2337 9.620339
-9.714603 82.51554 10.21076
-3.448483 125.6575 12.4795
-7.818187 124.648 11.26373
-8.743002 123.4703 10.74417
-8.531389 126.3841 11.28748
-10.12923 125.234 9.775867
-11.54521 123.5741 8.45289
-10.66352 126.2281 9.497785
-7.44974 125.7204 11.63427
-4.787066 124.4059 12.20422
-4.765285 126.1733 12.41381
-5.638183 112.9648 11.30376
-0.02779456 99.70281 11.06353
12.96365 119.4567 3.957989
4.068008 95.81046 9.663218
14.17979 151.756 -5.418849
20.15075 86.37013 2.367463
7.377305 152.5727 -3.708874
19.72923 70.39935 3.476988
2.822965 149.7193 2.420454
7.782721 77.79042 9.899873
3.653309 76.1909 9.691669
0.2967528 84.08475 10.32758
2.039056 146.1019 4.880923
1.33933 77.2534 9.838087
0.06687745 84.20632 10.32476
15.381 151.4974 -3.726442
1.587962 136.0329 12.51423
13.51555 151.4178 -2.98673
0.4763566 131.4645 13.66228
17.45333 72.63614 7.647282
1.029725 148.477 3.600152
1.025775 124.9406 12.55164
7.230137 115.5281 10.70699
0.5146081 120.5807 12.21754
5.573124 94.35957 9.287494
15.59318 151.3955 -3.398268
16.47062 151.2365 -5.236338
6.788828 140.3675 8.807978
14.42014 150.2265 -1.188291
19.97226 71.16544 2.690706
17.23997 99.49207 2.667306
17.01754 99.22934 3.846588
3.245536 70.56998 8.818467
15.1129 108.5309 2.710135
7.909565 110.931 10.40833
3.228161 99.5163 10.66909
16.30202 150.4334 -1.833399
10.34155 75.74133 9.610096
17.7785 96.80347 1.369238
15.92579 150.671 -2.054497
14.43489 74.54612 9.383487
6.871585 70.53192 8.812815
11.43575 151.8489 -5.749352
15.41473 150.7098 -1.993424
12.47868 151.4977 -3.435239
8.105257 152.5117 -4.603585
16.69869 94.94342 6.627531
12.93214 129.8646 10.49168
11.83376 120.8362 7.639252
16.70217 150.3818 -1.939108
3.933337 144.8929 5.453259
9.450543 152.2339 -5.496178
14.5537 151.7222 -4.398593
10.99632 151.7535 -4.832288
13.84162 106.5363 7.610315
20.62959 79.4781 1.63525
13.01532 140.218 7.948189
7.131845 151.8096 -2.285972
8.167114 151.9502 -3.50035
4.471071 149.6884 1.885865
13.32571 151.0475 -2.278977
13.15106 150.4489 -1.499609
17.41812 148.0472 -0.1660731
2.958745 98.89485 10.52547
18.04068 95.07874 2.787163
17.43227 97.62823 3.091083
0.8451794 112.2162 12.04521
14.7621 108.7145 4.326629
1.207184 75.00367 9.525624
6.106431 72.60717 9.154591
20.44164 82.31063 3.068016
1.366286 139.3962 9.859359
16.89336 138.9676 5.164276
2.50868 149.1271 3.033648
0.1863072 146.1052 4.928763
4.045928 130.4361 13.48213
12.48009 119.1735 6.462928
1.7594 128.984 13.18627
20.48113 81.45383 2.932518
8.457759 73.66148 9.322756
19.86722 70.57751 3.007031
19.817 72.87008 4.033041
18.92234 73.24607 5.990726
15.80065 141.2544 4.859129
12.15978 150.9507 -2.284883
13.25133 147.343 1.987291
15.59035 145.7302 2.415919
14.9569 145.6814 2.916595
2.070029 99.38609 10.82502
2.973725 94.9179 9.377263
3.575724 92.95832 9.136392
19.20754 87.17999 5.541265
16.81891 99.86423 4.269083
17.40009 97.15586 3.564583
1.605245 101.1145 11.42646
1.196131 110.1848 12.1334
0.5166121 109.3879 12.18899
14.49948 110.1142 2.681611
15.83706 105.202 4.624486
13.97338 111.6414 3.875436
5.364437 72.16682 9.084585
7.340281 70.81819 8.862377
0.5113648 81.96781 10.20465
3.472412 85.20415 10.27255
1.059329 84.87656 10.29666
20.19237 81.60467 4.11712
19.6294 82.29623 5.57233
18.48461 85.56189 7.317836
3.719747 140.9804 8.469603
0.4217199 135.6374 12.76704
13.49687 139.5429 7.835387
16.86416 136.6194 7.141019
2.967076 149.0645 3.057023
1.875747 145.1626 5.481156
0.6224898 142.5324 7.327362
0.8137107 122.3028 12.31811
1.761235 125.2508 12.57302
12.15388 124.5734 7.737001
12.8436 127.1471 6.67354
13.56625 126.902 4.35463
3.797955 131.5747 13.66274
20.3882 78.1199 3.185195
20.45671 79.20156 2.99666
15.20921 70.07597 8.35559
17.91038 73.12875 7.326258
16.31188 142.7362 3.613636
16.84498 143.5454 2.774986
0.2791989 95.18391 9.526372
9.646455 99.02943 9.384175
-0.2119178 91.50955 9.745131
18.8389 91.8796 3.200575
19.32004 89.5099 3.853227
18.40638 93.84161 2.554874
0.948934 104.1119 12.1388
1.664479 106.3622 12.30455
14.49371 109.5847 4.134345
13.09819 112.8136 4.804253
4.478894 75.42788 9.580963
4.721076 80.76806 10.14231
1.941248 88.11008 10.11368
20.4537 83.61854 2.546266
20.63922 81.50442 1.630356
19.54321 89.6367 2.197816
3.611601 138.2009 10.90597
2.896963 135.4948 12.86413
15.03904 134.3853 7.101039
2.381106 148.2863 3.662536
1.206258 146.0138 4.965879
0.6370132 143.2171 6.828519
1.64092 128.0495 12.99964
5.489536 125.5559 12.32965
0.8567692 117.6127 12.08366
13.84532 123.8086 2.70103
13.5535 128.641 5.694629
14.86349 133.9508 7.103455
19.75427 79.73233 5.315289
20.10106 76.97386 4.064764
20.37166 77.64034 3.155384
20.18437 74.3795 2.666308
13.78192 72.32027 9.080253
17.56268 74.39816 7.824773
13.9296 71.52017 8.935313
16.22682 144.4958 2.699672
17.17442 143.8658 2.371095
4.285792 103.3883 11.56692
1.779855 102.2997 11.73212
0.3026433 91.10186 9.926624
18.36777 94.09261 2.297631
19.36 90.15832 2.814175
16.85574 100.5887 3.856977
15.96306 100.7199 5.860006
16.97722 99.79493 3.764973
16.45063 103.3186 3.6671
1.206939 106.7669 12.31001
3.602404 103.4055 11.75052
4.214366 109.1242 12.10919
13.42543 112.2708 4.949589
13.36843 111.7347 5.865173
13.77531 111.2794 4.938148
14.28328 107.1749 6.752668
13.11725 113.8004 3.097678
13.15128 120.6551 2.734095
3.237005 75.23104 9.554991
9.770977 71.73693 9.009652
1.614233 85.2905 10.27571
19.52645 79.69625 5.808084
19.88022 87.69211 2.781428
1.818933 135.3234 12.93385
16.6075 135.6268 7.737491
14.94585 133.4915 6.130474
14.62903 135.3475 9.314154
14.74994 133.6644 7.649487
4.20763 144.1451 5.919755
2.303582 116.2948 11.97401
12.16904 121.0943 7.10217
1.597549 129.8896 13.36845
1.666442 132.4091 13.73401
9.562671 73.42246 9.285583
9.598588 74.1465 9.390723
13.00773 73.29227 9.267718
18.86613 73.89258 6.213558
14.30036 73.8646 9.321905
18.29889 74.85658 7.142862
16.44701 76.67834 8.989777
11.08358 74.07666 9.377589
18.7973 76.67092 6.781371
11.66788 74.76089 9.473285
14.77033 141.9023 5.423084
14.09706 139.5896 7.249199
12.49264 140.5206 8.021422
13.64289 143.6047 5.276553
13.71008 142.6368 5.951105
14.74403 144.4238 3.97837
12.02283 143.8889 5.372336
3.004361 102.4296 11.62719
18.21304 92.43995 5.07293
17.61978 95.70638 4.062721
17.13037 97.22969 4.543363
16.80468 95.36049 6.31475
16.56386 103.3439 2.951976
14.29021 105.7796 7.3283
12.28666 106.3726 8.930637
15.70352 106.7292 3.296353
12.12541 106.8165 8.987751
14.80909 105.1538 6.820168
11.81748 120.3314 7.566822
5.999702 74.97866 9.512934
6.982502 77.59761 9.875534
2.65716 76.63978 9.756343
3.252991 84.13557 10.31541
5.348585 85.36354 10.26311
19.50579 89.00565 3.502654
7.517256 136.0606 12.88112
2.307909 142.3895 7.393741
0.4051447 118.1169 12.10833
3.675171 117.3729 11.86203
5.401722 116.6256 11.47583
18.99622 81.00375 6.743555
17.16828 79.65617 8.688558
16.46815 77.80569 9.087804
15.74424 76.72786 9.303123
15.08198 78.39188 9.713374
17.12697 76.02329 8.486596
9.831732 140.1845 8.77505
13.27673 147.4886 1.819633
6.084366 101.8754 10.66476
15.52719 91.71809 8.828107
3.103377 110.3706 12.08799
14.74809 106.1759 6.534856
8.449819 77.8616 9.907017
4.635131 81.9906 10.20556
2.757172 82.59452 10.2439
8.092422 85.59808 10.24643
2.438129 141.4992 8.09554
3.87496 143.4513 6.474503
7.286942 112.1947 10.60177
4.261655 121.4949 12.02279
4.528547 118.7152 11.78804
5.474966 121.6113 11.84023
2.47807 119.0916 12.06612
13.84082 77.2205 9.806461
10.72865 79.98239 10.08236
8.887836 75.73931 9.614141
12.75428 145.2249 4.154764
5.597015 144.6382 5.215424
14.30747 148.3171 0.9730451
10.33635 145.491 3.087517
9.17159 147.1882 1.784166
13.25689 149.3112 -0.327589
3.889821 88.32409 10.12522
5.199707 91.12335 9.912229
16.83631 93.27265 7.152431
4.334817 111.0002 11.89711
4.381069 112.1777 11.7388
2.933549 114.2776 11.8875
1.896769 114.1543 11.97823
4.91264 79.00443 10.02244
5.486198 85.09194 10.28155
2.706836 137.9611 11.09104
3.566861 139.3458 9.899083
5.215717 139.4737 9.768534
5.752103 140.0968 9.152757
5.637654 141.1477 8.1836
7.41322 139.6316 9.49241
5.693498 114.7249 11.28964
8.659457 121.0474 10.65356
6.092648 116.4526 11.24086
15.07485 80.74526 9.886479
7.10377 79.35905 10.04718
9.738832 79.88342 10.07667
15.47433 139.0446 6.371121
6.017949 145.6558 4.307348
10.94063 88.74125 10.0737
5.920269 90.75416 9.977406
5.086862 92.64454 9.29069
4.0942 93.35869 9.147341
7.814289 78.6953 9.990173
5.232639 80.66685 10.13667
2.93228 80.11217 10.10291
2.511286 137.4168 11.53586
3.666696 136.1917 12.47958
3.504621 146.4597 4.500412
4.764285 148.5979 2.828732
5.482003 145.7229 4.474545
4.997943 145.1337 5.050887
4.426239 125.4641 12.44718
5.686419 118.7157 11.52339
14.94271 82.5486 9.971156
12.36576 79.63168 10.05178
13.68741 137.8582 8.560869
5.083668 99.74032 10.37853
8.827112 89.27867 10.08214
9.596844 84.10932 10.26921
1.864306 136.8407 11.97356
5.727569 136.3621 12.51618
8.306179 148.4449 1.038521
7.024718 144.6308 4.725161
11.11267 141.6703 7.367991
9.43635 145.0414 3.674844
10.18782 140.2687 8.671851
16.70481 83.97839 9.152345
12.82264 81.5471 10.19027
11.70584 83.18948 10.23864
11.47451 79.97836 10.08076
4.872223 101.0503 10.78304
5.762298 98.26447 9.891425
7.540721 101.6363 10.18865
6.249985 89.72144 10.13388
8.734625 110.1614 10.1382
7.742522 108.6052 10.83723
13.46106 109.2386 6.808787
12.58402 108.7813 8.147344
8.33542 104.3732 10.37305
8.265865 103.9705 10.36693
10.39428 85.23021 10.25546
7.836693 87.13487 10.12304
7.206432 89.60583 10.12154
10.78 135.7886 12.2323
6.101894 135.4378 13.09652
7.53384 146.6451 2.820235
8.084694 146.8954 2.387908
8.195534 141.964 6.994237
9.916611 144.5925 3.999645
15.55564 80.50252 9.719666
10.13054 110.915 9.281999
11.65189 111.4164 7.985442
18.49329 86.61235 7.089503
17.01967 82.18051 8.964633
19.11218 81.81954 6.596763
9.310555 89.76597 10.0312
11.74571 85.23683 10.2534
6.801095 88.21783 10.11325
9.960882 133.1816 13.46095
5.722387 114.4213 11.26818
12.62048 109.3741 7.874303
6.643345 106.882 11.31727
14.96091 84.80281 9.939748
18.45302 84.08575 7.486974
9.687906 89.51498 10.04055
15.49344 87.0722 9.642069
5.081046 133.9442 13.54518
8.41552 134.5846 13.54255
6.907391 113.3744 10.75429
11.94194 110.5239 8.081646
10.97483 119.3171 8.4652
11.96508 118.2845 7.087526
11.81533 104.9706 9.186984
16.84628 85.49477 8.977924
18.29103 90.35841 6.152315
15.96968 89.23347 9.126678
20.04067 85.22059 3.830092
19.62803 86.60378 4.666478
19.56396 85.77926 5.165403
11.3813 89.16486 10.03671
12.14235 114.5143 6.287218
12.1918 113.7756 6.546508
11.71778 102.959 9.16885
10.78111 105.7335 9.629333
18.73092 88.36696 6.189561
16.07878 92.46716 8.262599
12.45332 112.927 6.512314
14.92475 90.44979 9.408169
12.05582 119.9425 7.111176
12.3922 90.17586 9.893334
7.339857 118.5896 10.92671
9.879628 122.9991 9.990443
8.160331 120.1959 10.77876
12.30621 120.7387 6.804642
9.543151 118.5619 9.697968
8.597403 118.7015 10.33615
9.764795 120.5018 9.857251
10.79672 122.1723 9.153211
12.22221 126.5191 7.653098
12.6637 125.8799 6.929171
11.18163 126.4988 9.208086
13.84991 128.8076 4.701053
12.15252 128.2335 9.768689
14.21434 130.2036 6.435934
14.37399 130.5851 7.008526
12.06927 131.0256 12.11041
12.24144 128.1221 9.374413
12.97054 131.7358 11.3641
14.21909 132.6514 9.514757
6.944006 128.8792 12.93322
8.443484 129.2177 12.80201
9.644037 135.509 12.90937
12.39414 134.0262 11.84424
10.67868 130.9559 12.92257
3.111057 96.85281 9.858799
4.767128 95.32759 9.472983
3.815083 72.99664 9.219036
2.413271 127.5288 12.90017
3.751485 133.4704 13.63085
15.54054 102.8649 6.227412
4.867298 109.543 11.91922
5.795407 106.6601 11.6227
4.992011 108.1761 11.94646
14.51469 136.16 9.365642
9.216687 72.43013 9.122479
13.27882 105.7624 8.275905
10.85525 103.4894 9.485433
12.66136 102.5485 8.712969
13.08037 100.8042 8.49528
12.85376 98.90694 8.702167
16.18247 100.3932 5.561187
15.31794 99.56357 6.982777
15.9814 95.66042 7.316465
6.329648 93.62458 9.219224
11.79807 98.05621 9.030349
10.32649 96.32486 9.300055
11.12929 99.00725 9.127626
7.693464 100.3594 9.946798
5.923901 97.23959 9.648387
6.873321 98.16987 9.712466
7.487232 99.69692 9.887542
16.47206 93.96523 7.343602
15.835 92.2888 8.509433
16.43878 89.91592 8.612208
18.77624 89.25624 5.716279
13.85131 96.46389 8.657916
13.29232 76.73399 9.751325
12.27441 136.786 10.4009
9.912306 137.7895 10.94409
12.66339 136.6471 10.16292
10.6917 136.8173 11.43724
12.62831 134.8327 11.22508
8.343768 137.3598 11.75332
10.41459 138.2641 10.35212
5.365134 150.3196 0.8051289
6.900562 150.7205 -0.566918
12.26629 149.7371 -0.8663706
7.940886 82.20143 10.21575
9.516506 81.91547 10.20504
10.93196 142.825 6.349787
10.49862 95.8928 9.321881
6.613372 91.87647 9.649056
11.46045 95.19686 9.336784
7.29927 94.0442 9.338686
11.18351 94.90712 9.359165
4.301957 105.0142 11.89761
5.056786 104.1761 11.49916
8.254885 114.2074 9.980486
6.407976 124.1436 11.89348
7.631961 123.9736 11.4413
9.135747 124.6278 10.69323
9.650534 124.2595 10.2139
7.654559 127.0296 12.14496
9.483434 125.6145 10.63311
10.14213 122.2711 9.753486
8.877134 122.2774 10.65777
5.050865 126.0784 12.47595
7.943533 128.2125 12.48292
9.214013 127.3336 11.56075
3.603923 129.0385 13.18209
6.73681 128.3642 12.77637
8.499258 130.7212 13.48912
6.046978 132.6117 13.79167
3.057844 130.5806 13.50341
9.479189 132.6695 13.63913
7.503276 131.3697 13.75742
7.951895 131.8245 13.82685
11.23702 117.2799 7.810156
7.910876 115.0261 10.29712
13.29109 127.4937 5.640485
14.88251 102.6805 7.09456
5.292474 96.46807 9.67323
8.173782 97.54347 9.462871
9.947324 90.06306 9.984426
10.84348 91.39302 9.760497
12.02271 93.23821 9.528129
8.45663 93.05888 9.327152
10.81913 118.0712 8.443178
9.324791 116.7575 9.550878
9.357067 95.50381 9.395364
0.01800289 70.59899 -8.714982
0.4792224 75.23828 -8.794083
-15.5053 103.7599 -2.494082
-0.5777817 82.99293 -9.169707
-1.769472 94.51053 -12.75564
-1.92742 147.4422 -11.68559
-5.092375 70.88548 -8.726521
-1.514636 92.72425 -12.72182
-2.330827 148.0236 -11.62704
-7.031653 74.27223 -8.804069
0.1770052 99.36469 -11.84058
-0.1824 104.5878 -9.495003
-3.391944 106.3602 -8.501833
0.171998 92.01192 -12.64539
-12.22448 151.6541 -6.262494
-4.138608 118.7805 -6.938004
-0.6785794 117.075 -8.043261
-0.6021911 125.551 -8.376592
-1.967918 130.5035 -10.31376
-2.665884 152.1256 -10.66495
-4.30315 147.8779 -11.58071
-17.5556 150.3387 -6.68712
-20.41136 78.43102 -1.0968
-1.685606 150.2673 -11.13844
-15.4719 150.0191 -8.635065
-17.88173 149.3721 -7.884657
-8.082664 149.2915 -10.59348
-3.055954 76.7511 -8.754513
-2.486419 149.5706 -11.30258
-17.50237 97.96523 -0.1698065
-10.89435 101.6099 -9.274331
-20.45129 82.76026 -0.8278059
-6.615077 72.01395 -8.76503
-10.93803 151.2904 -7.912208
-20.31457 85.20289 -0.01678108
-2.269483 150.9282 -10.96251
-19.16481 91.19614 -0.4892988
-16.95133 100.187 -0.9792517
-16.44559 88.61189 -7.307146
-15.11128 108.5919 1.79499
-5.595126 151.2037 -9.816879
-13.51124 112.4938 2.244612
-12.62792 116.8029 2.403155
0.2474906 76.93938 -8.746776
-19.61657 70.98721 -2.912682
-3.10958 149.9276 -11.11254
-3.549818 73.34279 -8.792668
-14.99284 151.3421 -6.688527
-6.176417 152.0504 -8.92673
-6.57983 151.7411 -9.017547
-20.08668 71.68757 -1.211773
-17.55058 141.7851 -10.04831
-9.600677 151.6082 -7.841331
-16.74508 147.6125 -9.674912
-13.73979 151.3475 -7.230505
-5.87586 80.68389 -8.739257
-8.068295 93.64712 -12.59245
-15.19435 98.01225 -6.470732
-6.343109 116.2129 -5.280501
-13.0949 129.8095 -4.835631
-12.75308 120.3129 -0.3447973
-10.66657 136.1006 -11.0556
-20.07818 74.27877 -1.863942
-19.04673 74.1781 -4.518399
-1.065764 149.543 -10.95978
-15.40674 136.9385 -8.44772
-5.3784 149.7432 -10.79397
-16.44682 149.3301 -8.829821
-0.07727652 71.8875 -8.75639
-1.575736 77.54758 -8.727549
-4.702486 71.10206 -8.733993
-2.912895 71.98821 -8.761157
-4.056198 70.87373 -8.725684
-3.499797 87.44091 -11.19671
-18.12915 81.66639 -5.771565
-3.2037 92.06253 -12.67235
-17.32495 98.63589 -0.7520413
-0.01527256 91.23689 -12.51532
-10.16687 112.2116 -4.444278
-13.98306 111.0931 0.6929772
-13.68435 110.9152 -0.6846285
-13.03384 127.1649 -1.910915
-2.715486 131.3148 -10.64377
-2.80771 121.9879 -7.043465
-15.76712 139.7045 -10.04767
-20.49155 78.14494 -0.6300919
-19.20936 72.11758 -4.14059
-1.639116 145.4936 -11.948
-2.037576 148.7979 -11.46664
-4.332975 140.0393 -12.62841
-16.78709 144.0892 -10.35383
-5.854171 148.0218 -11.5499
0.07202549 78.32961 -8.70689
-1.407431 73.35046 -8.790745
-1.37762 77.22845 -8.737696
-7.977555 73.09015 -8.792129
-10.7208 71.52319 -8.752335
-2.182933 86.39549 -10.64458
-1.845326 82.28835 -9.007253
-20.52899 82.98026 -0.04185276
-19.45362 88.40188 -2.243558
-19.28179 88.93591 -2.509588
-0.29059 97.89732 -12.25895
-1.819049 96.49261 -12.55645
-0.247968 101.8456 -10.89767
-2.0084 104.8748 -9.335283
-14.81959 109.0038 0.6175724
-2.664251 115.4147 -6.028491
-1.157095 117.696 -8.23721
-12.40815 118.3455 2.220549
-13.87768 128.6604 0.5837739
-14.04852 131.8559 -4.310659
-1.069348 128.3589 -9.427023
-2.097797 126.7966 -8.8046
-17.53189 140.9068 -9.998081
-15.96158 70.94812 -7.727969
-19.35161 75.12982 -3.981139
-20.35729 76.24026 -0.8482907
-1.224922 143.3439 -12.33031
-15.44359 143.5174 -10.58083
-14.17413 146.5045 -10.61106
-14.84704 146.6361 -10.46156
-1.209222 80.67644 -8.785911
-2.826029 77.4444 -8.732589
-4.500473 77.27255 -8.739189
-0.5088968 85.14301 -10.01217
-3.293166 83.91658 -9.451322
-18.89553 81.37446 -4.834636
-0.8177317 88.96606 -11.84516
-2.846159 92.22567 -12.69214
-17.81388 94.23325 -3.141364
-19.22535 90.26697 -1.632812
-16.42415 99.86195 -2.955923
-2.789511 99.48752 -11.81739
-1.021885 103.593 -10.03523
-0.9905362 108.683 -7.302806
-15.11855 105.4034 -2.153518
-1.329202 112.042 -6.599564
-1.850909 118.6645 -6.3435
-13.30193 113.0911 1.336398
-12.90796 122.1228 2.526464
-13.43696 126.4536 0.52448
-14.37952 131.9039 -2.257933
-14.45399 132.5677 -3.420609
-13.39791 129.4091 -3.328145
-13.17514 130.1059 -4.940913
-14.0124 129.1624 1.471278
-1.821504 129.6298 -9.950068
-0.6611236 132.7836 -11.163
-1.244135 135.8185 -12.00307
-16.38901 141.6842 -10.25428
-3.227342 140.9307 -12.54398
-17.54116 72.66389 -6.56002
-20.0269 76.29581 -2.343095
-19.45351 78.33739 -3.900502
-15.89365 143.5667 -10.57327
-20.4572 81.97983 -0.9444101
-20.35153 84.56548 -0.3091916
-18.85859 86.84104 -4.303182
-3.578075 87.00751 -10.97113
-3.723517 85.98967 -10.42316
-2.014495 89.35647 -12.00435
-18.69086 93.179 0.2902507
-18.72636 88.30177 -4.053669
-17.94316 95.95948 0.3531792
-17.3379 99.0101 -0.03196761
-16.86357 101.0545 -0.4934545
-3.954982 94.28746 -12.7782
-3.620566 99.91811 -11.68718
-2.8355 100.7744 -11.35616
-0.225793 93.37012 -12.76028
-5.667742 105.7924 -8.753803
-1.446893 110.144 -6.698477
-16.29505 103.4028 -0.3949752
-14.20869 110.7442 1.637396
-15.10405 107.9258 0.2110967
-3.414858 116.8907 -6.450928
-12.10169 117.7997 -0.3478821
-12.11685 119.6762 0.1783239
-12.75846 120.1427 1.568916
-13.81692 124.3559 1.890455
-13.10574 123.5983 0.1210439
-13.33931 127.5389 -1.161288
-2.655365 128.0127 -9.280629
-2.241685 131.1219 -10.56207
-3.118947 124.1747 -7.945795
-14.82686 134.8708 -6.380361
-13.94715 136.2892 -8.869268
-15.43733 137.2418 -8.287888
-14.10838 133.2759 -6.224357
-14.40882 133.0863 -4.893866
-13.95278 132.3948 -5.574749
-17.15997 140.0377 -9.813715
-2.413383 138.5618 -12.43852
-2.667963 136.4826 -12.16002
-4.925579 140.074 -12.68372
-20.25334 78.33076 -1.830147
-17.77715 78.68512 -6.199612
-3.132611 141.7832 -12.49038
-7.650696 139.9473 -12.70678
-2.657512 78.83982 -8.695429
-19.91619 84.51089 -2.421402
-17.86315 94.83924 -2.466954
-17.99103 91.24438 -4.608746
-0.4337471 96.9145 -12.47208
-0.07253462 107.9486 -7.684776
-2.623035 107.8693 -7.681362
-1.451949 111.2323 -6.579138
-13.5101 111.8303 0.1416449
-1.383467 122.0118 -6.990769
-12.4695 116.8752 1.281363
-0.4906543 127.2564 -8.990292
-3.300019 130.8554 -10.46478
-2.717844 133.2233 -11.31549
-4.433659 134.3385 -11.686
-14.75817 138.4253 -9.651299
-4.991203 139.287 -12.6804
-12.00114 135.1911 -9.934732
-10.45311 135.4595 -10.8701
-10.0651 137.8257 -11.8819
-11.54068 134.2389 -9.749836
-9.885187 129.7625 -8.452455
-10.01224 130.3004 -8.652092
-1.646312 140.1267 -12.50554
-19.17881 84.03201 -4.237957
-18.44459 82.85572 -5.40152
-18.88909 82.31455 -4.786779
-5.41643 143.6063 -12.47883
-2.387848 113.2802 -6.495848
-3.040812 118.4576 -6.33936
-6.006191 121.5702 -6.209752
-1.753972 117.9072 -8.160632
-12.62625 122.7624 -0.4789749
-13.94258 139.138 -10.24069
-8.723288 133.7564 -10.87089
-17.93381 83.60545 -5.914839
-16.93003 78.66115 -6.925528
-18.23282 79.28519 -5.691714
-1.849889 104.0526 -9.789555
-4.31688 103.6074 -10.05018
-3.545244 106.2157 -8.576906
-7.084451 105.1826 -8.970667
-4.042048 120.9572 -6.585994
-2.914706 117.2926 -7.920359
-4.038702 116.2374 -5.726219
-6.605432 133.0045 -11.14712
-6.160549 133.8671 -11.5038
-6.373885 137.2485 -12.47479
-15.06052 141.6921 -10.57036
-9.387149 138.2854 -12.2083
-17.44918 81.35532 -6.431695
-18.84044 79.56146 -4.876153
-9.252666 107.0652 -7.160453
-5.750286 120.8425 -6.056363
-4.128187 125.1103 -8.098329
-13.67248 142.7863 -11.04584
-13.09858 141.4783 -11.18744
-18.09124 78.1538 -5.871785
-17.73132 74.75285 -6.367653
-18.38688 75.67737 -5.573144
-7.712391 106.9377 -7.681409
-4.714215 121.5725 -6.675877
-7.03849 104.9084 -9.154213
-8.147231 124.2021 -6.344007
-3.170364 125.5161 -8.315685
-6.101093 126.1722 -8.092732
-8.659346 102.9912 -9.786126
-5.080973 124.474 -7.653129
-5.507226 130.3602 -10.23746
-13.08614 109.7642 -2.975703
-9.269286 103.745 -9.112823
-9.333672 102.8195 -9.553743
-9.658988 101.0865 -10.19864
-13.41806 101.0817 -7.291084
-10.76548 105.1435 -7.523716
-4.70876 102.2693 -10.73478
-10.53748 105.3276 -7.570192
-3.837932 99.26219 -11.89935
-5.52793 99.83346 -11.74822
-8.158142 101.7203 -10.58567
-14.94505 98.92279 -6.379597
-9.874619 100.3654 -10.42424
-11.57297 99.9355 -9.499575
-4.927526 95.9321 -12.68524
-9.156886 99.39468 -11.12239
-8.985379 96.23103 -12.04933
-7.466971 149.5743 -10.48241
-9.192405 151.1794 -8.59907
-7.079876 148.9448 -10.90465
-10.48304 149.2915 -10.09287
-10.10348 148.9134 -10.39569
-11.89032 145.5238 -11.33032
-10.84347 147.6017 -10.88746
-12.70133 146.1595 -11.02184
-9.725763 147.4023 -11.19543
-10.69797 72.60824 -8.78442
-3.162518 145.7183 -12.01246
-18.30016 73.98786 -5.718277
-11.82961 73.66813 -8.805768
-11.21677 74.43584 -8.811468
-9.283843 74.15852 -8.807418
-2.984323 82.64296 -9.07119
-7.205463 86.05509 -10.44426
-18.06335 88.92286 -5.169282
-19.34536 85.82066 -3.569683
-18.57652 85.53849 -4.987268
-18.51135 91.98013 -2.81524
-17.69293 93.76309 -3.959041
-17.03539 90.11903 -6.52736
-16.43947 92.8323 -6.741855
-15.75161 89.83401 -8.068619
-15.99932 90.20144 -7.792777
-17.26733 95.23254 -3.94953
-14.58703 94.68616 -8.532735
-15.88284 94.48456 -7.00018
-15.33973 97.40978 -6.554275
-14.47284 97.76101 -7.564706
-13.64057 96.88275 -8.828492
-13.88279 95.24535 -9.133677
-16.50953 95.30624 -5.615401
-12.56568 92.76744 -10.66121
-13.77549 95.98505 -8.99919
-13.05479 99.04264 -8.588786
-15.49449 97.57512 -6.2209
-4.773989 94.18616 -12.80448
-7.190291 97.50647 -12.24765
-8.215347 96.15672 -12.30056
-12.19441 94.37053 -10.70052
-11.64294 95.84682 -10.81385
-10.05589 95.45022 -11.77703
-5.93207 93.12807 -12.81166
-6.386889 94.66479 -12.75038
-7.749355 94.66939 -12.60056
-3.660316 91.61391 -12.61478
-7.463824 92.39845 -12.66003
-9.075377 91.98924 -12.26418
-13.31757 106.6866 -4.424809
-13.48806 107.0682 -3.991868
-13.2505 108.7632 -3.314276
-12.61896 107.1798 -4.923372
-14.69062 106.0491 -2.626591
-14.64768 104.341 -3.849783
-9.28873 114.9597 -3.788462
-11.09664 115.3308 -3.208418
-12.08224 115.2073 -2.059202
-12.08601 113.1784 -2.597409
-12.62057 122.3018 -0.9885338
-12.71095 119.7766 -1.06306
-11.58924 119.9162 -3.903499
-11.18889 121.15 -2.318568
-12.6318 119.628 -1.568314
-7.290274 122.5931 -6.024894
-2.784759 89.42422 -12.03311
-5.396204 87.19585 -11.08977
-7.166807 86.52278 -10.72594
-4.450165 90.91175 -12.48579
-7.866364 88.5645 -11.73252
-11.89457 89.95054 -10.93118
-4.88693 90.50414 -12.40839
-8.938775 85.79421 -10.22991
-13.03528 126.0289 -0.7754563
-12.35174 127.2453 -3.891773
-10.31059 126.264 -6.022181
-10.09866 123.3953 -4.32311
-10.87754 127.3643 -6.251579
-11.074 128.9749 -7.142909
-12.08078 125.5967 -2.917948
-13.63813 131.1069 -4.799284
-9.907619 126.6771 -6.64954
-13.1468 131.7958 -6.610479
-12.00268 131.4994 -7.863187
-12.14566 132.0177 -8.046356
-9.568415 124.2901 -5.402864
-10.42985 124.7315 -4.849569
-9.001626 131.9414 -9.97166
-3.814922 109.5496 -6.844657
-3.553784 109.0964 -7.040215
-4.760303 107.558 -7.705546
-11.91926 121.8308 -1.452688
-5.560619 136.3381 -12.24298
-7.047989 138.08 -12.62055
-19.67878 83.42342 -3.308227
-9.480205 131.2731 -9.435592
-6.707366 128.8932 -9.319247
-6.779096 128.0458 -8.87503
-7.849842 138.3734 -12.58561
-9.246135 137.3995 -12.03181
-11.54911 77.90718 -8.712682
-15.34324 78.65786 -7.840673
-15.25558 77.05687 -7.976594
-13.88259 77.38316 -8.455098
-17.47032 76.00762 -6.567008
-13.85198 76.32218 -8.50843
-10.73738 79.22215 -8.642319
-14.4994 74.79031 -8.387593
-12.19129 76.15973 -8.759326
-13.59102 77.29708 -8.528526
-7.736954 76.30518 -8.774307
-7.601625 76.80739 -8.759128
-7.71072 73.60005 -8.802772
-2.578132 73.7804 -8.796506
-12.78115 80.96542 -8.483595
-10.92912 77.40611 -8.74197
-3.377789 74.00127 -8.799344
-6.810152 80.85256 -8.73705
-11.66847 82.40218 -8.758478
-13.79309 82.97148 -8.483625
-7.03237 82.3331 -8.908313
-10.97127 84.30273 -9.246678
-11.96712 81.9752 -8.685463
-11.45486 84.70889 -9.331021
-2.193646 116.5906 -6.624487
-9.459858 139.015 -12.27642
-5.375343 141.7171 -12.69801
-7.069954 142.3802 -12.64319
-6.369098 141.2158 -12.76027
-7.365068 142.9334 -12.57387
-5.823292 144.615 -12.36226
-9.864837 145.7001 -11.73623
-10.15895 142.1092 -12.18352
-8.121035 107.2962 -7.366202
-5.256422 108.0242 -7.395988
-7.456327 110.2699 -6.086535
-5.95146 146.9536 -11.92658
-7.508336 146.206 -11.99523
-16.25892 73.8821 -7.59614
-4.573439 83.47251 -9.271236
-8.763534 84.72698 -9.587835
-16.46205 88.09969 -7.295818
-14.45217 84.57356 -8.459056
-14.0571 92.07936 -9.561519
-15.84359 99.52249 -4.495357
-14.51932 100.2111 -6.325323
-15.34926 99.86961 -5.200275
-15.23125 101.4385 -4.584703
-15.3157 103.7637 -2.961612
-12.18577 102.7252 -7.716243
-13.65207 104.4293 -5.244722
-11.5377 103.0133 -8.118305
-12.7876 103.8166 -6.599963
-12.57001 102.9886 -7.217103
-13.47126 102.0927 -6.718192
-11.54699 106.8644 -6.035422
-4.413961 91.32084 -12.57064
-13.84077 90.79182 -9.799587
-13.41297 111.8412 -0.1746292
-12.01104 112.596 -2.581867
-11.99588 110.1985 -3.972449
-12.81524 112.3291 -1.260376
-11.20138 111.1959 -4.252749
-11.50976 112.0577 -3.475111
-10.71082 107.965 -6.031605
-12.28171 108.8477 -4.411791
-8.716293 110.4263 -5.753707
-10.94209 114.2179 -3.284084
-10.42688 114.2998 -3.897995
-7.529149 114.4431 -5.207149
-11.24377 117.7914 -2.728226
-10.06489 117.6259 -3.146757
-7.631279 114.7919 -4.847929
-9.590212 116.949 -3.212063
-11.31952 119.7431 -4.213443
-9.604536 118.9681 -5.436798
-8.208552 115.2778 -4.572095
-7.186483 113.7503 -5.570953
-5.915292 118.7197 -5.797522
-5.537743 118.9711 -6.712024
-6.091265 119.1222 -5.557826
-11.04846 120.6547 -4.064534
-7.673845 119.4487 -6.070711
-8.120687 117.6116 -4.512741
-5.196255 116.5432 -5.61724
-9.368511 120.2858 -5.356862
-8.094002 121.3551 -5.004755
-7.803015 118.1516 -6.251445
-6.724744 118.119 -6.81789
-8.597 87.66096 -11.29358
-11.87801 86.89054 -10.19458
-11.58435 84.93855 -9.4099
-11.23693 85.52902 -9.784841
-11.21334 88.08004 -10.84375
-7.978642 127.5656 -8.228926
-11.2133 128.7375 -6.859836
-7.930759 78.4679 -8.69376
-7.202705 81.14688 -8.756454
-8.16808 83.01228 -9.022047
-5.845343 79.18679 -8.680213
-7.242634 78.60426 -8.690753
-3.690703 112.4832 -6.008963
-4.376406 110.7925 -6.503432
-10.61342 142.1937 -12.0548
-11.89929 144.316 -11.52922
-12.41124 144.0064 -11.40296
-8.861952 145.6871 -11.91819
-15.22328 90.75314 -8.586913
-15.53077 89.6356 -8.262498
-10.30181 89.44425 -11.51545
-11.37741 91.95805 -11.36335
-13.67061 86.91557 -9.342668
-13.27674 86.43599 -9.400232
-15.11421 86.37336 -8.317025
-6.89667 111.8389 -5.726082
-8.984005 120.4289 -3.993936
-7.52359 121.9155 -5.605545
-12.25315 86.52521 -9.912494
-11.10872 138.8572 -11.69946
17.44633 98.71489 0.8400959
20.25191 86.14711 1.25225
18.13639 95.03341 -0.293091
15.20904 108.356 2.302045
15.73318 104.4857 -1.282898
17.14687 100.5611 1.314134
16.95762 100.6491 -0.4196874
20.24001 72.01694 0.1864106
20.25219 73.90457 -0.8230917
14.20829 71.05927 -8.410651
18.61698 86.69983 -4.715574
0.9026785 97.77216 -12.28989
17.45996 97.53578 -1.225207
20.61193 80.59853 0.2577352
11.50765 151.6133 -7.045638
14.54774 137.3188 -8.97296
15.51371 134.3544 -3.649993
9.712644 110.1665 -5.500025
17.79756 148.8133 -8.44245
16.68434 139.3922 -9.551859
14.31048 130.9196 -1.080084
11.5952 124.9115 -3.298126
17.41163 149.7692 -7.777789
7.533005 84.83423 -9.741614
9.781302 106.7945 -7.13025
14.12748 151.5697 -6.385286
12.04356 151.4411 -7.321973
0.6827505 74.90252 -8.795667
1.515937 97.51817 -12.35318
1.754772 72.26579 -8.763522
5.757944 71.2747 -8.729885
5.682868 109.3719 -6.730453
1.991116 104.3801 -9.609587
7.072998 150.528 -9.902304
0.5211039 116.4926 -7.625123
0.8072222 84.73653 -9.824286
2.520353 73.37846 -8.788851
13.50375 120.9198 1.019632
1.051703 149.827 -11.17523
3.723733 87.78716 -11.36649
2.171789 89.077 -11.90289
10.38795 133.6459 -10.11348
16.13821 142.3399 -10.65695
20.58764 78.60028 0.1751452
14.11307 151.3877 -7.035901
10.98724 151.6543 -7.206692
3.537611 150.6431 -10.65298
3.751168 76.48164 -8.764429
8.302622 120.7827 -4.635372
5.263536 151.917 -9.407553
0.8018187 114.4486 -5.574327
0.4576439 137.6158 -12.31671
1.025118 131.1516 -10.5685
0.3685767 131.2447 -10.604
12.42248 70.14454 -8.655354
12.85989 73.32665 -8.757809
17.91651 147.7993 -9.033132
7.584624 151.9663 -8.328362
14.58229 150.9797 -7.71075
5.149038 136.5204 -12.27929
2.658034 147.396 -11.5888
17.13397 100.2853 0.3587786
4.871533 85.41057 -10.08976
2.010207 105.5698 -8.954816
13.75865 114.5745 1.403519
20.08056 85.90958 -1.242356
1.522095 80.47575 -8.76336
20.4901 76.08569 0.9524168
20.05001 72.60506 -1.550845
19.95979 71.81766 -1.864725
20.62727 82.02628 1.346709
4.975832 91.27153 -12.58083
14.85025 132.0589 -1.238122
12.63582 125.5104 -1.488989
3.411803 116.2855 -6.828347
2.111358 125.4438 -8.329495
4.368547 70.67609 -8.712836
1.812415 73.12016 -8.785342
1.542289 71.58765 -8.745239
17.26026 145.1159 -10.09401
17.48215 143.4209 -10.26215
10.46117 149.0693 -10.2366
15.37248 145.4564 -10.51472
1.164879 140.3266 -12.49651
2.644822 144.9749 -12.08623
9.631153 151.3712 -8.21442
12.7427 149.9435 -9.253587
5.971634 150.5234 -10.20395
4.06778 149.3849 -11.09676
4.826283 148.7731 -11.30259
6.115192 145.0983 -12.29484
0.2066364 145.2474 -12.12648
17.01451 97.94573 -2.704016
17.38536 98.82618 0.07442097
5.1263 96.43586 -12.61033
4.014286 99.3802 -11.86344
3.134158 99.19781 -11.90814
15.08997 105.9597 -1.815083
14.37552 110.3174 1.530175
10.46872 99.41404 -10.44638
13.70392 111.9439 1.044824
20.56099 78.52528 -0.06006837
16.69024 71.86075 -7.299181
13.09122 71.89223 -8.693345
20.42229 74.55693 0.8320167
20.35277 77.31924 -1.16459
18.05166 72.49213 -5.991373
19.67381 74.79913 -3.216435
18.38573 92.94843 -2.399504
20.39337 83.59093 -0.7945847
0.6844614 90.81717 -12.4264
16.3477 136.9476 -7.84244
15.69976 135.114 -4.378579
-0.009198097 134.0246 -11.54196
1.84355 127.5005 -9.081704
13.05685 119.6548 2.311769
13.5121 123.7766 1.829921
0.3252616 122.558 -7.663635
13.86471 129.5283 -0.9468748
10.25187 71.26064 -8.71676
1.895214 74.14641 -8.794942
2.871194 75.51949 -8.786344
8.847095 73.98412 -8.791123
5.993385 74.40504 -8.793447
14.881 146.2692 -10.53318
15.67395 144.0504 -10.59455
15.13511 139.1475 -9.735471
2.089712 134.7511 -11.74758
14.5007 147.1423 -10.44698
4.178619 148.8093 -11.28623
6.034129 148.7728 -11.23475
18.3185 94.06909 -1.105378
15.90414 105.2256 0.1006251
4.357355 91.67297 -12.62655
2.405389 101.2418 -11.17318
15.72242 105.0777 -0.7255862
2.649861 103.2653 -10.21973
14.0287 112.8816 1.72422
19.62937 78.94925 -3.547119
12.66502 72.64468 -8.750474
18.40423 75.80266 -5.56344
13.30227 74.21395 -8.665376
1.984365 83.08218 -9.200844
20.10686 74.20437 -1.763799
19.12512 74.72832 -4.416205
17.56091 75.31883 -6.508747
18.83076 72.82069 -4.844549
19.04418 90.84272 -1.741668
0.5943612 88.42793 -11.63006
2.130362 84.44441 -9.680144
2.183243 89.49744 -12.06595
1.837475 88.2887 -11.58798
15.47132 138.0076 -9.137839
14.74133 133.3867 -4.192944
14.49547 131.6429 -1.884477
4.817909 131.5985 -10.73968
1.60116 129.9534 -10.08058
13.38606 125.6346 1.271301
12.93197 118.5827 1.84452
0.2393225 120.1504 -6.242016
1.27851 111.9291 -6.3064
2.230389 118.2725 -7.904982
4.12522 115.9677 -5.74031
13.72321 127.4903 1.131063
3.533913 76.05126 -8.77374
9.424022 73.73247 -8.787929
1.938875 140.3408 -12.50239
4.199182 142.6178 -12.46442
3.331685 138.9351 -12.50307
2.904179 138.9716 -12.48634
16.78553 99.70708 -2.065086
16.91079 101.5352 0.8059965
4.028302 94.20191 -12.80668
4.417282 93.39333 -12.80748
1.921099 90.65942 -12.39573
2.828299 95.77958 -12.66827
13.49091 106.1742 -4.46785
14.67358 106.9785 -1.960982
1.204176 105.545 -8.968897
1.416142 107.4786 -7.934825
2.313684 102.4141 -10.6406
3.327199 110.4886 -6.568325
13.58102 114.3777 0.7712053
13.23622 119.6225 -0.006230377
20.46993 83.73331 -0.2108998
6.783206 82.78497 -9.039589
0.8346314 82.08864 -8.973063
2.884248 78.89011 -8.705003
6.275579 80.10226 -8.710353
3.562795 77.97963 -8.717071
17.94643 75.51256 -6.104694
19.46232 89.711 -0.9877291
19.82429 88.6691 1.100978
17.59824 92.85691 -4.672824
18.70909 92.73515 -0.9114789
19.69906 85.78024 -2.676141
1.529489 85.49733 -10.17904
4.515843 92.18806 -12.7117
14.61754 137.1321 -8.781087
14.26298 132.7504 -4.969605
13.94988 130.1673 -1.463246
12.76545 128.1055 -3.788952
13.12753 128.7102 -3.358162
3.45832 133.6434 -11.45924
4.47536 133.9403 -11.59546
3.93911 127.6105 -9.064891
0.1459713 131.9541 -10.87147
4.417092 130.0722 -10.132
2.857711 123.5749 -7.708472
0.7452726 124.3344 -8.05171
12.18865 124.1482 -1.41331
12.97634 126.4561 -1.372604
12.5604 123.0303 0.0835502
1.020723 120.8202 -6.995924
1.068096 118.493 -7.983906
3.006516 122.4211 -7.390662
10.30748 72.7202 -8.76978
9.641806 74.1655 -8.789632
12.79952 74.64896 -8.736782
8.930849 74.88209 -8.78782
5.123732 76.26177 -8.771193
11.10804 75.37455 -8.788019
2.565106 134.9446 -11.80321
3.680146 135.5155 -11.97295
2.324381 138.9341 -12.46724
16.79862 98.24843 -3.133663
15.15037 102.6023 -4.038557
2.59064 100.6029 -11.4241
14.30622 108.1484 -1.962752
14.55336 107.6933 -1.713802
2.216095 107.1836 -8.082287
0.8547642 102.142 -10.75814
13.19675 116.0933 -0.2930156
11.35651 121.222 -1.342571
19.23829 79.81333 -4.286465
19.98854 82.5535 -2.459124
0.8292636 83.35503 -9.298512
14.41696 75.89397 -8.36945
19.51938 77.60004 -3.665068
18.09412 94.363 -1.981466
6.358528 90.7207 -12.45627
5.720877 88.95442 -11.92703
15.09437 135.3676 -6.3324
4.85495 132.1304 -10.96481
4.414057 126.6653 -8.666211
9.650086 123.7752 -4.985598
13.10188 119.2205 0.5149698
3.201745 117.0237 -7.792707
16.4943 101.7659 -1.299337
13.12529 112.932 -0.8124989
17.20455 76.93964 -6.787443
5.457931 88.83221 -11.87225
6.229185 87.3618 -11.18038
3.765877 88.50974 -11.70102
3.422346 85.77236 -10.30108
13.37012 136.771 -9.713742
14.94746 138.5062 -9.375051
14.26956 139.9523 -10.27975
12.85479 129.3162 -4.852123
14.47012 134.1727 -6.321423
7.663444 76.17979 -8.777196
7.604079 85.7282 -10.22691
6.879275 86.95164 -10.94963
7.459268 82.06243 -8.885944
10.07064 84.91837 -9.625128
13.25458 132.8762 -7.379561
8.122066 83.56741 -9.211369
10.31573 135.3439 -10.88729
11.9965 134.7651 -9.71695
3.647896 81.49413 -8.867408
7.683837 79.89436 -8.690927
10.12614 82.65781 -8.892203
10.98518 81.71768 -8.711715
7.571075 81.52468 -8.801313
14.60136 87.14297 -8.793365
11.76038 86.27364 -9.985638
14.27476 83.13586 -8.314757
5.12465 97.47687 -12.3976
11.99483 150.0176 -9.29453
7.681219 145.8561 -12.05921
12.19297 141.2778 -11.54205
9.128357 149.5436 -10.17161
9.241156 147.845 -11.12046
10.81298 147.6131 -10.88762
7.958396 145.8356 -12.03113
8.678812 148.8822 -10.72843
3.197292 107.2671 -8.007137
4.944004 106.6876 -8.231598
5.087511 107.5546 -7.668082
6.857189 107.1423 -7.705974
5.511745 108.5279 -7.079716
6.708568 106.5186 -8.149043
9.000125 109.2886 -6.135867
11.13139 108.3164 -5.59143
9.45804 108.1612 -6.506388
11.33814 107.7646 -5.715585
12.52259 108.1522 -4.524852
14.48867 105.3082 -3.508989
12.96927 105.3248 -5.561958
15.45855 100.2785 -4.797312
14.31771 104.7487 -4.145468
15.32324 103.9065 -2.837522
18.82552 85.70881 -4.54544
13.25567 91.17386 -10.24104
19.56258 88.02568 -1.974205
16.99876 86.74399 -6.719165
17.86631 89.10351 -5.443981
17.60636 91.29612 -5.298856
12.06699 121.7874 -0.5877393
12.24887 124.1708 -1.286515
11.48275 122.904 -1.961403
12.28671 127.2085 -3.980647
10.90069 122.1781 -2.531486
11.98095 125.3306 -2.875449
12.58069 120.2373 -2.193741
10.46962 121.5781 -2.848194
2.812454 118.5135 -6.883494
11.28397 119.7929 -2.38334
11.55741 118.7352 -4.354878
13.50112 120.7878 -1.259736
13.32622 120.9842 -1.048912
3.562678 115.4148 -5.774815
7.919727 112.2658 -5.229699
3.965365 113.9379 -5.916824
3.655087 114.0378 -5.839728
5.456409 116.495 -6.864841
3.942324 110.2933 -6.629536
4.481356 113.4428 -6.079364
12.15348 112.2594 -2.825977
