# .PCD v0.7 - Point Cloud Data file format
VERSION 0.7
FIELDS x y z
SIZE 4 4 4
TYPE F F F
COUNT 1 1 1
WIDTH 1665
HEIGHT 1
VIEWPOINT 0 0 0 1 0 0 0
POINTS 1665
DATA ascii
6.436572 129.3678 -9.709007
-0.6326196 143.4816 -11.85521
-2.267489 142.913 -12.07108
0.45681 142.3495 -11.92496
-2.675488 137.0146 -12.07636
1.900086 135.2009 -11.72491
13.28981 130.5338 -5.270659
2.091019 151.0879 -10.32062
-2.338996 144.7815 -11.92458
-4.332674 152.2583 -9.560758
-7.32612 152.228 -8.267801
2.658043 145.8136 -11.86163
3.192636 132.4473 -11.1039
6.287736 133.5405 -11.45855
11.4023 131.0138 -8.236855
-1.032693 140.5836 -12.01824
4.893641 149.8636 -10.83824
-0.9113436 150.79 -10.40367
-2.518944 148.7232 -11.23784
3.94216 150.8091 -10.46622
-2.322151 149.094 -11.08972
-6.356558 150.7496 -10.0049
-2.459705 132.6372 -11.14347
0.8558586 132.1551 -10.95604
4.775239 132.9791 -11.38085
-1.916078 147.4374 -11.4779
-1.300868 148.1251 -11.22953
3.154744 133.7124 -11.48061
4.149751 135.543 -12.05833
1.158033 134.7265 -11.59597
-3.016966 134.5034 -11.67438
3.068792 148.7431 -11.31403
-4.539998 137.0173 -12.46696
-5.906296 134.7049 -11.91538
-2.855173 141.8747 -12.29085
-4.474515 146.4119 -12.10473
-9.997452 151.7885 -4.288296
-8.48823 152.1763 -7.720642
-14.32159 131.5569 -1.967349
-9.153046 152.4127 -5.684183
-7.837906 151.0896 -9.360706
1.225451 152.2531 -9.903369
4.685146 153.2406 -8.835987
-1.378418 152.0017 -9.998203
0.5533279 151.6137 -10.13006
-7.566553 152.6194 -3.756742
9.185385 133.239 -10.63786
12.63861 131.6373 -7.410507
8.491256 152.0492 -3.679985
7.67271 152.566 -7.603157
7.945765 134.2619 -11.43219
14.508 131.8772 0.5772421
12.55648 131.8107 -7.634625
3.234457 140.8793 -12.4571
6.274657 150.7741 -10.09569
-13.83256 129.565 -1.98157
14.26958 130.2789 1.66889
6.422256 128.3243 -9.240911
-5.344228 128.4509 -9.476674
-3.490303 128.5806 -9.619349
-9.26123 128.6646 -8.361853
-14.22957 130.2929 0.09239913
-13.3441 124.8629 5.320196
12.41286 127.0175 7.893518
0.05967261 125.6252 12.36132
-13.39728 125.5198 5.301482
-3.416593 127.7254 12.22148
-13.42465 124.348 4.145524
11.88153 124.4912 8.28266
13.31559 125.9009 5.791286
-13.47682 126.4292 5.159949
-10.75453 126.4958 9.315217
-12.73451 126.1325 7.046147
-6.83573 127.1007 11.49916
-12.13877 125.6613 7.96435
-9.80746 126.8033 10.18987
11.2794 125.5241 8.841578
-6.884119 126.0668 11.40136
-7.952154 126.0982 10.93525
-5.785583 126.1223 11.78396
4.641122 126.1291 12.11019
7.394505 125.6243 11.27472
-0.8803834 125.9633 12.35706
-6.770217 125.3757 11.58943
8.524276 124.7053 10.87672
-3.290289 126.8128 12.24491
3.106998 127.017 12.2295
8.310631 125.1362 10.92016
6.904297 125.4101 11.5262
-8.746725 124.7372 10.75639
-3.928025 123.2115 -7.513594
11.06559 124.4353 -4.041161
11.6996 124.7354 -3.2131
8.750296 124.4627 -6.263299
-13.24331 123.663 3.197744
-13.47427 124.6259 3.465997
12.11978 123.2097 -1.017805
-12.45713 123.1958 -0.09374773
13.05657 124.0023 1.106963
13.11092 125.0872 0.01300872
5.508173 122.8499 -7.024137
0.2028877 124.3426 -8.037023
-8.127067 122.624 -5.696694
-13.01484 125.4502 -0.5386087
-13.48426 124.8999 2.424044
12.71063 124.7447 -0.9265146
8.56017 122.6745 -5.439482
6.313688 122.9613 -6.761693
-0.1485535 123.4655 -7.711638
-1.412497 123.3512 -7.668306
-9.392758 124.2793 -5.696165
-13.12689 123.9217 1.478965
10.54599 123.863 -4.327284
-0.6901135 123.3844 -7.680232
-9.414967 114.559 9.307374
12.36277 119.4511 6.304332
0.7936492 113.8946 11.88356
-13.17114 123.3336 4.821884
12.4507 123.5142 7.282921
-11.70569 120.8616 8.003748
11.50736 116.9071 7.432052
12.53653 118.4672 4.348605
8.762929 123.1062 10.83626
2.429151 124.5472 12.34163
13.1786 123.2589 4.655808
-12.41233 117.5597 4.888312
12.53361 119.3964 5.470655
-12.54008 118.6307 4.065863
-12.31775 119.4979 6.434547
-11.08556 119.8368 8.615233
-11.67972 119.1143 7.667689
6.701462 123.8187 11.7534
-12.79981 121.9363 5.930768
11.80579 113.7041 7.171688
-12.33901 117.1429 5.683811
-10.92193 113.7948 8.192773
12.29858 116.6573 5.829601
12.45214 122.4935 7.078124
12.78896 122.4163 6.091476
-9.734798 114.409 9.117149
-12.17015 117.3734 6.070929
-7.778502 123.1476 11.3364
-10.59867 113.6769 8.507892
-3.692965 123.718 12.28911
7.765328 122.9716 11.33636
-11.51531 115.8625 7.262446
11.52574 119.2113 7.922942
-10.98146 114.8271 8.007267
-1.552481 113.4509 11.88454
1.989031 123.4434 12.25434
4.583217 123.9728 12.24934
11.74758 121.473 8.054817
11.5442 122.8997 8.530674
11.31764 120.6321 8.463534
11.56292 117.7565 7.510915
-6.207883 123.4446 11.91361
-3.094898 114.3627 11.88813
2.858971 114.4579 11.89648
0.0813977 115.6608 11.92597
0.02892471 115.8287 11.92662
2.989654 114.0143 11.88376
4.418417 116.1184 11.69436
-0.7466104 124.1601 12.31185
9.880255 122.5099 10.08172
6.137429 122.8981 11.91195
2.397011 121.4867 12.09016
11.30871 117.643 7.875922
-4.339835 122.8152 12.15485
-8.753872 113.9199 9.696973
-3.017088 117.4861 11.89706
7.283987 115.3025 10.49501
1.916663 122.0695 12.13146
8.346544 114.4242 9.915324
5.492312 121.8281 11.87292
6.211126 115.4369 11.04235
-5.51185 122.4988 11.99227
3.426155 116.9727 11.85782
1.649755 120.9583 12.05374
1.311868 121.1302 12.06506
9.597586 116.1865 9.303447
-5.878751 120.0028 11.48954
-8.076267 121.2782 11.08758
-5.677397 114.8804 11.28635
-9.392334 115.211 9.311744
5.596458 119.5967 11.50275
-0.4301939 121.2118 12.06932
0.6277963 122.5597 12.16966
-10.1968 121.0245 9.670836
-11.28804 119.2345 8.261389
-1.010708 119.3864 11.95897
11.09436 117.5688 8.185857
10.51121 118.1477 8.928903
7.381334 116.8706 10.55049
10.23807 118.3722 9.211138
4.418985 119.5357 11.76447
-1.613457 117.7651 11.92134
6.910526 115.8389 10.69555
-9.155372 116.5137 9.630846
0.5972941 117.2284 11.92154
-9.717676 116.6118 9.272791
-7.317976 115.6646 10.49041
-6.657885 117.568 10.91832
5.121025 116.544 11.47893
-5.717732 118.4419 11.33121
-2.610106 118.3312 11.91769
-6.296172 119.5007 11.29548
8.88534 121.0995 10.60864
8.428075 120.361 10.74243
3.787799 116.9639 11.81969
11.16607 120.8195 8.69708
12.56323 115.635 2.933498
-11.86933 119.42 0.4605597
-12.89121 121.8625 2.850548
12.99265 122.9878 2.129878
8.603409 122.3788 -5.197956
-5.44367 114.9547 -5.35348
-12.69347 114.9222 2.174768
-13.01317 122.043 3.621635
-13.083 122.542 3.530211
-12.60054 117.0672 1.183531
-12.426 115.5419 1.473244
12.3859 117.8108 2.953065
12.33377 120.5654 1.344133
-12.39256 117.9129 2.907443
11.10013 119.85 -1.334153
10.47144 122.5615 -3.467462
-0.643348 115.9081 -6.706882
12.1879 115.4776 0.2624409
-12.52215 114.8813 0.7336228
12.46697 116.82 2.373757
6.035674 121.0007 -6.060547
-7.370158 119.9209 -5.052956
-11.86756 122.6738 -1.168758
-12.78424 121.8128 2.281551
10.32515 115.7937 -3.505218
-12.27193 117.494 2.15323
9.60461 122.419 -4.372281
10.00873 115.3519 -3.19787
-8.296463 116.2339 -4.843331
-11.33265 122.2731 -1.982562
-11.72064 117.9096 0.1602162
5.149021 122.1457 -6.799231
4.589211 115.1758 -5.771793
4.927424 121.8664 -6.740665
-6.469296 121.9525 -6.239664
-11.97005 120.5961 0.2848832
-11.8017 122.0288 -0.8991041
10.42423 115.7326 -3.13692
-11.487 116.3417 -0.9858694
8.105164 115.397 -4.513287
3.705847 115.4902 -6.30959
-1.089472 115.8386 -6.66891
2.61139 115.6049 -5.810409
2.998744 116.0329 -6.192839
-0.2704277 115.7633 -5.686948
3.938169 120.6426 -6.562893
-7.52527 115.1227 -4.674796
-4.823003 121.053 -6.487412
-2.694445 119.8973 -6.50492
-11.77363 116.8825 -1.251447
5.347306 121.4641 -6.485435
3.321289 115.8563 -6.11778
1.048781 116.9471 -5.912296
0.202541 121.3265 -6.946919
-8.93282 115.6531 -3.924014
-9.377729 119.4366 -3.770558
-7.193287 116.1722 -5.550929
6.135466 120.3514 -5.790861
8.577614 118.9419 -4.062489
-1.747283 119.7931 -6.541913
-1.561215 118.6336 -6.522801
5.762478 120.1592 -5.878636
8.095222 120.0175 -4.638153
6.688769 116.1821 -5.517722
9.044456 115.7741 -3.900212
-6.408327 116.7765 -5.04031
-0.5355929 120.1324 -6.609218
-0.6093749 120.953 -7.033161
8.687551 120.2528 -4.24837
7.56594 119.1344 -4.744649
-0.3742305 120.6306 -6.593479
-10.93721 118.9985 -1.477098
-10.01852 118.7517 -2.76464
-7.025691 117.5273 -4.812176
-1.109379 118.0845 -6.153261
0.5431957 118.1671 -6.288663
-6.400448 116.0943 -5.017912
10.4493 117.2633 -2.311451
-5.443954 118.5568 -5.733148
8.105901 116.8868 -4.254151
8.980487 116.9965 -3.707759
-3.782461 117.8692 -5.957734
6.619461 117.9402 -5.041691
2.799119 117.2151 -5.96819
6.710897 118.4784 -5.070973
-8.107878 119.2778 -4.641211
-10.18812 119.3394 -2.61045
-8.733951 118.3326 -3.866432
-12.95516 113.0797 5.263873
-9.264225 112.8638 9.52743
-10.06812 111.9159 9.20972
-11.29489 112.1515 8.235443
-11.50721 112.7507 7.846955
8.335333 111.6717 10.16976
10.96829 112.3229 8.470819
4.753249 112.3384 11.78308
11.02558 113.3974 8.164959
-2.319453 111.5724 12.04657
4.349324 112.0756 11.89371
9.480515 111.8867 9.514143
13.05344 113.3617 4.609142
6.957211 114.6982 -4.992912
11.49766 114.7499 -2.079531
9.014025 114.2477 -4.219939
1.402398 113.1245 -5.958351
-5.493857 113.1143 -5.660089
-12.57578 114.1399 -0.1694466
-4.003059 113.0666 -5.91496
-8.538973 114.6913 -4.346273
-2.812468 113.4608 -5.938514
-0.4729689 114.2753 -5.855022
-5.643888 114.09 -5.44383
-9.419015 114.5704 -3.897127
-16.99519 102.0465 1.973058
-16.59192 103.9657 2.27783
-7.905814 100.3142 9.957468
-0.3422898 99.78952 11.22134
-13.70003 112.2086 3.088729
-13.83306 111.8755 3.165094
-7.072328 111.2723 10.90211
-3.454352 110.2726 12.2014
10.86052 100.1648 9.730318
16.2261 105.5277 2.294656
16.78683 103.0776 2.108972
-3.611559 109.8461 12.24709
11.3068 110.235 8.948489
14.49555 110.3956 2.99931
13.49567 112.7696 2.787342
-14.72007 109.9363 2.641675
-15.75798 107.1321 2.095862
-14.60167 109.3652 4.572438
-12.24672 112.2536 7.122163
-11.78044 110.4516 8.446938
16.29986 101.5751 5.407064
-14.11915 110.5863 4.515713
17.01731 101.072 3.438989
-16.52018 104.2164 2.823003
-15.75555 105.7701 4.880965
-10.49873 108.4191 9.846853
9.123505 99.74567 10.36553
12.05046 101.9007 9.084934
-14.41535 110.5052 3.323564
-16.5856 103.3553 3.716148
-14.72819 105.5355 7.071877
-15.72301 105.4589 5.235944
-14.0096 106.1818 7.761838
14.37394 108.891 5.570704
13.75099 110.3654 5.782603
11.64349 110.1127 8.705454
11.71366 111.6535 8.003839
13.38821 108.0109 7.816082
11.63507 106.5904 9.434672
7.524738 108.6493 10.95068
15.96589 105.413 4.377931
-8.892211 111.1551 10.0151
-11.01771 110.9039 8.873651
1.267103 99.99619 11.24087
-10.95017 100.3844 9.326854
12.55631 112.3829 6.516865
12.92123 108.3837 8.188652
11.86854 111.0513 8.103594
7.870055 110.5228 10.96157
-11.26706 108.0848 9.505945
-10.66522 110.1331 9.414792
-5.099123 100.0107 10.50862
4.993611 100.5333 10.71731
-15.18826 101.7583 7.027431
-12.18225 100.8643 9.010002
13.68003 101.2184 8.277636
9.510118 100.4811 9.6728
15.33778 106.1296 5.698031
-9.077404 110.3837 10.39242
-10.73241 109.0088 9.64582
1.229238 99.25598 11.41511
-2.867312 111.0239 12.1115
-14.22005 103.0727 7.91119
-11.32321 100.2029 9.296916
-5.260851 100.3109 10.55349
10.09742 99.88612 10.09581
-14.37581 104.5125 7.687332
-10.80096 106.7909 9.827403
-10.74268 107.9104 9.798375
3.548971 108.7274 12.37274
-9.016685 108.8618 10.38753
-6.162661 110.8901 11.52113
-1.729399 100.7374 11.43545
4.244498 99.48096 11.10552
1.968997 108.9979 12.37213
-4.136601 108.8764 12.17379
3.822158 99.69051 10.88246
-13.03477 103.9921 8.765098
11.58355 101.3749 9.217005
3.465138 109.7715 12.27314
7.124178 110.1358 11.27045
-4.238559 110.968 12.04693
10.07328 101.9535 9.634366
-10.24615 103.0399 9.680191
3.705148 109.5885 12.26779
5.090016 103.2079 11.42576
15.66328 105.3521 5.454449
15.47971 103.8089 6.36321
4.269758 107.8016 12.30139
7.736009 102.1978 10.41592
14.99391 102.7966 7.093216
5.489729 106.9412 11.91967
8.595536 105.9448 10.57455
14.75809 102.5424 7.348334
1.863711 107.1426 12.49977
9.367534 106.4258 10.3597
10.02331 105.3644 10.05676
2.999812 105.771 12.3812
4.4747 104.9017 11.96913
11.62088 104.8595 9.391768
10.28778 104.8035 9.871753
5.25771 104.4401 11.63875
-0.01736296 101.9674 11.84896
-11.8493 103.9187 9.338837
-9.826444 104.5299 10.1744
-8.614047 105.4473 10.48198
-7.991838 101.9869 10.35942
-7.319468 101.6591 10.46953
-0.748912 105.135 12.36252
-6.929875 104.8545 11.07101
-7.060276 104.5179 11.13311
-3.876414 105.729 12.24551
-5.930443 108.3858 11.72673
-5.816112 107.1682 11.81118
-2.571546 106.0335 12.43017
-0.5620905 107.1441 12.50945
-1.770917 102.9229 12.02533
-6.618423 106.2342 11.41862
-6.485846 106.893 11.57469
-2.935745 103.5875 12.04049
1.842906 102.0085 11.78974
4.483364 101.4203 11.13305
5.919465 100.989 10.55986
7.01548 103.2545 10.82414
3.859541 104.3199 12.00932
2.252354 103.8604 12.17283
11.76413 103.9422 9.339902
13.34016 105.3326 8.501429
12.67365 103.2872 8.902887
-5.731937 100.5067 10.46987
16.50119 102.7786 -0.8028165
16.51396 104.0615 1.027728
-16.17414 105.3473 0.9748465
8.04314 103.6843 -9.778307
13.49969 112.5209 1.067605
12.26725 113.2204 -1.704385
15.72833 102.832 -3.005427
-9.920594 102.2796 -9.707131
-15.92114 104.9333 -0.7056409
14.00632 111.5573 1.933835
-16.49829 103.1422 -0.4367484
-2.953157 112.1015 -6.162288
-4.998629 111.8746 -6.063946
-16.73999 101.6268 -0.963578
-16.19771 103.5451 -1.15947
15.0453 108.6431 0.4244327
-15.1248 108.7388 1.073592
13.81261 110.0957 -1.74872
11.62813 113.5645 -2.386153
15.92198 101.6653 -3.35293
-7.407686 110.9323 -6.746337
13.50194 111.4435 -0.9561157
-16.28427 101.3469 -2.647849
-16.26755 103.6901 -0.7361606
11.50037 109.8673 -5.068633
13.31926 101.9912 -7.132261
-13.48547 102.601 -6.645858
-13.61614 112.218 0.9357426
12.66049 112.7805 -1.349493
15.76892 105.2771 -0.8848575
15.40666 104.544 -2.490309
-15.09357 106.9031 -1.36869
10.56016 111.9084 -4.332783
-0.3390235 111.8325 -6.175834
9.424708 103.8268 -9.161554
-15.27779 102.0155 -4.432173
-2.861928 111.1709 -6.782659
14.37496 105.1852 -4.015614
-14.90055 108.7995 -0.01214084
1.274443 102.0471 -10.94444
15.26357 102.976 -3.889416
11.02863 103.9054 -8.196407
5.261023 103.1677 -10.43445
-10.10804 112.5945 -4.272141
-5.036672 112.9538 -5.783542
-10.78361 103.3631 -8.641958
-12.98398 109.103 -3.720332
-13.37693 110.4163 -2.303995
14.49946 104.6722 -4.141253
9.472809 113.4983 -4.238695
-1.216352 102.9206 -10.52504
-1.226004 111.3481 -6.673034
14.48705 103.5824 -4.839379
8.851795 104.1924 -9.198066
6.583266 111.2651 -6.037337
-9.549578 112.622 -4.558751
-7.559144 110.3708 -6.89166
-13.73705 103.2575 -6.028542
-9.143793 102.4606 -9.999533
-14.75867 105.9538 -2.846498
-14.61667 104.9234 -3.788234
-14.63187 105.3973 -3.464706
9.842322 111.7736 -4.829763
1.634964 103.4508 -10.25584
-1.843688 101.997 -10.97421
0.4747413 112.8571 -5.971858
12.17576 103.7558 -7.376764
3.510264 103.3739 -10.30614
-10.34319 110.242 -5.501743
-11.732 103.2975 -7.977832
-11.48503 110.6301 -4.382761
-15.3319 103.7164 -3.251951
7.471999 111.8296 -5.644306
14.72386 105.5991 -3.158783
6.157904 108.0826 -7.354386
-11.49192 110.0791 -4.762798
-12.31319 105.7167 -6.195602
10.82212 111.3513 -4.468958
7.756358 108.5987 -6.8701
13.04815 105.1914 -5.765175
-13.1009 107.2047 -4.615167
12.01124 110.2296 -4.266644
12.878 104.3061 -6.438786
6.816429 105.2395 -9.147767
-8.928041 110.6764 -6.390935
7.125957 110.7859 -6.298661
10.2447 106.7 -7.100412
7.907796 109.8148 -6.682001
8.356113 106.0728 -8.250013
12.15847 106.2912 -6.021524
12.68616 108.0503 -4.606033
10.51993 109.4105 -5.701707
14.14188 107.2706 -3.12597
14.14845 107.5705 -2.937459
7.763747 105.3321 -8.893147
1.934409 105.0691 -9.369229
4.632882 106.9356 -8.244506
-0.8807839 104.0427 -9.93884
-0.2680718 106.5694 -8.57724
7.250728 107.2415 -7.716439
-1.544804 105.741 -8.998668
6.144984 108.3817 -7.18634
2.609835 110.0219 -7.511004
4.39691 109.2871 -7.070909
-0.9914999 108.3176 -7.586839
1.421489 108.8615 -7.317585
2.090555 107.9821 -7.784018
5.023164 110.4629 -7.435105
0.7437221 110.5957 -7.824638
3.698279 111.0143 -7.189745
0.3780486 110.862 -7.614686
-1.797364 108.5623 -7.465079
-2.197421 110.8559 -7.577436
-1.582833 110.2767 -7.692173
-2.827717 108.9346 -7.281699
-4.57946 109.8374 -7.1378
-8.981687 109.9218 -6.049417
-3.033946 111.1521 -6.824625
-4.18357 107.5877 -7.891748
-5.274595 107.6968 -7.708266
-5.134393 106.3272 -8.590432
-10.96535 107.9051 -6.049147
-4.724113 105.8067 -8.933206
-10.12836 109.1268 -5.934134
-12.38171 103.6552 -7.220028
-13.30894 104.4758 -5.878109
-8.641038 103.8246 -9.482368
-9.744172 104.4605 -8.653393
-10.4919 105.1762 -7.835452
-7.471997 104.8184 -9.277735
12.69422 108.5392 -4.347906
-17.1169 100.147 3.575703
4.569571 97.85961 10.00455
-19.44925 61.64061 0.8948253
-16.24977 62.83329 6.297333
-14.92052 63.84253 7.092339
-7.282208 62.25476 6.964413
-20.37531 73.04668 2.15144
-17.1848 99.58452 3.589871
12.42112 79.16516 10.14942
-18.83404 92.89203 2.328276
-17.24336 100.8 1.535341
-14.73585 99.45158 7.717195
-10.9859 99.70468 9.687202
7.401559 62.6544 7.063028
11.33168 63.26118 7.220096
-19.61751 62.7078 0.4426199
-17.39101 99.78725 0.7135327
-6.862533 68.24728 8.375512
-19.92098 80.05417 5.290377
1.137764 98.77385 11.37332
-3.146709 98.68823 11.05295
17.40881 99.59505 2.145127
19.81229 89.34881 0.557044
20.32238 86.52633 1.601603
-6.908602 96.55423 9.680244
20.67848 83.13371 1.824915
-17.55618 98.88003 0.9658303
12.16583 65.26239 7.711683
18.16847 62.1098 4.230561
19.01528 61.29713 2.078873
18.03397 96.18387 1.222085
17.2567 99.85653 3.075894
-19.91605 69.93414 3.163455
-19.75916 65.88804 1.97594
-17.91504 61.31956 4.286068
-17.43509 63.1739 5.514703
-20.75232 82.18009 0.7118087
-4.963406 62.67493 7.072989
-19.93907 86.56609 4.155958
-14.80067 99.20573 7.719296
-17.61642 98.0223 2.382521
-17.12837 98.31039 4.370724
-17.87151 96.62376 2.358494
15.67545 61.42643 6.172335
14.72869 62.04568 6.688118
14.77448 64.17593 7.21535
18.97925 62.3507 2.810817
19.38522 63.52646 2.233996
9.965383 97.81892 9.390944
15.50454 99.78946 6.919466
-20.18955 68.99159 0.7796298
-19.47786 62.89408 1.524271
-20.16748 68.82074 1.00719
-20.09562 69.75719 2.266335
-20.2737 70.32637 1.105285
-19.87428 72.86716 4.226526
-14.3998 62.02732 6.775371
-13.21566 61.45158 6.715655
-20.38285 81.92702 3.939578
-10.50684 64.12146 7.423254
-6.694573 62.68146 7.07042
-2.819783 97.89812 10.3208
-20.37436 86.07852 0.4069171
-15.70402 99.0546 6.831546
-10.86948 99.27205 9.50856
-17.77914 97.04121 2.477764
20.69005 80.09078 2.514637
11.53848 61.97026 6.887435
9.821376 63.02195 7.154535
11.67031 64.6575 7.561484
14.58962 66.50367 7.850536
19.98503 68.6577 2.288555
6.563753 63.87128 7.359601
19.44346 65.8245 3.143785
13.18547 99.60508 8.655549
16.91352 98.10914 5.032801
-20.30192 70.79485 -0.03454615
-17.97644 70.96468 7.022645
-17.60982 70.4277 7.269101
-19.69246 72.17575 4.499142
-20.12273 73.45256 3.5857
-14.43956 63.08776 7.022023
-12.14077 64.99631 7.638543
-15.62245 65.08633 7.182834
-20.76356 79.52847 1.547103
-20.45913 74.36864 2.238532
-9.611339 64.84522 7.596931
-9.748647 65.44428 7.741653
-10.43427 66.43434 7.982725
-2.621624 63.46881 7.264935
20.05521 88.18084 0.839637
-2.968028 98.30235 10.43113
-20.0179 88.05847 2.25866
-20.47986 85.37939 1.412873
0.8410236 98.39651 10.7428
20.57691 75.16678 1.186986
20.77998 80.44118 1.504008
-1.779608 64.63657 7.539673
-2.214092 64.91293 7.604316
-3.68917 64.72195 7.560085
7.296856 65.62641 7.780329
10.63861 68.14681 8.389502
19.99247 70.23389 2.976061
19.59224 70.31213 4.299974
20.34924 71.63864 1.416282
19.52622 65.21441 2.602841
19.81412 89.35262 0.8035667
17.73095 96.98504 2.831536
16.87469 97.7719 5.303957
13.9328 99.85289 8.230166
16.15499 98.08137 6.494277
-18.72926 68.30467 5.468712
-14.89887 69.49236 8.512528
-16.87436 71.95544 8.183274
-15.65893 65.92874 7.378862
-20.32976 80.35754 4.154189
-20.05022 80.99753 5.005817
-19.34678 82.79573 6.462351
-19.95334 84.07999 4.998928
-19.81973 83.50301 5.426618
-18.53339 83.27695 7.647415
-20.44107 74.94992 2.586072
-20.55153 74.65778 1.203129
20.43155 84.91142 2.680733
20.7399 80.98946 2.035069
-4.763723 98.10754 10.02275
-18.59559 93.38987 2.963744
-20.14498 87.66875 0.8149605
-20.66497 83.37177 1.836783
8.332016 98.45378 9.549245
-17.45306 96.24776 4.656595
19.99844 73.86843 4.13925
19.8868 73.18913 4.292248
20.38574 77.78214 3.598037
20.79118 80.8386 1.063215
6.362205 62.8332 7.108251
5.878826 65.68287 7.789921
7.013132 66.17847 7.909102
15.29317 64.96371 7.27025
19.09459 71.12511 5.481956
19.67637 67.13814 2.956718
18.85551 65.14508 4.222437
18.61617 93.54581 2.608766
19.40649 90.34959 3.109548
19.38227 86.71438 5.71105
20.18472 86.00759 3.335126
18.22209 95.25312 2.01555
11.85081 97.99044 9.156334
8.152596 99.14339 9.886005
-19.4809 68.5822 4.095694
-16.88574 66.08091 6.761688
-14.42164 74.25648 9.478774
-18.54378 73.28459 6.788675
-13.31826 65.53974 7.776335
-7.462083 66.30437 7.937239
20.2159 86.6177 2.641871
20.48903 82.57861 3.376414
19.97763 83.83636 4.963504
-7.637221 98.11486 9.582542
-2.755552 97.15855 10.12073
-18.55026 91.8692 4.938537
-20.10419 85.33108 4.090379
-18.13722 83.90943 8.096438
-17.89645 83.74982 8.342856
9.35234 97.93979 9.452705
19.98162 72.69479 3.798029
19.5386 71.36791 4.702571
19.87563 79.73847 5.398629
2.402569 64.73615 7.563695
18.32343 64.3231 4.819894
18.38399 93.41382 4.043577
19.36161 87.46964 5.499189
-13.2197 72.7268 9.320978
-15.56365 65.58761 7.314373
-16.88484 63.82911 6.171753
-19.47006 78.47069 6.132785
-19.5796 79.17953 5.976221
-20.57963 76.8373 2.395997
-19.87682 76.86291 5.083199
20.29531 84.85506 3.557493
-18.75243 92.76868 3.1645
-19.24395 89.95361 4.31354
-16.86884 85.70847 9.102169
17.68169 73.87013 7.81952
17.22414 71.82944 7.895384
19.47146 78.02321 6.095489
17.81891 69.03697 6.758986
18.90507 89.13501 5.81251
17.55698 95.13934 5.170548
18.14939 93.16277 5.082713
12.13355 97.10814 9.185936
-10.07807 74.16447 9.504564
-14.19444 75.19831 9.656779
-14.09069 69.02901 8.578381
-13.78971 67.91782 8.338161
-18.3982 65.77886 5.191798
-19.61769 76.09587 5.52071
-16.91455 76.10242 8.79632
-18.22136 75.67108 7.59277
-17.45721 77.88136 8.600369
-13.22699 75.07441 9.668059
-6.774856 97.48571 9.698884
-3.9268 96.79813 9.94002
-17.6743 93.83607 5.741405
-16.94953 84.9736 9.098428
5.040986 97.05328 9.862144
17.55702 71.08526 7.454579
16.70516 68.6804 7.549335
18.63906 91.20374 5.241832
-17.95624 68.0983 6.391014
-20.24437 76.61581 3.984745
-19.60254 73.44974 5.051867
-18.13002 78.51069 8.02875
-5.498666 94.24961 9.401675
-2.065517 96.2821 9.940211
-17.87887 94.51408 4.775412
6.415756 96.92197 9.730104
9.18709 97.22765 9.485196
19.25076 76.03034 6.187917
17.14873 72.04045 7.995182
15.52603 69.97526 8.428493
13.26066 66.98878 8.141029
11.89992 69.51994 8.711483
15.65573 68.12329 7.939582
18.82814 90.8405 4.946992
17.51737 91.22264 7.318098
-16.72057 79.43789 9.239739
-9.15144 68.33072 8.411011
-3.799913 71.32364 8.981627
-8.624576 70.94341 8.946365
-5.004467 70.17133 8.766488
-2.965023 71.89391 9.081848
-2.888373 96.01009 9.816248
-17.9886 95.53791 3.243352
-16.17465 86.4078 9.500601
-12.21768 92.38877 9.769373
9.455151 96.1502 9.406478
18.54487 75.7528 7.198965
14.85886 67.6795 8.100371
-9.828875 68.42562 8.439153
-6.007133 70.44485 8.826854
-2.482012 72.51496 9.188932
-2.182216 68.08719 8.322777
-1.522677 66.24682 7.911945
3.632719 97.18105 10.0136
7.034932 95.17651 9.369281
-18.12156 94.36115 4.048009
-16.80213 94.40746 6.979928
-15.08341 95.4614 8.365562
9.873481 96.92086 9.426732
15.9793 73.55879 8.947877
-1.247503 65.93583 7.840676
-2.780792 95.76438 9.737413
-2.07439 93.25448 9.624228
-0.8643355 94.23497 9.372025
-5.760686 92.5209 9.77478
-15.68293 97.78844 7.164512
0.1937492 65.34032 7.703686
-6.040845 94.39268 9.390627
-15.22966 97.14339 7.67732
1.801746 66.01673 7.860361
-12.95927 94.02183 9.470413
-11.33209 96.852 9.304623
-6.979122 72.43822 9.199613
-9.504456 73.85694 9.451941
-9.019061 74.68829 9.571246
3.194117 64.78748 7.576083
-11.04424 97.90853 9.276196
3.409347 65.36999 7.712341
-10.35648 93.93581 9.572623
-12.08092 69.76311 8.758883
-7.631243 94.83144 9.35594
-7.396574 93.6497 9.579235
-10.1801 93.48438 9.632995
-12.176 94.09397 9.540634
-19.23985 88.77776 5.170849
17.96154 85.5066 8.151056
17.17052 87.77283 8.656616
17.0448 86.68707 8.884591
18.5124 85.20357 7.538497
14.4051 85.64462 10.24352
15.00331 87.09061 9.979912
-16.91712 92.51141 7.572278
-16.18298 93.41656 8.044553
-16.97063 91.10761 8.027266
-16.84852 80.79851 9.214931
-13.65823 76.44154 9.86762
-12.50977 75.10522 9.666042
-10.96813 74.00267 9.490693
-19.51457 87.60101 5.013089
-19.32637 87.93353 5.347961
-19.15181 88.95216 5.29892
-13.2448 81.1712 10.31361
7.512402 78.1396 9.99175
14.40539 74.58756 9.538747
13.2955 73.28327 9.411104
-12.08502 69.54883 8.713365
5.499578 94.72581 9.335032
9.07725 88.64613 10.18382
10.39656 95.4271 9.391518
8.911057 94.04848 9.523948
14.37675 95.22968 8.817792
15.09119 94.89616 8.473
-3.88575 71.59353 9.030921
-6.613131 74.04379 9.456001
5.148738 67.90398 8.293604
1.805655 67.29539 8.149355
3.204582 65.04768 7.637127
17.65964 84.62686 8.537666
15.062 84.48738 10.06571
9.479947 84.70985 10.34704
14.05947 87.45231 10.20371
13.58824 87.05475 10.2774
14.76717 88.23459 9.951509
11.95955 83.99438 10.37181
12.22843 84.73515 10.38051
12.81929 82.99218 10.37271
-13.81797 92.63351 9.464904
-17.02258 89.56303 8.425905
-18.35271 89.76994 6.636848
-16.8054 89.17382 8.68925
-13.60372 88.09222 10.20708
-15.65458 88.96539 9.486807
-16.29261 90.07614 8.90801
-15.98558 87.11297 9.534996
-8.719156 86.78832 10.2953
-13.67425 90.46596 9.914486
-15.19741 83.07383 10.02227
-12.65762 84.05983 10.38301
-12.87543 86.41952 10.36723
-9.953182 92.63801 9.744723
-5.037279 76.11916 9.740444
-12.21418 81.13052 10.29349
-8.855989 91.16256 9.907713
-8.579947 76.11984 9.765034
-10.52514 90.50294 9.976691
-12.05107 89.08427 10.15903
-11.34234 89.01597 10.15434
-7.736438 90.12436 10.01366
18.6612 78.62855 7.417117
13.0095 72.10007 9.224221
10.95373 71.273 9.041278
11.92106 70.93917 8.992808
12.75543 75.4212 9.718854
4.519834 69.64253 8.65996
10.2028 69.34217 8.648396
13.68688 75.03379 9.657288
1.639762 77.92119 9.940004
10.78668 76.51599 9.840203
9.175653 76.71796 9.846465
10.81543 79.07492 10.11805
8.704223 79.30864 10.11228
15.31726 75.729 9.502953
11.06106 79.01638 10.11673
13.98317 79.52755 10.1732
18.57824 81.90877 7.630568
18.83435 77.66851 7.079717
19.12881 81.96864 6.819368
7.820755 79.78406 10.14184
7.757265 75.50221 9.675199
12.37314 81.76044 10.31426
17.13794 78.1946 8.853659
10.78549 80.33973 10.21538
4.385393 75.88741 9.706202
18.06265 78.57785 8.104816
18.19028 83.60806 8.035331
17.81822 82.0383 8.432183
17.77404 81.55499 8.48798
5.5212 81.33167 10.22707
17.11059 82.72901 9.047422
14.53183 80.60715 10.16897
1.508232 77.35393 9.877244
14.17718 81.27071 10.24161
2.566796 80.99385 10.19668
4.480098 79.99562 10.13498
-3.867123 80.45511 10.16942
-0.02509614 81.2735 10.20997
3.556815 81.5745 10.23105
-1.748314 79.69416 10.10606
-3.63361 79.31682 10.08055
-4.147579 78.56371 10.01408
-0.5792762 82.01054 10.24739
5.808329 81.54564 10.24004
10.18917 85.56751 10.34872
-1.124458 79.63222 10.09981
0.7801374 77.35284 9.875813
-0.2387189 74.57646 9.51387
10.0205 80.95783 10.24345
8.557905 87.46257 10.26428
3.112752 84.08942 10.30738
-0.8243849 73.13049 9.289429
-0.8281517 72.09495 9.112886
1.680309 74.10699 9.444414
3.294538 74.39823 9.49195
11.21274 82.24284 10.31952
5.857135 84.87905 10.32034
-3.270494 75.65676 9.671545
2.445741 69.41904 8.60603
0.9336352 68.53301 8.417618
2.968415 69.10665 8.542923
2.514939 74.04671 9.437395
5.288705 73.88957 9.42446
9.948989 81.24528 10.25891
-3.456922 74.77351 9.548634
-8.822184 78.39027 10.03203
-4.605068 76.84433 9.828918
-0.04186975 72.16883 9.125743
-1.438332 83.26856 10.2911
0.8764502 82.99989 10.28287
-5.520062 77.50553 9.911019
5.719172 69.55852 8.649318
6.895571 68.77081 8.492672
1.753938 69.91827 8.705
-10.12858 76.5127 9.832457
-5.103064 75.52968 9.661129
3.546168 72.20182 9.138944
6.207663 70.99279 8.935434
7.559549 70.34526 8.822477
-8.492397 76.96816 9.871371
4.041089 72.89954 9.259453
4.976815 70.31924 8.797812
-11.57186 78.86529 10.11243
-9.462214 77.31998 9.922313
11.69129 92.95847 9.699942
14.60591 93.56348 9.069772
10.18627 92.19614 9.795845
9.93494 92.47679 9.764159
10.82804 91.24712 9.9126
3.387968 92.58949 9.774929
8.433386 91.76446 9.850062
-1.286622 91.76512 9.865538
2.67123 91.78737 9.862408
16.18666 89.30923 9.118964
15.99563 91.24488 8.803567
17.1434 90.41517 8.058608
5.435521 91.52768 9.880306
7.359447 89.93155 10.05231
12.19261 89.70443 10.11161
6.535987 89.25296 10.11565
10.76065 87.7952 10.26621
-4.977709 93.4559 9.59134
-5.787795 92.16238 9.815672
15.32346 94.12642 8.539448
16.96995 93.02853 7.292789
8.139686 87.75349 10.24343
-1.126024 90.90595 9.93997
13.93378 90.35323 9.898986
-4.873527 91.57795 9.873587
-1.054013 90.04449 10.02433
-2.156445 87.59388 10.22374
15.49199 96.50622 7.743949
-11.34015 84.59269 10.36546
-11.5421 85.04819 10.36181
-9.468871 87.84202 10.24041
-11.18118 82.80412 10.3465
-9.38949 85.40544 10.3373
-2.643244 83.27113 10.29338
-5.769134 85.20799 10.31625
-0.7533521 84.16058 10.30435
-9.607272 82.52058 10.31848
-5.708626 88.11654 10.19726
-7.541342 81.18771 10.23855
-3.874867 84.33266 10.3108
-5.774045 88.85802 10.13539
-6.446415 88.88545 10.13384
-8.530908 81.21385 10.25005
-11.88815 80.51839 10.25144
-6.867166 80.75147 10.20716
-2.582913 86.19421 10.287
-4.150274 80.5617 10.17832
-4.29141 83.09811 10.29499
2.871406 86.59557 10.27597
2.904059 87.20885 10.25019
2.701054 87.62068 10.22641
1.355353 86.78329 10.26666
5.787315 86.99201 10.27093
6.0674 87.29669 10.25677
2.432237 85.85819 10.29489
4.18643 88.9028 10.13865
2.069832 88.91518 10.13286
-13.26469 78.15876 10.05277
-12.65456 78.12888 10.05151
16.85489 80.77774 9.177056
2.771282 77.09274 9.849923
3.747414 77.25629 9.872825
10.04043 82.49577 10.31567
9.009738 81.44405 10.25954
2.007124 92.79963 9.732334
3.402821 91.5866 9.878577
-19.34291 59.05021 -0.7124035
-19.33969 58.60626 -1.192688
-18.38522 57.50011 2.001185
-2.077108 53.25628 5.143065
-19.37646 60.90014 0.4742239
18.90722 56.45534 0.1476998
-19.4149 52.22762 -1.409906
18.62055 53.20009 0.8873478
5.469687 56.76435 5.762545
17.24277 57.96993 4.038583
19.09644 53.5803 -0.6235573
0.8888298 62.33072 6.998837
7.974567 61.72875 6.831499
19.20111 58.54359 -0.1913127
-19.11254 51.86745 -0.3059368
-0.9713655 61.81912 6.879789
-18.99436 59.92441 1.345719
-18.88906 51.79227 0.3344413
18.0458 52.51447 2.315071
-17.72459 59.1166 3.711589
-13.42854 54.85888 5.265181
0.1388329 59.88979 6.442264
12.08585 53.31959 4.980162
17.51859 60.6471 4.481839
17.79452 59.31017 3.663392
15.66454 57.72474 5.241151
-18.44885 54.31459 1.375704
-17.42791 60.4001 4.490698
-14.9181 60.33372 6.139758
1.107848 54.01032 5.296098
5.836626 61.31211 6.742782
16.55313 57.77798 4.655101
16.02509 52.33936 4.361331
16.69251 58.92992 4.826999
15.84076 56.81185 4.964834
13.51292 58.99596 6.031016
17.11424 56.27382 3.914128
15.85713 54.87178 4.833647
17.32398 52.27762 3.363735
-13.54431 60.13279 6.346194
-16.34774 55.43409 4.609164
-11.91938 52.5661 4.769266
-12.95691 60.59453 6.509509
-3.860405 60.65872 6.605411
0.4937753 53.70178 5.252206
1.315547 61.34005 6.768416
8.291063 53.95266 5.15858
5.112964 61.75329 6.851701
8.256604 54.24358 5.2206
13.86017 61.0149 6.554566
-18.14788 53.78361 2.205128
-18.12396 56.7959 2.370802
14.81312 53.06096 4.870967
17.96142 53.39413 2.578954
-17.15028 56.21727 3.87608
-17.37395 54.46047 3.603626
-14.46781 55.22635 5.222312
-11.89282 60.80239 6.569406
-8.369657 61.6448 6.809274
-10.05411 60.90741 6.610114
-0.05913251 61.77077 6.869009
5.077792 54.9936 5.412194
3.084722 56.69891 5.764
3.69487 57.81575 5.988266
6.165126 53.62832 5.130054
8.770202 60.75454 6.583127
12.87514 60.37045 6.448979
9.625265 55.29575 5.432557
-18.26014 55.49924 1.89651
14.48106 55.24094 5.213459
-11.24025 60.21408 6.416865
-15.78008 54.59666 4.79919
-10.69484 59.63297 6.275585
-7.702338 60.03893 6.429435
-4.088085 58.50945 6.132787
0.7937046 60.57251 6.594371
5.060905 60.43088 6.543167
9.014819 54.18631 5.199871
15.28451 59.40083 5.782374
-7.099932 60.17515 6.467885
-6.935568 56.63544 5.724588
-5.188177 58.56686 6.136819
-2.772631 56.71434 5.766776
-4.717588 57.46497 5.910581
0.7782922 57.262 5.884266
-0.6644402 59.8014 6.422829
1.419044 58.24369 6.086223
6.214788 56.91784 5.788
7.638362 58.05819 5.998405
9.691456 56.63141 5.691147
6.649309 58.23388 6.049138
8.238156 54.83208 5.345102
-8.412459 57.53252 5.886207
-9.522889 55.47996 5.46868
-2.777205 56.10265 5.643388
3.891865 59.83311 6.41754
11.63223 58.99242 6.080391
11.94386 56.40147 5.568679
-10.09998 58.39022 6.008468
-10.19495 57.54437 5.844958
-11.27062 56.25753 5.584075
3.375014 60.42635 6.552657
11.74949 59.41718 6.1902
-3.494809 57.009 5.823021
-14.71254 55.64849 5.226349
7.319127 57.39913 5.87307
-12.51812 56.18711 5.51573
-18.25042 58.30421 2.556981
-5.365287 60.47148 6.553726
19.76845 64.0405 -0.08960125
-16.50828 100.7571 -2.484837
20.3723 72.03308 -0.1875531
16.2754 63.42019 -6.996392
17.46658 62.01736 -5.651512
19.88847 88.49511 -0.6299587
19.52259 63.13113 -1.935512
-5.209392 95.30727 -12.89347
-13.60777 65.84144 -8.413176
16.7283 100.1847 -2.262925
19.97746 68.08893 -1.304428
10.16993 101.8806 -9.758746
18.68338 72.09845 -5.34851
-8.656711 62.92923 -8.122502
-19.36064 61.19743 -1.956117
-18.25956 61.63127 -4.625297
-19.46767 61.17701 -1.360926
-19.57951 74.37923 -3.778588
15.62993 99.10477 -5.447651
-2.85025 101.4246 -11.23968
-16.90235 96.43417 -4.506522
-17.66254 97.99776 -0.02077169
-20.20778 85.54002 -1.458883
-20.38744 85.17712 -0.6890647
18.29194 94.9414 -0.15122
-20.50109 84.7345 -0.1840603
-20.36019 74.1914 -1.094522
-18.34562 64.55675 -4.974748
-19.25694 62.69515 -2.888613
-15.90638 100.0124 -4.376869
19.43591 63.236 -2.384686
18.56089 66.37249 -4.922164
20.01488 69.05423 -1.415192
18.12361 89.56188 -5.169648
-2.248651 63.52244 -8.226448
-19.86402 78.69415 -3.366878
18.17993 95.31945 -0.392911
16.23952 99.87994 -3.728302
16.60698 99.46337 -3.143202
-16.08306 62.49228 -6.989738
-19.64528 66.72241 -2.470777
-20.03929 69.05428 -1.320526
-18.44397 93.74951 -1.756418
-17.25462 97.62791 -2.589688
-14.69345 100.7011 -6.096721
18.39194 64.55717 -4.905983
20.36065 73.56577 -0.9987794
19.56486 65.93661 -2.602093
15.79755 64.65134 -7.476882
16.09855 62.92475 -7.034297
19.9081 85.13626 -2.703155
20.69143 78.95722 -0.2703447
3.351388 100.6923 -11.53468
19.55921 90.36869 0.1801756
-19.28457 87.96796 -3.324884
18.41133 94.34592 -0.7719873
14.64271 99.201 -6.906242
14.56466 98.83894 -7.182052
12.64752 99.58112 -8.935129
17.29299 98.02564 -2.16508
-20.46802 74.16906 -0.408243
-20.04786 76.47851 -2.748028
-12.2462 62.83114 -8.060225
-18.43023 66.31507 -5.110873
-20.1077 70.48447 -1.44593
-18.55419 93.49088 -1.540514
-17.5376 95.79649 -3.291298
-13.84739 99.77955 -7.623919
-9.643416 100.0853 -10.80663
-11.55625 99.87082 -9.722081
20.53692 74.59254 0.2253182
20.23249 73.5182 -1.63462
19.32812 65.3121 -3.214257
16.60918 63.72639 -6.781477
15.68781 63.45588 -7.381084
20.55578 83.28683 -0.744254
20.63545 76.78118 0.1053642
5.165849 63.85452 -8.251254
-0.4073671 63.8644 -8.260316
4.216167 101.4625 -11.24
19.7707 88.80391 -0.982264
19.30583 88.93383 -2.789813
16.9821 92.31953 -6.34601
17.87582 90.02991 -5.484331
-20.36814 83.09544 -1.75596
9.965948 101.1307 -10.20081
18.96969 92.45544 -0.5642093
-7.355852 65.0004 -8.362656
-20.60238 78.3541 -0.7802778
-13.32619 63.25518 -8.105078
-19.2756 72.01543 -4.283404
-18.08732 93.8806 -3.09205
-18.30514 94.49232 -1.349598
-16.58739 95.89606 -5.454879
-11.3952 99.87907 -9.833221
19.55922 72.04981 -3.615564
19.64232 64.07172 -1.662545
16.38197 64.30864 -7.044646
20.09805 86.64497 -1.295264
20.47664 82.18821 -1.479878
20.52827 81.72173 -1.298827
19.20493 79.47677 -4.587367
4.828189 65.59863 -8.425054
3.468414 63.83683 -8.255047
-3.076631 64.07181 -8.275183
-1.368604 100.3145 -11.64981
-8.714121 101.3774 -10.69663
17.6988 89.09 -5.938218
17.66426 90.58939 -5.700257
-19.9911 87.99419 -0.534967
13.1994 96.8996 -9.434857
18.08937 92.77308 -3.94087
-20.19531 77.64817 -2.410677
-20.69017 80.28709 -0.445397
-11.25532 65.00507 -8.362088
-19.69907 71.19691 -3.169792
-17.71451 92.43975 -4.981503
-15.58463 99.33144 -5.383248
-7.226218 99.86084 -11.7017
-2.634809 99.02975 -12.07929
-15.53118 96.33867 -6.985385
20.00787 70.72584 -1.999754
19.12581 73.44513 -4.640779
16.87826 64.95882 -6.734607
19.97705 87.43088 -1.278934
18.13846 82.51504 -5.90663
20.35883 78.83888 -1.97933
5.075029 67.17848 -8.571412
7.608522 67.48799 -8.610297
0.4682468 65.92209 -8.451296
4.808398 100.1982 -11.74496
2.185063 100.4866 -11.59523
-0.5889046 98.58955 -12.18673
18.27556 87.30892 -5.415643
16.19907 91.78468 -7.570957
-20.41036 83.51498 -1.407441
6.476791 99.42164 -11.95694
1.390944 99.16402 -12.02758
3.720762 98.01667 -12.37031
18.12102 94.29195 -2.604416
17.20163 94.25673 -5.115373
17.47264 95.51008 -3.697707
16.52159 96.2077 -5.42529
15.82313 97.1741 -6.153827
17.10766 97.704 -3.062717
17.03155 93.07489 -6.000012
-19.98819 75.27673 -2.779827
-19.73661 78.26662 -3.619848
-19.64866 71.19182 -3.306122
-19.82021 70.50971 -2.660379
-18.12599 89.89475 -5.080325
-16.19483 98.57438 -4.676246
-14.15082 98.62981 -7.787562
-16.49282 95.10806 -6.02177
-14.64966 96.91407 -7.926089
-8.655128 97.81532 -11.94209
18.02243 72.64063 -6.252675
8.041049 64.63397 -8.326466
19.58549 82.77534 -3.884918
17.95689 78.04068 -6.211365
18.98468 75.51885 -4.932372
19.60632 76.63171 -3.83313
-4.381352 65.08171 -8.371626
19.10152 87.93998 -3.751109
19.24151 86.54942 -3.903929
19.66702 85.53997 -3.225275
17.47098 90.8476 -5.960227
16.95975 92.76331 -6.231593
14.77291 95.05954 -8.435087
13.63009 97.84927 -8.674819
8.994102 93.51925 -12.50847
12.22059 99.54393 -9.32565
11.40991 99.14245 -10.11156
-19.58084 85.24851 -3.492576
-19.46385 88.15514 -2.772033
-17.70779 86.49023 -6.229495
-17.25233 85.94693 -6.72623
-18.58059 84.6444 -5.294189
-17.60589 85.02126 -6.36127
-20.45903 83.00706 -1.370664
6.396069 97.99731 -12.37751
6.276829 95.92257 -12.78763
-12.06291 65.48491 -8.425534
-18.94516 65.75218 -4.151889
-16.7229 93.18063 -6.456234
-13.42884 98.82196 -8.484378
-13.38485 96.43663 -9.419179
-8.888989 97.24496 -12.0132
-7.469354 98.16701 -12.15801
-10.54885 98.94281 -10.73756
15.94203 66.17107 -7.563581
19.02063 76.14726 -4.878307
2.285012 68.02159 -8.629628
19.39719 87.99726 -3.047111
15.69221 85.34095 -7.986961
17.80027 84.07891 -6.242774
-19.05393 80.44762 -4.824179
7.701026 97.94405 -12.16912
10.21382 96.90697 -11.54196
11.9962 97.26167 -10.32962
11.87619 96.47824 -10.65759
7.024273 96.21415 -12.669
11.19419 95.97889 -11.21937
-18.61525 77.48335 -5.463256
-19.59523 81.79793 -3.906569
-17.57712 78.48458 -6.558962
-12.53049 66.70562 -8.573478
-17.87933 63.10158 -5.372144
-19.12209 66.88716 -3.997634
-18.36124 88.19916 -5.119228
14.8789 70.12173 -8.35579
15.50747 75.8434 -8.088395
11.47299 69.16438 -8.764908
18.74919 83.95263 -5.13174
17.79583 82.11401 -6.289608
6.20628 95.8274 -12.80756
-11.30516 66.30273 -8.520311
-18.72648 74.96986 -5.330685
-18.97442 75.80418 -4.949771
-17.12104 72.63958 -7.126565
-18.50161 70.20161 -5.495235
-17.32687 70.33455 -6.880639
-17.72252 71.30346 -6.533341
-14.985 93.12828 -8.700781
18.88884 69.91388 -4.846327
16.99275 68.11147 -6.980217
-2.259498 65.71977 -8.432621
15.79706 86.73237 -8.005923
16.63 83.58536 -7.256352
19.38229 79.54703 -4.279006
15.45068 91.92266 -8.42223
-14.09593 66.535 -8.387304
-17.85108 74.0023 -6.411748
-14.57098 93.01072 -9.156336
-2.169511 93.76206 -12.86871
17.75336 70.26289 -6.443321
11.2777 70.46805 -8.830338
-4.323541 67.17437 -8.566957
19.03047 79.77442 -4.88096
18.05065 81.60955 -6.064991
-15.53408 68.21721 -7.938292
-11.22946 68.15437 -8.696539
-17.38161 76.74753 -6.815188
-13.56403 74.99152 -8.767022
-15.40995 74.49765 -8.183509
-13.38194 72.79604 -8.794371
-14.30369 94.50405 -9.091336
-13.39719 95.28645 -9.749288
-1.002058 94.79007 -12.83148
14.9916 65.58969 -7.99878
11.8851 65.06124 -8.383623
15.09935 68.21507 -8.125339
15.37869 91.09968 -8.590686
-10.12404 68.4719 -8.706614
-12.53069 75.55901 -8.887225
-15.72637 95.08802 -7.23068
-17.59747 89.62428 -6.009796
-17.00671 92.27942 -6.315484
13.51971 66.58061 -8.514078
-3.812165 68.39143 -8.661684
-16.32735 67.19807 -7.428429
-9.367809 67.98166 -8.663979
-17.54092 89.21925 -6.152392
-17.62221 90.93827 -5.7044
-17.10233 90.6495 -6.561239
14.9348 76.27325 -8.304814
-6.780916 69.2512 -8.732004
-4.772636 70.03322 -8.767654
-18.81846 88.9795 -4.03778
14.17196 78.23479 -8.439529
-18.44501 68.0005 -5.307612
-19.3636 70.46035 -3.939867
-16.61401 69.18176 -7.391654
-5.73256 65.29501 -8.39289
-11.02512 74.14231 -8.925694
-10.07235 76.1459 -8.908751
-10.12834 77.29449 -8.87877
-10.4452 76.85323 -8.892565
-9.094739 72.97556 -8.899475
-7.568762 74.86852 -8.910405
-10.87144 70.95983 -8.851798
-14.53765 89.44755 -9.335901
14.95159 74.00764 -8.37911
11.07553 74.68446 -8.931551
11.72393 74.69702 -8.936407
-13.27197 73.33043 -8.827641
-6.763938 69.85947 -8.767659
-7.762075 71.01223 -8.82937
15.77957 71.67993 -8.011169
10.48016 71.66515 -8.863449
14.10157 70.95091 -8.612365
-3.800886 71.54668 -8.832419
-4.68094 73.59636 -8.8895
9.913607 71.24299 -8.846508
11.70048 70.09812 -8.817965
7.149712 68.62299 -8.692246
10.82584 69.45598 -8.77489
11.00173 70.5498 -8.830714
-6.65646 73.93682 -8.900923
-7.717659 74.35648 -8.908845
-3.846262 70.72364 -8.798464
4.045085 69.15845 -8.711738
12.7555 71.81192 -8.855206
-0.4364778 75.29867 -8.900609
4.896472 70.68213 -8.797223
4.131911 75.37482 -8.903161
-1.389778 71.62417 -8.829693
-3.196665 71.67842 -8.835094
-0.5970758 70.40512 -8.776834
4.655872 68.47169 -8.669332
-1.892335 68.76493 -8.682528
-1.348014 75.86806 -8.903167
-0.824144 69.03036 -8.698538
-0.4514032 67.89986 -8.618294
-0.1521728 72.87527 -8.866525
-2.543483 79.0286 -8.947547
1.618919 73.64989 -8.883064
2.302899 68.63512 -8.673675
-0.3285827 77.85279 -8.919374
0.9978305 67.79132 -8.610491
4.960934 73.7114 -8.889788
2.589928 75.10788 -8.900669
3.122602 71.7642 -8.836788
3.118178 77.81412 -8.913626
5.332927 71.04047 -8.814547
3.061557 76.15316 -8.904466
5.819172 77.47567 -8.89834
-16.76069 62.85603 -6.524152
15.49779 89.42954 -8.500848
-10.92498 97.29639 -11.04323
-8.841772 96.25707 -12.24431
-11.49742 98.33584 -10.34156
2.176134 93.86607 -12.86578
8.559105 94.14759 -12.59867
2.457364 93.41013 -12.86055
-1.281983 95.13352 -12.80863
-1.699766 94.1254 -12.86057
6.512867 89.37709 -12.24183
1.987614 92.64304 -12.80457
2.832089 92.49182 -12.80484
7.716912 92.49918 -12.75775
8.494568 92.60815 -12.61014
9.30605 92.98888 -12.40957
1.089478 90.41249 -12.39837
0.4184316 90.05701 -12.29897
19.74287 69.14539 -2.658085
18.55247 66.7874 -5.007372
2.229127 95.59132 -12.77895
13.40596 85.22422 -9.146091
15.07371 85.94362 -8.433903
-18.50315 78.29097 -5.562989
18.22261 76.48554 -5.961758
15.86462 78.72001 -7.72798
9.789212 77.61551 -8.864754
14.56397 77.89141 -8.333127
13.04005 91.45519 -10.55043
8.305233 90.89481 -12.4393
11.43026 91.1203 -11.46842
9.092982 90.39056 -12.17466
6.417551 89.8497 -12.38567
-0.1747727 89.36817 -12.083
4.625752 89.56399 -12.22716
9.240775 88.67995 -11.71336
11.54012 88.24405 -10.91663
-13.01166 69.38985 -8.749993
-14.8238 69.72631 -8.355767
-8.440372 66.2943 -8.502314
-7.408714 68.57442 -8.692133
-5.096054 91.03634 -12.64712
-10.43447 79.92506 -8.798202
-15.07581 78.2336 -8.123341
-16.8038 79.36485 -7.12649
-14.59033 79.48569 -8.225795
-16.46935 82.07641 -7.34587
16.71314 69.77691 -7.3531
-4.651388 75.38448 -8.903719
-4.681323 76.60687 -8.903487
-5.178358 81.06429 -9.065736
-3.219486 79.37462 -8.957129
-1.803078 81.13602 -9.135629
-4.495993 81.82683 -9.193891
-5.263351 80.55621 -9.007198
-4.507722 81.41354 -9.12701
-6.918051 81.75078 -9.094957
-7.13867 82.20132 -9.155006
5.457385 75.22295 -8.905122
11.97638 74.22768 -8.937548
7.399448 74.21883 -8.906053
9.002675 72.46592 -8.88074
10.60879 76.35455 -8.90433
8.468658 76.65076 -8.897723
6.51255 77.27818 -8.896095
7.671519 78.43324 -8.878055
4.141021 78.8207 -8.930435
6.708325 79.82244 -8.924316
6.568483 75.97137 -8.905647
15.89264 82.38485 -7.692473
0.6226881 78.03168 -8.923358
11.61695 79.63926 -8.749104
14.33339 82.89873 -8.427247
13.48333 79.65636 -8.520904
6.099262 78.28454 -8.898067
6.317183 80.77534 -9.004428
5.367096 81.59133 -9.136742
12.93789 93.26805 -10.53567
-15.9517 83.97047 -7.732593
-16.8507 83.01985 -7.084606
-15.46411 88.36607 -8.45337
-15.11432 87.27687 -8.596026
-14.81574 84.70441 -8.44259
-13.94302 84.84892 -8.846212
-11.69363 84.38129 -9.334657
-11.87167 82.70146 -8.917577
-9.6958 82.03169 -8.986795
-6.92732 82.12213 -9.150545
-10.29523 78.94877 -8.816731
-8.17744 79.47565 -8.869883
-9.227252 78.72863 -8.84623
-16.3573 89.667 -7.613457
-15.12599 82.63588 -8.088194
-12.51027 80.90397 -8.695016
-16.93078 86.83636 -7.018352
-11.52308 85.56891 -9.884416
-7.072267 84.66026 -9.877702
3.073661 85.86292 -10.56467
-8.52562 83.89326 -9.488435
-5.412059 85.32405 -10.25921
-3.974808 86.30122 -10.76951
4.006253 89.2791 -12.11194
-1.414621 91.07729 -12.56098
-2.850903 92.66618 -12.82473
-6.913324 86.50452 -10.87072
-5.18891 88.40251 -11.80262
-6.029448 91.55963 -12.78098
-14.17482 89.30788 -9.600758
-13.57691 86.69891 -9.478455
-9.344373 95.47701 -12.21303
-4.233582 90.17184 -12.40561
-13.34024 91.00346 -10.32768
-11.68231 95.06133 -11.11988
-11.63154 92.31416 -11.41265
-8.62634 94.83164 -12.5309
-10.50462 90.04451 -11.71069
-8.61761 94.36308 -12.56849
-10.18299 94.15907 -12.04261
-8.165748 93.6643 -12.71101
-11.90961 90.86793 -11.19676
-10.37223 93.21417 -12.01185
-10.03205 90.55996 -11.95923
-5.212077 92.99459 -12.93728
-1.436535 97.87357 -12.37134
12.63282 81.67949 -8.727882
10.90417 81.90162 -8.889906
12.93511 80.63816 -8.622708
12.79464 89.21473 -10.50144
14.27237 89.30727 -9.532402
12.75486 87.12096 -10.03666
14.1147 86.99784 -9.233935
8.780366 85.5033 -10.22912
11.80808 87.88439 -10.70007
10.22978 86.37096 -10.58157
-16.05899 76.9694 -7.712527
1.418021 80.34033 -9.046739
-4.009794 83.10717 -9.488699
-0.8201295 83.24606 -9.5831
2.059474 80.5815 -9.065654
1.00211 82.43192 -9.378235
1.571846 83.27965 -9.59035
6.072624 84.30574 -9.798233
8.330649 85.17171 -10.04959
0.1063596 83.62572 -9.703029
5.931741 86.43448 -10.83768
8.779016 82.5417 -9.133238
11.88418 83.12958 -8.990354
1.718053 84.89602 -10.15408
7.203941 85.006 -10.03455
5.529059 74.36947 -8.900659
-0.5975919 86.27916 -10.77003
0.9212564 85.06497 -10.22833
1.148595 86.88376 -11.05314
-3.937742 86.67114 -10.95475
2.880574 87.79288 -11.48312
2.123155 86.75629 -10.99569
