# .PCD v0.7 - Point Cloud Data file format
VERSION 0.7
FIELDS x y z
SIZE 4 4 4
TYPE F F F
COUNT 1 1 1
WIDTH 1664
HEIGHT 1
VIEWPOINT 0 0 0 1 0 0 0
POINTS 1664
DATA ascii
-14.94672 134.0094 5.841901
-14.6222 133.7585 7.998801
-14.23833 141.6014 3.300224
-13.99273 126.8873 2.341179
-14.04378 142.5396 6.302169
-14.18602 143.1569 5.520136
-16.38512 147.7148 0.6020433
-6.851042 150.7904 -0.6039912
12.61918 120.1548 3.537203
-13.96751 117.5229 2.945374
20.01939 45.11842 6.390821
16.33093 30.13368 9.549678
18.6583 33.13389 8.276426
3.053884 27.6069 8.896031
11.2678 144.5985 4.260718
6.982228 147.3035 2.638328
14.08567 129.8595 6.640905
14.22623 130.1977 5.876383
-20.56878 49.69185 3.759138
-19.65495 46.63617 6.256063
-19.27038 35.82887 7.023692
-11.01911 27.52388 7.798885
-13.01503 28.80925 8.589129
19.36452 54.75859 6.909376
19.05098 51.44383 7.36009
19.0224 64.68151 7.060286
-20.06878 66.76035 4.571718
-18.23553 56.39372 7.945872
-19.44214 59.22808 6.458708
16.9215 88.25549 8.58807
18.32909 94.35944 1.763068
18.76669 82.96058 7.131773
-19.00459 91.73076 2.393357
-20.09998 67.16112 2.299799
-19.88975 69.44129 4.928119
-17.32473 70.27127 8.102449
-19.69166 85.29422 4.993801
16.73039 99.13506 4.72949
-15.76491 106.3375 1.004973
-13.94895 118.5808 2.467026
-17.60768 97.43834 1.810162
-17.59691 95.17582 4.654615
-13.87559 129.3825 7.313395
-14.11032 129.6505 6.187495
-13.60599 139.0226 4.990299
13.09778 116.9341 3.837231
12.82152 121.3887 3.308887
18.646 46.71104 7.98169
15.42414 26.56376 9.508965
13.36566 25.29101 8.499982
16.80049 35.07836 9.391125
5.607828 27.02113 11.64995
1.786286 28.49873 7.973576
5.896082 28.8193 11.6913
7.416915 146.0547 3.407432
10.0286 144.7276 4.34016
4.788606 148.9059 2.578238
13.61382 128.8413 7.201104
-11.91801 26.258 7.925282
-11.96043 30.08562 8.029279
20.02142 56.68091 6.005252
16.0802 55.65548 9.300895
14.29523 58.53574 9.328561
16.11685 57.65471 9.234313
19.05638 62.01956 7.049125
-20.29931 61.43491 4.244944
-20.70778 53.80689 3.005098
-19.78795 62.90237 5.731718
18.84979 91.98386 3.064779
19.56588 67.75675 6.216437
-17.12004 95.84072 5.431174
-19.22516 66.94146 6.522037
-17.11801 66.37082 8.366212
-17.89205 72.31356 7.625041
-14.85645 70.29305 8.995128
-14.86514 72.57578 9.040874
-18.95288 74.88212 6.42668
-18.42211 89.15652 6.503049
13.65821 110.8559 5.160758
14.03484 110.1439 4.926422
-14.00187 111.6932 2.53018
-13.183 113.361 2.109036
-17.46899 98.57423 1.52237
-9.9722 139.315 9.548226
-13.30531 140.932 5.356423
-11.74858 142.5638 5.863249
-9.657803 141.2085 7.523896
12.50099 119.606 5.543603
13.10311 112.664 5.274122
12.96961 24.86676 8.251935
17.06599 38.34679 9.252604
17.10091 33.7769 9.282229
18.67222 37.97771 8.168419
15.66631 32.0533 9.559384
13.40588 38.08561 8.72617
16.22466 38.15692 9.424195
14.35731 28.18231 9.113927
15.99012 30.99941 9.550881
10.82116 29.60831 8.211307
8.881183 26.13183 10.68089
7.744765 147.9441 1.776671
6.091854 148.9501 2.016352
-20.09684 51.40916 5.247158
-8.352744 30.21185 9.603255
17.5308 55.91552 8.665651
20.38152 47.04164 5.832318
-19.23184 57.13718 6.826142
17.28535 92.36989 6.925611
20.00303 70.74732 5.465475
-18.65508 90.6204 5.212796
-19.35193 66.51944 6.385873
-18.32663 60.91747 7.710577
-12.1758 60.9014 9.039315
-10.20657 68.02506 9.324747
-17.9219 76.84544 7.874086
-14.87227 77.00479 9.622134
-15.86574 77.33486 9.352041
15.48638 106.9626 3.967035
14.20872 104.2144 7.676418
-15.78183 105.5838 4.463348
-8.641836 141.9967 6.892715
12.73014 119.7491 7.053414
13.99888 37.13934 9.029695
15.76697 28.04078 9.554358
8.65305 30.31095 10.91677
4.353006 146.2554 4.438927
-7.558345 28.83376 10.83427
-2.449299 25.86856 9.598577
18.18893 49.86795 8.326604
16.93403 97.49252 4.960296
16.16118 95.49575 7.16369
12.82774 90.39757 9.880876
-16.2882 58.11239 9.113629
-15.72646 71.14355 8.77341
-12.61184 70.47772 9.290499
-13.48347 73.87605 9.421336
-15.77064 60.66334 9.199093
-18.1576 75.05479 7.420195
-19.37604 77.1673 5.889035
-18.73892 78.86047 7.090652
-16.4636 102.6715 4.202486
-11.97744 144.2856 4.165742
11.25143 122.7433 9.487768
12.63195 112.905 6.019147
9.100331 33.41225 10.11692
-16.6687 30.51995 9.672936
-7.495938 28.21845 10.89874
-10.18624 33.96257 8.063571
11.84864 52.4669 8.637038
15.88625 49.39392 9.402512
18.21214 44.32381 8.406721
16.30062 93.16074 7.788939
18.24533 64.05871 7.820239
-13.40973 65.79958 9.295363
-11.7594 73.87088 9.555464
-17.93229 77.52061 7.939762
-17.33235 98.93189 2.499708
12.93104 122.0478 4.826897
12.04251 120.3514 8.023224
11.64659 117.7502 7.184069
13.3831 117.052 5.413296
12.91269 111.2963 6.387077
-7.201848 27.63943 11.2323
-13.10573 32.9149 8.733917
12.38644 55.91129 8.830313
18.14959 42.32569 8.501193
15.18854 95.02389 8.233432
18.64309 62.3918 7.505995
-10.62054 75.57556 9.73689
-13.73803 104.4129 8.091393
-8.318777 145.0412 3.962116
-8.481178 147.6297 1.658244
-10.31739 148.1114 0.61114
-12.77809 149.3765 -0.3425841
12.13785 121.9744 7.863656
13.01743 107.7515 8.092354
9.230244 31.93158 9.903008
-2.162049 30.01607 9.247446
0.4281677 29.66616 7.895263
16.09689 96.01725 7.06323
16.06037 68.80981 8.829277
-12.1943 65.58072 9.233293
-6.979747 68.23692 9.717861
-12.71138 63.34707 9.241549
-12.05718 73.11053 9.470334
-19.95658 81.32841 4.84412
-13.48011 83.49629 10.22618
-14.57285 80.64679 10.00577
-15.52302 101.1662 6.471569
-15.13266 107.0969 5.038835
-15.09604 108.2304 3.755324
-13.78123 110.3989 5.303274
-11.47641 149.4575 -0.682941
12.42657 123.5185 7.150559
10.6699 120.5262 9.049822
-8.349354 108.4461 10.64678
10.74201 113.4175 8.256291
18.61474 70.49541 7.25992
-11.0347 67.88667 9.248104
-14.42918 101.4177 7.57618
-16.8395 98.15678 4.872914
10.42963 126.3092 10.84281
13.40213 127.9231 7.104041
6.633139 117.3465 10.85269
11.4865 111.5038 8.105785
13.97099 62.00756 9.304849
15.44213 65.30691 9.140387
-13.24369 78.41763 9.959255
-12.85641 74.57137 9.559234
-12.94845 103.3639 8.624234
7.848257 115.0977 10.11342
18.40389 62.04833 7.734227
11.09325 55.62906 8.73839
15.79464 70.67837 8.85216
13.77599 67.40586 9.277984
-11.55321 78.55301 9.97084
-11.05316 75.34195 9.703846
-13.63201 102.0726 8.189169
10.5898 125.8914 10.63885
8.199259 116.324 10.02623
15.17971 72.89049 9.016357
-14.29138 83.10703 10.14811
-10.21483 73.69386 9.61373
-8.074459 77.1073 9.878637
9.226212 128.549 12.28325
7.722255 127.2901 12.2504
13.30064 65.68004 9.258407
-10.18173 84.27022 10.33451
6.124358 119.8931 11.35983
17.06518 75.15618 8.419548
12.67262 70.55032 9.333052
-16.20142 86.6333 9.316874
-18.31681 87.33352 7.23602
-10.97641 82.70547 10.30033
10.59782 69.0741 9.422115
-8.97508 83.44986 10.41556
-9.188399 79.06604 10.01287
-17.98253 92.15196 5.819144
10.78119 86.74836 10.08398
-12.66981 83.94698 10.27229
-11.27131 88.68184 10.30882
-16.38795 90.93129 8.433435
-5.976685 82.04491 10.32088
-6.140341 72.25893 9.661628
-9.936539 89.41908 10.48887
-10.01675 87.33152 10.14919
-9.525595 85.08767 10.06869
-12.28663 89.28065 10.19009
-4.793265 94.54877 9.260942
-8.807207 90.45959 9.864936
-5.71622 90.57627 9.760424
-9.238468 92.93543 9.606544
-6.130487 89.49744 10.59657
-11.97421 96.00699 9.216975
-12.82223 90.85744 9.811702
-11.87638 93.9677 9.444595
-11.41322 94.16969 9.398049
-4.766217 92.69463 9.473236
-4.366975 98.03009 9.992316
-10.05851 95.15707 9.352401
-9.114343 95.06224 9.348964
-3.064804 95.99932 9.720942
-8.444854 96.31924 9.53834
-12.39871 99.10316 8.831548
-6.255152 99.38074 10.06093
-2.124228 97.12322 10.07662
4.257161 98.82803 10.29379
0.2986542 96.53799 9.987429
-1.171097 94.17666 9.2446
3.005946 95.64109 9.546131
5.738397 95.07391 9.252029
1.448873 93.47488 9.25314
1.310474 91.57673 9.479077
4.953985 90.85345 9.601632
4.953094 100.5185 10.59559
6.835961 89.94075 10.39119
-3.487523 90.03897 10.19538
15.57634 83.03646 9.783381
3.524239 89.70557 10.56958
-20.23169 82.45416 3.92612
-18.85467 80.92118 7.014365
-19.51461 84.86102 5.569841
-19.90478 87.23187 3.069554
-7.405213 144.7242 4.657038
-7.262856 145.1573 4.354434
4.800244 150.6241 0.6648908
14.84135 134.4735 6.314795
-1.307939 148.0628 3.842103
-2.008883 147.1152 4.491206
-4.099946 148.7893 2.873905
-1.973203 146.0904 5.171253
-19.73302 41.60588 6.087883
-14.07505 131.7583 9.697469
-1.056631 28.90571 8.30759
15.08388 143.6721 5.397639
18.79767 86.12294 6.724087
16.44974 84.51603 9.275189
18.35001 85.46777 7.51986
16.24243 80.25315 9.414647
12.59263 78.30163 9.961905
15.92744 82.06199 9.610974
17.85558 81.88235 8.239593
7.876753 85.37924 10.12595
12.19827 82.04742 10.22667
5.226472 88.11943 10.2985
12.4679 79.01357 10.03055
12.19293 76.46017 9.779727
14.02385 88.15221 10.02404
10.31009 75.96488 9.783522
11.65353 73.17177 9.536519
13.84708 74.27082 9.438791
11.22584 72.96461 9.55189
9.954289 70.02029 9.530814
7.479716 72.47945 9.670004
8.649845 71.07035 9.623405
-14.60801 132.466 8.289857
9.804688 25.25892 8.978293
-1.130418 29.70423 8.354671
-1.832549 31.79406 8.959715
-0.9701876 33.68095 8.355751
-6.414154 33.62525 11.52688
-5.145053 33.06837 11.6256
-3.632455 37.32312 10.90277
-7.326465 33.14332 10.93765
-8.918384 34.39186 8.882606
-7.946365 33.14296 10.27753
-7.87639 49.57967 10.03435
-12.01232 33.15059 8.09052
-9.868564 34.13177 8.203681
2.479993 29.98676 8.427063
11.22512 146.7563 2.336715
12.70433 140.528 5.660531
13.22063 141.1875 6.252279
7.895741 143.4986 5.524776
9.648106 143.361 5.631723
10.39745 140.8034 7.879326
-19.30953 50.22329 6.79733
-17.16225 51.19832 8.930902
-18.9059 47.25019 7.428515
-19.0954 46.40352 7.168791
-17.28069 48.53695 8.895973
-14.84655 48.08256 9.567834
-11.86444 48.16473 8.478839
-12.11451 42.91907 8.419485
-14.43656 45.70653 9.498113
-13.1138 43.38014 8.933599
-15.63194 45.56585 9.630252
-10.71624 44.38871 8.280622
-13.89481 49.3671 9.357702
-14.32253 39.24701 9.504848
-13.67118 52.17098 9.312066
-13.59693 41.99908 9.200907
-8.728034 50.58048 9.228898
-7.570728 45.61152 10.34229
-12.16042 41.7169 8.389716
-9.883122 42.15591 8.403524
-8.797201 36.85257 9.042037
-8.935501 43.66451 9.01089
-6.083232 48.09113 11.08037
-5.129838 46.05789 11.20701
-13.70278 34.64376 9.18927
-13.51069 35.50097 9.031841
-14.58931 38.60394 9.564479
-15.22934 37.40062 9.773923
-8.511434 46.05518 9.430521
-17.8796 37.65636 8.690635
-11.44872 39.70203 8.204963
-17.4824 35.95948 9.069592
-18.12622 39.23028 8.437607
-18.87872 35.28341 7.592873
-19.77239 41.11959 6.01674
-16.14951 40.11633 9.646705
-19.23968 41.46319 7.041705
-10.48897 53.22651 8.531221
-18.27493 45.18849 8.180896
-17.69835 95.79214 3.722567
-11.70044 139.9304 8.571527
-11.27807 139.1028 9.200095
-7.931041 141.2381 7.805507
-9.235167 140.2178 8.630064
12.3211 36.04701 8.244131
9.478186 32.70021 9.508643
10.87481 37.66769 8.376685
19.34787 71.20559 6.339037
13.2245 106.398 8.241388
5.774754 100.5621 10.41111
11.74658 102.3276 9.068694
16.2749 100.9326 5.302862
14.77288 99.83826 7.450018
16.05973 96.94349 6.777176
4.716629 95.81895 9.510956
5.338229 99.1571 10.21618
7.09912 94.51138 9.20355
9.63311 104.9363 9.96292
5.077914 101.1396 10.77221
10.40368 99.80335 9.29476
8.122825 99.9231 9.75812
11.35854 95.85664 9.248668
8.350522 99.36685 9.672924
16.18138 104.4387 3.906388
-12.41587 115.0442 5.595957
-12.11514 112.4499 6.979911
-11.74689 113.6203 7.095688
7.779087 146.1787 3.174674
4.623261 142.6603 6.901324
4.394783 143.6504 6.218834
6.652078 142.3082 6.802963
7.96912 142.1708 6.976648
6.736054 138.6983 10.47002
-0.4247303 143.8512 6.556501
1.452314 145.9578 5.170124
-0.2035745 142.8409 7.23337
-1.423774 141.182 8.475193
0.927775 139.8259 9.555477
-1.595664 143.652 6.68779
-3.499199 142.1422 7.689106
-5.664838 142.2833 7.367978
-2.566549 144.7787 5.88151
8.19065 138.611 10.43342
2.863086 138.0271 11.16736
4.142005 136.4511 12.50671
13.90083 135.5601 8.520535
-5.929891 143.7872 6.107107
8.904254 140.227 8.3364
4.478611 135.132 13.41774
12.28583 139.0004 7.144583
9.110228 135.2763 13.13584
11.20214 139.0097 9.07783
6.489564 131.6622 13.81364
3.985743 133.5971 13.95514
2.714616 135.138 13.44918
3.158057 136.9242 12.13219
7.541927 133.0171 13.89803
13.17765 135.6862 9.770044
10.19347 134.2401 13.21323
-15.3683 64.05572 9.167515
-10.05535 63.15644 9.014956
-13.97223 60.99256 9.375304
-16.73312 56.08498 8.99287
-10.32091 60.16836 8.846388
-12.91378 56.76857 9.135894
-14.5719 57.42193 9.443167
-17.68706 56.54411 8.376887
-13.79303 57.9306 9.363055
-13.95755 53.86938 9.384182
-14.76869 51.26302 9.519144
-16.09979 53.84676 9.323291
12.16057 114.0503 6.608191
13.92519 54.07367 9.242962
13.75547 52.30611 9.147996
9.611327 51.00581 9.512836
15.89302 51.49174 9.39171
10.48645 52.92673 8.842903
-14.38086 108.7822 5.389607
-13.24278 105.8861 8.350842
-14.08397 108.4995 6.236661
-13.08042 110.1212 6.848771
10.64646 121.6141 9.256639
8.423656 119.3505 10.48029
6.644668 119.6785 11.17592
5.374346 119.6436 11.5184
5.648193 117.5215 11.22644
11.12084 107.5902 9.489056
7.968089 105.1483 10.58709
7.644048 111.0041 10.55541
11.49611 104.1116 9.331116
9.663904 110.8218 9.563142
8.570192 106.5834 10.58678
-0.6655829 113.0742 11.89804
5.351725 109.477 11.75112
10.54018 39.97559 8.636555
-17.41963 97.52671 3.232464
11.35468 55.83749 8.671775
-9.376678 69.22633 9.481962
12.32115 128.2536 9.998996
11.05543 130.1378 12.37158
6.206367 128.12 12.72334
2.914387 132.0844 13.94638
6.672735 125.7859 12.1149
-16.98262 91.60547 7.642037
-14.50171 94.59716 8.767077
-16.74248 95.40073 6.395534
-16.38753 95.11983 7.02534
-15.1848 96.19478 7.906885
-5.461921 80.22585 10.09043
-4.311306 81.98848 10.34097
-7.604505 85.69312 9.98939
-1.018161 85.3506 10.01499
-5.929383 88.44479 10.49158
-2.782403 86.96052 9.952358
-5.540773 90.51667 9.818246
-2.413282 79.14734 10.00832
-5.474595 75.00809 9.768739
-3.511403 76.02181 9.832511
-0.248788 73.34873 9.73172
3.014066 75.86915 9.832726
-0.9732278 72.88007 9.715855
-5.574929 73.32553 9.697011
-4.121617 70.48561 9.675595
-8.802528 73.77015 9.658796
-1.998655 69.25662 9.654756
-7.909434 69.50563 9.611719
-13.11568 90.40281 9.889189
-5.959831 97.94151 9.7278
-13.54534 99.26684 8.346506
-10.04537 101.9119 9.637888
-8.029556 101.919 10.15597
-4.74367 101.0356 10.80978
-13.79819 97.03363 8.547067
0.03219345 89.50132 10.76247
1.472929 86.8509 9.923533
2.195069 82.90353 10.49859
4.744424 87.07317 9.966756
8.733535 87.66556 10.10667
7.867305 87.85851 10.1325
8.312294 87.34742 10.05241
-1.95535 83.98305 10.38632
14.86222 92.147 9.121459
7.605477 93.73463 9.32233
13.09497 93.40143 9.429904
13.45363 96.84707 8.764413
6.497602 90.13699 10.10534
11.46152 84.55857 10.28904
9.061422 90.19839 9.938581
10.55347 91.6634 9.706785
11.20858 92.09782 9.716104
14.12507 90.85769 9.65748
13.10674 92.41946 9.593752
10.94642 83.9623 10.33004
8.294997 85.18349 10.17394
15.08338 91.37219 9.15941
-19.39672 35.15716 6.817178
-4.171164 147.7286 3.594006
-14.78014 132.3324 7.367424
-17.97611 36.96672 8.625066
0.4817362 77.22495 9.905838
9.134222 70.30306 9.599535
9.13159 68.53464 9.632411
10.74476 66.95648 9.267854
16.59074 101.4475 4.343195
-13.31295 129.6219 9.69593
-13.09837 128.8895 9.247619
-11.248 135.5335 12.04041
-11.96156 133.0813 12.39759
-11.20676 134.0883 12.73302
-12.45675 135.969 10.51849
-7.75759 138.2352 10.92177
-9.313314 136.4316 12.33591
-14.50811 131.1255 5.44498
-12.02635 118.1184 6.487017
-13.96505 120.4319 5.771985
-12.37182 122.453 7.894889
-12.14879 122.0677 7.633668
-12.25189 118.1636 5.753482
8.033258 27.15132 11.38304
6.358722 30.73034 11.65483
2.606135 28.17106 8.463335
2.779964 30.89433 8.672421
3.762862 29.81866 9.82246
8.901774 34.99066 10.41613
6.865235 35.09045 11.48826
9.619103 35.14833 9.29908
4.397097 31.78513 10.64905
4.210748 34.39515 10.35187
8.556728 143.3683 5.652676
-8.053661 37.05483 9.941533
-7.017212 40.27262 10.99194
-7.346219 40.79269 10.70222
-5.097724 41.67331 11.34666
-1.319764 37.36642 8.609491
-1.884013 39.647 9.051063
-6.238417 45.30061 11.13199
-13.03332 39.13666 8.779697
12.57982 32.4384 8.226325
9.302928 41.14927 9.762915
7.734254 36.74489 11.32001
3.738704 105.9012 12.15825
3.875875 143.3363 6.54253
8.283004 140.2203 8.498162
-4.119761 145.4153 5.07988
8.438578 129.3767 12.89903
10.70115 132.3957 13.18514
8.509331 133.0658 13.82807
6.803411 130.5372 13.49684
0.4266563 139.4606 9.880217
-7.36808 137.1002 12.05125
-2.258019 139.032 10.27731
-1.963644 139.8 9.610607
12.50316 131.5275 11.84762
10.06856 132.1362 13.42373
10.35548 128.4945 11.75806
12.6855 132.6878 11.73583
14.05225 135.3055 8.477313
14.03107 132.2909 9.875042
-8.711353 62.59093 9.404263
-11.87519 54.02631 8.730556
-16.08634 53.49924 9.340526
11.66988 51.22672 8.526544
-7.180315 104.0429 10.71236
4.28263 123.1263 12.1141
3.230641 122.3171 12.07674
4.745327 120.5917 11.7387
8.192499 105.7763 10.57987
8.172194 100.78 9.880555
10.80629 40.89904 8.498106
8.939839 39.38164 10.28538
9.735486 44.5083 9.265221
8.463559 44.17126 10.60153
6.828551 43.23182 11.27448
7.957482 42.8815 11.03695
8.291168 44.8943 10.72845
8.612173 47.61241 10.42144
7.027631 50.24475 10.95496
5.953955 45.4087 11.03478
4.015183 49.90292 10.03583
4.432219 45.49108 10.41564
3.652766 42.88087 9.686566
1.51275 44.46806 8.372711
9.521301 53.04037 9.582562
8.087647 56.34143 10.41099
7.659254 50.24811 10.91934
0.9263503 53.24658 8.594616
7.473319 56.81251 10.59507
9.03096 61.41818 9.834534
3.000888 55.44818 9.284077
12.61873 59.32728 9.028675
-6.441338 69.70544 9.672601
-4.838279 67.69516 9.808109
-4.449471 65.16958 10.01066
11.64943 62.78412 8.986047
9.447526 63.7243 9.581717
8.150423 59.91729 10.26408
6.680737 67.46252 9.85476
6.044118 64.887 10.08935
-0.813633 134.8192 13.64195
7.573802 122.6231 11.35045
-17.14268 96.65259 4.872586
-5.79462 73.22281 9.690715
-0.102197 77.99597 9.945939
3.103685 77.62939 9.931287
1.494313 76.28619 9.855625
4.301144 81.47564 10.26857
5.940977 74.53778 9.755322
1.694989 80.24443 10.09006
0.7795625 75.84721 9.832266
2.786882 73.65789 9.738772
5.510439 79.45372 10.04305
6.907749 74.39148 9.740424
5.797885 73.01401 9.703958
2.549958 73.51474 9.735006
-8.745076 102.4036 10.21097
-12.6372 127.6641 9.277993
-13.46683 122.7734 7.669378
-10.88737 119.024 8.550418
-3.469022 115.9415 11.79834
-5.99791 116.5351 11.06829
-8.669839 119.3809 10.66815
-9.743041 120.531 9.884036
-1.456768 33.86702 8.64681
1.206502 39.36283 8.169662
0.7864338 37.26927 8.082645
0.7544672 40.51706 8.160635
-3.901513 43.14143 10.79764
-0.1833002 41.22699 8.268472
2.37997 41.50496 8.614837
3.278882 42.96721 9.309595
6.912726 39.58554 11.38381
5.552179 40.26196 11.14458
5.794249 37.83971 11.28501
2.062362 38.78703 8.396399
6.817306 38.26144 11.45471
-2.982336 43.75779 10.06595
-1.356948 46.82516 8.852789
-4.596987 49.04774 10.9553
-4.762936 47.95134 11.06808
-2.943235 50.67167 10.00759
-1.430967 54.53809 9.084505
-5.405705 52.54782 10.95048
-4.018615 140.7321 8.80046
-2.582947 135.0866 13.45561
-6.037158 135.8823 12.93342
-1.805654 133.5363 13.96871
-11.12019 57.94018 8.71816
-10.04389 56.02842 8.721039
15.62362 46.79597 9.48943
-9.541556 109.4908 9.939545
-12.44174 109.6624 7.946494
-7.364069 107.1254 11.03311
-9.740036 113.4781 9.060601
-6.11048 111.9168 11.1545
-7.561991 111.9817 10.41716
-3.939043 115.1341 11.73203
-7.67054 117.9376 10.49555
-3.833411 120.9623 11.90853
-5.703441 112.0752 11.32799
-5.430726 118.4361 11.33442
-1.667192 120.4506 11.98333
-6.060546 121.3437 11.63091
-4.012037 114.6889 11.72343
-8.256689 122.6138 11.01102
-4.655451 120.7473 11.76652
4.656994 116.5149 11.52828
0.01633778 118.014 11.91842
4.768185 115.5422 11.52858
-2.287626 112.9808 11.85299
4.600745 117.3315 11.54944
2.460016 109.5525 12.17539
3.547616 113.805 11.78393
3.219335 114.6596 11.80932
-1.227003 104.884 12.21957
0.1449118 120.8587 12.0401
-1.948872 111.0813 11.99624
2.568943 127.7891 12.79291
0.2990418 129.0042 13.08236
-0.8575155 129.1632 13.11785
3.099014 106.9277 12.32719
2.268185 108.1728 12.28852
1.774211 105.916 12.28974
3.70199 102.3885 11.47379
4.716475 102.4582 11.23298
4.691045 104.6856 11.72969
0.5923655 103.5655 12.0656
-4.698669 103.3121 11.43413
-0.6737902 104.134 12.14731
-4.486309 107.6856 12.10217
-4.29913 112.1148 11.77646
-6.547039 102.5094 10.76413
-0.4739037 99.61282 11.02437
2.101375 99.90626 10.98308
-8.933545 103.7927 10.11287
-3.544483 106.3521 12.20622
-5.524489 110.1877 11.62576
-1.567758 104.138 12.11597
-7.339718 108.7985 11.04263
-7.152325 107.88 11.12133
-1.639026 105.8976 12.30048
0.3337836 107.9197 12.2919
13.22398 44.94288 8.733883
9.349336 45.21598 9.725235
15.28442 44.20112 9.483291
12.45645 41.80842 8.389077
14.58105 41.52958 9.317268
15.43905 41.42205 9.500586
16.39476 44.98958 9.395264
5.264625 50.43637 10.6344
-1.675331 52.12143 9.177595
0.03180344 49.64544 8.451735
1.380624 54.61382 8.653029
4.704267 52.92074 10.3327
1.99382 50.08168 8.690455
4.485826 58.86406 10.04207
4.972221 61.44283 10.18249
5.771383 61.05401 10.35105
2.490599 62.8379 9.301088
-8.597777 65.03388 9.473746
-7.701993 64.62972 9.825355
-3.193995 58.03236 9.990804
-1.091038 68.78788 9.621433
4.991392 76.17184 9.845559
7.442151 76.65516 9.865749
9.905016 81.20596 10.18152
4.740387 82.3303 10.41113
2.524374 82.37772 10.42771
-12.6626 126.0731 9.247763
-12.55156 125.499 9.490714
-9.567149 122.1752 10.18033
-12.73752 123.1489 8.331539
-11.9976 126.7603 10.213
-6.878119 124.8383 11.72617
-2.969144 36.65991 10.21567
3.240314 131.0794 13.65824
-0.8349524 133.8593 13.96235
-1.580595 132.0324 13.95116
0.05075834 130.8962 13.62641
-4.718194 137.5778 11.58881
-8.745113 53.09739 9.299955
-2.126239 122.6136 12.12646
-0.9517689 127.9515 12.82474
-3.299396 109.4193 12.17338
11.1185 42.34111 8.414787
-0.1071664 48.29504 8.463466
-2.072408 47.73219 9.353233
3.427216 57.90712 9.570232
4.3385 57.77953 10.00643
-1.519644 58.91612 9.262453
-1.740435 57.35949 9.30136
-3.81182 54.89238 10.42839
0.2188296 58.541 8.818801
-6.115524 59.4096 10.48156
-4.528011 56.58608 10.60338
-1.537545 63.61145 9.447873
-1.284226 61.4085 9.279264
-1.480447 63.14758 9.413078
1.639877 64.56748 9.304679
-0.5450026 65.94326 9.434947
3.049662 51.08607 9.243579
2.925938 49.68366 9.137851
1.5941 69.55511 9.634695
1.291777 67.45271 9.518939
4.010146 64.04099 9.776209
7.179239 70.66175 9.674943
4.77092 67.18949 9.793023
4.363371 65.25639 9.828188
-8.341225 121.3856 10.87784
-8.261106 125.8727 11.48836
-11.78128 128.9761 11.21552
-10.20498 133.7393 13.3201
-6.029922 125.2457 12.01007
-2.770015 128.4798 12.92348
-9.16724 130.6257 13.31653
-3.959316 130.2651 13.41977
-7.390182 132.614 13.90382
-5.871279 131.8983 13.84864
-3.601148 129.3951 13.16084
-3.260187 133.9397 13.85744
-3.554814 135.3284 13.27336
-8.160419 53.82145 9.711507
-5.713588 57.4264 10.62558
-8.371497 56.71411 9.602913
-3.500895 122.7918 12.11201
-6.926234 56.37955 10.44664
-6.221291 56.01545 10.64842
-1.640565 67.46503 9.601412
2.287266 66.13119 9.480547
0.4590309 66.24841 9.409548
-4.374808 41.09169 11.14723
0.08506965 81.9824 10.39043
23.49551 26.98183 -6.25227
23.4602 31.4523 -6.567959
23.02552 38.30069 -5.197387
-15.16565 135.973 -2.508422
21.52113 57.99817 -4.212227
-20.32582 24.30172 -11.87088
-3.279729 153.1723 -9.221512
14.60373 23.95192 -12.01469
1.176284 25.71781 -6.688144
21.38847 64.08828 -1.479646
-15.41843 136.7911 -5.609408
23.04731 22.37647 -7.703065
21.66412 59.12511 -1.198587
11.70792 106.3603 -6.17094
18.20273 93.39665 -2.598545
-14.48671 151.6723 -5.791852
15.10631 135.1408 -0.03025068
15.09871 138.3544 -0.6807249
13.29958 125.0487 0.6302536
12.07235 118.473 1.413704
15.50067 138.1202 -4.96653
15.20478 140.9067 -10.0827
-10.14254 30.0294 -10.06706
-19.89035 80.7496 -2.967524
15.39472 99.92561 -5.131295
9.250553 152.5248 -5.618722
15.69618 106.7074 1.345167
16.70581 98.61781 -3.107877
3.252871 26.91415 -9.021645
20.09866 86.63486 -0.3930002
22.92682 24.51111 -8.013861
22.94205 22.93297 -8.123993
-21.08955 78.59573 -0.6542546
-13.62873 145.5937 -10.97785
-15.41061 137.2502 -6.738941
-22.17913 28.6048 -9.659324
-22.16997 23.84596 -9.706426
11.55346 151.5799 -7.332299
-14.73336 25.41178 -11.8781
-20.43283 57.38366 -5.882799
-20.1279 54.60662 -6.821062
-15.28866 136.1259 -5.574756
-15.261 137.2902 -2.637071
22.83365 24.54107 -8.563901
-11.12755 151.6831 -7.436718
-14.7908 151.6561 -5.636621
-15.05686 149.4067 -9.2552
17.03926 150.9794 -6.077259
-16.50747 78.18652 -7.191965
-17.28326 96.12872 -3.367579
4.616664 35.62203 -9.80899
-20.58836 81.22607 -0.1345995
6.001216 140.0497 -12.80831
14.78196 151.0149 -7.620712
14.54387 89.75989 -9.169623
-5.6437 147.9326 -11.62481
16.11437 142.3963 -10.27061
16.99811 150.0685 -7.82384
-9.165882 24.4547 -10.11593
-12.21067 23.79357 -10.88661
-21.63054 25.05103 -10.25629
-8.157432 151.6343 -8.451788
-14.45902 150.5918 -8.312343
-15.00775 151.2821 -6.862348
-15.18497 135.9582 -3.110759
20.44781 29.08602 -12.82135
23.22262 30.21856 -6.970128
12.31356 23.76858 -11.29918
3.893368 24.75328 -9.48718
-20.88883 67.14605 -3.349189
-20.29865 81.42574 -1.73882
20.33435 79.2632 -1.587499
-17.40677 96.85194 -2.267478
-13.29038 113.7927 -1.083677
17.61971 94.1751 -3.861865
14.59676 137.3469 -8.810846
15.32793 137.2658 -3.178084
14.26519 131.2629 -0.3285938
12.42755 119.7657 1.417408
7.577621 152.6768 -7.272685
16.65917 148.624 -9.312624
8.998713 152.0471 -7.270156
-20.78163 32.02055 -11.03903
-21.89896 28.54947 -9.916535
-21.40176 26.22522 -10.46146
-14.05491 144.3221 -10.99374
-4.231552 150.6375 -10.44328
-13.9969 129.2967 0.9193573
-14.1438 150.3421 -8.683541
-7.585793 152.8711 -6.882253
22.66245 30.86435 -8.412169
23.56602 34.65206 -6.037138
22.8155 28.16754 -8.009246
13.64719 24.24848 -11.69304
5.601064 25.02542 -10.06274
4.591623 25.576 -9.773958
-21.00854 48.48419 -7.520238
-20.66526 69.92467 -3.089149
-20.24739 84.67305 -1.079538
-20.13337 82.35751 -2.14278
20.37361 83.67823 -0.7610999
20.77051 72.14218 -1.776527
-18.33592 92.22454 -3.199802
-15.6776 102.1144 -3.287336
16.18094 100.5001 -3.124157
18.63492 93.4153 1.025685
13.76961 127.4616 1.723779
12.77556 123.2857 0.8139076
2.960542 151.0068 -10.32679
4.372099 152.5383 -9.249058
11.81375 150.2018 -9.128436
-5.794604 24.15666 -10.22646
-21.23393 36.62283 -10.54258
-14.04322 23.1537 -11.63987
-18.60413 35.19241 -12.20957
-14.24319 131.0623 0.3409097
-13.61581 124.9183 1.88565
-12.62788 132.4194 -7.747539
-14.05682 131.3222 -3.029511
-15.04155 134.82 -3.106324
22.19235 24.45791 -11.26895
23.45826 35.32713 -6.283839
22.67012 39.0731 -7.722678
22.75403 28.81141 -8.163694
22.53274 29.98653 -9.388247
20.93834 26.75563 -12.73992
20.69119 25.27323 -13.29519
14.51845 26.64292 -11.9823
22.28912 47.3675 -4.419262
4.315762 25.07125 -9.655474
-1.351837 25.01619 -6.136896
-21.98875 49.52384 -6.273777
-22.33164 49.29796 -5.970697
-21.42532 62.91657 -3.615336
-21.31824 65.60818 -3.159986
-19.8492 86.55295 -1.853109
-18.65887 78.9333 -5.166218
-19.59075 86.35817 -2.785499
-20.00889 73.73721 -3.298088
20.80787 74.9397 -0.03822197
20.39382 84.81358 0.2201637
20.42358 80.18084 -1.235786
-17.08485 99.37251 -1.167728
-14.82107 104.9036 -3.150777
-13.80282 110.2647 -1.294234
15.82246 105.617 0.1963096
15.08861 107.0801 -0.8560978
17.84104 96.39966 0.3259999
19.34768 90.76049 0.8356835
-12.58639 117.586 1.142204
6.37867 151.8041 -9.043103
-9.746301 24.93006 -10.1471
-22.23093 38.73186 -9.128716
-14.07595 26.41005 -11.6256
-20.21447 31.78115 -11.72024
-19.65145 25.90853 -12.68223
-20.05838 32.76153 -11.79958
-14.08747 145.29 -10.96873
-11.90744 148.7688 -10.15745
-13.28522 131.2025 -5.841702
-13.24051 127.8046 -1.882025
-12.11161 138.895 -11.23993
-10.83119 127.9788 -6.717475
-11.99279 135.2843 -9.983386
22.54955 43.4859 -5.171066
22.72827 40.2616 -6.710572
10.62379 25.05485 -10.84253
22.2009 48.05412 -4.721444
21.81927 55.17859 -3.156018
1.701362 29.64721 -7.375989
-0.299316 29.1987 -6.092156
0.3794752 27.93921 -6.256056
2.391806 30.51791 -8.233755
3.235896 29.88034 -9.048153
0.7848436 33.12295 -6.698335
4.974319 25.80918 -9.905547
-21.87681 54.11842 -5.183379
-19.50667 54.14342 -7.648214
-20.34717 58.88652 -5.664996
-21.40452 55.12452 -5.411886
-21.2143 61.22922 -4.211072
-21.63591 72.94942 -1.360808
19.70217 85.72026 -2.627577
19.02188 90.86872 -1.886854
19.29469 90.36643 -1.028874
20.65632 81.405 0.8589995
21.30666 65.53839 -1.475082
-17.56367 93.03497 -4.695581
-16.32618 101.1325 -2.280886
-13.86077 111.7374 -0.3036186
16.49432 103.0226 0.09791769
14.30125 103.5228 -4.918651
14.49979 107.6609 -1.856209
14.7846 107.6212 -1.248336
17.73747 96.95808 0.4692274
18.85633 92.61681 1.166683
12.819 122.922 0.8398222
12.57846 121.5345 0.1850511
13.82838 122.2639 0.868481
-13.14665 117.7796 0.4196675
0.325201 152.7589 -10.19613
-6.261583 28.29358 -10.17509
-18.43546 35.62662 -12.16588
-21.66908 33.73181 -10.115
-9.453209 144.9896 -11.98652
-8.116503 146.7431 -11.75718
-13.28371 142.0298 -11.14843
-12.23713 127.9116 -4.787954
-11.80359 120.7226 0.01817326
-11.34031 131.4305 -8.379519
22.0252 47.03226 -6.540369
20.93897 31.58257 -12.00361
4.575526 28.12297 -9.79623
8.111898 25.15867 -10.40574
21.70833 55.96493 -3.84608
2.793177 31.89068 -8.695514
1.277613 31.91589 -6.96238
-19.4001 49.45979 -8.850591
-19.78897 68.60098 -4.525689
-20.10714 68.22572 -4.165763
-19.97024 63.43074 -5.213364
-20.08061 64.83321 -4.826283
19.88757 86.56657 -1.646975
17.56753 80.14552 -6.367314
17.73508 92.76055 -4.471962
20.41051 72.16206 -2.985842
20.26308 75.47877 -2.156337
-16.38622 99.83101 -3.063554
-16.17286 101.9841 -2.061586
-14.99712 100.5566 -5.456477
-15.54964 100.3425 -4.596375
-14.89286 103.9149 -3.6899
-11.43345 115.8139 -1.427568
13.31063 109.9731 -2.539583
12.43159 111.9952 -2.252771
17.88229 95.91481 -0.7190565
11.90056 117.5892 0.4295277
-19.73381 37.68777 -11.49747
-19.16527 32.66231 -12.34179
-12.92471 140.5737 -11.16192
-9.678115 141.7234 -12.31353
-12.66171 122.6326 1.302166
17.57944 36.41521 -12.17158
13.4778 28.64362 -11.57546
22.04884 52.34342 -2.380054
21.48494 62.14788 -1.797935
20.96023 61.21761 -5.131956
20.77871 58.91223 -6.139248
20.02586 50.15462 -8.624464
19.05603 52.69744 -8.475345
3.720164 28.03305 -9.42027
-20.15593 48.84937 -8.138051
-20.0928 58.8817 -5.946355
-18.67458 66.0842 -6.606748
-19.72467 74.53334 -3.596771
19.55505 84.01738 -3.480625
19.63147 89.56593 1.09541
20.23633 74.2383 -2.68198
20.29956 76.2308 -1.852927
-16.06623 98.35924 -4.762377
-0.3316037 122.2642 -6.937475
13.88648 129.0059 0.136511
-17.5686 28.48264 -12.97384
-9.466814 148.9006 -10.54652
-5.171328 145.12 -12.25972
-13.49264 124.6031 -0.8969284
-11.48404 126.5635 -4.898808
21.02662 48.44045 -8.379128
22.4227 34.4117 -9.195898
7.029499 29.49399 -10.22222
21.9712 52.67837 -3.307284
3.283133 33.81972 -9.16801
-19.53438 39.15044 -11.37463
-19.53988 72.79081 -4.170419
19.51763 79.68095 -3.778728
20.76497 65.1422 -4.428138
20.28013 63.65704 -5.682709
13.31624 114.3803 1.26703
14.28932 131.4505 -0.5562589
13.85607 129.1808 -0.4282893
-9.544502 150.8711 -8.87336
-5.89094 149.2675 -10.97919
-12.42806 128.7143 -5.144134
22.58842 36.40073 -8.672241
8.481194 31.96847 -10.28591
21.01128 61.88558 -4.813967
4.695032 30.69776 -9.863763
-19.72617 45.72747 -9.398432
17.86843 85.49787 -5.897611
11.0888 128.9577 -7.112905
-7.365767 29.75864 -10.00327
-12.04074 26.45231 -10.77385
-9.508604 30.04007 -9.955855
-18.21203 37.19738 -12.0324
-12.4964 42.82546 -10.84921
-17.16698 38.19935 -12.04938
-17.22824 29.6088 -12.79944
-18.90269 29.35097 -12.79272
-8.022911 151.2502 -8.962481
-7.416368 150.3839 -9.930662
-12.16395 123.0752 -3.334633
-12.89527 131.4901 -6.682928
-11.55064 133.7797 -9.504188
-10.97885 129.1991 -7.372721
-9.396198 125.194 -6.113604
-9.986022 135.2384 -10.98534
7.125635 30.35707 -10.21262
18.95187 79.57233 -4.662133
17.88255 84.7626 -5.943987
18.31466 83.75442 -5.495244
-9.956306 29.65279 -10.04414
-11.54847 121.1649 -0.7939847
-9.286035 127.7736 -7.685295
19.79023 36.28166 -11.77616
8.590533 29.66001 -10.35008
19.47967 82.99683 -3.773391
14.38201 132.6713 -4.121391
-9.906943 28.73094 -10.06316
-15.35271 31.40778 -12.0802
-11.11071 123.0639 -3.477884
-4.495576 122.0684 -6.858251
21.49989 35.25574 -10.70793
9.336883 34.03944 -10.32887
15.073 134.9832 -3.594153
-9.939068 123.1592 -4.566362
12.25993 29.40865 -11.16548
20.41331 32.50244 -12.15426
19.41276 31.959 -12.49827
19.19706 35.85099 -12.08237
15.93399 27.95842 -12.39017
16.64923 29.81889 -12.40865
19.38857 41.9468 -10.79488
-8.458464 129.2336 -8.903947
19.40564 29.64564 -12.82176
16.3731 30.82269 -12.37733
-7.689577 127.8056 -8.44439
4.928855 36.1844 -9.90433
21.67845 29.41508 -11.48708
18.28354 31.44956 -12.36359
14.98232 136.8985 -7.829003
0.002132717 130.3048 -10.30454
16.64641 32.89783 -12.29822
-5.192807 120.7972 -6.243792
-6.099249 125.1533 -7.649734
6.387333 127.2441 -8.551783
-1.649706 122.6902 -7.230126
3.923941 123.1934 -7.481013
-1.198688 120.1102 -7.403549
8.02164 152.5214 -7.147141
6.794304 150.651 -9.887583
12.83434 144.4063 -11.26501
12.61036 144.7761 -11.2836
11.57379 145.3765 -11.42699
8.945182 150.8829 -9.016412
11.83243 149.781 -9.472727
13.83047 150.4249 -8.661654
14.14073 140.6031 -10.53381
8.933908 137.3288 -12.10233
11.01056 137.1957 -11.30818
21.94197 45.17445 -7.532324
22.36228 41.24749 -7.7567
20.9139 46.68784 -8.880229
19.32652 51.13889 -8.708894
21.18304 42.77137 -9.497767
18.22244 46.46544 -10.05492
15.5162 47.79872 -10.93516
20.92631 50.7226 -7.93271
21.63739 52.8388 -5.984129
-18.67333 88.26599 -4.233738
-13.10961 107.7457 -4.105919
-11.61646 113.6664 -4.391448
12.78798 120.872 -0.8972875
-16.72237 94.74342 -5.518837
-13.71476 108.425 -2.865244
1.007981 150.8013 -10.31227
2.014414 148.1362 -11.45666
-1.94839 150.9398 -10.61755
-4.504869 148.331 -11.47062
-3.432984 149.5984 -10.94448
-5.98727 146.3442 -12.06278
-1.92273 146.4447 -11.96243
-1.543555 143.0254 -12.5494
-3.958838 146.306 -12.00053
-4.04795 27.70761 -9.744191
-3.304672 28.86556 -8.960293
0.8528748 39.1316 -6.977077
-9.085636 30.95572 -9.860132
2.573011 35.00186 -8.525249
-3.559054 36.14718 -9.236382
-2.301565 33.15931 -7.378846
-3.642882 32.18656 -9.314885
-3.408068 36.06765 -9.109026
-4.632088 33.5566 -10.00111
-3.265534 34.30208 -8.962967
-3.159322 36.86135 -8.776545
1.329716 37.42359 -7.260333
-0.02548436 36.80546 -6.590885
-3.728537 41.77551 -9.368394
-12.03147 139.8737 -11.46158
20.32284 70.20168 -3.873414
19.30099 69.43866 -5.336335
17.12418 70.42956 -7.013217
20.04279 72.8978 -3.420589
18.27387 73.28995 -5.735209
-13.38928 103.8519 -5.923824
-12.9102 105.4368 -5.573824
-10.95542 108.7712 -5.491733
-9.455873 102.9225 -9.466259
-9.747673 103.3199 -9.096537
-7.180678 101.7527 -10.83297
-8.65837 102.8271 -9.864759
14.05759 107.5219 -2.862707
12.98203 106.1392 -5.112302
17.80019 56.42798 -8.120288
17.16262 54.86354 -8.656543
18.61332 54.44768 -8.264721
11.44818 56.76348 -10.30972
-18.15852 60.48697 -8.136739
-18.67858 68.80277 -6.100659
-17.96656 67.56542 -7.034213
-16.19139 67.67181 -8.025534
-19.43996 78.95225 -3.894775
-17.13746 71.64925 -7.005672
-18.15152 81.231 -5.771935
-17.93468 83.83318 -5.940434
-11.1618 77.83647 -8.718355
0.3126418 90.8841 -12.51313
-17.22639 81.23368 -6.641531
-17.91962 81.21256 -5.996267
19.59326 62.24652 -6.55663
9.528327 113.3389 -4.523206
11.93405 127.0373 -4.552256
13.05905 125.4369 -1.264619
11.33257 123.5782 -3.390162
-10.28174 142.1766 -12.14337
-6.945873 138.9445 -12.73896
-8.730249 138.2449 -12.384
-6.613055 145.3154 -12.25472
-7.70593 140.6798 -12.70486
-14.07835 33.99492 -11.64007
-13.04018 34.67819 -11.14809
-13.33558 34.09619 -11.29255
9.273611 130.3497 -9.085667
10.40192 126.5308 -6.140356
11.12959 129.072 -7.151425
11.77975 127.2967 -5.023321
11.12326 123.3891 -3.362495
8.059036 122.7938 -6.976936
9.855204 123.073 -5.869601
8.83215 123.0295 -6.768825
8.728364 124.3702 -6.960639
6.407527 123.5248 -7.279732
13.32836 133.3958 -7.658109
11.10173 123.3975 -3.867715
3.838502 122.0894 -7.436532
7.659725 125.8209 -7.411232
11.2582 121.9279 -2.203774
3.436097 126.6289 -8.735428
10.40441 130.0695 -8.295701
10.86945 118.5422 -2.489182
9.792868 129.2033 -8.20837
4.874891 121.1798 -6.844388
7.280718 132.5556 -10.82678
11.86224 118.515 -2.603251
6.225443 130.449 -10.1904
9.949129 131.4677 -9.303257
9.317378 117.2516 -3.344005
5.92159 131.7323 -10.76746
0.147852 126.8475 -8.800356
3.120339 131.0792 -10.71331
-4.954409 126.2708 -8.407262
1.979524 128.6909 -9.490434
5.685107 130.5829 -10.30669
11.68304 116.4335 -2.943616
10.32926 115.2466 -5.355388
9.200116 113.0093 -5.065062
0.4049183 124.9391 -8.336943
10.55046 115.1273 -3.787321
-1.513363 129.6911 -9.921833
-0.2661174 125.0713 -8.369787
0.9414228 123.2193 -7.386055
-4.582195 128.911 -9.601143
14.33227 132.0322 -1.967086
-12.58291 32.73676 -10.96033
-8.780254 33.20561 -9.781041
-9.441198 34.94965 -9.797847
-7.139891 36.76523 -9.776056
-10.27422 40.85329 -9.863935
-6.152654 38.82523 -9.911681
-6.441633 39.8769 -9.796494
-6.578825 39.04881 -9.812981
-5.0499 37.19137 -10.03991
-12.36575 28.9888 -10.89213
13.75331 30.73054 -11.64405
6.484083 34.90173 -10.11747
5.666671 36.50771 -10.0305
11.71591 33.59157 -10.92642
13.6886 37.17889 -11.4901
20.30716 37.81623 -11.20878
20.895 40.16095 -10.31818
19.93075 40.2662 -10.94881
19.94353 41.10501 -10.74086
-8.139645 129.2891 -9.077433
-7.31283 128.7476 -9.083102
-8.694167 133.9464 -10.95997
-11.4558 119.7563 -0.4678892
-2.966678 118.2335 -7.805533
3.772065 147.0421 -11.82302
7.475275 150.6434 -9.700732
8.122461 141.1382 -12.61581
15.49734 48.33149 -10.80861
-18.93513 89.76862 -3.038522
-17.74577 90.42711 -5.345966
-17.50834 85.94504 -6.280523
-13.36104 109.0548 -3.063897
-11.46175 112.7886 -4.914422
-8.003807 110.4802 -7.176392
-10.10456 112.7261 -5.777531
-10.5692 120.4934 -2.27005
-10.06752 114.5809 -3.342528
16.8793 98.3998 -2.729132
16.49969 97.79676 -4.107074
17.46877 96.8804 -1.940641
14.66734 99.55782 -6.463438
15.06821 102.4107 -4.303651
13.20993 99.84277 -8.092073
14.33146 103.7876 -4.7211
13.23972 102.3125 -6.875351
-11.47331 116.8564 -0.6486389
-14.36376 96.30036 -8.278903
-4.480783 141.7216 -12.69707
1.34048 144.3083 -12.36051
1.895291 141.2689 -12.73102
0.4342382 37.44344 -6.679682
5.577907 41.0181 -9.983834
0.6195091 40.05248 -6.912464
5.393338 38.06178 -9.980424
2.147858 37.9318 -8.116793
5.282395 39.90929 -9.948915
3.562891 45.19988 -9.362095
6.623685 43.4308 -9.935322
4.042978 45.83203 -9.570248
0.6958504 44.24396 -7.169072
18.51287 68.74042 -5.955821
16.22053 78.13285 -7.389893
17.94431 77.44842 -6.049406
-10.76262 111.0702 -5.265122
-10.59824 108.128 -6.017232
-7.159282 106.5011 -8.065231
-8.083429 109.2863 -6.768445
12.61956 110.2027 -3.426798
12.09282 104.256 -7.016073
11.09696 103.6817 -8.101471
9.462544 104.4917 -8.599443
12.02452 101.4832 -8.458165
10.75577 101.1975 -9.546766
9.816343 98.16654 -11.22311
12.13286 93.02766 -10.94548
10.64242 99.10915 -10.47405
10.47706 100.7032 -9.937089
10.32157 107.1443 -6.673596
16.81623 53.51492 -9.055166
-17.27395 61.04758 -8.487418
-16.3864 62.0341 -8.614619
-15.67297 63.0403 -8.661976
-13.43355 56.11416 -10.05
-14.87951 64.8384 -8.683867
-18.02358 65.29935 -7.409798
-14.0198 61.16127 -9.287899
-14.03903 60.03254 -9.408724
-12.18548 53.20717 -10.45452
-16.86336 55.09848 -9.518237
-12.32068 57.63878 -10.07581
-10.90145 72.78544 -8.811918
-10.99769 60.06807 -9.799814
-15.73194 68.31738 -8.13553
-16.94249 71.62336 -7.146633
-15.82171 71.41669 -7.856565
-15.42095 66.89119 -8.376721
-17.32929 78.26949 -6.601851
-15.7235 72.53855 -7.89185
-16.29112 73.5473 -7.576374
-17.1944 77.8031 -6.743299
-15.27567 80.3566 -7.789329
-15.64975 81.67664 -7.626608
-15.15141 79.65877 -7.861718
-15.44319 81.90504 -7.746691
-8.800359 79.27134 -8.765222
-12.23295 79.22462 -8.60028
18.21099 64.91499 -6.62509
18.93236 67.2019 -6.000295
15.03403 67.50663 -8.319345
15.45969 63.54122 -8.508453
16.94966 61.44875 -7.862738
16.24075 61.91998 -8.290703
12.32163 113.3642 -1.549115
-2.633987 133.6583 -11.52361
-5.094863 137.6745 -12.55017
-1.145411 132.5654 -11.11031
-0.9220456 130.8031 -10.59841
-3.597949 130.7748 -10.48875
-0.2049326 133.6355 -11.51824
-5.050708 134.6776 -11.8085
-6.126866 134.8812 -11.81517
-3.787656 135.4358 -12.01509
-6.805336 130.5608 -10.12169
-1.877806 134.3016 -11.74297
1.43144 134.1008 -11.68902
-6.042784 143.3653 -12.55169
5.652144 121.3729 -6.3854
11.58209 119.9267 -1.586979
8.928745 134.5901 -11.12083
9.439957 136.2453 -11.58117
6.894404 136.4512 -12.20536
8.435304 137.1512 -12.20468
5.880602 139.2161 -12.77253
4.031709 138.0988 -12.65861
6.491388 140.766 -12.78153
3.362263 135.4153 -12.01425
4.421944 136.1622 -12.19049
5.230072 136.0704 -12.16265
11.8188 140.5326 -11.61772
12.06134 141.3584 -11.59073
10.99368 144.4183 -11.745
6.093773 143.7031 -12.49721
9.069687 112.495 -5.737719
-19.78759 42.31343 -10.48228
-9.774171 38.91877 -9.764132
-12.95062 52.31869 -10.61484
-8.575551 40.56304 -9.51228
-12.53902 39.81485 -10.86648
15.77602 35.85072 -12.13653
10.20003 35.62624 -10.44909
19.22674 41.49288 -10.9814
15.66459 41.10458 -11.76903
17.49345 43.89157 -11.00033
-8.990183 119.4764 -5.458485
-7.871851 119.9602 -6.538537
-0.6215544 119.4832 -8.116163
5.37065 148.2369 -11.50313
5.330833 147.7206 -11.68969
-9.163779 112.5145 -4.938694
-7.419433 114.6928 -4.773256
-5.070715 113.5168 -5.596329
-3.653446 111.3551 -6.911283
-2.333426 113.2861 -6.222644
-6.78448 111.988 -6.40951
-4.52792 115.1311 -6.653732
-3.553876 115.2501 -6.213964
-0.7202309 112.7045 -5.948909
1.041269 108.8349 -7.584661
1.591569 113.9511 -5.896167
3.39929 112.7678 -6.988249
17.41736 95.70471 -3.24781
14.2648 96.47996 -8.297074
15.66335 93.6431 -7.573223
9.128356 94.24202 -12.26813
13.56707 92.13905 -9.985175
15.41983 85.50652 -8.004342
13.77995 90.64609 -9.837282
9.922524 93.81425 -12.0069
17.63305 92.44944 -4.829783
11.54582 91.44924 -11.26317
17.03044 89.72142 -6.563498
14.08449 91.49657 -9.586128
16.89618 89.89212 -6.732358
12.55198 88.71152 -10.38162
10.19244 88.09226 -11.16238
8.554722 89.3335 -11.8958
9.762641 88.78817 -11.4797
4.408233 91.04544 -12.54717
-1.6532 142.35 -12.63106
5.091726 146.4237 -12.02335
4.712166 45.18703 -9.791235
3.985793 44.19389 -9.555583
9.02166 43.34024 -9.964352
11.87423 41.97969 -10.70997
16.23169 69.21889 -7.704691
16.08285 72.40269 -7.696983
18.36273 70.35839 -5.844475
16.63411 72.08031 -7.347885
16.40984 73.73184 -7.499218
17.17021 82.36305 -6.666002
-14.20982 99.25334 -7.226835
-14.22909 101.78 -5.95087
-13.04663 96.68363 -9.444588
-8.35289 106.7683 -7.650966
-4.558553 108.7427 -7.671832
-1.308543 108.1385 -7.749259
-4.784508 110.837 -8.335622
-11.7411 96.54092 -10.56904
-9.496045 100.8631 -10.40545
-5.183622 105.4826 -8.969867
-0.62023 108.037 -7.748189
-8.639904 99.23627 -11.39048
9.165657 100.8794 -10.55907
16.19427 54.22422 -9.218097
-18.00165 54.51601 -9.213729
-17.41398 48.15164 -10.57981
-15.08745 53.89655 -9.886254
-20.67731 50.90358 -7.160377
0.9006971 46.96607 -7.385224
-15.60158 75.93066 -7.883667
-13.72018 81.76953 -8.382027
-8.643826 82.94609 -9.116065
-9.276106 72.6673 -8.834174
-8.159368 78.30988 -8.784506
-10.29176 73.98951 -8.818577
-8.798082 75.68202 -8.810339
-7.87151 73.76801 -8.833675
1.072209 140.0974 -12.79314
7.145382 118.6046 -4.812764
5.296338 117.6508 -5.434626
9.905021 114.5247 -5.649265
1.143986 120.0373 -8.120231
1.534483 114.8486 -6.299963
1.540729 117.8667 -6.668327
7.000466 117.3031 -4.743641
4.804002 113.9476 -6.054673
6.969797 113.4358 -6.52237
8.86969 113.7076 -6.731997
6.151765 113.3962 -6.977712
3.122977 120.3857 -7.58552
7.516819 134.1883 -11.36254
5.81777 141.7167 -12.71448
4.192632 143.1176 -12.54521
-14.60432 38.78406 -11.70546
-4.824709 44.45102 -9.830074
-4.064299 44.12969 -9.560165
-9.464995 42.44735 -9.621213
-11.37464 42.94687 -10.29408
11.70083 37.68887 -10.80893
10.06755 38.76296 -10.31076
9.610558 42.65809 -10.07486
-8.566377 119.2924 -5.606739
-7.912399 119.172 -6.234496
-5.721186 118.6151 -7.334277
-10.24853 119.9234 -2.530863
17.27621 94.21711 -4.678411
7.98246 96.64606 -12.27337
6.063591 94.32475 -12.80615
15.51193 89.03299 -8.278576
12.96553 81.1077 -8.509836
8.270637 87.47222 -11.24806
9.607175 84.57439 -9.550485
11.18034 86.11563 -10.1051
13.63653 84.57636 -8.782975
4.204491 86.25416 -10.65108
5.569875 87.81577 -11.42503
6.905501 90.70454 -12.4197
6.111059 84.65418 -9.867042
7.009625 37.74958 -10.06909
6.770495 40.66175 -9.999541
6.637361 40.76758 -9.998779
-4.721933 46.07343 -9.812439
0.9423211 45.76822 -7.403426
-7.374533 46.97214 -9.372184
11.23784 55.03589 -10.39272
15.98955 75.04035 -7.698834
17.47657 80.67974 -6.446298
-3.646333 111.3563 -7.966831
-11.07154 96.75932 -10.96239
-17.10266 91.46177 -6.161948
-11.7089 97.17153 -10.40512
-13.65842 95.27794 -9.333198
-14.9755 92.26388 -8.674728
-16.11664 93.93703 -6.867677
-15.53785 95.05615 -7.28697
-2.75296 105.0933 -9.198197
-5.034742 104.5127 -9.560643
-0.1901567 102.9254 -10.45406
1.638931 102.0223 -10.88069
-2.953648 99.00967 -12.00989
8.703213 100.4313 -10.93681
15.2094 51.93856 -10.20939
11.80565 52.72756 -10.61941
14.58639 55.2746 -9.922954
15.55495 57.41727 -9.045508
12.14378 49.66371 -10.7667
11.54356 52.53565 -10.5272
13.0381 55.64189 -10.39458
-13.69118 52.65767 -10.39857
-10.89636 54.26275 -9.953966
-10.3455 48.66835 -9.774685
-11.51451 49.7225 -10.31048
-5.762508 48.79748 -9.658276
-7.029132 46.18745 -9.46321
-10.99242 47.4561 -10.07786
-2.730086 47.03307 -8.412805
-17.45395 50.87714 -10.12777
-17.27702 46.16948 -10.90236
-17.30486 50.21734 -10.27834
-14.15474 45.8175 -11.2013
-15.3083 44.66212 -11.29518
-6.456466 54.9352 -9.283368
-12.10058 73.93397 -8.804987
-14.57127 85.97787 -8.605158
-12.35539 90.7358 -10.79388
-12.69985 90.66261 -10.57705
-12.14975 87.33729 -10.19602
-10.25887 83.32669 -9.067041
-8.03971 85.39423 -10.05698
-12.52339 83.85793 -8.944583
-11.38028 75.01371 -8.813862
-11.72182 70.34977 -8.819638
-8.871049 68.2104 -8.969048
-12.09126 71.10092 -8.769986
1.334607 120.3417 -8.330367
5.038471 142.9538 -12.57395
8.870811 112.5516 -6.106559
13.41803 42.21976 -11.27673
15.02052 37.85218 -11.88368
15.87915 42.01919 -11.71757
-8.915421 116.0803 -3.835097
-6.547734 117.2521 -5.11728
-4.574952 115.4946 -6.803566
-2.632328 115.8235 -6.052676
-0.5093306 98.82098 -12.06919
9.207943 83.86351 -9.348921
4.960585 83.02496 -9.407167
11.29262 84.49889 -9.306887
15.03697 82.37946 -7.969228
13.3202 78.54751 -8.457931
1.391387 91.66972 -12.67115
6.448722 93.89356 -12.80582
1.810485 90.64658 -12.46211
3.836769 92.45063 -12.77238
4.632339 87.87379 -11.44939
4.856179 87.16634 -11.10943
0.9945995 88.42444 -11.68589
1.77024 85.83497 -10.47262
5.212222 83.8437 -9.616094
1.890066 85.06542 -10.13437
2.009917 81.28022 -9.149974
11.00078 39.92783 -10.51148
-4.443239 47.43657 -9.657449
-3.763066 48.48044 -9.371568
