# .PCD v0.7 - Point Cloud Data file format
VERSION 0.7
FIELDS x y z
SIZE 4 4 4
TYPE F F F
COUNT 1 1 1
WIDTH 1665
HEIGHT 1
VIEWPOINT 0 0 0 1 0 0 0
POINTS 1665
DATA ascii
11.16857 125.3212 -1.967548
11.28513 125.1689 -1.134287
9.940489 125.8848 -4.463855
0.6126274 122.447 -4.824182
2.16308 123.9625 -5.465115
2.604769 128.4998 -7.110607
10.66199 119.2076 2.995435
1.170649 113.4989 -4.231558
3.708987 114.022 -3.715978
4.044406 116.1097 -4.218561
4.204314 114.965 -3.40803
5.531277 117.3834 -3.806125
7.726488 114.6112 -2.730357
1.892926 119.8612 -4.139709
2.393628 131.5388 -8.802333
1.154071 136.8886 -9.27
1.367845 138.1385 -9.308095
4.801934 140.6566 -9.185255
10.54688 141.6129 -8.057323
8.365952 143.7783 -7.349652
8.981858 144.4393 -6.533081
6.738373 71.38748 -11.15135
8.820276 67.33846 -11.38269
2.922101 76.11768 -10.13363
3.509449 74.28658 -10.37585
3.626902 69.99971 -10.44346
2.073391 69.62678 -9.661963
10.58476 139.6699 -8.325844
8.021337 141.9632 -8.424836
4.108226 137.4519 -9.283224
1.228256 80.76229 -9.490883
3.410903 80.04855 -10.21473
2.448876 82.99998 -9.87238
5.068795 83.19707 -10.17662
3.418035 84.1495 -10.03681
5.835186 80.89392 -10.36764
5.3225 80.29591 -10.45747
1.950722 78.28105 -9.754461
15.07518 83.57868 0.1841227
15.07885 87.69473 0.5357783
16.39571 80.94625 0.5751285
14.26443 76.52635 -0.8020147
15.15045 78.18546 -0.0498164
4.319253 87.69687 -9.660104
0.383884 97.30148 -9.715977
13.79778 94.17595 -0.6495176
2.331017 101.9078 -8.562616
8.555964 109.0548 -4.016659
2.197595 111.1597 -4.154446
13.27339 131.4335 -2.348558
10.70664 127.5196 -4.772248
2.649081 127.3307 -6.585086
1.873452 124.1707 -5.545391
5.628469 129.1952 -7.659206
1.947972 115.1309 -5.015401
5.764564 114.7685 -3.435841
3.089106 114.7438 -4.595811
2.600993 118.5231 -4.527426
3.33158 133.256 -9.017759
4.056929 134.1616 -9.112177
4.785126 129.9384 -8.212646
1.689162 130.0182 -8.391755
2.858823 140.0835 -9.238429
10.08725 139.6804 -8.436295
8.270327 143.3581 -7.668406
7.327509 145.4152 -6.099318
6.740795 147.3193 -3.210406
10.585 68.46407 -10.80795
12.66049 68.29293 -9.377979
6.9591 142.3518 -8.428365
12.83626 69.22881 -8.909344
13.50615 70.32368 -6.019138
12.78052 73.34872 -8.155034
13.51751 72.69338 -6.229238
13.50698 74.55341 -4.692027
12.29435 71.46333 -9.133937
13.50598 75.13293 -4.388111
13.46992 71.77787 -5.577583
0.4449406 84.32173 -9.430413
3.623038 78.99125 -10.30499
14.4635 81.93156 -0.6434217
14.16765 83.46368 -1.488004
16.65563 75.90158 0.02804171
14.28563 78.96974 -0.811654
1.97873 96.11335 -9.849647
2.727247 95.5879 -9.915341
4.185567 84.40979 -10.06802
1.917843 86.02506 -9.700562
14.55922 90.36633 -0.5999289
3.060086 103.4223 -7.854813
4.721395 104.8537 -7.058284
9.103501 128.3166 -6.57066
5.555944 129.9692 -8.164188
6.527236 130.7937 -8.379467
8.019142 123.4075 -4.234949
2.25603 122.4932 -4.83085
3.573086 128.9435 -7.450814
3.619387 116.1749 -3.834798
2.03118 139.6771 -9.280656
6.867031 140.0042 -9.065378
5.935864 138.8631 -9.281004
6.920144 137.1818 -9.171352
11.68417 69.47651 -10.03938
10.59061 71.07595 -10.33615
0.7486354 83.51276 -9.457105
5.578877 86.31737 -9.691502
4.170492 89.07194 -9.676707
6.09591 92.09364 -9.844546
7.933655 91.81615 -9.308451
10.3884 73.12335 -10.06811
14.59053 84.15267 -0.8957011
13.0706 85.26505 -4.739743
13.28875 86.64291 -3.904571
13.62128 85.81742 -3.63528
13.51376 75.84624 -2.71794
13.57599 77.54165 -2.751257
2.594625 92.15964 -10.07401
6.119087 87.04913 -9.452588
7.438775 99.6791 -8.419557
3.890387 98.43014 -9.562362
2.069327 98.31856 -9.583924
7.035066 122.3715 -4.177206
6.168037 122.1001 -4.416547
4.69375 121.4671 -4.579589
6.926017 119.504 -3.331695
3.923132 117.3985 -4.076883
6.751234 118.9559 -3.114471
9.26198 116.2847 -0.2332468
7.940107 116.3094 -1.745458
10.38183 115.3777 0.9216706
7.923433 115.2683 -2.60036
9.193874 117.1517 -1.00091
10.9054 115.1065 -0.1152862
10.1628 115.1011 -1.237945
10.94219 115.9676 1.043569
5.872193 136.9091 -9.243636
6.195138 134.3802 -9.117374
4.088235 134.8134 -9.167921
5.662773 132.3799 -8.815952
5.102416 138.8629 -9.306109
11.52437 137.1919 -7.926496
8.635714 70.29408 -11.07736
8.594019 71.24771 -10.98431
8.487836 74.23062 -10.61188
11.27816 72.43127 -9.731443
12.46049 76.61385 -7.779457
2.412588 90.08044 -9.869491
9.2332 86.80623 -8.289509
5.233816 91.7133 -10.0091
6.16231 76.83743 -10.72839
12.93122 85.92805 -4.675522
14.31606 88.59888 -1.622244
12.39014 90.31186 -4.532929
12.41122 91.96838 -4.34695
11.12643 89.94895 -6.399211
12.91499 90.45441 -3.713642
11.23481 93.71244 -6.036056
11.66874 93.15935 -5.43253
13.51793 76.48306 -5.832889
11.02429 123.651 -0.4355283
9.007489 123.4298 -3.662056
8.757728 118.7036 -1.343374
8.32739 71.03806 -11.05199
13.0617 76.32047 -7.039256
7.65663 88.67883 -9.008265
13.30729 83.47816 -4.895372
7.702654 90.14036 -9.225502
4.560695 90.30405 -9.892453
4.447659 92.19719 -10.06433
5.715201 78.84502 -10.58787
12.59557 84.96754 -5.416912
10.17967 91.30022 -7.5746
13.51603 75.97789 -4.026204
13.48576 73.29365 -5.044782
13.68031 81.41598 -3.349201
13.5775 73.48413 -2.084425
13.37078 72.39856 -2.770073
12.29587 81.48936 -6.793699
8.108737 98.70465 -8.371341
8.363376 118.3361 -1.867312
8.953687 120.6613 -2.256262
8.508654 120.4007 -2.31945
10.34693 120.7824 -0.1709187
10.79084 121.3268 1.318486
13.55719 75.8997 -5.442495
8.893438 86.62097 -8.597958
7.593352 92.67257 -9.408931
8.297373 91.28134 -9.094165
10.27719 94.52642 -7.257223
7.339745 78.22213 -10.37701
9.567101 77.79405 -9.628389
11.89888 88.0988 -5.305431
11.84535 78.10235 -8.067504
13.66597 72.93697 -1.777322
13.30854 77.14657 -6.403494
12.92108 84.85931 -5.077762
9.513297 94.35271 -8.073158
7.159426 97.46495 -9.091907
8.941726 95.09894 -8.44837
9.470175 96.62736 -7.787585
6.375455 98.57037 -9.164829
6.583729 78.39388 -10.50244
8.330025 76.01992 -10.41246
10.44281 76.76431 -9.352992
9.298312 87.34017 -8.099792
10.57665 95.2039 -6.760336
13.34185 72.3334 -4.281496
13.60348 81.17125 -4.43157
4.598339 99.01468 -9.417459
6.065339 97.86284 -9.365034
13.05392 80.63096 -6.047978
7.05373 81.15285 -10.08743
7.755591 80.21473 -10.01015
9.569863 78.41009 -9.508085
11.9794 76.47623 -8.324555
6.348805 70.6661 -11.1721
4.653681 73.3009 -10.77666
11.93332 95.8091 -4.287476
13.4836 70.46887 -2.253152
13.84209 70.14299 -1.57163
11.69084 81.52647 -7.412402
10.33563 85.12791 -7.713776
11.45598 87.58397 -5.88567
9.99879 79.73253 -9.024909
10.7773 78.03209 -8.893336
10.44171 75.00728 -9.689606
6.266163 72.79875 -11.05159
13.53762 94.19466 -1.268634
11.15576 76.14568 -9.031327
3.973354 70.19279 -10.60123
16.01322 70.87405 -0.4913253
13.10504 133.5798 -5.717885
12.5961 97.9101 -2.079076
12.63309 101.7529 -1.58621
12.25034 100.7132 -2.61478
11.96318 101.7723 -3.21711
12.6997 103.9024 -1.061097
12.26207 101.507 -2.565674
12.48253 98.73691 -2.180708
10.01897 101.1617 -6.072008
10.90711 97.9938 -5.66314
9.047347 97.17574 -8.045449
9.56684 98.83134 -7.198011
11.22207 99.80908 -4.751808
9.458799 102.7918 -6.194102
7.894032 103.1125 -7.093391
6.269763 102.0865 -8.215128
6.030645 100.7584 -8.67773
5.66993 104.5253 -7.155891
4.422089 104.1555 -7.463035
10.31547 98.48509 -6.453589
12.21656 104.8711 -2.129878
12.00389 104.0656 -2.892138
11.00268 105.0998 -3.90425
11.99091 108.3425 -0.2757938
11.04525 110.0875 -0.8276336
11.75107 109.593 0.3575686
11.71612 105.9653 -2.510832
9.804058 108.7264 -3.331667
8.723978 109.4445 -3.72297
9.35286 108.4175 -3.857023
7.745349 110.5366 -3.642377
11.49434 107.1157 -2.338706
4.773038 108.2351 -5.24954
9.003947 108.5073 -4.022682
7.513795 105.6502 -6.069219
4.567567 110.7674 -4.230235
5.823456 106.5228 -5.970436
5.876411 108.0885 -5.217862
5.925672 110.0581 -4.354591
6.167285 109.447 -4.583579
11.46094 114.2934 1.663545
14.90338 70.75409 -0.5968795
14.34291 70.95452 -0.9239603
11.1305 124.362 -1.012624
3.52124 105.7075 -6.639448
2.653309 115.3644 -5.057152
6.913679 126.2563 -6.015392
6.69601 126.9918 -6.419722
7.480754 125.1268 -5.330645
6.950745 123.3941 -4.656662
7.834487 123.0095 -4.138504
6.302749 123.7949 -5.0497
5.371764 132.5429 -8.865822
8.665259 140.324 -8.720699
13.69219 78.81606 -2.086421
9.446223 117.8231 -0.3548109
10.65308 116.7922 1.964282
5.430331 116.042 -3.901712
11.59913 89.20556 -5.690879
7.876267 119.9752 -2.804181
7.79215 93.26597 -9.305874
5.637537 94.31082 -9.94329
13.55839 69.87273 -2.118479
11.07238 79.90158 -8.290013
9.589225 83.39215 -8.636773
9.113785 80.42541 -9.372802
11.30309 81.70964 -7.69407
10.73927 110.5595 -1.039101
4.202034 109.0237 -4.925889
4.013922 111.2961 -4.11817
3.271514 111.598 -4.029045
5.271685 116.0407 -4.258769
4.597193 112.3922 -3.795861
7.763828 112.287 -2.929732
9.669133 112.364 -1.329731
9.157018 114.6361 -2.377304
9.216082 111.9341 -2.026746
9.170202 127.0723 -5.817579
6.665245 114.89 -3.110974
4.528551 114.464 -4.180783
8.71167 89.43278 -8.668223
19.61703 60.97982 -0.868164
13.71921 63.93695 -7.651398
13.59351 63.28986 -5.960458
13.68069 64.60747 -6.728248
13.72765 62.42372 -7.447609
20.18614 64.73424 -0.0701594
13.39992 64.30504 -5.029302
16.11057 64.77741 -1.122476
13.22479 65.73984 -3.160451
10.64306 61.8702 -11.76014
13.34486 61.44508 -2.326507
19.82606 65.04398 -1.13578
20.11105 64.81919 -0.7460707
13.70941 62.19019 -8.159367
13.23149 61.86359 -4.203955
9.560083 66.65233 -11.36899
11.70669 65.58471 -10.79816
17.97772 62.89927 -1.523401
13.60098 63.26773 -1.887701
13.32418 64.88583 -9.083076
5.412714 62.72985 -11.21492
7.857315 64.98861 -11.62097
1.352158 63.01426 -9.17177
16.82607 61.17446 -1.389119
17.61224 63.4578 -1.586946
13.44381 64.85347 -5.215945
13.55477 64.42673 -8.538255
12.94921 65.81581 -9.502135
10.37134 64.867 -11.4411
6.539594 66.50462 -11.4158
2.433865 65.82541 -9.829664
0.559935 62.17892 -8.75727
14.07471 65.19225 -1.397186
13.67779 63.52916 -8.223783
13.53052 63.30395 -5.681067
15.19122 62.39937 -1.311224
13.08677 62.65529 -10.07055
12.13121 62.92334 -11.04186
9.112048 65.83092 -11.5176
4.251076 66.0999 -10.74261
4.779293 63.61025 -10.98766
17.94268 62.42033 -1.480729
1.695696 59.24305 12.50753
8.49304 62.73008 12.61823
5.591351 61.14776 12.69679
13.82484 59.89888 11.50478
20.7597 63.91815 -0.02112943
22.37822 62.69213 0.3681811
9.561327 63.25375 12.50957
8.479095 63.78576 12.60791
16.16695 60.67405 9.165009
4.942828 60.48872 12.67365
23.46499 61.86613 3.7225
23.35706 63.14576 1.884356
21.56408 62.16799 -0.1905291
16.3966 60.9082 8.824664
13.14641 63.3262 11.58491
22.64658 64.87855 3.223757
21.89862 65.689 3.649209
15.14698 63.83435 10.07903
11.48416 63.53784 12.14658
18.495 60.64661 6.355059
17.30939 65.12888 6.379512
20.1375 65.26788 4.449077
5.497716 60.02153 12.69524
4.101665 62.05426 12.64007
9.554713 60.41381 12.5458
11.37222 62.73035 12.19784
16.88842 62.736 7.687255
20.96481 64.21125 4.397711
23.24688 62.85518 3.482694
23.36553 63.55642 2.660093
6.813029 59.8935 12.70987
9.594509 61.32486 12.53724
11.60904 64.17221 12.09237
14.32779 62.57625 10.98824
15.92844 63.66323 9.038754
15.97269 61.24451 9.344817
17.99198 63.60003 6.003058
20.57221 61.68932 5.051236
21.81305 65.00773 3.864366
13.78983 62.48953 11.32355
22.24541 61.1318 4.511213
8.744828 115.6354 9.822563
2.006333 69.56533 12.5811
0.7414321 70.66905 12.56944
12.31114 135.2055 5.532718
12.80225 134.4971 3.259279
1.003426 82.43809 12.37572
0.1758681 124.5753 13.50653
1.593796 89.08023 11.46884
10.39308 67.37302 12.27681
7.044842 65.2868 12.65492
0.4781232 96.9847 11.70959
0.3695052 101.4456 12.60966
0.9575811 101.506 12.59234
1.711769 80.99224 12.51932
0.6206612 111.0919 13.43237
1.289796 120.5411 13.29187
19.25702 74.80035 0.6329409
21.34978 67.14357 3.436144
2.070974 137.782 10.32807
1.343036 102.9516 12.86582
21.82981 68.72038 1.850339
0.6844882 135.9159 11.25442
2.649711 133.8775 12.09966
6.485443 91.18697 10.9366
4.080886 98.66515 11.58353
5.695775 148.0598 -1.737277
14.68251 93.0858 1.358326
12.81277 65.6254 11.61901
16.16343 66.29372 7.981152
19.55984 67.43715 4.077517
15.02231 90.96685 1.435912
2.470145 65.71137 12.59202
15.11549 81.58701 6.563682
12.98031 99.95245 6.966012
4.477471 64.81309 12.65003
20.48032 65.74412 0.449437
3.381453 77.31004 12.54357
17.21484 81.58572 1.185171
18.94813 76.21712 0.9174038
19.37317 75.52906 2.046018
2.900414 134.9051 11.67528
1.786287 64.41563 12.56697
21.56663 68.71935 1.113308
11.9617 135.9346 6.739486
15.83528 85.85684 1.557236
7.536021 86.87094 12.11374
10.12081 108.1225 9.697163
12.09519 114.8635 4.054072
10.91706 114.4003 6.171679
9.922801 98.93146 10.23693
11.94188 114.1861 4.806775
11.83733 132.5212 5.983748
3.447323 67.5668 12.61549
12.86232 132.7763 0.8310539
11.80713 131.4353 5.409194
4.344949 69.35975 12.61808
14.40429 90.7242 7.626503
5.561825 92.59763 11.4825
1.449862 100.2452 12.2565
11.26913 106.0728 8.779315
0.5483883 106.0704 13.24406
11.4073 113.1805 5.344253
0.5086395 118.198 13.08135
10.74163 123.8635 6.616999
4.503153 126.6771 12.80486
11.82045 135.477 6.929358
2.951251 137.8251 10.23766
1.612229 145.0721 6.451447
2.280965 142.295 8.154801
7.613737 137.0663 9.529228
10.19938 144.771 4.941995
8.073476 146.7099 -1.537329
6.087751 147.1272 0.5889601
6.302824 147.3717 -0.5349586
13.82355 66.89904 10.92718
20.72233 68.08534 3.430381
19.93917 74.0595 1.542519
2.491032 78.13425 12.55718
3.656249 71.16189 12.589
7.538202 64.75687 12.64901
16.53222 81.54613 3.609195
2.306627 82.17249 12.39992
14.96909 92.57941 2.143284
0.5002597 90.89745 10.88321
13.35961 101.4687 1.920841
14.3177 96.60397 3.064374
2.887775 101.5196 12.41468
0.9774876 99.66698 12.19119
12.76447 107.1317 3.689255
12.9339 105.3268 4.273576
11.62102 111.7456 3.72701
10.89805 111.0494 7.464831
3.209347 103.4444 12.73722
1.775292 115.3084 13.04046
11.50474 114.7286 4.116343
10.72433 117.0577 4.691411
11.03421 119.176 3.783625
10.88399 118.7912 4.510377
11.32508 124.4255 4.404228
11.18567 122.6643 4.45637
11.99067 129.9679 2.657873
1.002199 130.1189 12.97209
1.971089 129.1544 12.93977
0.192812 123.2199 13.4959
0.6973044 124.4818 13.50829
10.37612 140.6114 6.453801
2.030896 138.9564 9.701732
1.105347 136.1408 11.15815
1.902537 134.2632 11.94125
3.677938 146.5977 4.33954
11.29135 145.0139 3.788194
10.19155 145.8983 0.1970877
9.020411 145.8922 2.219506
6.777726 147.2383 -1.150626
8.958164 145.572 3.830562
7.727672 145.2299 5.078066
18.52555 65.99201 5.01153
19.70227 74.52706 1.215512
21.71169 66.54147 3.50083
19.92249 72.85741 0.6055034
20.82208 69.89636 0.4772032
21.63906 69.08083 2.170683
3.228216 78.50021 12.55986
2.545563 72.16705 12.572
7.50792 66.14194 12.63002
17.10647 81.94147 1.247234
18.22753 79.36526 1.963562
1.267879 81.36698 12.49654
13.79766 65.09034 11.10671
16.46997 65.97957 7.481843
14.94921 93.59224 3.201876
1.793637 92.31302 11.577
1.638381 88.17908 12.08483
14.3393 96.2176 2.662274
3.125515 104.6074 12.92364
12.94427 105.7683 3.744129
11.52452 112.8472 4.24837
1.21886 110.2422 13.64522
2.141839 110.6875 13.40043
1.55871 117.0576 12.95037
11.44407 113.0206 4.780966
1.544692 118.7369 13.05777
11.39198 126.1523 3.951199
1.478775 130.1539 12.96887
0.3761861 122.6988 13.46895
11.3125 140.9315 5.919765
12.49664 132.6908 2.560531
5.878176 133.0092 12.21978
11.75934 132.4899 6.611372
0.3668725 136.529 10.9808
1.122754 140.2903 9.04039
6.136597 132.3102 12.44596
4.123775 137.071 10.48545
2.941179 145.2264 6.054488
10.06964 145.723 2.774128
7.009846 146.9301 -0.5970712
8.384241 144.6915 5.766237
19.03732 75.38298 0.6255503
17.88037 79.54655 1.101576
20.08348 69.53358 3.420749
20.33225 72.28408 0.8995656
2.765124 74.03077 12.55563
3.313167 76.08073 12.54144
2.725178 67.52181 12.59913
15.96168 82.44979 4.168732
15.70134 84.00206 3.815095
15.41299 82.64204 5.389363
17.77613 76.11766 3.328773
1.088803 78.77094 12.56421
6.841827 79.9342 12.55458
3.602519 83.26431 12.26739
15.08413 67.40646 9.640967
12.10155 65.78688 11.88445
11.17258 67.82962 12.09964
10.55672 72.22797 12.12506
16.03097 65.76843 8.362556
14.39855 67.29108 10.42636
15.40334 88.24891 3.793306
15.32771 90.86403 3.56661
14.2751 95.08829 1.408188
2.455804 90.04256 10.87996
1.565701 90.82327 10.75172
5.494 93.88969 11.18808
5.747597 92.97395 11.43752
1.532807 86.91348 12.35295
14.00039 98.24093 3.689627
3.261819 97.1333 11.4242
1.868118 109.7182 13.35282
4.76812 112.3079 12.32676
10.89246 112.1818 6.702775
10.26031 113.0464 8.223863
10.55941 112.6776 7.422859
0.5358163 119.314 13.28182
4.468249 119.8591 12.8905
3.65796 132.3175 12.61467
12.23222 134.0488 5.004965
10.31994 139.7083 6.900599
10.58084 129.3875 8.899687
3.624065 137.2974 10.44072
3.065449 140.663 8.812316
4.422942 141.0249 8.500271
10.74106 132.4085 9.576517
7.544601 144.4632 6.195865
9.080678 143.0272 6.425324
7.104888 142.6177 7.054798
6.165234 141.2912 7.931509
15.87995 69.75085 7.802991
17.08691 77.95364 3.565234
18.87701 69.96493 3.896432
17.87617 68.29999 4.973841
20.31893 72.89941 2.328879
10.01983 73.63187 12.21211
15.31975 85.45853 5.24624
8.151283 89.11976 11.53268
15.02522 82.09795 6.723763
14.93605 83.12931 6.893358
14.62432 84.28255 7.896421
15.95889 85.45332 1.687966
1.392146 85.25472 12.18821
6.387116 86.88992 12.22831
12.21339 70.93815 11.60047
16.62375 69.88035 6.188958
14.27021 69.18084 10.3597
14.55721 95.40465 2.885866
4.862105 95.7905 11.02169
3.204158 96.37116 11.34853
5.836922 97.32787 11.12158
5.919911 98.51296 11.25257
3.018318 99.21952 11.86065
4.327273 101.6826 12.17868
7.018873 101.9278 11.58892
2.300913 98.061 11.74042
2.900549 106.7205 13.12011
3.605993 110.7429 13.2825
4.062326 110.5196 13.07719
5.644606 111.4951 12.18035
10.94872 121.5683 5.295728
6.285595 136.5682 10.2682
10.49376 133.6381 9.344414
8.779403 136.6639 9.192287
8.873005 135.1634 9.94391
10.14311 133.1089 10.04536
11.67659 130.5482 5.340117
11.3617 130.1032 6.66791
10.06035 132.1691 10.55236
8.319408 137.8077 8.801259
5.748406 140.1421 8.600007
4.767863 144.7146 6.291625
2.380556 145.8076 5.694028
6.180526 131.0971 12.74829
5.551697 135.4443 11.08306
6.819583 143.698 6.773849
6.092129 143.502 7.031536
16.9104 71.60357 5.26091
16.39042 70.77386 6.387259
17.45992 79.3852 2.697074
18.64457 73.36712 3.275766
19.21947 67.31194 4.271455
7.786275 66.41718 12.61334
1.328411 83.08581 12.28021
5.648572 74.92464 12.53277
10.64692 68.95748 12.17945
8.071026 69.00854 12.55796
4.187331 74.1553 12.55082
6.29524 70.25992 12.59789
3.691152 72.74608 12.57073
8.692286 73.25744 12.41483
6.506176 73.68098 12.52695
11.54388 73.0842 11.76783
8.229239 72.57436 12.46183
5.058658 75.8597 12.53233
8.724751 77.27009 12.42609
5.017527 91.84759 11.11848
6.157088 95.01614 10.8217
1.864332 104.5443 13.05132
3.482444 105.2495 12.92115
4.107329 102.9368 12.46388
4.242722 102.5788 12.36663
3.651842 108.7559 12.89356
6.624251 107.4918 11.86238
2.45421 114.3096 12.90763
8.019982 134.1872 10.97139
9.062753 132.2918 11.40612
10.28334 137.4142 7.947478
6.508206 140.3191 8.282164
7.482399 139.2199 8.46711
3.10271 142.3147 8.1184
17.81446 70.9179 4.403469
9.432102 69.03335 12.39839
6.208808 68.56751 12.62694
8.521449 74.83447 12.3992
8.102122 95.1699 10.77628
7.19786 91.98376 11.139
9.344286 94.40718 10.69041
7.419435 102.1628 11.49478
6.025208 102.3465 11.91339
4.396446 107.4927 12.76096
7.255207 114.0435 10.89523
9.743412 136.8698 8.527548
10.71619 74.35511 12.01626
3.84573 90.18571 10.86658
4.219835 89.35833 11.51867
6.191169 89.86568 11.35303
9.925917 93.06229 10.76088
8.835841 102.5891 10.96097
8.787945 104.6155 11.00382
8.939295 98.13372 10.57242
15.1444 79.36014 6.978202
6.179852 83.57828 12.25182
11.46492 88.34567 10.93587
4.831155 89.11826 11.68077
8.809788 91.76334 11.07687
8.70603 90.05199 11.3447
10.65423 92.01751 10.71033
10.23277 87.79022 11.50817
11.8196 91.44049 10.26426
9.576479 87.08398 11.68746
5.926979 103.4053 12.05957
5.141548 105.7929 12.49314
10.60368 97.94314 9.900844
13.5312 74.28735 10.47536
14.59272 75.29398 9.034749
10.88204 74.5826 11.9467
10.56964 74.26371 12.07652
8.033117 83.27876 12.26956
5.549422 85.71555 12.14995
14.57834 93.18615 6.698627
13.51596 94.1262 8.35725
14.76432 84.95698 7.495751
11.7323 100.2149 8.768694
11.19297 103.3855 9.066251
12.56392 83.74948 10.72427
11.26656 78.28776 11.6876
10.7408 76.94555 11.92822
8.246533 84.81212 12.14162
9.154451 86.25256 11.90834
12.03389 94.735 9.534445
12.20008 92.07912 9.941557
12.04217 88.90152 10.53795
14.4486 77.60832 8.839196
8.712291 77.42007 12.43569
9.062625 84.21835 12.14917
11.27484 93.53542 10.20915
14.9127 85.5037 7.023412
16.32988 72.2852 6.061638
16.44767 73.26428 5.560946
16.67387 74.62102 4.876747
13.16971 78.24672 10.3951
13.73514 76.7332 9.976599
10.34213 76.09753 12.06636
9.315569 82.82966 12.26942
8.115129 78.20998 12.49395
10.94335 79.08756 11.88651
13.90619 93.24976 8.065618
12.18652 104.4281 7.451194
10.58071 105.177 9.676772
8.677649 105.3843 11.05298
17.32851 75.94489 3.783197
16.09595 74.92351 5.851645
14.02578 79.26485 9.16065
12.77138 79.19612 10.6561
9.061162 78.81503 12.41097
8.212255 80.31396 12.5448
4.557518 78.91381 12.55875
7.217968 82.23947 12.39266
13.06758 85.87715 10.07749
15.37136 87.02148 4.744307
11.85975 106.5887 7.689391
10.56183 104.3905 9.740967
10.01038 110.3456 9.086504
8.790541 107.3571 10.81529
9.456698 109.0129 9.98827
11.12008 108.9033 8.249758
11.41726 109.5041 7.386579
11.3561 109.082 7.767293
9.586015 112.1704 9.050645
7.29198 110.4784 11.19308
10.34949 114.4987 8.838469
13.56897 81.21176 9.634434
6.04818 79.92703 12.55727
6.105778 76.61411 12.52376
15.24252 87.77219 5.640825
15.42171 89.16444 3.847698
15.3923 88.56951 4.564015
12.1141 107.8664 6.627501
10.59083 111.0102 8.016813
15.21296 90.27751 5.880433
14.21227 91.90228 7.782496
12.45233 101.9898 7.389021
12.32275 102.4695 7.522634
11.77731 103.4919 8.315049
12.07677 102.4972 7.922003
12.80877 100.2032 7.158943
13.4071 99.52949 6.113353
13.88663 98.39269 5.350747
10.0756 118.3482 7.451428
8.660678 115.804 9.741327
10.22484 114.786 6.702768
9.048438 116.7431 8.919346
9.052386 116.2198 8.816709
6.887399 114.1703 10.97083
8.835595 112.6072 10.20374
8.566497 116.888 9.512734
6.921438 117.2738 11.38064
10.49101 119.5622 6.629369
8.205525 113.9674 10.90453
10.05035 118.5757 7.349312
6.114057 118.4848 11.9143
6.545518 118.0308 11.4066
5.3895 118.2714 12.08965
8.036238 121.0376 10.86417
10.78492 122.132 6.252243
9.336782 121.5274 9.381433
8.00362 121.8927 11.06581
8.803327 122.8393 10.35734
9.362246 123.012 9.589228
7.941513 122.6153 11.2454
3.911613 118.6086 12.55068
2.770662 120.2032 13.22215
6.764215 121.6524 11.9974
2.693181 120.7074 13.18305
3.959717 122.2783 13.20799
5.076762 127.4269 12.54729
3.416783 128.2407 12.89637
4.911928 123.6299 13.06474
9.067423 124.6186 9.916349
6.893085 123.8328 12.15823
7.278609 122.44 11.7714
4.35908 128.8038 12.89402
8.952411 128.712 11.44497
6.73081 126.6103 11.87966
8.46168 130.7845 12.09002
8.770745 128.98 11.7082
6.926268 129.1205 12.55458
10.30743 129.2942 9.653248
8.666012 126.1365 10.37255
8.537527 125.3001 10.55218
10.73602 126.1923 6.478232
8.468916 124.5394 10.67487
10.85529 127.1529 5.97129
2.422993 145.1408 6.448318
11.1293 114.2158 5.885613
7.6291 134.7944 10.79817
15.82423 71.51453 7.479616
14.99434 68.87108 9.532587
15.75845 70.50452 7.88206
19.60502 71.25169 3.32547
9.014843 134.0472 10.50459
3.436697 85.76354 12.19647
14.97845 93.52209 3.914168
14.42976 93.11524 7.066744
7.329427 88.23101 11.78745
11.63564 98.71693 9.202908
11.16656 84.91243 11.5384
13.18361 96.40516 8.143808
12.80196 98.22091 8.050078
13.73801 98.40289 5.994501
11.55078 84.68154 11.33777
12.31423 85.29271 10.81013
13.13431 85.31133 10.06583
12.13946 81.36539 11.10726
12.01007 82.64989 11.17487
13.03043 86.67747 10.03076
16.00326 75.36628 5.926037
6.351065 111.5924 12.08869
10.8049 114.5029 6.239089
9.250228 129.373 11.44647
10.76884 122.9531 6.50577
16.01764 68.79641 7.71272
15.343 78.9323 6.612673
15.85002 76.83505 5.893008
10.53404 131.2416 10.07441
7.843753 131.638 12.25644
14.77954 78.15736 8.119171
-18.29774 62.48897 5.409237
-24.02867 62.71109 2.377275
-16.313 64.04737 7.558005
-18.03608 61.08964 5.693737
-23.02025 65.95155 3.212619
-22.90268 64.366 1.60457
-16.86643 63.91121 6.300979
-19.43412 65.04797 4.813988
-15.89824 63.31138 9.10773
-7.434795 61.03927 12.73036
-7.600272 60.0139 12.73464
-3.95455 60.42612 12.69787
-19.94059 60.66292 5.160495
-24.07749 62.15092 2.952945
-11.72201 63.13155 12.27829
-23.17304 64.7506 2.409571
-21.6508 64.33028 4.424137
-14.89245 63.77928 10.60718
-14.88654 64.50562 10.55475
-8.162688 63.18218 12.69058
-8.526626 63.98563 12.6692
-0.7932346 60.26408 12.52689
-2.782495 61.78996 12.64026
-22.89595 62.65296 4.290549
-20.08483 63.93384 4.76511
-16.73433 62.61969 6.932745
-17.22961 62.24396 6.160252
-11.15103 61.50127 12.42823
-8.331172 62.6245 12.68986
-6.361506 63.76128 12.72793
-7.263281 61.57181 12.73076
-1.76289 60.67852 12.57807
-5.331649 61.94902 12.73352
-20.85848 60.97894 4.965687
-16.14829 60.14516 9.355676
-17.88382 64.71731 5.352255
-18.6221 60.28608 5.506635
-13.45412 60.62068 11.86276
-9.726269 59.78257 12.63158
-5.755481 59.79884 12.75094
-16.52283 63.23914 7.135787
-5.216595 59.50366 12.74389
-0.9781815 67.97878 -8.936146
-1.633919 73.61869 -9.315315
-5.630879 144.3678 -7.618068
-4.366879 69.36272 -10.4777
-0.6500354 87.8052 -9.602722
-1.138111 84.84654 -9.455618
-0.4749832 93.73273 -10.05952
-1.252774 73.25039 -9.156857
-20.71155 66.79008 -0.7000713
-1.149196 99.79811 -9.308794
-2.878101 102.408 -8.289171
-13.9994 82.60934 -2.105017
-14.32913 93.96132 0.7165828
-21.08566 66.09772 0.4600175
-1.097355 113.5938 -4.282938
-0.3324372 116.2625 -3.906359
-3.278128 114.7096 -3.638427
-1.374192 124.4692 -5.584293
-0.8818486 127.9553 -6.746801
-1.684391 129.6392 -8.103918
-9.138881 113.1403 -1.562532
-6.073201 121.6384 -4.268846
-0.6786456 139.3232 -9.294228
-5.422025 142.9764 -8.370416
-1.668049 145.8511 -7.256162
-5.380935 147.8817 -3.781253
-4.321364 147.7069 -5.590816
-11.46909 67.21404 -9.674459
-17.98895 76.57316 0.5476841
-9.5775 136.0817 -8.416481
-1.132133 146.8824 -6.968999
-4.365601 145.9589 -6.993035
-14.11944 95.84387 1.422884
-13.62383 97.36034 0.831168
-5.093819 143.884 -7.971412
-6.880954 130.7485 -8.428874
-20.74026 67.71819 0.9537959
-12.083 96.20203 -3.839296
-3.562628 106.6591 -6.131458
-18.63524 79.22768 1.601706
-9.387981 66.9841 -10.88938
-20.72375 71.15053 1.189742
-8.112155 67.84872 -11.05581
-11.30886 123.1739 3.002185
-9.919757 146.2661 -3.329181
-11.5756 145.7097 -3.08026
-1.051465 143.4287 -8.478476
-1.180951 147.6079 -6.63167
-10.589 115.3844 3.357241
-4.836931 144.9028 -7.493266
-11.90822 144.4742 -5.347833
-0.3288271 116.1687 -4.561869
-9.00734 120.5177 -1.981089
-13.64673 133.3322 -1.339232
-12.55684 130.0964 -0.576475
-14.91351 68.40896 -2.029501
-9.401633 145.0977 -5.60273
-3.461321 144.6726 -7.724399
-4.396324 145.272 -7.401744
-6.544516 145.9239 -5.93741
-8.645 146.596 -3.032739
-0.6782846 70.04063 -8.864912
-3.340958 68.44721 -10.05213
-4.273146 71.64162 -10.42773
-16.29954 76.02806 -0.06092243
-12.306 68.01385 -8.210624
-5.8811 96.8566 -9.661923
-13.22427 103.2055 1.751378
-3.086626 101.7851 -8.607849
-4.227316 111.0677 -4.160131
-11.30477 115.5202 1.49834
-2.344843 115.1642 -4.245906
-10.66102 120.3808 1.774617
-11.81048 127.6027 0.7718564
-11.60289 126.0083 0.416748
-3.227563 132.5652 -8.937395
-1.935149 139.7334 -9.248099
-11.65521 132.9276 -6.857526
-17.16479 67.0108 -1.964946
-20.49294 73.24458 1.338884
-19.0479 70.87634 -1.026647
-20.165 67.83423 -0.9301896
-11.70955 142.4232 -7.331026
-2.826519 145.3809 -7.38618
-9.949324 144.5422 -6.115395
-8.916209 145.6676 -4.91575
-1.420283 73.44787 -9.222075
-5.618122 67.01994 -10.91675
-17.00056 83.41295 1.840655
-14.9434 87.73729 0.006951268
-3.123682 85.92194 -9.711348
-13.25887 66.12449 -4.825939
-14.89729 89.1402 -0.1018271
-15.05286 90.04679 0.9109983
-2.842677 98.70069 -9.51845
-13.37259 99.68461 1.039641
-13.42495 97.86362 0.3860442
-13.23728 100.6113 0.6734819
-1.922509 100.2486 -9.158994
-2.799447 103.9656 -7.561593
-13.03524 105.4614 2.573199
-2.894786 116.1876 -4.231086
-0.5569309 108.2898 -5.298583
-2.469846 105.1985 -6.931139
-11.20203 115.9886 0.8892781
-10.68597 117.1729 3.220649
-0.7788243 114.4943 -5.017774
-11.0417 113.0655 2.236651
-2.044433 120.264 -4.139503
-10.85442 120.4698 2.892925
-11.14554 122.7705 1.279871
-11.72122 127.6678 2.150871
-11.52007 125.4602 1.968632
-13.10164 132.8441 -4.916595
-1.454433 133.8187 -9.073609
-0.3831462 129.1433 -7.673799
-1.667243 128.3651 -6.960086
-0.09566719 136.9032 -9.271578
-3.569151 143.8313 -8.078036
-11.24288 135.2919 -7.793735
-14.57751 66.94659 -2.542088
-17.14528 75.93528 0.1170012
-17.9399 74.32102 -0.2659908
-20.27608 69.43372 0.07610924
-10.64547 143.8569 -6.606832
-1.555426 78.4537 -9.36932
-2.759015 73.38574 -9.807511
-4.46471 67.73802 -10.53407
-7.106728 68.40787 -11.05475
-15.77342 81.20045 0.4751211
-15.17948 87.3871 0.6618558
-2.494944 84.30402 -9.728406
-11.82975 67.05235 -9.147602
-12.821 67.17102 -6.756945
-13.72528 95.21313 -0.2687392
-14.08426 96.83707 2.11025
-2.198022 91.38416 -10.01687
-1.730972 92.04176 -10.06548
-12.86011 106.715 3.280071
-1.763565 96.31954 -9.829776
-12.58715 108.1408 3.039071
-1.445496 114.7639 -5.012116
-10.89833 115.1554 2.80792
-1.001743 115.9753 -4.691895
-2.974707 114.4359 -4.021641
-11.57645 111.615 2.693436
-5.014743 122.1814 -4.72542
-0.3918798 117.9349 -4.670637
-11.20585 122.273 2.949146
-11.86404 128.3878 1.678181
-12.63114 131.2264 0.6451299
-12.79999 131.0425 -3.956857
-0.7099832 133.6618 -9.057678
-4.665375 130.3413 -8.488486
-1.453259 129.6557 -8.117693
-1.803603 137.6295 -9.288471
-5.961192 138.3138 -9.251511
-6.086722 139.6221 -9.221572
-2.424205 142.9401 -8.500519
-1.9559 141.6989 -8.92219
-12.64626 139.7865 -8.237898
-11.3325 138.0879 -8.04495
-9.678566 139.3629 -8.483376
-6.9039 140.548 -9.04725
-7.449717 133.8159 -8.928211
-8.106991 140.9079 -8.739469
-6.684269 135.9648 -9.197057
-12.7218 135.8433 -7.296876
-13.37022 68.57119 -4.379707
-18.58968 71.48463 -1.053233
-10.71086 140.9979 -8.360512
-0.3604087 78.47646 -9.028971
-2.486517 78.69306 -9.716521
-4.995718 76.66878 -10.46073
-4.615259 74.90035 -10.45613
-6.443827 79.23512 -10.22912
-7.21922 79.72366 -9.994997
-8.494613 68.22774 -10.95336
-15.06899 83.8115 0.06187814
-15.57715 81.57532 0.4378636
-14.87682 81.03143 -0.3499186
-14.32348 78.53438 -1.31424
-15.28973 85.9799 0.1833798
-1.869909 81.56185 -9.513227
-4.379534 88.13601 -9.528862
-1.773163 88.67915 -9.68274
-10.75471 68.38042 -10.03158
-10.33505 69.87543 -10.05273
-12.50812 66.29175 -7.920306
-12.7542 94.3851 -2.996683
-3.323983 94.21132 -10.02674
-4.429818 90.81065 -9.958167
-12.88891 102.2301 -0.6449966
-3.635038 95.49796 -9.926627
-4.899999 101.1905 -8.789039
-4.094642 114.618 -4.592432
-2.414445 115.979 -4.078123
-4.005736 115.5992 -3.922835
-11.10778 112.1308 1.348138
-10.67778 111.9216 0.120387
-9.926865 107.9929 -3.641484
-4.457541 124.7452 -5.633375
-3.020238 116.5509 -4.15942
-10.75149 118.0754 1.650789
-9.56762 117.039 0.1597667
-12.12794 128.5463 -0.5983121
-3.697635 132.8045 -8.968751
-2.253023 135.1883 -9.192871
-5.247218 130.4224 -8.498895
-6.354929 142.4179 -8.530941
-7.839356 142.2228 -8.403254
-8.536662 139.1532 -8.781552
-3.651417 138.4524 -9.293329
-3.493758 136.0953 -9.227039
-14.35259 68.33927 -2.445697
-12.6877 69.16577 -7.097354
-17.77239 77.51054 0.7116257
-17.93592 73.40301 -0.6145958
-4.8097 73.18061 -10.54297
-5.641869 73.77301 -10.65407
-5.01031 70.54796 -10.6902
-5.144848 71.59209 -10.67189
-9.545221 74.14477 -9.798653
-9.397777 74.98649 -9.748378
-9.664875 72.90282 -9.920973
-13.85869 84.75249 -2.620429
-13.86509 85.99232 -2.57248
-12.63548 85.43141 -4.659681
-11.65491 80.09962 -6.958641
-15.30587 80.25322 -0.02356294
-15.78436 86.00999 1.059447
-3.110937 78.96989 -9.938803
-11.68906 68.95484 -9.051053
-13.76611 93.40599 -1.175243
-3.745432 87.72111 -9.541649
-3.533612 86.10484 -9.724368
-7.994109 90.10629 -9.078567
-5.553552 86.44125 -9.561417
-7.396681 90.85482 -9.40799
-12.90772 104.6353 -0.184252
-4.061427 101.3975 -8.787961
-6.801752 100.6065 -8.497122
-5.620409 103.0078 -7.931277
-4.547936 115.3302 -4.683535
-4.869692 116.0196 -3.688622
-3.550304 116.0092 -3.57608
-2.095994 114.8511 -3.361694
-3.691284 118.1534 -4.523569
-10.79657 115.4848 2.286591
-10.22708 115.4004 0.3388413
-11.67413 114.6523 1.659526
-9.746797 115.7271 -0.5414994
-9.38972 114.7527 -0.8815711
-10.50139 125.8383 -3.650448
-6.699824 130.0323 -8.136784
-9.58437 140.3851 -8.574322
-12.96933 68.90811 -6.048334
-12.89979 69.96515 -6.319454
-4.539374 69.67362 -10.54892
-13.05861 85.64612 -3.974213
-11.12886 74.8748 -8.503117
-9.649497 69.28466 -10.52592
-9.042217 69.78188 -10.65644
-8.821401 87.77142 -8.187801
-7.806292 92.31505 -9.399554
-8.706088 100.5931 -7.469049
-4.127014 113.9474 -4.102801
-2.837689 112.0906 -3.920045
-5.868824 113.5243 -3.503141
-5.412097 110.1494 -4.383397
-5.203282 115.7978 -4.498017
-10.27732 121.7326 -0.8248007
-10.97056 122.6217 0.5081748
-10.63345 121.4424 0.457247
-12.64885 130.4477 -3.486336
-12.345 129.5925 -3.225233
-12.83177 70.48757 -6.484583
-14.64622 88.15135 -0.7924486
-9.602739 88.52552 -7.790674
-7.322092 93.78008 -9.471582
-4.988559 94.48326 -10.00628
-5.79971 101.0827 -8.6939
-6.324166 103.6822 -7.461195
-4.299085 105.6643 -6.632071
-9.04221 115.9512 -0.5568711
-11.51345 125.7575 -0.7754437
-11.55954 131.8128 -6.507682
-9.877535 131.9077 -7.749862
-14.18603 73.10207 -2.076167
-13.40844 72.03717 -4.062645
-12.71606 72.36633 -6.747385
-14.63424 77.65974 -0.9460189
-13.63719 75.00738 -3.204475
-13.8366 77.08255 -2.537909
-8.086677 91.20216 -9.179006
-7.715939 96.67483 -9.009263
-9.46824 95.12064 -8.001455
-6.829254 93.04852 -9.650854
-6.503636 105.4549 -6.442004
-4.319608 106.7888 -5.98947
-8.005511 105.9272 -5.786314
-7.705338 107.6111 -4.997887
-6.055612 107.9263 -5.268277
-8.453377 107.7312 -4.698402
-6.493092 104.0695 -7.231604
-9.365171 109.0609 -3.496269
-9.997294 122.3337 -1.85647
-12.79683 133.6228 -6.152931
-9.129328 135.1867 -8.538447
-6.823295 129.4001 -7.771668
-10.63674 75.25996 -8.897468
-11.47633 73.92049 -8.350021
-13.62037 77.94843 -3.34162
-13.72067 79.64286 -3.034589
-13.49138 81.78011 -3.802756
-14.02386 74.44671 -2.255796
-5.444463 98.68048 -9.390028
-9.622635 106.6865 -4.518973
-11.57296 100.7404 -4.027257
-10.74148 135.7347 -7.995845
-7.705769 134.5391 -8.939031
-9.445157 132.9254 -8.166195
-4.712917 132.4029 -8.909187
-6.073427 129.6615 -7.982232
-9.921049 130.9438 -7.370171
-8.951729 126.5297 -5.58524
-12.82251 74.32728 -6.277306
-13.33723 76.10352 -4.518605
-12.0308 77.34197 -7.052723
-16.93451 73.5368 -0.8037491
-15.25652 69.66814 -1.711478
-14.27276 74.14911 -1.789952
-4.509729 97.32615 -9.67938
-6.807308 95.07971 -9.56408
-5.265788 95.90517 -9.850416
-8.980046 107.9836 -4.288717
-12.21046 135.1292 -7.319649
-7.6272 131.4408 -8.520041
-9.660012 129.1804 -6.799753
-13.19813 77.57405 -5.044881
-17.04779 74.49184 -0.4498738
-7.318318 97.28103 -9.074862
-9.564033 96.60046 -7.699122
-9.998985 96.62832 -7.276788
-10.45129 110.4154 -1.549495
-11.44065 109.3551 -0.7304296
-10.86615 108.2039 -2.486727
-13.11946 77.69927 -5.192758
-15.38815 72.74317 -1.038104
-17.12178 72.33768 -1.106832
-10.51478 111.2876 -0.7941533
-11.55158 103.1111 -3.785905
-18.25448 67.30994 -2.005444
-17.41677 70.62608 -1.513156
-11.83401 106.7731 -1.960261
-6.353924 146.586 -5.084838
-12.38669 99.79712 -2.27084
-12.27846 96.90579 -3.162727
-12.5875 96.96631 -2.374146
-13.21872 95.30157 -1.528863
-11.55456 98.66415 -4.32974
-12.15214 100.72 -2.834033
-12.72948 102.8581 -1.24211
-12.79242 101.0337 -1.114784
-11.23724 94.34075 -5.947176
-12.14622 93.6986 -4.421713
-10.8724 96.04852 -6.162796
-13.01885 94.00458 -2.559497
-11.0108 94.96812 -6.175005
-11.75187 91.45926 -5.463796
-11.5403 89.80092 -5.795558
-8.923563 97.68342 -8.048472
-10.59007 102.1846 -5.15217
-10.23492 100.8952 -5.949158
-12.36033 103.2015 -2.225232
-10.0013 97.30817 -7.102926
-9.3811 103.9166 -5.798944
-12.58249 103.2218 -1.653192
-8.599473 105.2159 -5.801197
-8.965304 102.4416 -6.666158
-12.79819 105.1274 -0.3184687
-10.55524 106.7492 -3.657586
-12.85584 105.6935 0.436296
-12.96051 105.5551 0.9812683
-3.225494 74.6236 -10.01737
-6.164892 77.49473 -10.42355
-3.975792 82.52409 -10.02858
-4.720407 83.68209 -9.962802
-12.03972 109.0018 0.6768093
-4.056808 121.2817 -4.565671
-3.468551 122.0242 -4.79072
-4.899816 120.2969 -4.236453
-6.85136 121.2313 -3.777041
-7.406911 122.9104 -4.269814
-9.301094 121.4813 -2.204144
-5.295023 119.2276 -3.831107
-9.669043 124.0695 -3.463647
-5.224403 126.6944 -6.404324
-2.929603 128.6586 -7.260041
-5.811962 129.4566 -7.851436
-2.901531 127.7405 -6.710657
-6.341283 128.5311 -7.212084
-3.1704 133.3874 -9.041599
-7.649565 77.07111 -10.19346
-10.60354 78.93786 -8.195198
-10.72323 75.383 -8.811039
-12.24357 78.74029 -6.529804
-11.35613 77.16634 -7.857622
-9.24744 79.45608 -9.081651
-10.81523 80.72626 -7.68174
-10.4811 78.09566 -8.465626
-9.272065 81.42892 -8.759722
-12.4204 82.89492 -5.466497
-7.337296 86.63853 -9.10337
-8.010643 86.31376 -8.906998
-8.637508 84.59662 -8.722232
-8.720218 83.30372 -8.824484
-13.63094 87.25867 -2.802778
-6.330446 83.99227 -9.751607
-12.27281 89.94804 -4.73252
-11.68135 85.24153 -5.78976
-11.90869 85.94955 -5.358292
-11.34349 85.72797 -5.990036
-10.86633 90.65686 -6.768059
-13.50716 92.87718 -2.061572
-10.57052 83.40193 -7.340316
-11.97366 90.5219 -5.173952
-13.32078 90.67415 -3.049
-13.56869 87.85651 -2.845072
-6.910886 116.0204 -3.359906
-8.674659 115.1943 -2.861894
-6.1868 115.0405 -2.497024
-9.483036 113.7789 -0.9928488
-9.3615 115.8126 -1.252062
-9.827852 110.0883 -2.518019
-8.454109 113.4117 -2.412417
-6.934526 112.2413 -3.327148
-8.414645 115.0636 -1.721495
-8.134091 115.605 -1.638892
-4.918187 114.8711 -3.372396
-10.01347 125.233 -3.850655
-11.27962 124.8229 -0.9901897
-10.7489 126.5619 -3.885297
-5.915063 70.88953 -10.82045
-13.09838 133.5279 -5.69564
-10.11224 120.4893 -0.226063
-9.311669 134.3557 -8.420712
-10.05774 112.8243 -0.4533623
-10.91727 97.51771 -5.759047
-8.78072 101.2451 -7.207557
-5.995307 81.28358 -10.10707
-7.039217 80.81496 -9.907553
-8.709579 80.25097 -9.286916
-7.425689 84.05405 -9.392705
-9.972087 82.4113 -8.099057
-14.94632 90.08039 0.3722554
-7.939995 124.8359 -5.021343
-9.72551 126.512 -5.06701
-8.083265 123.8329 -4.437999
-13.26453 86.72982 -3.452194
-8.497801 116.8205 -1.950473
-11.78702 127.1738 -0.8607564
-11.65386 126.443 -0.6953132
-10.44382 125.1827 -3.278708
-8.156816 120.6929 -2.880383
-7.214769 125.5133 -5.588367
-7.753806 90.72102 -9.261102
-0.7951091 62.17467 -8.759059
-8.340101 63.94315 -11.32625
-8.381977 62.67402 -11.40221
-11.21541 66.05463 -10.1387
-0.2673174 64.41966 -8.593299
-1.761353 66.42393 -9.266467
-11.49759 61.80644 -10.5959
-11.57606 66.32676 -9.627471
-22.53267 63.87535 0.4335836
-15.93237 61.21139 -2.698898
-19.89346 61.08601 -2.393895
-23.70534 62.35591 0.7004665
-4.030285 64.7855 -10.3657
-0.3114374 62.7292 -8.567453
-18.15061 64.81477 -2.321691
-2.868354 62.33008 -9.79845
-20.96252 65.6672 -1.229046
-8.767947 62.09033 -11.4371
-11.82536 64.60563 -9.57321
-12.49964 65.93277 -7.938955
-13.19793 65.38661 -5.127274
-14.31549 65.22834 -3.036878
-21.96002 64.19593 -0.08280603
-21.22886 64.62917 -1.339505
-3.519365 63.90357 -10.12103
-6.625043 65.81007 -11.13308
-7.462925 64.36173 -11.29368
-12.01772 62.2933 -9.579613
-12.26157 64.49086 -8.665652
-14.40006 64.79096 -3.067868
-15.10922 63.83187 -2.655422
-20.47777 65.68913 -1.767376
-5.548892 62.46128 -10.98459
-10.66257 64.71401 -10.73487
-10.28146 63.20176 -11.10875
-12.53066 62.40322 -7.954302
-14.14452 62.87463 -3.677001
-21.2833 61.15401 -1.973259
-19.41613 64.32413 -2.293092
-16.51588 61.44447 -2.570301
-17.8315 61.33979 -2.519438
-22.22394 68.37611 2.443203
-21.96505 66.59769 4.118464
-2.746685 66.42088 12.63333
-0.2051906 72.40111 12.56492
-10.91706 145.5784 2.652116
-12.61768 134.9528 4.952289
-12.2221 130.3377 1.704432
-14.22048 65.40094 11.04891
-9.513178 66.27605 12.55457
-15.64168 86.62595 2.688929
-1.248412 100.3528 12.3285
-13.57355 99.95619 5.041883
-11.25919 112.6698 4.987945
-17.44894 80.27463 3.185011
-13.28044 102.9526 2.793848
-12.11106 130.502 2.463987
-2.464637 142.7485 7.935269
-12.98077 133.0407 1.220475
-11.55416 126.4748 3.067799
-12.44233 131.886 2.400224
-5.102226 67.24921 12.67829
-10.90173 122.8078 5.977659
-8.960401 146.4652 -2.449068
-1.004854 145.2826 6.237594
-17.44205 70.27322 4.89383
-11.05449 144.9716 3.982198
-11.77511 110.9597 4.365426
-7.299356 64.82271 12.70556
-4.626287 65.05081 12.69607
0.03657651 64.58764 12.55151
0.3203477 64.58436 12.54615
-1.703208 68.737 12.59586
-1.21044 141.0689 8.690063
-6.23176 134.4589 11.41968
-1.705331 129.1349 12.95945
-0.3793731 87.4411 12.29222
-3.653958 93.11397 11.51661
-11.19355 122.2981 3.723741
-3.482011 100.2493 12.01972
-7.601104 92.60414 10.98254
-12.00491 129.5207 2.101164
-12.73745 134.2914 3.739927
0.1133442 114.6088 13.07289
-1.348651 116.236 12.88566
-0.05523725 123.4571 13.50187
-5.779783 147.9869 -2.167027
-16.09348 66.13046 7.539632
-6.129714 147.7724 -0.8234587
-1.712283 123.596 13.49191
-2.494383 101.0705 12.36568
-0.3608564 133.339 12.30095
-10.39539 108.1636 9.465088
-2.453426 133.252 12.32964
-10.12618 90.3679 11.05181
-0.2822531 146.2949 5.48271
-10.58309 83.77491 11.84953
-1.132383 118.151 13.11427
-1.751295 82.52528 12.39405
-2.087035 147.2211 4.757688
-3.857327 145.5466 5.641538
-4.629025 147.2574 3.190608
-3.968492 144.4379 6.818912
-4.983361 143.7476 7.113648
-2.962206 142.8816 7.860126
-21.37219 69.40729 3.568068
-21.70838 69.80538 3.038363
-21.46979 70.89613 2.125316
-17.71964 67.15527 5.156555
-0.673659 78.90392 12.55907
-15.76401 85.77219 3.175746
-1.226163 84.94005 12.1676
-2.835941 93.11225 11.42495
-13.488 99.56017 5.818898
-12.37635 108.7962 4.385924
-4.542876 105.3433 12.66281
-2.236276 110.8094 13.6857
-10.97985 122.4721 5.546662
-12.46684 131.5787 1.90395
-11.85511 130.366 3.685554
-11.40861 127.2366 3.953046
-2.93361 125.0193 13.42874
-0.2542992 140.2205 9.063846
-5.647689 132.7737 12.32548
-9.294962 146.1454 -1.161188
-8.917238 68.50739 12.56
-3.167943 65.53967 12.65048
-1.496236 66.70306 12.59604
-1.77697 70.9042 12.58413
-6.343275 146.4795 1.874297
-4.806832 145.8547 4.450494
-21.34055 70.24236 3.206311
-19.88824 74.53954 2.865212
-16.09218 65.66394 7.741364
-15.88933 68.94199 7.255679
-1.167198 73.72485 12.55867
-15.48624 85.95224 4.324469
-0.2200937 91.39932 11.08288
-0.8344675 97.54752 11.79058
-1.68009 100.3291 12.2941
-13.80564 98.69021 2.569534
-12.95372 105.6146 3.928367
-10.45057 113.2913 7.190675
-1.826786 101.3052 12.49654
-0.1097823 109.9153 13.71816
-1.122352 109.0128 12.99545
-0.3903726 109.9786 13.6813
-0.4675649 121.049 13.30096
-10.99741 115.3655 4.331161
-11.53684 128.3477 3.620044
-11.95076 132.2623 5.376372
-11.39825 124.4649 3.685989
-11.00941 122.0563 5.285516
-2.215592 121.1535 13.27712
-1.40221 121.8567 13.38319
-3.578052 128.3525 12.90943
-0.07248481 141.0484 8.690382
-0.1101995 134.5421 11.82801
-1.621491 134.4011 11.87574
-2.8471 135.6443 11.34391
-4.748747 131.8504 12.70723
-11.34028 145.845 -0.9868007
-8.032111 65.8821 12.66467
-1.239021 71.73405 12.57401
-6.714189 65.57246 12.70205
-1.801512 71.73151 12.57729
-2.442301 144.6948 6.778523
-6.539409 138.4684 9.183228
-19.86417 75.31589 2.20427
-20.23179 73.45931 3.046206
-15.9899 66.29048 7.883366
-18.37349 69.17699 4.749122
-14.59726 65.17496 10.74499
-1.347611 78.1347 12.54989
-1.780297 82.84972 12.35327
-15.54543 85.95123 4.023379
-17.02157 82.40559 3.107873
-0.4992388 93.35474 11.40533
-0.8648247 92.04098 11.41647
-1.939567 94.60931 11.29056
-14.58726 94.04208 6.358867
-12.85444 101.0734 6.578231
-12.13729 109.688 4.388926
-0.6369419 112.4508 12.85623
-0.6164294 120.2843 13.32251
-2.883096 115.9148 12.57763
-11.40833 113.528 4.885292
-9.796478 115.8558 7.786584
-10.9522 120.1246 4.231629
-0.8280162 120.7016 13.29131
-0.1398799 129.8407 12.97194
-1.467544 135.8399 11.27285
-0.9563237 141.6308 8.439376
-2.874696 139.5343 9.367664
-1.449942 131.1025 12.89484
-5.399812 136.1931 10.6853
-11.60023 143.8465 5.7302
-11.80999 139.877 6.25921
-9.72031 68.00876 12.47267
-0.274723 73.21114 12.56025
-3.220105 67.84151 12.63672
-5.127263 65.09278 12.7053
-0.668458 67.92913 12.57955
-18.48807 74.57922 3.773245
-16.69431 78.67219 4.059565
-15.7694 66.49004 8.54024
-16.26731 69.84765 5.757856
-15.39823 67.2188 9.30102
-2.549254 80.50872 12.5499
-2.620612 81.70974 12.48876
-5.721706 81.39819 12.51047
-4.59804 82.28878 12.45114
-2.960629 83.94357 12.2308
-4.756046 81.79474 12.49116
-1.965958 74.73699 12.55068
-4.046732 77.4831 12.52754
-16.49997 82.66463 3.8042
-15.08462 85.06189 6.534805
-13.40175 85.10622 9.778634
-15.33045 86.4841 5.228552
-15.34814 89.45216 5.034593
-15.09338 89.57346 6.376931
-13.43296 92.96708 8.71309
-15.05083 90.65203 6.290892
-14.13029 93.47043 7.549393
-15.27084 91.495 4.916947
-1.448722 84.26226 12.15841
-1.40737 97.49915 11.73209
-14.3988 96.50346 4.105557
-2.149409 100.5155 12.27906
-13.06531 104.4546 3.856072
-13.07271 101.6384 5.597109
-13.79101 99.08486 4.685928
-8.13688 109.047 10.88143
-4.528466 104.5334 12.58556
-3.508027 111.7292 12.79676
-11.67319 114.74 6.551713
-10.28484 115.5967 6.583355
-10.45091 117.2053 4.317847
-0.4258078 121.7877 13.35954
-2.43188 127.7202 13.0628
-4.499034 126.3058 12.86607
-4.655406 125.1432 13.05424
-6.465465 122.6758 12.33574
-4.416202 138.0437 9.933921
-2.871115 136.1293 11.1109
-2.878213 142.4547 8.083859
-2.185644 141.9633 8.315197
-3.608982 130.6373 12.95295
-11.60214 144.1232 5.294971
-8.348301 143.663 6.575934
-10.54156 139.9127 6.75433
-10.46228 137.37 7.925417
-9.940425 136.8127 8.487164
-11.88229 132.8305 6.559526
-11.94536 134.122 6.673262
-11.6873 131.9291 6.21701
-6.337988 142.8791 7.168977
-1.730784 72.64602 12.56888
-2.507182 69.70646 12.60421
-7.054043 67.45983 12.67331
-1.215578 70.12408 12.5823
-17.66439 73.28519 4.343198
-17.04932 71.35635 4.968389
-17.42806 69.7122 4.997695
-15.56367 70.14408 7.952872
0.1078014 82.19972 12.4165
-12.26316 81.74134 11.01819
-15.49715 82.98089 5.475839
-14.83516 82.92424 7.209083
-14.90053 84.16754 7.058153
-15.36037 90.50418 3.672385
-15.03188 93.01288 5.436656
-14.91851 92.77962 2.11974
-3.440025 89.436 11.30998
0.2738622 85.0211 12.16642
-12.43779 106.2329 6.283964
-3.71157 102.658 12.50038
-9.446043 114.04 9.600267
-8.662486 118.639 9.516373
-4.272745 125.6418 13.06715
-8.609587 134.6195 10.41897
-8.174688 133.3327 11.37389
-11.52284 133.5148 7.886027
-6.864366 141.8352 7.421776
-11.55917 65.82817 12.22466
-4.427798 69.93745 12.63237
