# .PCD v0.7 - Point Cloud Data file format
VERSION 0.7
FIELDS x y z
SIZE 4 4 4
TYPE F F F
COUNT 1 1 1
WIDTH 1663
HEIGHT 1
VIEWPOINT 0 0 0 1 0 0 0
POINTS 1663
DATA ascii
-5.789272 142.0052 -8.762137
-7.704437 145.5001 -6.058005
10.80338 114.2017 4.027914
11.43927 137.1898 -7.987659
-11.9281 135.0806 -7.464957
-10.75581 141.7955 -7.859819
-3.637777 124.762 -5.749452
9.021667 120.1933 -1.660868
6.938698 119.9945 -3.268121
8.630961 122.6848 -3.512856
8.167952 125.2568 -5.172866
6.196984 127.306 -6.644288
8.228233 128.3745 -6.898921
8.279432 127.5187 -6.467781
8.590228 130.3657 -7.91635
6.930894 131.0874 -8.52938
7.827569 132.2329 -8.671019
9.653748 135.0512 -8.35496
5.820475 135.1512 -9.186234
8.869751 130.6883 -7.933233
8.44556 137.3779 -8.793562
7.48271 136.4138 -9.04361
8.595654 139.7935 -8.747005
-9.043605 116.2196 -0.5524049
-10.40813 116.5954 3.204128
-5.835656 121.6798 -4.346947
-7.919412 119.3235 -2.373713
-8.424562 120.0053 -2.269975
-10.9342 123.501 -0.6154034
-5.695748 127.2636 -6.625341
-6.532018 132.6944 -8.927142
-10.82871 126.9569 -4.199381
-9.437801 123.8139 -3.582383
-10.61572 132.1955 -7.409844
-5.162652 132.461 -8.727186
-8.241189 131.1899 -8.325515
-6.982439 136.4953 -9.176857
-6.99727 138.5218 -9.21219
11.43687 125.884 -1.475151
-11.04756 133.6944 -7.535816
8.245579 125.9693 -5.525309
10.46098 126.1316 -4.138651
11.99928 132.4323 -6.30413
10.71718 132.388 -7.403183
-9.558422 119.3446 -0.5998728
14.13686 89.42107 -1.948283
14.05747 84.54813 -1.782544
-13.34149 96.58308 -0.5547581
-10.90761 95.82053 -6.191693
-5.706266 115.7526 -3.165511
4.706235 116.2882 -3.504482
4.19381 118.812 -3.96112
3.371582 119.3114 -4.09325
7.539568 145.1526 -6.248868
9.369625 144.3184 -6.577801
1.834644 130.7606 -8.009212
-2.85939 132.2294 -8.4155
-3.009426 132.4526 -8.472833
-3.431103 135.3297 -8.907772
2.347419 121.3617 -4.64226
-1.902345 120.3467 -4.319042
-1.915764 122.2933 -4.911557
-2.125103 128.9266 -7.363396
-0.6367455 126.8174 -6.535992
1.693651 129.5089 -7.58703
1.954102 124.6474 -5.72332
1.578544 125.7914 -6.14954
-2.156967 124.372 -5.619892
1.085279 125.4076 -6.006545
3.312444 145.1648 -7.506697
1.631911 142.6965 -8.198509
-1.865998 141.2666 -8.53391
4.237753 140.5703 -9.217124
-2.556547 135.4468 -8.828317
6.354235 144.2724 -7.47828
-14.86219 85.45107 -0.003770178
-12.21325 81.568 -3.506763
-10.65768 80.01399 -4.239124
-1.876706 144.5104 -7.651769
-6.001049 140.8939 -9.150071
-5.817611 143.306 -8.108961
-7.2924 140.3231 -9.057879
-1.368543 144.7581 -7.551881
-4.376783 144.8743 -7.527531
-6.184442 142.2428 -8.655984
-8.068879 141.2128 -8.639409
-8.375453 143.2565 -7.721175
-8.060734 142.1458 -8.365553
-8.91586 144.9491 -5.946554
10.06821 116.6853 1.577043
11.87006 134.0893 -7.15493
10.61601 140.8324 -8.132528
-10.38569 115.0756 1.942478
-10.5108 138.8987 -8.277271
-10.85031 139.9262 -8.156677
9.217234 117.9623 -0.5220406
8.994993 119.3589 -1.351307
10.66149 122.5692 -0.5667608
9.760939 121.6896 -1.724307
9.012874 121.3851 -2.516954
9.338356 127.4009 -5.978602
6.98349 139.166 -9.181252
-10.3203 117.1073 2.462468
-7.209175 124.3172 -4.998675
-10.67909 121.862 0.1075328
-7.022294 122.7276 -4.327628
-9.545427 131.5197 -7.840318
-7.886408 130.8965 -8.3206
-11.00628 128.6721 -5.30599
-10.0649 127.4746 -5.475352
-7.760742 132.4791 -8.730027
9.427258 125.5039 -4.661889
9.711825 127.7841 -5.903717
11.53046 128.4756 -4.203014
-11.10959 132.8973 -7.300511
8.564365 125.5545 -5.162535
11.74041 131.9464 -6.33587
13.90894 93.79953 -0.6372938
15.19676 84.95394 1.451272
13.25513 81.80527 -2.348668
9.463914 79.90883 -4.73321
-10.03988 102.6841 -5.666453
11.88341 106.3245 -2.162581
10.95424 113.4966 2.614223
11.1846 112.3539 1.983162
10.50673 114.0657 1.507442
11.51948 110.8272 1.063438
12.76576 107.2116 2.356922
12.69856 107.6374 2.680655
3.580805 115.8668 -3.582966
-2.952968 119.63 -4.150171
0.7940845 119.7666 -4.184129
-0.9937986 119.7402 -4.177127
1.700034 118.1677 -3.824099
7.703854 145.7357 -5.322004
7.634233 144.0641 -7.325482
1.423559 129.7814 -7.678947
-0.06756793 133.6098 -8.564695
2.643633 134.4108 -8.75365
-1.022633 132.5364 -8.406682
-0.06033073 130.5263 -7.911357
0.0129565 121.6787 -4.72539
-0.1216603 122.2669 -4.906284
-1.262535 123.3954 -5.276588
-2.448426 121.1477 -4.555475
-1.527204 127.4362 -6.775379
0.2991992 128.6119 -7.236855
3.280483 144.9427 -7.583071
3.802959 138.6165 -9.181699
3.932872 138.3225 -9.204871
2.637149 138.7091 -8.932302
-2.913822 138.1111 -8.985388
-2.805891 140.0756 -8.900886
5.485469 144.6083 -7.450729
5.438218 142.5695 -8.569531
5.095351 142.3677 -8.654339
-5.996836 78.50841 -4.835146
-14.36052 91.88262 -0.6085778
-14.51302 84.52082 -0.7362738
-12.8138 81.66685 -2.897336
-11.56971 111.7374 3.152944
-11.64977 111.3642 2.788713
-12.29909 107.5677 -0.1572184
-2.987063 144.296 -7.787037
-8.976815 143.6183 -7.283021
-9.29493 144.4433 -6.427349
10.31394 114.3009 1.166685
7.262539 114.5186 -2.510556
11.2692 133.2386 -7.262865
10.33497 133.9353 -7.985296
9.16002 139.565 -8.608717
-9.457613 114.8039 -0.2175674
-10.28692 135.8339 -8.209911
-8.566157 138.9855 -8.775139
-7.649392 137.4827 -9.027176
-7.11394 137.1049 -9.154852
-7.863394 136.4397 -8.945912
-10.02792 135.8429 -8.291549
-8.769346 135.4904 -8.675295
-9.42507 139.9823 -8.530436
9.900861 121.7645 -1.527538
7.941888 138.5216 -8.954381
7.995808 140.6084 -8.80527
6.491245 141.7774 -8.795893
7.698157 142.6408 -8.19521
7.89549 136.3736 -8.928834
10.63751 137.3638 -8.193136
6.347241 137.1924 -9.234721
-8.2406 122.5388 -3.714603
-9.679873 122.5597 -2.517893
-7.242737 120.2827 -3.209531
-6.433825 124.8289 -5.478505
-6.188327 129.9793 -7.986959
9.631914 127.1778 -5.640333
9.35009 130.1328 -7.45698
9.779313 130.671 -7.416101
10.76222 129.1358 -5.774442
8.277849 128.7886 -7.191582
14.28865 93.40829 0.07490988
14.55266 92.55485 0.3213138
14.747 88.18991 -0.537924
13.72655 88.49226 -2.660169
14.09213 88.56523 -2.032117
13.34435 90.57175 -3.080988
13.90068 90.45198 -2.1684
14.05881 92.25774 -1.109438
12.70295 92.89183 -3.671793
10.41175 99.4343 -6.106906
10.7105 94.72862 -6.683731
13.21793 94.3315 -2.022854
14.7186 84.06823 -0.07671019
14.36935 88.42713 -1.5456
11.24233 80.52734 -3.982409
7.210473 77.34599 -4.577867
3.046125 78.2496 -4.739707
-12.46689 94.65549 -3.530205
-13.79188 94.45809 -0.5195026
12.81718 101.335 -1.107633
12.61513 107.2233 0.9362586
-12.86222 106.4991 1.670671
11.26587 110.874 0.2670611
12.25278 108.0076 0.2505377
12.55073 106.2768 -0.4916837
12.0795 108.31 -0.06783
9.817539 108.9469 -3.21259
11.00032 108.8413 -1.911404
10.00063 108.0747 -3.548661
8.644495 109.1929 -3.915114
-2.042406 113.8148 -3.526255
11.3258 110.9002 0.4887478
8.098302 109.9796 -3.844487
11.07029 112.22 1.291513
10.53386 112.8134 0.3859474
-1.569074 116.8981 -3.679912
4.263822 116.472 -3.574944
-2.293989 118.6484 -3.918929
-0.6009141 117.9139 -3.799772
8.70299 143.2166 -7.696887
0.4072334 135.5695 -8.723282
2.645235 131.9267 -8.353003
0.02564488 135.8916 -8.733874
0.7344224 122.013 -4.82939
0.6708322 126.3858 -6.371363
1.31666 143.4632 -7.943351
-2.45725 139.0078 -8.864132
-1.647002 142.0299 -8.3383
-0.6574154 140.5139 -8.497946
1.089641 140.9939 -8.485042
-1.034023 139.4232 -8.650954
5.824089 142.6295 -8.506468
2.079819 78.88689 -5.008265
-5.568604 78.11897 -4.725499
-14.11453 85.16106 -1.859811
-14.12114 85.82224 -1.951156
-14.76818 90.60577 0.01294516
-14.35645 91.06972 -0.9108229
-14.51352 92.25114 -0.01176757
-13.80231 86.07574 -2.411557
-14.07037 85.95818 -2.049863
-9.024026 85.29089 -6.61959
-11.50509 80.9361 -3.888637
-11.37416 112.1721 2.688803
-11.6952 109.7804 0.4405715
-12.96113 105.9995 1.978085
-8.999989 141.6843 -8.345395
9.524165 114.5108 -0.3045477
10.28679 134.9492 -8.149157
8.213955 135.0609 -8.817386
-10.98689 113.2979 2.528323
-7.452333 139.7298 -9.04392
9.57507 142.14 -8.058809
-10.06692 114.8906 0.887215
-6.728865 114.6406 -2.768034
-6.67593 114.3602 -2.850456
-7.299993 113.838 -2.684349
-9.751771 113.9948 -0.2082871
-4.458069 112.7457 -3.642592
-7.824054 121.308 -3.319652
-8.528983 130.5107 -8.062776
13.57853 94.11981 -1.266998
13.18714 94.7871 -1.891486
13.3349 88.78299 -3.218256
12.72125 94.05459 -3.204269
14.69119 85.40237 -0.4775321
15.17054 88.34664 0.9758157
13.93584 87.07226 -2.28868
12.93291 87.3317 -3.680091
13.07523 81.83775 -2.59893
14.82344 83.06773 0.4617528
7.609153 79.67859 -5.115272
9.126525 78.4279 -4.45839
4.573288 78.09332 -4.702982
2.831495 77.728 -4.595876
3.163124 78.50674 -4.813396
6.344017 79.96971 -5.314837
-13.41216 96.25119 -0.549419
-12.62866 96.91046 -2.308123
-14.34167 92.5895 -0.2818469
13.13147 103.2387 0.5445321
13.29013 100.635 0.9087297
13.31452 97.23285 -0.2680327
13.22304 102.9225 1.325618
13.17016 102.2199 0.910958
13.15555 103.3439 0.7237224
12.37545 102.2095 -2.304681
12.71641 104.7174 -1.087323
12.79578 104.0554 -0.9864461
12.13089 101.0284 -2.881296
12.40815 100.4175 -2.249529
11.77894 100.1833 -3.714411
12.88907 106.3675 1.770668
-12.39491 103.3268 -2.216652
11.59773 103.401 -3.671154
-3.0533 116.9885 -3.705554
3.808034 114.663 -3.538368
1.802186 114.4994 -3.611805
3.941035 115.9687 -3.562282
0.1090877 116.9073 -3.658756
-0.2486104 132.7685 -8.444996
-0.00452907 134.4423 -8.645926
-0.2818399 135.0365 -8.700049
2.742473 122.9472 -5.107914
-0.1530698 142.3641 -8.126442
-0.7526689 137.2821 -8.740101
-2.992688 142.2546 -8.513678
-0.1730403 76.62782 -4.372442
-3.199316 76.92414 -4.423958
-1.687326 77.86764 -4.621885
-0.5746217 77.80399 -4.586169
-0.3136698 78.77267 -4.959121
-14.64641 87.96192 -0.7809938
-13.65507 92.09344 -2.186854
-14.14342 90.32637 -1.668851
-12.83009 88.02654 -3.860591
-12.82987 88.54196 -3.899155
-13.99438 92.5322 -1.15634
-14.35169 93.25345 0.248309
-10.44665 80.43639 -4.486398
-8.804214 80.7841 -5.16236
-9.480163 81.0323 -5.039538
-11.82168 107.7857 -1.185629
-11.87392 107.9759 -0.8618672
-12.86842 105.1401 -0.04434154
8.738574 114.2226 -1.417294
8.494268 113.083 -2.148082
-10.64986 135.9358 -8.105152
-8.680286 114.91 -1.191039
12.76838 97.13126 -1.85621
11.72035 95.78855 -4.764675
12.95152 96.21492 -1.806592
14.50199 84.44184 -0.7499421
13.702 83.85084 -2.184315
13.20153 85.55271 -3.156769
10.54269 85.9226 -6.090566
12.98767 86.18128 -3.505309
12.2171 86.90844 -4.588506
9.509827 81.12294 -5.063003
4.926628 79.69473 -5.285726
-12.12128 97.33759 -3.429852
-13.28859 98.70322 0.2131155
-13.10051 101.2818 0.0892983
-12.87188 103.2405 -0.7603332
-12.29544 100.4054 -2.531438
-12.77833 102.3692 -1.138661
12.15462 95.74174 -3.879147
12.0225 99.49783 -3.278079
13.32187 100.3543 1.033807
12.17367 94.72582 -4.151933
11.87897 93.67528 -4.970824
11.08096 93.8748 -6.211555
11.5463 92.42222 -5.750858
-12.62515 104.209 -1.479241
-12.41817 104.9447 -1.712269
-11.28398 103.3753 -4.157923
13.06826 104.1634 0.3170659
12.63155 105.3887 -0.9417704
9.099121 109.0002 -3.739909
11.10754 105.3504 -3.702119
11.61192 105.4278 -3.055943
11.54173 108.2049 -1.458542
1.393733 115.5062 -3.560435
1.126357 116.2082 -3.580709
0.758149 116.9066 -3.651995
8.896918 144.0548 -6.967265
6.277166 142.4176 -8.575488
2.352412 142.0145 -8.48423
-6.42569 78.45738 -4.825338
2.182364 76.44117 -4.350353
-8.028176 80.49311 -5.246181
-5.25576 79.97003 -5.341003
-10.43167 82.63984 -5.068317
-12.55172 106.6204 -0.298631
-12.77485 105.4094 -0.282847
-0.9000547 108.1054 -5.448342
-11.21681 108.1364 -2.023545
-10.9268 106.4117 -3.457334
-11.50257 103.5984 -3.826377
8.422737 114.1683 -1.763047
10.11707 112.6229 -0.5539479
-10.39902 113.5442 0.7220924
12.8203 83.76018 -3.341377
12.08127 83.63961 -4.047313
10.64378 85.24643 -5.716477
10.10906 82.75243 -5.208776
12.30326 85.92616 -4.380546
11.20216 84.15015 -4.842851
7.130467 82.40137 -5.796645
8.449785 84.87681 -6.72773
5.815529 86.03577 -7.925405
9.226443 84.20432 -5.988062
7.940431 82.69151 -5.777757
7.6231 83.79239 -6.300519
4.534058 83.29401 -6.096944
5.606773 80.93696 -5.543452
4.396057 85.72685 -7.688463
0.8878829 81.94747 -5.408733
3.783142 84.01276 -6.462563
12.31622 88.13815 -4.578004
9.829922 87.27752 -7.090975
8.990668 81.92905 -5.363057
12.26134 82.51083 -3.687465
6.606459 81.58987 -5.632347
5.076751 80.33363 -5.510508
5.236968 82.80635 -5.952715
-12.23119 95.85987 -3.662754
-12.14562 94.12182 -4.369135
-13.24611 94.46024 -1.871337
-13.63195 94.03464 -1.172286
-12.15773 92.65404 -4.665472
-11.89952 95.73565 -4.392566
-11.81748 94.14714 -4.964067
-11.12699 95.76036 -5.858768
-10.13826 96.91555 -6.972723
-11.27488 89.88061 -6.2081
-12.3597 99.68898 -2.379717
11.87492 95.98064 -4.385544
10.57575 97.62524 -6.299042
10.50708 99.2401 -6.004661
10.59541 95.90543 -6.643875
11.67272 97.80184 -4.315123
10.85416 95.06982 -6.422182
10.65824 97.93233 -6.102194
11.29329 101.4834 -4.45785
9.601548 101.351 -6.462144
-13.12768 104.6198 1.044958
9.787113 106.858 -4.294682
11.30293 104.385 -3.877884
-0.1841518 116.1086 -3.583293
-7.715119 79.4661 -5.118283
-4.360129 81.96563 -5.468354
-6.901782 81.91994 -5.684858
-12.87356 85.04501 -3.492511
-11.40881 109.18 -0.8980489
-10.37892 112.302 -0.3282921
-11.34018 110.8565 0.558759
-9.717443 110.9077 -2.149041
-10.4422 105.97 -4.156013
-12.10383 102.1967 -2.952162
10.04427 113.115 -0.3297166
0.9123436 113.4039 -3.626186
5.839681 113.4685 -3.342483
1.644214 112.8514 -3.722582
11.75509 85.80483 -4.971461
4.785908 86.73878 -8.44935
4.98783 85.90118 -7.832465
3.26922 85.00839 -7.13586
1.092803 85.36109 -7.41501
-0.6105639 85.45116 -7.480926
4.820451 87.94939 -9.128248
4.927779 89.00494 -9.568959
4.013939 84.29562 -6.626802
1.236832 85.96573 -7.864872
7.598829 90.1562 -9.27667
1.630352 86.42435 -8.201356
3.095876 91.86498 -10.06127
2.568089 88.7754 -9.440001
9.5877 86.66451 -6.931464
10.57932 88.9063 -6.963816
1.910776 81.87596 -5.417026
2.175993 83.4028 -6.189099
2.035709 84.00407 -6.475363
1.564703 83.61817 -6.317569
2.238863 81.21744 -5.46806
-12.76728 91.59611 -3.816917
-12.1181 99.97198 -2.985865
9.470191 94.64535 -8.091768
11.2406 102.3737 -4.382563
10.3463 107.8595 -3.31537
9.807765 105.696 -4.803563
-4.095723 79.70753 -5.283421
-8.32404 81.70285 -5.478918
-9.963053 112.1435 -1.12943
-8.177172 111.0501 -3.255619
-7.827051 112.336 -2.902155
-10.16119 104.419 -5.02349
-8.236433 103.4911 -6.790436
-8.655758 101.6689 -7.158941
-8.535381 109.7771 -3.684332
-8.420285 104.9011 -6.035104
-10.01348 106.5512 -4.286087
-10.25345 109.2682 -2.592243
-8.907245 108.7716 -3.962133
-10.39342 107.8014 -3.259056
-10.73572 107.0455 -3.367905
-11.47671 102.4753 -3.973495
5.065332 113.6141 -3.471652
8.192248 87.02756 -7.876
2.728741 90.68575 -9.946144
12.47414 91.53174 -4.336694
3.05434 84.63741 -6.846536
1.059975 86.8327 -8.464141
-0.04475649 86.71598 -8.388268
-0.3705872 86.34135 -8.140444
-2.368587 85.24754 -7.317845
-1.405215 86.85522 -8.486589
-0.6923403 89.2353 -9.585186
0.6261995 88.66541 -9.383979
3.897268 85.0834 -7.191822
2.951151 80.97015 -5.524822
-12.89921 92.10157 -3.507073
-11.45935 97.42591 -4.832164
10.46952 93.91693 -7.092774
9.056105 93.77796 -8.522263
9.304172 92.18008 -8.40403
9.674727 90.86086 -8.085409
10.03317 95.04407 -7.504858
0.2185489 80.15499 -5.516541
0.5027967 79.65588 -5.383384
-10.46657 82.21718 -4.941817
-12.57393 82.58624 -3.369066
-12.75689 82.16463 -3.091042
-8.899937 83.1543 -5.639721
-6.340107 82.86026 -5.915018
-4.647773 93.05596 -10.10594
8.514283 88.63081 -8.467219
3.411059 89.74155 -9.771133
11.30588 89.91031 -6.219338
-2.570597 89.28522 -9.627265
-4.113188 84.8311 -6.975373
-1.482187 81.75479 -5.405337
-7.033762 85.19486 -7.240955
-1.69096 81.27286 -5.406709
-12.49662 92.83288 -4.028187
-11.74016 98.79174 -3.956645
-9.811252 98.35111 -7.166707
6.509323 89.77521 -9.589775
10.12864 88.72269 -7.430838
2.612624 94.79762 -9.97999
7.360622 93.48222 -9.506697
-0.6771696 80.33122 -5.54739
-10.28737 83.40696 -5.266546
-9.905895 101.1374 -6.287375
-8.394147 102.3614 -7.101956
0.3196145 88.95959 -9.49111
-4.376992 86.99077 -8.580154
-11.82755 92.59267 -5.263056
-11.69581 91.94541 -5.546487
-10.19501 98.35817 -6.654418
8.161108 88.7934 -8.718628
6.307135 94.80515 -9.803369
9.86336 95.8829 -7.578232
-6.806896 83.03733 -5.975049
-5.276324 83.07336 -5.979609
-8.030198 99.99512 -8.133366
-7.883465 102.8135 -7.262787
-11.14709 101.1977 -4.749217
-12.1852 83.90437 -4.00303
-8.477334 85.03915 -6.765822
-11.52709 92.17944 -5.780544
8.116243 89.78333 -9.009906
5.413341 91.05843 -9.966283
6.254986 92.66327 -9.893178
5.931989 93.00935 -9.96972
-10.35181 98.63947 -6.359756
-8.16536 98.45476 -8.457727
-8.7329 97.45601 -8.280754
-7.94763 100.7045 -7.930899
-11.27982 101.6429 -4.439155
-10.7875 100.0497 -5.426565
-11.3875 86.1584 -5.457414
-12.69161 84.48508 -3.589058
-9.149025 87.0891 -7.360294
-3.243743 80.15999 -5.485831
-2.764224 83.81546 -6.435562
-2.871984 82.29317 -5.59769
-2.869113 84.11434 -6.526163
-0.06253359 83.28337 -6.052868
-2.290936 81.33841 -5.371515
-1.70329 83.83678 -6.451601
-2.064233 81.84597 -5.447384
-10.18242 100.2475 -6.199279
-10.05515 86.19693 -6.445433
-10.41098 88.12015 -6.962459
-12.24084 85.68202 -4.399249
-13.24354 87.09369 -3.23545
-12.28678 85.9332 -4.383683
-12.22972 84.84681 -4.186754
-4.428534 79.22179 -5.07347
8.135425 98.51772 -8.454919
-6.818949 87.84012 -8.762172
-10.99492 84.79206 -5.210469
-8.918516 86.74054 -7.316875
-10.21675 88.12168 -7.159594
-12.39873 90.84041 -4.514378
-11.64341 90.68842 -5.698424
-8.639733 88.48371 -8.312229
-9.827106 88.45416 -7.567806
-7.878513 88.6869 -8.783181
-9.785119 89.68031 -7.934167
-10.22802 92.56371 -7.50933
-8.570408 88.80469 -8.487303
-10.69915 92.39819 -6.91959
-6.825702 91.06934 -9.646308
-5.183026 93.58751 -10.04698
-9.742118 91.60078 -8.04064
-8.981704 91.78292 -8.642169
-7.512692 90.47017 -9.35506
-6.252082 90.97871 -9.799203
-9.371405 124.2094 -3.880724
-6.578244 129.087 -7.607353
-8.941092 132.4998 -8.385175
0.4831907 130.0116 -7.748569
7.097085 110.9601 -3.738115
7.110642 111.9086 -3.378404
5.952365 110.8095 -4.06645
1.198653 139.2973 -8.679263
-0.1687283 140.08 -8.533199
-8.320938 114.2583 -1.796132
-9.823808 113.2362 -0.5676308
-0.2822933 114.6484 -3.601217
9.90005 96.36387 -7.464821
8.133121 97.32037 -8.709493
9.302893 100.8121 -6.958292
9.802783 98.88371 -7.01865
7.010462 96.39004 -9.342658
7.169679 94.921 -9.469889
6.709961 96.83553 -9.398419
11.09665 97.2346 -5.58882
3.772266 93.18573 -10.08466
4.51644 93.048 -10.1021
9.093827 99.26629 -7.537056
8.32609 105.2263 -5.986131
7.65081 102.341 -7.543825
8.541819 101.4397 -7.257674
6.101572 104.5096 -7.10836
7.292321 104.8802 -6.586698
6.795579 102.3423 -7.923136
5.885836 105.0914 -6.809343
5.16376 103.8596 -7.585192
4.460943 104.1606 -7.492782
4.546115 102.6768 -8.255299
2.420664 103.7885 -7.677029
2.753456 99.09664 -9.4373
8.348157 103.7407 -6.591889
4.291508 106.4717 -6.185588
2.901277 107.1196 -5.928892
4.675255 100.7239 -8.972939
5.874146 102.4334 -8.191641
4.543469 101.5075 -8.734106
0.8905447 100.8537 -8.934453
2.868004 103.5879 -7.779691
5.015067 107.2984 -5.702365
6.537434 105.6412 -6.344155
7.632085 106.4381 -5.630829
9.844434 107.2633 -4.042013
2.718089 104.8904 -7.10947
7.199614 100.3609 -8.428179
6.39691 100.3252 -8.787575
3.38309 99.1078 -9.455334
2.173735 99.08557 -9.43033
6.392048 98.35766 -9.228232
5.936843 97.30123 -9.585075
3.92204 96.56918 -9.84065
0.4800856 106.7298 -6.143879
5.482153 106.9643 -5.799473
6.899905 107.3187 -5.401579
1.692137 104.7421 -7.185029
1.917271 103.7103 -7.714929
-1.035521 96.43371 -9.829066
0.7838658 98.4854 -9.529955
-1.197559 99.24963 -9.374965
4.027835 94.76882 -9.988131
-1.284367 95.00645 -9.962852
4.362046 95.32569 -9.946733
2.006565 94.46608 -10.00253
1.629302 95.14578 -9.950653
2.34262 93.66865 -10.0473
3.840462 94.72803 -9.990916
4.883746 108.9332 -4.930717
3.232891 108.5662 -5.194218
1.586178 105.501 -6.78937
-4.846725 102.9388 -8.08886
-0.04828547 104.0925 -7.518793
0.2515705 100.5732 -9.021761
0.1810672 103.0731 -8.027328
-1.282654 100.818 -8.942644
-2.169022 99.25444 -9.387512
-4.187514 103.3009 -7.961196
-5.354629 100.8316 -8.860311
-2.923582 100.4566 -9.068585
-0.8170727 99.30907 -9.360619
6.046448 108.8149 -4.85847
-4.537801 101.1179 -8.878052
-6.172532 103.6857 -7.502435
-3.32352 101.7841 -8.646499
-1.481544 97.81438 -9.65162
-0.5679653 105.4332 -6.823738
-0.4325548 103.5144 -7.812569
-1.941103 107.3341 -5.826311
-6.127784 108.4241 -5.041502
-8.317111 107.4516 -4.92258
-9.208224 109.0212 -3.637121
-5.999026 103.5325 -7.615628
-4.916182 102.5228 -8.298772
-6.977787 99.33464 -8.80194
1.502338 104.0152 -7.560424
-7.628749 106.8036 -5.476298
-6.865635 109.2839 -4.510893
-7.338663 108.955 -4.55549
-4.96507 108.167 -5.289008
-4.525762 106.8961 -5.945182
-5.065535 108.6242 -5.056181
-2.880606 107.1831 -5.894849
-3.783918 109.8021 -4.638974
2.541098 108.595 -5.198273
2.167704 108.7721 -5.111534
-5.089061 112.9037 -3.560739
-1.832786 108.241 -5.37878
-0.2401652 106.9261 -6.041611
-2.650184 112.1299 -3.911544
-4.289677 112.1529 -3.856
-0.4226688 109.7454 -4.688463
-1.509887 109.627 -4.7403
1.966892 110.2483 -4.483788
-3.240132 105.444 -6.807537
-2.17914 102.7441 -8.198642
-3.225053 105.7088 -6.664754
-4.934708 105.5697 -6.644204
-4.640725 105.4314 -6.752414
-5.998751 111.4411 -3.811476
-9.017759 111.7214 -2.370455
-3.753449 113.1506 -3.638664
-3.659564 112.2447 -3.872007
-2.143167 112.9755 -3.692713
-3.073753 110.2174 -4.484806
-3.870146 106.6938 -6.10168
-5.762107 104.5483 -7.161682
-2.303297 113.545 -3.610424
-0.3537462 111.6968 -4.016896
1.866307 112.158 -3.896665
2.750331 111.9732 -3.939795
0.2566679 110.0888 -4.556294
-0.2505939 112.3113 -3.857916
5.906355 114.341 -3.206098
11.34595 90.95583 -6.156249
10.94103 90.64959 -6.699159
-0.728079 87.36156 -8.76788
-3.521011 86.23152 -8.102317
-6.32057 87.73638 -8.837128
-3.310776 87.78088 -8.991582
-4.062287 87.04719 -8.60901
0.1150249 90.03482 -9.804379
-3.722102 87.72408 -8.964424
-3.181518 89.85114 -9.806501
0.6087096 93.30776 -10.05321
-2.580833 91.34461 -10.01186
0.8934227 93.29897 -10.05402
-6.004184 90.74718 -9.81596
-8.219275 92.42188 -9.1817
-7.241239 91.94407 -9.596386
-5.735373 92.71292 -10.01751
-6.551555 93.73296 -9.756793
-8.26965 92.82333 -9.114941
-6.599404 93.67761 -9.743417
1.699449 91.77139 -10.03883
-0.3141635 92.28366 -10.05906
3.182744 92.01823 -10.07318
-0.4381889 92.94356 -10.06514
-2.244665 92.2769 -10.07463
-0.5474234 90.69303 -9.915886
0.2073108 97.97569 -9.620271
-3.718823 99.20228 -9.425944
-4.044699 94.66983 -10.00499
-5.95821 94.7103 -9.802034
-3.752485 94.18068 -10.03478
-1.24626 97.12839 -9.745946
-4.210123 98.57003 -9.534084
-4.134479 98.88172 -9.482659
-0.1402776 95.99247 -9.876274
-3.163084 97.24742 -9.762804
-4.55876 98.08005 -9.599047
-5.679541 97.26399 -9.619756
-6.116437 96.33716 -9.633739
-3.063716 96.57584 -9.817059
-7.703256 95.28587 -9.217537
-9.185296 96.35403 -8.089398
-6.818473 95.19873 -9.577784
-7.629085 97.89608 -8.855016
-8.259705 97.8248 -8.516279
-5.85932 96.74054 -9.648353
-10.36152 96.83036 -6.734636
4.265346 92.63004 -10.11826
5.294824 110.9228 -4.116283
1.437486 102.9642 -8.082129
6.005322 108.5923 -4.971838
4.260812 110.6713 -4.291073
4.731352 113.3136 -3.548882
4.598668 112.29 -3.793645
3.398293 113.2451 -3.646003
12.52741 129.8428 -1.222383
12.18515 132.577 3.937073
15.12698 83.3364 1.683768
-15.00226 90.69376 0.998944
2.245509 141.201 8.654971
-7.037356 146.8751 -0.8640728
-13.36068 99.90128 1.113068
-2.325446 113.1245 12.77206
-15.31739 89.87402 5.507452
-11.2656 85.45023 11.45889
-2.673126 85.45179 12.18361
0.01889871 85.15615 12.26711
-13.02145 105.5974 2.13486
-12.17244 109.3785 5.066428
-11.64602 111.4077 4.332312
-10.44996 116.0322 4.049558
-15.24813 83.30786 5.336936
-12.18948 129.1246 0.5886288
-11.47154 126.6082 3.671809
-8.304197 146.2161 -0.5065984
-11.19767 122.4844 2.232504
-14.46647 95.42059 5.975849
12.33334 130.9595 1.724277
4.591009 145.7798 4.409157
-10.22114 119.3932 7.161083
-9.722831 139.7171 7.249499
7.224696 146.4903 -0.3463992
-7.166373 145.9896 2.271465
12.13521 132.4953 4.166196
-7.518256 146.5865 -1.993561
-7.2559 146.605 -3.391666
-14.75479 83.90472 7.559813
-10.46545 116.2582 3.976248
4.212453 86.08599 12.06114
6.392319 85.73993 12.13005
7.194521 146.3246 0.7602133
15.11545 84.25979 5.789625
-4.227266 86.05176 12.07009
12.22859 130.128 1.418347
11.3785 112.2473 4.458254
15.25808 90.08597 2.122648
14.96467 91.66784 1.383166
14.57149 93.67856 1.38352
15.37861 85.46648 3.043541
-15.39085 84.64313 3.560376
11.78 128.2524 2.141979
13.28263 103.0013 2.965517
13.6509 98.81242 1.686714
13.5098 99.937 2.373046
12.04405 131.3695 3.802892
7.685445 146.3255 -0.9689618
14.63853 85.94282 7.850645
6.875533 146.8303 -2.216012
6.686881 146.9332 -2.576714
7.728696 146.325 -3.144508
7.72732 146.3087 -3.28886
-8.476924 146.0588 0.9081125
10.92711 120.8266 5.07546
-12.94773 130.8512 -2.294021
6.443217 145.4952 3.768916
11.30527 123.3108 1.648533
-5.894065 125.4809 12.55715
-11.00226 113.1214 5.346131
12.16445 128.6362 -0.7725597
12.81969 130.7556 -1.353773
10.82633 120.1931 5.07937
13.34484 102.1592 3.214733
10.9311 113.7424 4.320977
-7.573245 114.5692 10.06854
-10.49774 131.3631 10.21743
7.698987 121.0281 11.04088
-12.30091 129.1494 -0.2051705
-12.39996 131.1185 1.857252
4.626346 145.634 4.607269
-3.774277 146.9774 4.141631
-7.279867 145.8258 2.765992
-8.428379 145.7781 2.465055
-8.370672 146.0139 1.332432
-7.071523 146.8341 -1.791612
14.52676 89.01353 7.861227
12.96981 86.14348 10.1727
14.86496 84.21783 7.223034
15.33709 84.06304 2.992357
15.41334 87.62615 4.256808
7.216642 146.0403 1.709628
5.852911 146.4047 1.918774
10.11009 121.6604 8.04822
-15.37127 85.14819 4.187889
-15.41086 85.82612 3.706065
-15.36234 85.00832 4.299166
-15.28954 84.817 5.396521
-14.03097 84.20242 8.897609
-14.03378 97.92626 3.066932
-15.18872 89.41509 1.104958
-15.05376 92.69591 2.583305
-8.99334 84.77301 12.17437
13.71208 99.19695 5.220141
12.77524 105.5208 5.268571
11.49936 111.3408 5.502745
-11.05423 113.3068 4.470422
-11.79706 131.271 5.36271
-9.984937 120.9999 8.173928
-12.43105 131.5334 2.119141
-9.706674 132.423 10.76308
-10.80476 136.9606 7.893302
8.218322 140.7082 7.459916
-8.242637 143.6574 5.755435
-4.864182 147.0849 2.830384
-4.057201 146.074 4.508867
-7.377828 144.3261 5.666375
-4.519105 144.6215 6.393084
2.743282 84.7231 12.20696
15.41783 88.88523 2.948202
14.45168 84.48411 8.211346
15.41831 87.8865 2.867612
15.34798 86.28796 5.300766
15.25961 85.06436 5.777085
15.36506 86.94724 5.143712
15.00852 87.65582 6.74543
15.28892 87.31695 5.714949
14.64042 88.18294 7.715163
8.391799 144.0898 5.452241
8.326272 144.5177 5.090027
5.032962 146.5152 2.826047
11.33804 123.4712 4.008799
12.01158 128.7052 1.047465
11.94213 129.14 2.018422
11.75142 127.6332 1.607799
11.73977 130.084 4.169338
11.5888 126.5521 2.696311
-15.25802 88.62595 1.546675
-15.35823 87.14172 2.68205
-13.01962 84.49751 10.30839
-13.73903 99.09007 2.606569
-14.31596 96.60757 2.847248
-14.69018 94.7036 2.563596
-15.42688 88.96495 3.74635
-15.3797 89.8148 4.953945
-14.89093 89.46209 6.958511
-15.3266 87.63659 5.674812
-14.41679 91.08746 7.802747
-13.83469 89.76863 8.80873
-15.35493 88.58716 5.601005
-12.59277 90.79965 9.846089
-13.39815 92.87735 8.787383
-11.7472 85.1519 11.21322
-7.32246 85.59602 12.13748
-3.754219 84.93435 12.22237
13.49908 100.5461 3.123993
13.32178 101.9913 3.853103
13.32606 102.136 3.510973
-12.73455 106.8076 4.851483
11.38448 111.4959 5.723194
12.79638 106.8892 3.902736
-10.51448 113.3021 6.799278
-8.0727 116.3885 9.678809
-10.14687 113.5023 7.410403
-11.66242 111.311 4.504519
-11.69283 110.1788 6.160656
-12.7009 107.5331 3.804754
-11.45378 124.7415 0.8448637
-11.21743 123.0765 4.608632
-11.33625 123.4156 2.254886
10.63044 119.1096 4.980894
-11.82965 128.027 1.457896
-11.76825 127.7949 1.737289
-11.69628 127.0967 1.884207
-12.40688 133.1589 3.953642
0.6878444 146.8293 5.085109
-1.41119 146.9687 5.027862
-2.249557 145.1833 5.989861
-1.807185 145.2002 6.027334
-1.924718 144.0533 7.19967
-0.7881256 145.4197 5.852009
-7.825243 143.9926 5.759133
7.906785 85.53397 12.16149
-1.326753 85.96396 12.04035
15.22758 91.8504 3.377008
14.96152 93.3839 2.744621
14.55423 95.47684 2.732223
14.41855 96.20908 2.959844
13.46758 87.00572 9.566941
14.31816 87.28753 8.430235
15.42602 89.26331 4.16171
15.3465 90.36371 5.016937
15.42993 86.44206 3.33995
15.36049 88.53996 5.569569
6.835639 144.0823 6.095149
5.438695 143.9413 6.737546
5.738958 141.7006 7.878043
5.921602 144.657 5.934683
6.03983 140.8262 8.209053
6.794504 138.793 8.958132
7.778023 145.2341 4.300331
3.724678 145.7987 4.947218
4.228777 145.7836 4.6577
4.24315 145.9408 4.501155
11.92935 133.3409 5.826345
11.33525 123.8495 3.915635
11.56086 125.6142 1.669853
11.71599 130.604 4.875836
11.62005 127.1504 2.650786
-15.01055 88.01643 6.716325
-15.00455 86.08494 6.842033
-14.4488 86.43834 8.236507
-14.09256 98.09407 4.402091
-14.15932 97.26529 3.286834
-14.97737 92.90594 5.63096
-14.54111 94.86805 6.084248
-15.15565 92.24368 5.194339
-15.36101 87.89902 5.306378
-14.96179 87.61335 6.890943
-11.46803 86.4923 11.2132
-10.91646 85.48167 11.63927
-7.986993 86.10022 12.05843
-1.026527 85.27354 12.29171
-4.893126 86.50165 12.00716
13.32584 102.2263 2.41135
13.25606 102.538 3.686111
13.70276 98.27892 1.637302
13.10342 104.4962 3.578718
12.72589 106.3472 4.76052
-13.15038 104.5745 2.582078
-13.20362 103.7058 3.256595
-13.16101 103.1961 4.087376
-13.27008 103.0099 2.796366
10.80636 113.0018 6.093997
11.68617 110.8432 5.480403
12.6295 107.6576 4.580944
10.39168 116.5879 4.649325
-10.20071 116.8827 6.218354
-10.05046 117.3656 6.786624
-12.17591 108.8144 5.690823
-10.98679 111.3627 7.033114
-10.58584 138.6172 7.333321
-11.56632 125.691 0.4947541
-10.35804 121.0891 7.353716
-10.50656 118.5508 5.220517
11.09384 121.8248 2.560326
-12.08076 132.6138 5.151902
-9.939706 140.7017 6.66527
-11.04011 138.6974 7.062149
10.87882 85.00954 11.67545
5.620874 86.46658 12.0179
3.502487 85.94476 12.08569
15.08477 90.52981 1.365623
15.25191 90.96085 2.67787
14.32126 94.61854 6.853061
13.80758 98.27546 2.068551
14.05564 97.475 2.604404
13.92235 88.34746 8.827524
15.21291 89.65852 1.48133
15.40635 86.80997 4.257488
4.341136 140.6924 8.677269
5.374533 145.664 3.960787
3.679286 144.7053 6.436121
5.03885 144.0783 6.757886
-0.7016116 141.0585 8.726048
3.872512 143.4114 7.505342
2.312633 145.7542 5.473503
2.353126 144.8499 6.366828
10.97819 125.8079 5.918934
10.98605 123.8137 5.874702
11.25393 129.6057 6.247767
-15.16252 86.56815 6.365625
-13.53791 99.58446 1.85672
-14.51806 95.76187 3.010839
-14.9378 88.38625 6.883204
-13.68197 93.08671 8.413105
0.362183 86.15837 12.02468
12.90812 105.1649 4.652193
13.63451 99.26677 5.633128
14.03233 98.21899 3.894957
14.08661 97.13546 5.945309
12.49301 105.317 6.438676
12.19818 103.8522 7.550054
12.45738 103.9463 6.91546
12.50186 103.2173 7.032075
12.38012 105.8125 6.646161
-12.78458 107.1521 3.382503
-12.85691 106.2839 4.351743
-12.75471 104.7113 5.660773
-13.59001 100.1072 4.075815
10.34822 113.7466 6.743602
11.89522 109.7376 5.918931
12.07639 110.0051 4.324575
12.14047 108.4737 6.187931
12.6083 107.3391 4.968001
10.523 115.5831 4.629849
10.44343 117.4785 4.643825
-10.92537 110.993 7.464136
-10.3386 113.4565 7.085216
-11.69485 135.5112 7.254459
-11.93028 134.7247 7.004959
-11.50742 137.0659 7.215015
-11.37682 124.245 4.140515
-11.46249 124.9075 3.128616
-10.26498 118.5051 6.55966
10.88017 121.563 5.720317
10.45989 117.4768 4.34585
9.584306 137.0972 8.522947
8.131939 137.2926 9.192157
11.15636 134.4286 8.233099
6.399394 85.44086 12.17373
1.639097 86.38815 11.99975
15.01671 91.77983 6.170445
14.9782 93.84349 5.085933
14.94631 91.99946 6.303916
14.54802 93.14718 6.937584
-5.819693 135.438 11.047
2.813596 141.6866 8.423322
1.266182 141.0085 8.749669
2.394033 139.3524 9.50286
1.617687 140.0056 9.209976
11.2697 126.7669 4.599637
11.26745 129.0555 5.624625
11.01495 128.9205 6.6509
10.36948 128.9862 9.132678
11.53113 129.8186 5.042491
-13.73405 99.50187 3.786049
-14.11101 94.19725 7.506238
-15.14107 92.26757 2.739592
-14.16527 89.13779 8.445201
-13.79054 87.50007 9.109868
-2.051423 87.45545 11.89162
-3.804658 90.10215 11.39194
13.01251 104.3193 4.618138
13.56914 100.2253 3.92246
10.99073 102.2438 9.359499
10.51001 104.1915 9.818841
11.31957 101.9371 8.979287
-12.58902 108.0415 4.072533
-11.88445 105.7536 7.814434
-11.89986 106.8565 7.584095
-12.66893 105.1214 5.860285
-11.94575 101.8135 8.174589
10.03021 116.9643 6.888782
-8.917645 111.4715 9.699116
-11.44143 111.6523 5.415256
-10.16602 115.0548 6.552116
-7.442715 113.3028 10.33553
-9.15642 113.5278 8.868776
-10.07147 112.127 8.204122
-10.23761 110.8436 8.678988
-7.751613 112.2941 10.3442
-10.57558 134.9523 8.857203
-8.937926 138.7298 8.116067
-11.32623 133.7358 8.31249
-11.53469 132.5636 7.806218
-11.77685 129.6965 3.762843
-11.79823 132.2641 6.46507
-11.87091 131.7524 5.474914
-11.42025 128.2028 4.400064
-11.53078 125.915 2.984247
-10.52347 119.0753 5.817182
-9.589462 119.3469 8.463664
-8.44768 118.0662 9.635788
-8.848178 119.3869 9.539706
10.62843 119.3138 5.355803
10.40858 117.7721 5.308694
10.40983 117.0694 5.022023
9.952417 137.9477 7.924137
7.037456 136.3108 10.1716
4.558703 138.6938 9.59536
11.01455 135.9382 7.975524
2.194599 86.99905 11.94854
6.584095 87.48971 11.87955
3.421298 85.44534 12.19988
1.463682 84.89917 12.2221
5.160973 140.3436 8.672307
4.520128 142.6809 7.754742
1.338355 143.9334 7.234908
11.56458 132.3622 7.536126
11.04617 130.2282 7.953628
-14.89356 92.34176 6.35168
-14.84828 92.11703 6.524589
-13.02979 89.26341 9.724499
13.20448 101.6021 5.326608
13.44615 98.50153 6.763265
-12.28345 108.0469 5.777979
-11.30005 107.2552 8.528711
-12.93545 102.6605 5.652479
-13.09426 101.3102 5.877858
10.92171 109.3173 8.417348
-9.745217 117.527 7.623959
-7.919822 114.2443 9.820505
-6.006278 113.3288 11.25237
-5.959424 113.6873 11.23641
-5.916832 113.1014 11.34414
-10.21087 135.45 8.92387
-11.04453 132.6298 9.070631
-9.959723 134.1165 9.770575
-9.479908 133.8305 10.31341
-10.43148 131.8676 10.06754
-9.982318 132.6404 10.41172
-11.2707 132.1252 8.63271
-11.20523 130.8926 8.374008
-11.37525 129.9623 6.470926
-11.60142 128.3518 3.471986
-10.89435 128.6083 7.032084
-11.19535 129.9756 7.381631
-8.840369 120.4129 9.796673
-9.366174 120.3594 9.122687
10.29962 121.4264 7.57945
6.748545 87.11774 11.93819
2.530613 89.40033 11.50497
11.61864 92.20797 10.21695
-0.394541 144.1403 7.007561
11.31041 131.5609 7.948939
11.72841 133.2257 7.29174
11.06283 130.9749 8.615777
10.87256 130.2516 8.816862
10.54153 131.4892 10.18711
9.375464 132.2731 11.16722
-14.0931 88.66832 8.472443
-5.958731 91.32131 11.21086
-4.484107 91.31457 11.21194
-7.308777 91.29684 11.20908
-3.423698 92.80498 11.13034
-8.839437 91.55783 11.12402
-7.737528 90.85669 11.26024
-5.717912 89.10079 11.56377
-8.041092 89.2063 11.55886
12.26535 99.4083 8.37098
9.920301 99.15214 10.25329
11.27232 105.8151 8.894407
-12.02944 108.3768 6.632393
-9.900058 104.5756 10.33933
-9.699439 103.4597 10.50856
-8.331274 136.9809 9.271681
-8.977445 133.2847 10.92099
-6.946323 135.4817 10.67462
-11.1033 127.658 5.522886
-11.34196 127.5983 4.481596
-10.35232 129.8546 10.15335
-8.948749 128.9437 11.61258
-10.66591 129.8412 9.319592
-9.258577 128.5627 11.10954
-8.439138 130.7938 12.08197
-5.982432 132.5127 12.42518
-8.475742 129.3067 12.05795
-8.656078 130.3924 12.03553
-4.884951 131.7274 12.75122
-6.479254 132.9683 12.14973
-6.74993 130.7103 12.74581
-1.989203 132.3578 12.56403
-5.838264 130.8529 12.87809
-4.339446 133.194 12.33649
-8.956384 116.7528 8.788815
-7.555539 124.325 11.6505
10.71488 122.4693 6.571701
9.222576 119.2629 8.902949
9.360147 118.8956 8.575796
6.261452 87.99035 11.7836
9.102916 89.59704 11.39489
10.87079 135.1413 8.446923
-8.315331 95.33527 10.78309
-10.21016 94.12172 10.58785
-8.988621 87.5623 11.77746
11.31483 101.4521 9.106388
9.52232 99.44261 10.43587
13.39045 99.3111 6.404581
-9.768047 108.0787 10.06221
-12.5051 102.916 6.882647
-11.17572 129.4072 6.683459
-10.5361 128.2684 7.898613
-8.363701 127.5169 11.06663
-7.630801 131.45 12.32291
-7.63695 128.9341 12.41129
-2.73306 130.7829 12.86587
-9.138261 127.5824 10.22646
-7.522359 122.0314 11.53594
-9.094277 126.9091 9.883486
-4.665856 128.3906 12.82545
-9.148453 125.5389 9.744465
-6.522197 125.7904 12.15912
-4.780216 125.4933 12.96269
-4.14935 131.1565 12.85938
-2.080443 130.318 12.90738
-6.909362 119.3 11.26116
7.857829 88.19376 11.74899
9.757755 87.59945 11.60442
10.07812 88.36619 11.47879
9.165834 87.69595 11.72327
13.05052 87.53207 9.978332
13.0682 88.62477 9.784936
6.499511 88.41791 11.70175
10.35051 91.67885 10.84422
10.15514 134.8667 9.179597
8.298543 137.51 9.00477
10.33044 135.283 8.840737
-10.93842 91.72493 10.66781
-8.566911 90.83331 11.2328
13.55645 99.04869 6.090958
-11.11099 107.53 8.745853
-10.03988 109.759 9.365365
-9.059168 109.1627 10.33608
-9.177793 110.254 9.898312
-10.50649 110.0721 8.750388
-11.33098 105.5757 8.824036
-12.62322 101.4814 7.125615
-11.70045 100.563 8.757498
-11.24976 100.4302 9.253083
-10.28529 103.6502 10.04284
-11.19132 100.6635 9.268594
-6.038082 114.2108 11.14621
-7.578221 115.9788 10.0526
-10.07766 126.0985 8.158948
-2.613745 128.6056 12.97054
-3.069985 129.3039 12.96467
-3.308427 131.4148 12.79268
8.451441 131.802 11.86108
-9.475826 121.6138 9.167839
-8.153845 124.5271 11.07766
-10.96062 122.52 5.608337
9.114264 121.4351 9.717218
12.57777 92.41499 9.531281
-9.878559 92.22565 10.87793
-8.492616 93.7532 10.8755
-11.4803 91.18113 10.50566
-12.18401 89.53275 10.39244
-7.855886 93.73001 10.9272
13.42505 98.08648 6.927958
9.776126 105.0055 10.43769
-10.84592 108.4174 8.80627
-13.49165 99.80746 5.59439
-7.073873 115.8391 10.4201
-11.05338 126.5258 5.596496
7.687062 134.3553 11.04187
-1.94908 133.6864 12.16296
-10.27827 122.7872 7.845125
-10.84528 124.2716 6.335278
-11.28323 123.4707 3.866171
10.61043 123.2219 7.016511
11.60596 89.00204 10.76958
7.409026 89.45817 11.4952
7.074542 89.94896 11.40532
9.688237 89.75721 11.31344
11.09251 91.32007 10.65651
11.54325 89.92689 10.64817
10.77953 91.09787 10.83456
13.63971 90.85143 8.852886
-13.76676 89.28753 8.942163
-11.42008 89.18201 10.83654
-11.02193 89.28176 11.02218
-10.15604 89.5685 11.25395
-3.738514 92.20818 11.12959
11.12553 105.6748 9.114768
10.40506 105.1639 9.858302
10.3896 103.4434 9.947991
9.648703 102.2611 10.50966
9.133248 102.2863 10.80916
-9.088045 102.8182 10.85277
-9.247525 104.0373 10.79412
-9.485601 108.3403 10.22924
-10.78821 104.8259 9.530805
-9.396556 107.4614 10.4627
-5.188849 106.059 12.49494
-7.166413 95.06402 10.91048
-8.925456 107.0528 10.8207
-8.703398 107.714 10.86242
-5.682518 106.4886 12.32111
-3.128156 107.1382 13.09492
-4.773522 106.6403 12.65405
-13.07828 97.14101 7.951211
-7.565645 107.4374 11.47634
-7.356931 106.5039 11.62417
-3.806865 105.5377 12.8911
-12.72211 100.3265 7.377398
-10.22898 97.59453 10.15448
-12.10221 99.00048 8.662295
-13.32287 99.46336 6.491956
-10.6812 127.4904 6.910744
-7.8132 122.325 11.3413
-10.65154 123.873 6.93731
-11.34588 125.16 4.191981
9.123498 120.7348 9.52876
14.00164 88.92361 8.702371
14.62916 89.14075 7.589197
12.76615 89.34171 9.980517
13.80759 89.69193 8.843754
13.10895 90.28461 9.425617
10.42782 92.37298 10.72251
7.583144 135.366 10.49859
7.83198 136.619 9.693508
-9.915824 88.23455 11.54233
-5.05237 92.73524 11.10349
-2.962245 96.42075 11.39743
-4.613169 95.2401 11.12127
-2.477476 94.76262 11.26497
-3.608901 95.71992 11.25179
-3.929482 94.55299 11.1493
-1.890289 95.43465 11.38817
-0.6074166 95.04044 11.43503
-1.056905 95.36983 11.45511
3.003369 102.934 12.70075
-9.417135 103.6173 10.69422
-5.663956 103.1023 12.11909
-2.028801 105.4792 13.19052
-13.96859 98.50935 4.007303
-13.22724 98.20432 7.510045
-14.17193 97.64265 5.059933
-0.1254376 132.1025 12.61195
-8.942151 121.3442 9.928152
-9.478015 124.5312 9.37596
-10.02147 124.6036 8.407578
9.246166 121.8658 9.611116
13.34386 89.10265 9.41957
8.301138 135.7352 9.958081
8.33847 132.8711 11.538
9.24573 133.5388 10.68043
8.536274 133.4857 11.12835
11.29286 132.6075 8.44253
-9.992794 95.14883 10.46093
-2.772608 93.09586 11.15008
-2.64391 88.86019 11.59458
1.25203 89.33186 11.51321
0.8186702 88.2418 11.74204
-1.519126 89.45638 11.49399
-1.261922 88.42474 11.68449
-2.407533 89.90759 11.42208
-2.129275 92.45716 11.14503
-0.7638556 91.90118 11.16394
-2.545132 95.95386 11.38759
0.6875729 95.32127 11.46602
-8.955392 106.4566 10.87406
-2.853811 105.5133 13.0746
-5.706383 105.5285 12.2981
-2.564269 107.1439 13.19356
-4.374313 108.8244 12.69923
-4.988147 108.6046 12.48359
-6.565396 119.8972 11.67801
-8.628794 125.6876 10.42408
-10.42533 124.564 7.471115
0.8737162 122.588 13.43781
5.847571 123.5785 12.76457
6.205513 121.2414 12.25204
6.841051 121.5931 11.94081
4.673409 133.4191 12.22014
4.975564 135.8109 11.02252
5.252533 134.5324 11.63897
7.044711 132.6566 12.16113
6.73388 132.5645 12.26663
-1.015052 130.2767 12.90219
-0.6707123 132.1628 12.59801
1.797292 133.1025 12.36063
5.507872 132.3618 12.53782
5.562559 132.9479 12.32534
5.100246 131.1676 12.84201
6.975644 134.1006 11.44134
5.735845 91.72296 11.16789
2.269644 88.66231 11.63637
4.037955 90.9209 11.26998
-6.591294 105.4604 11.97816
0.0816547 107.6649 13.21964
-5.450431 108.5864 12.29915
-4.873666 110.2471 12.32885
5.471991 119.5663 12.13221
13.34682 93.73256 8.653924
12.29884 95.02137 9.423259
13.72628 94.80103 8.008584
-0.4873331 130.4329 12.88199
-13.02164 95.42206 8.614681
4.446532 89.24866 11.53703
0.2363146 91.33015 11.21321
1.306582 90.76932 11.29156
-6.611061 103.9506 11.8978
-3.136543 105.0773 13.00371
-2.66842 103.4244 12.84168
-1.302988 106.9155 13.27479
2.836536 106.8095 13.15471
-2.190513 108.5516 13.16888
4.816487 120.5414 12.66303
8.49791 120.212 10.18279
12.58969 95.96259 8.923469
12.6053 96.13119 8.860139
11.00528 97.6215 9.744108
14.28031 96.77096 5.346623
9.819139 93.02271 10.8156
4.906791 130.6622 12.94739
8.477058 124.7061 10.75921
1.949464 130.2907 12.91803
2.221067 131.5778 12.74766
2.249619 131.0799 12.83483
-11.23484 94.89706 10.04613
-10.28521 93.57681 10.62123
-11.94447 93.52203 9.928861
-7.101705 97.54803 10.97985
4.309561 90.72282 11.29479
6.615437 90.24765 11.35753
6.644928 90.7873 11.27933
8.031355 92.34786 11.07228
7.123678 92.25964 11.09432
2.350302 89.86028 11.42936
-7.097676 102.7915 11.65893
6.832224 119.7591 11.47121
7.525909 118.0832 10.48736
7.553566 118.5215 10.57766
12.51346 97.18984 8.666213
14.15707 95.98365 6.539122
9.79167 97.31643 10.28543
6.200893 93.80954 10.99553
-1.323872 127.9052 13.09954
-14.04593 95.0338 7.196706
-7.55541 98.16623 10.97515
-8.74984 97.28281 10.65344
6.937701 90.68863 11.29176
6.051559 119.3751 11.78896
5.327269 98.92747 11.44763
11.75999 96.90875 9.398429
1.295683 129.5139 12.95237
-10.80852 95.33272 10.16509
-14.78667 94.24287 5.459832
-11.45538 96.22498 9.730686
4.458419 92.83492 11.11151
5.730967 119.8965 12.12681
4.549629 118.162 12.21984
4.192147 117.3158 12.29504
4.569291 109.8725 12.48602
4.527651 115.8679 12.01437
6.462237 116.3571 10.9327
8.979207 117.5958 8.933511
8.227795 118.4818 9.987105
-12.25982 95.85965 9.228733
-14.43689 96.46305 4.512928
9.201324 117.0636 8.533268
7.242363 116.2612 10.32454
-14.02178 96.90293 6.313044
-13.15621 97.85031 7.790498
-14.50438 96.07602 4.342899
7.872298 116.4508 9.807186
7.708933 116.504 9.969313
-3.277452 144.7674 6.422725
-7.624447 143.6326 6.117408
-7.327501 143.9179 6.067873
-4.476111 145.6284 4.748587
-7.8585 142.7273 6.531726
-4.765198 144.4629 6.504377
-4.03928 143.8414 7.198353
-4.940412 143.9095 6.889277
-2.616797 141.5813 8.468991
-5.605021 145.2237 4.984982
-2.131618 143.2641 7.758781
-1.648097 143.3374 7.686772
-2.961352 143.9389 7.250115
-3.573896 142.1711 8.147019
-4.97912 141.0462 8.387261
-6.153821 141.6482 7.768951
-6.23824 140.0674 8.497069
-6.115692 140.5837 8.292756
-8.390162 135.8247 9.873843
-8.032516 140.6915 7.556221
-8.247879 139.5465 8.02286
-9.202442 140.0686 7.323976
-8.415104 138.1965 8.622355
-6.694822 136.7736 10.04727
-4.583804 138.8114 9.513259
-7.781976 139.1024 8.436836
-6.518505 133.7526 11.76115
-5.444783 135.3134 11.19284
-5.215408 136.6355 10.52801
-5.866918 136.1142 10.66135
-4.037236 86.23553 12.04357
-7.585236 141.0919 7.534589
5.121304 144.9174 5.73403
11.02324 111.299 7.068307
8.693039 108.9956 10.57552
10.85858 107.3704 9.163521
10.84521 108.4735 8.884171
10.10359 108.6632 9.631581
9.948873 110.1983 9.313238
8.674471 106.0323 11.04153
8.897292 110.2668 10.14994
9.805926 111.4954 8.905032
10.05473 112.5111 8.050795
1.312972 107.5851 13.21263
7.979228 108.4353 11.08512
0.7386026 107.0459 13.25764
5.409516 109.1164 12.25518
5.156377 107.3628 12.52359
9.511196 113.0146 8.576639
9.974874 111.8113 8.505881
8.417124 107.2992 11.07804
9.65065 105.6122 10.48927
6.485487 103.6373 11.89711
5.333618 105.9881 12.44136
5.690886 107.2431 12.32256
3.474689 106.3536 13.00543
-0.6457446 106.0224 13.25151
-0.6002015 103.8952 13.09367
9.520411 113.2648 8.482537
7.088027 114.0765 10.45853
6.722916 109.7994 11.52131
8.230827 111.499 10.19399
7.430295 113.4742 10.31172
5.246293 110.5125 12.11379
5.170475 111.1741 12.04305
9.589644 103.6016 10.57791
4.784909 106.3635 12.63805
2.339316 107.2894 13.22291
-0.2069611 108.6494 13.15178
-4.126848 103.606 12.57703
7.137178 110.8897 11.0683
5.807312 111.3304 11.70628
3.462559 108.8321 12.8743
5.352149 104.0671 12.31321
-0.8335165 102.0196 12.73651
3.430181 111.5278 12.63584
4.704127 103.4456 12.41164
3.74184 104.0559 12.75851
4.411325 112.3121 12.21266
1.118562 109.1917 13.09777
4.049517 110.1329 12.66805
0.9298736 110.3249 13.00454
6.220682 110.2276 11.70226
0.1502767 110.4703 12.98463
-2.40226 109.1934 13.07327
3.777084 137.741 10.19787
4.667847 136.5344 10.69716
3.448507 136.2391 11.03085
2.08853 133.3263 12.29212
-0.2685411 136.6538 10.94262
-0.2347064 133.5009 12.21481
3.409891 135.3991 11.44268
0.7059937 136.1369 11.18696
-5.328108 110.9694 12.00801
-4.247395 110.6258 12.49949
-7.149732 110.0553 11.2669
11.13106 123.0914 5.202367
-10.62336 102.6128 9.742455
-7.139791 123.3235 12.01674
-6.14258 124.818 12.52654
-5.946483 124.0135 12.71885
-3.441526 127.0837 13.00655
-3.84523 125.4618 13.20005
-10.83022 125.4658 6.334491
14.43527 92.10097 7.547575
-9.684421 86.792 11.79332
-13.98804 97.84558 5.667733
10.51044 122.3297 7.179792
8.617069 128.4813 11.70348
-5.338408 100.381 11.73249
-5.877084 99.77354 11.51772
-4.555779 100.9333 11.9832
-4.550083 102.405 12.28874
-2.047327 104.0546 13.02784
-2.781298 101.8239 12.51239
-4.317357 101.6588 12.191
-2.823576 102.0907 12.56595
-4.065189 99.40894 11.75301
0.1301235 100.1164 12.32833
3.537618 100.2962 12.0361
-0.6140977 99.38665 12.16754
-1.170016 100.6627 12.42079
