# .PCD v0.7 - Point Cloud Data file format
VERSION 0.7
FIELDS x y z
SIZE 4 4 4
TYPE F F F
COUNT 1 1 1
WIDTH 1664
HEIGHT 1
VIEWPOINT 0 0 0 1 0 0 0
POINTS 1664
DATA ascii
-15.0834 147.4142 1.318415
5.296616 78.57765 9.978776
19.49641 87.26302 4.814889
17.62759 97.2366 2.377775
15.49862 145.6423 2.003439
14.08235 144.2968 4.191348
4.490427 149.0526 2.525153
4.783927 150.7827 0.5629999
15.26947 148.9271 -0.02423469
11.14009 151.4154 -2.916625
14.36514 131.0828 3.71155
15.00891 133.4027 4.732265
-20.26365 85.77545 2.070503
-17.34177 79.47213 8.631261
-18.30531 80.02882 7.687029
-10.25325 84.49921 10.16867
-14.12749 108.3989 6.293922
-17.65767 97.10915 2.251416
-19.38489 90.40882 2.104831
-9.30022 77.11372 9.837255
-10.13234 79.84598 10.11032
-2.962951 78.62783 9.994503
14.53372 110.7194 1.653217
12.96117 115.8048 3.261021
-13.13007 122.931 5.558647
-16.15125 105.275 2.596129
14.7452 126.0195 4.461854
-14.32462 131.0159 3.826038
-15.05058 134.0455 2.636576
0.1065421 150.2103 2.120164
-16.17596 148.1149 0.2970636
-11.21073 151.5167 -3.586961
-7.031312 150.9927 -1.134702
-9.489831 151.2034 -2.373216
-14.95175 145.461 2.956198
-13.4514 144.8192 4.084579
-14.41091 144.7598 3.734483
-9.32313 147.2941 1.654708
-9.609503 146.0451 2.797526
-8.19957 146.6162 2.720714
7.670628 77.57087 9.899163
3.036875 77.18486 9.871032
13.43317 78.16493 9.944678
19.275 85.46871 5.918753
19.30254 90.09611 3.246518
18.29403 94.14911 2.809469
16.67342 100.2148 4.55397
12.01124 139.7968 6.650667
14.60929 137.3814 3.849288
13.7831 146.4791 2.786805
12.95911 147.6831 1.46555
15.02521 150.0473 -1.030599
13.64507 149.6074 -0.5957609
14.57255 131.4222 5.749991
14.67449 127.652 4.491543
-17.43872 77.18805 8.340589
-17.29297 79.2298 8.667654
16.80717 81.83495 9.07777
-15.91087 105.9252 1.140438
-18.30149 94.54212 0.8521451
-17.42613 98.94331 1.094402
-19.52706 87.90996 4.342619
-19.03726 90.22412 4.350365
-18.55156 93.65368 1.444709
-8.378388 80.42522 10.17562
-9.09165 81.88123 10.27208
-12.22823 82.09599 10.24452
-9.449999 80.25185 10.15124
-13.96723 80.54678 10.11597
-4.231514 77.56664 9.892814
0.9010066 78.60368 9.984317
16.74205 100.7492 4.181364
13.91795 111.9956 2.246041
13.39021 115.3402 1.765315
-13.68315 119.903 2.560753
-14.2085 122.9547 4.44559
-14.62509 114.8877 2.569822
-13.963 113.7883 1.273374
14.42531 125.1759 3.703511
13.07726 121.6401 3.539958
14.23775 120.0263 4.203557
-14.73424 136.2614 4.498171
-14.10381 136.1976 7.148053
-14.09635 135.7889 7.747069
-11.1541 138.9545 9.399111
-11.07631 149.8304 -1.045756
-15.31027 144.4738 3.185253
-12.63616 139.9976 7.086963
-13.02003 143.2574 5.506814
-3.912735 148.705 3.06279
9.174639 79.74761 10.071
10.45607 81.29372 10.1902
6.614654 81.07784 10.2135
0.9009268 78.30698 9.957021
10.32193 80.42442 10.11812
19.88929 86.98599 3.432129
19.10401 83.90028 6.533635
18.74505 91.85429 3.816127
17.45591 93.49805 6.08438
17.68141 93.18318 5.825595
17.14291 99.98219 2.810587
13.92721 138.7634 4.607508
12.20812 140.3958 6.409253
11.33255 138.0156 9.481315
12.51796 139.4474 6.083583
11.93766 139.2389 7.142508
13.60035 137.3633 6.854701
7.865204 149.7639 0.3068961
10.09631 150.0271 -0.9945329
14.69872 127.2379 5.06048
14.44942 128.99 6.125001
-18.93087 83.17239 6.832204
18.84823 82.32029 7.020783
17.87644 80.22166 8.191284
12.77053 82.23894 10.25255
-16.73938 102.4183 0.8684488
-15.09371 108.9871 1.314577
-17.17712 100.4185 1.687738
-19.79838 87.29515 3.602102
-5.490052 77.22127 9.857703
-1.777524 80.97397 10.24231
-3.245291 78.48563 9.97968
-3.941462 80.54131 10.19884
-5.201531 79.56171 10.09157
16.24536 103.5705 4.429919
16.67486 102.5429 3.037442
14.18074 108.788 5.824983
15.10615 107.124 5.128955
15.0569 106.6975 5.616308
14.42493 111.3432 4.104992
12.95897 114.0328 3.881493
13.42158 117.2909 4.216865
-13.74784 120.0728 2.691479
-12.3158 118.1123 2.276726
-12.5693 120.3075 5.655802
-14.80406 124.5402 5.664167
-14.67019 122.8946 2.878518
-14.79472 132.3919 4.232153
-14.81562 112.2718 2.960752
-14.90721 110.076 1.676232
13.69856 124.6767 3.561687
13.8535 121.0375 6.557878
13.87533 123.4249 6.860872
13.20665 124.6431 6.2513
12.35176 115.6009 6.937822
13.63407 123.1238 7.687225
11.85519 123.5306 9.34441
12.38337 125.9762 10.08731
13.194 126.6314 8.35433
-3.82337 150.1353 1.608755
-12.71592 137.8205 7.886512
-14.80395 141.6374 4.075085
-13.6617 141.003 5.57869
-9.325828 145.366 3.515747
-10.80805 142.7511 6.323505
-7.061169 143.2008 6.229318
-8.445975 142.8978 6.115359
-9.05062 142.9265 5.991042
-12.78526 140.7262 7.281325
-12.21502 138.9702 7.590088
12.39042 80.57491 10.11785
11.44397 81.07146 10.16225
15.96358 100.1744 5.999036
16.66755 98.65357 5.083313
16.90686 99.73788 4.056628
14.48508 134.0923 8.382478
11.34463 149.192 -0.4185879
18.1206 79.71426 7.899848
-16.90286 101.9125 1.557289
-14.53609 109.9399 3.233118
-17.42593 98.13242 2.664185
-18.06121 92.70287 5.260174
-17.88173 95.91536 2.482765
-16.86823 98.87147 4.441899
-18.5681 90.56217 5.47436
-17.97298 88.64159 7.394935
-17.20515 88.50823 8.295964
-17.10983 92.41968 7.136122
-18.14056 86.8689 7.526477
-16.33399 83.0462 9.364966
-19.47922 86.06673 5.335362
-19.00351 85.8824 6.40471
-9.359755 83.02135 10.2331
-4.640563 82.33231 10.26434
-5.175241 82.65657 10.23391
16.73777 101.9129 3.562504
15.40086 106.3156 5.045985
15.32628 101.1816 6.726759
14.4974 104.2546 7.386123
15.30618 101.8375 6.677669
14.23191 109.4505 5.251513
-12.50318 118.1966 2.080481
-14.24558 124.8399 4.127085
-14.25137 130.1698 3.656615
-13.89705 128.5631 5.622857
-14.29943 128.2194 7.388665
-14.24111 128.7526 7.267598
-14.17517 112.1727 3.524416
-13.89297 117.3135 4.256152
13.13858 127.2952 7.744592
-13.4139 142.5591 5.757325
-4.87161 144.4489 5.733171
-10.29247 147.4395 1.253469
15.82114 82.22716 9.660275
9.484217 83.40767 10.30153
4.188287 81.23618 10.26073
-1.612244 82.34859 10.27444
14.65359 99.67427 7.596299
13.39267 100.0228 8.395537
16.3189 95.90936 6.79623
14.60713 133.0546 8.42147
-16.29104 104.712 2.679306
-12.64129 96.87408 8.987053
-15.56322 96.50232 7.462438
-16.18601 100.7257 5.531857
15.59687 101.3933 6.369399
12.69211 101.804 8.696703
12.23138 101.2272 8.846004
14.066 98.60238 8.175055
13.70106 104.575 8.133634
-13.79568 126.9683 4.409081
-13.29475 134.2374 10.69004
-14.18041 129.2418 8.290964
-14.57781 134.2393 7.89598
-13.92296 131.4432 9.91294
-13.98449 131.356 9.753751
-13.3896 132.984 10.91407
-12.87562 131.7599 11.43849
13.21962 126.1627 7.350417
12.96624 127.5692 9.67067
-8.014748 145.0665 4.161154
14.60824 84.90198 10.06865
12.10693 86.51826 10.27334
13.89013 84.65717 10.22369
16.78411 97.50264 5.243607
14.76924 135.1393 5.561688
13.28763 130.1053 10.23036
14.59977 134.7176 7.448836
13.55202 133.4373 10.59811
-16.38321 101.7687 4.795061
-12.00886 97.70715 9.142988
-19.472 84.71975 5.680469
13.92305 98.22774 8.310041
-14.29431 134.6955 8.474875
-12.37632 134.071 11.83193
9.748095 125.9808 11.77848
11.74907 126.4254 10.65169
14.33448 130.8238 8.285145
11.23789 130.1221 12.30136
14.31334 130.0403 7.194321
14.2258 130.4134 8.552374
14.10195 127.3151 6.530883
13.52572 130.6367 10.20111
12.67297 130.8446 11.43874
13.79091 82.98231 10.22124
15.31723 86.13959 9.767558
8.33939 84.22683 10.16458
-15.07689 93.44889 8.724654
-17.5437 85.56178 8.338103
9.752592 85.16956 10.08545
-13.21877 132.2239 11.1323
-10.85435 135.5604 12.32624
-10.48111 132.7072 13.28146
-11.08716 136.1133 11.74169
-8.880245 134.534 13.49454
-10.88653 132.0167 13.03828
-10.08646 134.7262 13.12269
-10.66873 130.2976 12.69173
15.08417 84.15744 9.956317
14.58106 85.61127 10.07197
-17.81987 94.50662 4.483159
10.65586 100.2347 9.258275
-6.042975 136.1302 12.7397
17.73768 84.15052 8.300736
18.7625 85.69357 6.881831
17.17034 86.7194 8.620552
10.06695 100.9449 9.407286
9.54037 103.5894 10.06315
7.079438 99.63702 9.974582
-7.794968 139.0172 10.12109
-15.23014 95.21872 8.134224
13.46531 99.41368 8.402465
17.7745 88.30116 7.681252
13.61882 86.53715 10.17491
11.47118 96.87624 9.156115
-10.33411 136.2014 12.15111
-7.2203 138.5487 10.65986
12.90027 91.43688 9.722946
-16.53699 94.61107 6.989207
-17.67242 93.10368 5.923614
-17.2866 90.84929 7.554243
13.06972 96.63687 8.913515
-8.598324 141.0145 8.006522
-10.93183 139.2563 9.472884
3.551349 146.9055 4.201356
-7.252389 135.3567 13.24142
-2.504472 136.7066 12.2675
17.21182 91.86127 7.241871
14.34007 90.72639 9.608437
16.922 89.82085 8.241899
12.12371 92.46446 9.591675
13.27656 93.03905 9.467646
12.80795 95.24992 9.187046
-18.16767 92.05249 5.468736
-9.888032 138.8136 9.928412
-11.92814 139.0826 8.159859
-5.145974 129.5926 13.33257
-5.18935 136.2655 12.63476
12.40604 93.54414 9.490801
-6.742397 138.0748 11.16868
-9.247486 131.2149 13.4917
-7.349155 134.2492 13.6755
-7.356349 132.7691 13.89875
-6.394678 131.6301 13.80222
-2.854629 134.8527 13.54855
-11.86261 95.43091 9.272467
-11.9417 93.63059 9.524574
-7.985923 93.19659 9.472007
-9.905316 95.12371 9.544818
19.91295 80.54968 4.983855
-14.90329 137.2903 1.260019
-14.25093 135.6063 7.564682
-12.72108 150.8733 -2.021389
-9.651433 150.6081 -1.661229
-10.2161 149.1112 -0.3129921
-18.89182 80.87771 6.977809
-17.74276 80.22642 8.323565
-19.9482 81.78352 4.909187
-16.98182 82.85486 8.968557
-17.57495 83.76776 8.451689
-17.80013 82.90549 8.250544
-12.88202 147.8391 1.339054
-12.9273 149.5481 -0.5459488
-1.529918 149.1055 3.038759
-1.933158 148.2063 3.664671
1.710854 147.1383 4.346727
3.043093 149.2253 2.776762
3.723671 147.2138 3.9932
-4.917506 140.5099 8.980585
4.709405 146.5329 4.156779
6.544456 148.8474 1.800187
8.281516 148.9381 0.7188078
7.569185 149.8103 0.4469166
6.268201 145.8525 4.054713
6.067427 145.497 4.414088
7.517335 145.7897 3.564975
6.83466 146.4325 3.363398
5.233337 150.03 1.126989
5.355775 144.9972 5.024346
6.975453 143.9377 5.295568
-0.7641187 148.1614 3.62237
-3.032647 148.2087 3.608962
-13.51534 83.91135 10.2461
-14.89155 84.78815 10.0122
-10.87413 83.84733 10.19773
-13.82347 111.3373 4.023386
-5.847831 147.7449 2.954242
-5.772775 150.3095 0.6170762
-5.173895 150.7061 0.4438174
-4.849467 147.6386 3.393411
8.047394 83.7188 10.22712
18.59741 90.68251 5.308077
16.85473 94.1337 6.727626
15.76471 96.02843 7.451802
14.87572 96.03889 8.210038
7.550799 143.3837 5.635752
11.75439 144.3539 4.868958
14.01043 144.8766 3.898849
11.23779 145.9988 2.775033
10.72888 144.1149 4.8873
13.91607 109.1659 6.088621
11.94968 122.1421 8.579284
12.24148 114.2197 6.612005
13.80297 111.1834 5.748216
14.14563 111.5668 4.954702
11.8576 112.7526 7.724557
12.76663 106.895 8.560694
13.39823 108.6769 7.218949
10.5421 104.2816 9.573917
12.14085 119.7374 6.77378
10.64028 113.2129 9.35523
10.87225 107.7972 9.589729
13.99449 104.9929 7.809812
10.92311 113.4584 9.317234
13.76129 106.3028 7.810009
11.30729 121.228 8.483908
7.665919 123.1274 12.39713
12.36249 118.4688 6.366851
13.24243 118.3477 5.196517
12.11101 119.5663 6.784329
11.03226 118.5295 9.682014
10.02194 115.8441 10.24567
10.49021 120.6491 10.50361
11.82425 117.3953 8.132503
9.324295 116.8615 10.66198
10.91348 114.5819 8.45265
11.68842 116.314 8.161474
-12.64078 120.4282 5.282043
-6.803655 149.5266 1.157605
-5.878021 149.0437 2.014862
-13.0002 89.57917 9.977731
-6.667483 82.78043 10.23241
-14.12166 124.8535 6.351444
-12.61537 123.9687 8.845072
-12.66669 124.5196 7.079429
-13.74223 125.5176 7.226248
-10.5359 131.3979 13.13053
-10.96336 127.3352 11.71008
-14.26127 128.2646 8.123586
-13.41661 128.0441 9.206223
-12.02624 126.7424 9.343629
-12.18541 124.9316 10.09681
-11.59962 126.1747 11.1466
-13.07616 124.3728 6.484476
-12.5938 121.582 6.24431
-12.04135 125.7527 10.19633
-12.68989 123.7385 8.778537
-11.24509 122.5547 9.255601
-11.96568 123.7345 10.10897
-12.61317 121.84 9.011097
-7.318047 122.0833 11.8081
-9.693242 124.4804 10.59355
-10.49465 129.0046 12.32103
-6.407278 130.9543 13.68895
-2.536982 132.2913 14.00103
-6.399975 129.9175 13.36911
-7.934542 126.3696 11.97994
-8.385504 127.3897 12.16458
-3.956779 126.3693 12.75458
-14.12583 110.1774 5.817517
-12.96035 112.6238 6.42102
-13.29257 117.0266 3.815748
4.469667 80.65143 10.19116
-8.484815 142.5465 6.47229
-7.229139 138.9111 10.29449
-5.909853 141.8186 7.724164
-6.089579 139.6396 9.690919
-4.670512 139.6216 9.769602
-0.8811341 137.9593 11.20792
-2.120062 139.1232 10.20416
-2.432032 140.3368 9.182017
-3.896967 139.869 9.569461
-0.2133989 140.5515 8.983051
-2.129158 143.3324 6.858338
-1.389202 138.3303 10.88663
7.263096 142.1656 6.879407
-0.1822861 139.4577 9.897052
-4.738858 136.6893 12.31754
2.776691 144.503 5.887227
2.788805 141.0183 8.503371
-3.627815 140.9804 8.637312
-1.290252 137.483 11.62398
0.6257777 136.2674 12.64087
-1.350311 143.2593 6.928452
-4.251981 144.8142 5.593438
-2.586867 141.0882 8.568
-0.6756526 146.7857 4.538834
-5.458429 146.2174 4.234764
-1.787435 142.7679 7.27972
-1.667837 144.9545 5.729103
-2.604355 147.564 4.031713
1.227426 142.7759 7.208777
2.637621 143.1208 6.863849
-0.6113846 144.3027 6.19732
-0.8843725 147.1973 4.268062
3.371313 143.014 6.859838
2.933416 142.364 7.400224
5.315743 141.2569 8.064954
3.983747 141.6465 7.88002
4.962049 141.4623 7.928292
6.564799 143.1889 6.071733
7.543663 142.4519 6.539782
7.9234 139.6851 9.427071
3.570811 139.0487 10.21693
2.030596 137.5634 11.54761
2.859112 136.794 12.22041
9.226176 140.6549 8.512796
6.935337 139.0052 10.18719
10.0175 141.9477 7.218668
11.06758 140.7009 8.396134
10.98998 142.4633 6.88778
9.921742 142.3393 6.751043
9.336131 141.6584 7.426576
11.19507 85.87455 10.20246
11.80393 90.40448 9.870793
11.00078 86.89985 10.36852
11.74659 139.9187 7.552627
13.56974 136.3104 8.362782
13.0437 137.9672 7.26216
13.01574 103.2415 8.597502
11.87547 132.4711 12.49672
11.12587 131.1117 12.78076
9.311376 135.6725 12.84938
4.310987 132.6054 13.9635
18.39352 87.36024 7.08707
17.32235 88.69754 8.15039
16.11844 87.6581 9.263932
9.021018 100.756 9.614589
-12.68231 91.0136 9.810014
-15.96265 88.20913 9.294717
-13.26703 88.5992 10.06657
-12.58841 90.05624 9.889159
-15.88577 92.61104 8.362849
-10.48603 85.62423 10.25182
-11.17399 87.04939 10.39143
-13.56856 84.58192 10.23864
-10.98714 92.81825 9.517579
-13.79359 88.51566 10.0192
-9.022542 87.69219 10.48653
-12.91006 86.72913 10.26267
-10.02885 88.20765 10.32431
-19.54712 81.21193 5.845462
8.404297 148.0226 1.366912
10.28692 147.0062 1.678123
7.366802 147.3546 2.407928
-10.17282 81.68096 10.25918
7.794835 81.90465 10.28192
14.85327 96.33221 8.150711
11.97195 145.645 3.517737
0.2538716 83.33853 10.1988
2.772532 84.15997 10.10529
3.026516 81.91214 10.30236
-1.768593 83.72018 10.14366
6.929071 81.93212 10.29126
12.56583 114.9234 5.818454
7.816366 116.9425 11.95407
-13.12855 119.7532 7.749284
-14.48965 127.2351 6.136154
-12.53136 130.9904 11.62189
-11.18507 121.3606 8.826376
-9.216391 119.5007 10.13836
-12.13148 118.0889 7.048294
-8.000918 121.2748 11.25818
-6.403494 124.9149 12.27256
-5.559339 127.1183 12.73542
-7.578365 122.7237 11.60313
-6.24559 126.2293 12.48034
-4.501855 126.2065 12.69393
9.142509 129.9819 13.09162
-15.4194 107.9851 2.344589
-13.19302 112.2759 5.655443
-13.264 114.6252 5.193736
-12.26833 113.7816 7.564537
-12.47775 114.5644 5.639683
-13.42744 111.8771 5.812424
-12.88293 112.0256 7.470887
-12.33739 107.8906 8.65703
-8.485595 112.5706 10.0619
-14.17532 115.2196 4.861421
-13.70605 117.2946 6.236685
-12.57923 116.1654 6.15733
-13.38229 117.6016 4.294038
-11.88576 114.674 7.425631
-14.28426 117.2674 5.581987
-13.93446 118.2771 5.347464
-9.06747 111.6095 9.883321
-7.158405 107.8107 11.1257
-9.81625 114.4534 9.843541
-10.99974 111.1113 8.683092
-9.983095 110.8539 9.496984
-6.759882 87.71507 10.59244
-3.02689 133.3066 13.93046
2.104885 135.1312 13.49422
0.739446 135.1947 13.44582
9.945217 139.9376 9.381274
9.251589 138.705 10.34286
6.473668 136.2809 12.68323
6.195446 136.0965 12.81368
5.851826 137.2586 11.8663
4.119303 134.9559 13.48771
7.727399 135.298 13.31029
9.344463 135.0591 13.20358
2.169262 133.2544 13.98414
8.145064 137.7617 11.36755
2.363794 132.5001 13.99667
10.3985 133.3084 13.28838
7.843638 134.9715 13.44853
9.304654 137.5166 11.34783
0.0515849 131.0842 13.75519
10.90328 132.7635 13.10805
1.762844 133.0789 13.99789
2.692827 131.915 13.92251
0.5208402 133.2261 13.99297
-1.849108 131.5749 13.8652
6.676813 131.4684 13.79919
5.133173 130.7309 13.6514
9.819462 132.0902 13.49304
8.254729 128.6076 12.92628
3.320544 127.9943 13.16019
3.377305 129.4208 13.3914
3.377392 128.8925 13.29613
2.630257 130.7911 13.68205
1.656869 128.8767 13.29303
1.717466 129.2789 13.36357
3.041015 124.2777 12.84486
6.227666 129.2304 13.29968
2.929355 126.1604 12.96225
4.948972 125.4852 12.87593
1.919453 124.9171 12.86453
8.412378 127.8933 12.72386
4.28585 122.8468 12.7777
5.018886 128.9426 13.28383
4.38391 123.6387 12.80573
9.565541 119.4628 11.07711
10.68196 125.301 10.64562
9.987077 128.2375 12.21421
9.2552 121.751 11.61429
8.220778 124.122 12.33546
8.616791 117.8537 11.14372
8.212181 118.7638 11.64006
9.081508 114.9416 10.95826
7.370812 113.3612 11.46894
6.215089 116.5268 12.32673
7.124551 114.3534 11.78207
11.777 86.04129 10.23881
13.27682 134.016 10.82695
10.41896 105.4105 9.731997
10.05333 105.6985 9.903322
9.604198 106.689 10.18462
8.885927 103.115 10.13269
9.858192 110.2595 9.593626
-12.50328 91.92722 9.675401
-9.814691 85.52552 10.24525
-10.86168 92.04915 9.655887
-8.147035 91.75237 9.6173
-6.49992 86.94788 10.57543
-7.28113 87.78809 10.55855
-5.242738 89.11619 10.09189
-4.689284 87.08128 10.63395
-9.058718 90.69068 9.589871
-5.982646 91.10172 9.475019
-7.656692 94.60635 9.623653
-5.461478 86.91827 10.63761
7.291748 84.43044 10.1262
2.370084 83.86992 10.1386
2.590143 85.22241 10.06417
-0.6739984 85.29993 10.08797
6.169452 85.48965 10.07927
5.866218 84.78857 10.07052
-10.8434 119.3607 8.692268
-14.98482 108.6576 4.262888
-15.36428 106.9842 4.319099
-14.82261 101.2885 7.281321
-10.97882 120.1262 8.690001
-9.690835 120.4087 9.899264
-11.34972 115.4578 7.567355
-9.084215 121.3148 10.44138
-9.694263 117.262 10.06938
-10.89308 115.1595 9.312334
-10.01809 107.7356 9.975835
-9.122922 107.4997 10.35099
-13.65405 106.9734 7.684953
-13.31584 106.4269 8.190401
-8.529489 108.7229 10.5061
-15.08963 106.8112 5.42441
-8.55627 104.997 10.45773
-13.87384 97.18436 8.523841
-8.593562 106.5204 10.53368
-11.86905 99.18383 8.972625
-11.1542 106.7193 9.511937
-12.29345 104.1562 9.000352
-11.53665 100.027 9.056035
-15.19431 99.05766 7.202124
-12.35237 104.4905 8.982191
-15.09197 101.5268 6.988846
-2.60063 83.77844 10.12763
9.808473 135.6312 12.75539
10.6046 134.7252 12.90199
11.78073 136.0633 11.22404
12.1335 134.7104 11.7863
-6.311627 123.5409 12.19548
0.04257746 129.5766 13.41465
-0.2646029 128.6924 13.24196
11.09777 118.8942 9.565106
10.18169 121.1494 10.92309
8.263881 121.1393 12.07474
3.48782 114.2253 12.39524
-5.743152 89.42326 9.895577
-3.240633 87.88524 10.66391
-5.027706 95.56842 9.79815
-4.099879 92.44983 9.507291
4.478004 84.33067 10.08864
4.623878 86.9472 10.59483
-0.1340201 85.38972 10.1054
5.469596 86.63034 10.56039
1.322709 89.18843 10.24307
-5.525637 118.6167 11.38585
-5.61172 121.7657 12.04538
-6.584027 124.2244 12.15994
-3.588584 120.795 12.02163
-7.993331 118.3457 11.20561
-7.429432 117.5222 11.04238
-8.26004 116.1601 10.57894
-5.836552 113.3561 11.33042
-4.461031 119.7155 11.70987
-5.100798 123.2146 12.27707
-3.9655 118.7915 11.88609
-4.245909 120.4793 11.83201
-7.599168 115.9308 10.57203
-7.646114 111.6432 10.60155
-8.170254 114.1576 10.11463
-14.86042 105.9911 6.430545
-14.54322 105.8453 6.995595
-14.88509 103.1918 7.074629
-14.14201 105.079 7.512702
-10.7625 103.8433 9.590033
-13.39214 101.2097 8.337803
-11.35773 98.9026 9.124969
-9.940846 99.84457 9.447089
-10.54694 104.8913 9.711915
-9.691564 100.9788 9.623423
-11.02877 97.54591 9.313115
-8.269581 97.4208 9.637726
-10.02765 97.98883 9.525525
0.3131713 126.7236 12.98208
-2.762392 125.8953 12.75678
4.853277 114.0614 12.39013
4.884566 112.7684 12.31152
-0.937856 90.0489 9.652796
-1.834215 87.86713 10.7135
-1.097056 91.03412 9.296144
1.925379 91.19969 9.312574
-0.9214817 100.9399 11.41404
-2.929922 91.9669 9.457166
6.323791 89.26669 10.23162
4.35159 89.22581 10.26027
0.5556121 87.30442 10.70382
2.519124 89.13181 10.27194
3.936277 88.23337 10.5478
2.494918 91.79121 9.294645
10.81999 91.91376 9.602094
0.3786736 94.04213 9.533061
10.55592 91.92096 9.581216
13.024 90.75587 9.804351
2.885662 90.64343 9.476422
3.929728 92.13228 9.381924
6.445145 88.40562 10.49627
7.718194 90.16222 9.802683
10.28252 93.00772 9.551267
9.479012 88.16127 10.4452
8.391738 90.86308 9.547729
6.577611 90.89399 9.440591
3.420772 91.57677 9.260643
11.98173 91.01713 9.788264
12.37374 88.34323 10.18632
-6.204101 93.56552 9.491658
-4.911159 94.09132 9.505383
-3.831155 95.54289 9.770742
-3.899955 96.12036 9.912788
-4.400162 96.39062 9.935947
-3.676439 96.69842 10.01815
-8.143987 96.40178 9.593195
-6.304435 115.9169 10.94623
-0.8986185 123.0055 12.63224
-0.4991452 116.0149 12.5106
-1.02347 121.12 12.58707
-15.14146 104.8791 6.390341
-8.813973 105.7507 10.42023
2.847233 113.0332 12.37435
0.2324263 112.1777 12.45645
1.35465 105.5341 12.27838
2.755036 110.7613 12.40417
-0.8779074 91.85622 9.404296
4.128451 93.1725 9.555629
10.05221 97.89162 9.283216
9.318503 94.78923 9.321661
4.506679 97.96258 10.00572
9.918929 99.14353 9.390839
-2.344203 98.46676 10.51589
-3.030347 96.78772 10.05122
-8.489634 100.4359 9.843841
-5.493051 97.64722 9.948191
-7.265041 100.1754 10.15759
-5.939516 100.6453 10.55051
-7.097064 104.643 10.92396
-3.03853 100.5807 11.07915
-3.027345 99.57253 10.78931
1.195423 97.1172 10.1258
-6.117531 95.82224 9.798433
-0.6683103 122.2871 12.64092
-3.674882 118.1798 12.05164
1.688988 124.8144 12.85336
2.57334 116.1476 12.59016
-0.3966106 117.896 12.51486
0.8301256 112.6726 12.46842
0.08011644 114.8265 12.55165
-2.727002 112.4486 12.22055
-1.736845 112.4666 12.36036
-1.754571 115.8184 12.34306
-4.878177 111.6453 11.74964
-2.87724 109.0226 12.27601
-3.258634 116.702 12.19854
-2.319453 114.6133 12.26583
-3.910532 115.4593 12.00493
-4.067866 117.3461 11.93837
-3.992571 112.0285 11.97683
-6.003364 110.5361 11.38699
-3.201422 114.0471 12.12097
-7.223062 110.0989 10.91533
-7.244026 108.9052 11.02228
8.994423 110.71 9.882173
6.195691 111.7836 11.21191
9.820327 111.8579 9.252496
-1.133899 104.7638 12.21928
9.120994 107.5023 10.33204
8.869848 96.58659 9.364354
10.82175 97.43326 9.210078
7.034566 95.19994 9.390532
5.38468 94.53934 9.409442
-5.240447 103.3862 11.30362
-3.009001 103.0027 11.77482
-2.728321 102.4635 11.672
-3.463564 105.8554 12.18538
-5.694708 104.8145 11.4145
-3.038639 106.4306 12.29449
-2.768675 107.2344 12.3092
-5.714446 107.3415 11.68731
-6.602197 105.8203 11.24432
-1.087139 101.2145 11.48558
1.377936 105.2209 12.25949
1.954571 106.3706 12.31507
0.7581114 106.5222 12.31662
3.946321 108.1295 12.20361
1.409993 96.73028 9.972
2.983772 95.7103 9.60216
7.061508 98.43623 9.691401
6.165396 97.56401 9.746389
6.713189 96.53281 9.49969
3.082138 96.53562 9.77164
0.7880628 98.90218 10.77272
4.249407 100.0357 10.62044
0.7510315 99.14661 10.85994
4.987649 97.97155 9.951248
7.00918 103.2206 10.77861
5.025447 99.70255 10.36984
-0.3920212 102.0918 11.74998
2.840413 102.1141 11.55575
0.6616474 101.6336 11.62139
8.210226 102.6422 10.23452
3.665218 102.3517 11.47383
8.150447 106.2934 10.72846
5.524764 103.4849 11.22412
7.626294 107.9663 10.93796
4.874671 105.9199 11.87154
6.135761 105.4757 11.40036
3.45074 102.7583 11.61805
2.442369 106.4509 12.29758
2.510636 107.2902 12.32209
4.021717 116.7804 12.49167
2.905044 115.8718 12.52409
5.828382 120.426 12.57786
-0.2451696 116.3758 12.53922
6.224934 122.2611 12.61588
5.154788 121.4597 12.67358
3.881427 121.9743 12.76183
3.289003 120.0528 12.72446
4.905795 120.8715 12.66831
-3.032564 119.1151 12.22086
-6.314426 110.4806 11.2653
5.766134 94.61653 9.390514
-0.1926762 105.6339 12.27252
-0.5433814 108.4637 12.3319
0.2477804 106.9222 12.31888
-0.297828 106.6378 12.31147
2.640583 108.9527 12.28753
3.863919 100.8608 10.97992
0.1578846 122.1094 12.66814
1.069202 122.7423 12.73393
-14.00448 130.5029 -1.277441
15.75166 151.3596 -5.923585
20.57888 82.93592 1.475639
18.08255 94.46893 -1.923511
19.70773 88.79952 2.48616
12.13868 90.49766 -10.88959
17.96508 95.81787 1.9202
-14.69617 151.5675 -6.037541
20.52636 79.32632 -0.5880108
-19.27325 90.16975 -1.558316
6.481257 81.61981 -8.765898
8.317839 79.34264 -8.667068
-15.71305 151.391 -5.879712
4.954257 76.69507 -8.739446
15.46763 77.01002 -7.87967
20.31365 79.2104 -1.62422
18.33774 94.43684 0.8104615
14.0188 125.4979 0.8699957
15.09733 135.2548 -3.485306
14.13688 130.3914 0.3636957
20.08871 87.11641 1.424024
20.51489 79.83251 -0.7126584
15.17424 137.4299 -1.68426
15.89406 151.4509 -5.135652
18.70207 79.33653 -5.128007
16.15156 146.1804 -10.22973
14.57237 138.9807 -9.650261
15.37574 143.0801 -10.54098
-15.58654 81.651 -7.672114
13.31421 79.13803 -8.454065
7.244979 152.8819 -7.25133
20.62898 79.65755 1.026261
15.5321 138.1254 -6.696031
17.19408 98.13237 -1.884417
-6.148073 76.50977 -8.757637
15.24737 136.7524 -2.827404
-13.98155 78.1993 -8.343832
14.05508 130.0565 0.01561363
-10.97375 78.49077 -8.677277
-7.868189 106.3743 -9.89829
-18.90958 77.49179 -4.774741
-18.54508 79.65504 -5.30863
-0.547341 147.4939 -11.73253
14.73874 132.7348 1.423847
-20.96513 77.27996 0.5801294
-18.95035 87.45959 -3.95512
-15.89416 103.8825 -1.380275
-16.63568 102.0249 -0.4584019
13.49838 114.3448 0.885031
15.10417 136.0205 -1.53054
-15.89004 144.5467 -10.44572
-15.57701 87.01984 -8.047082
-12.88845 144.5779 -11.22292
20.60322 80.40235 0.003310379
-15.41686 107.9839 0.03046634
-8.826576 152.4448 -6.101662
-3.171856 80.34779 -8.690084
-14.17653 130.667 0.4828549
-13.91761 117.8668 -0.5406421
-13.33341 122.6126 1.982103
-20.81672 79.43565 0.9041947
20.62447 82.10506 1.161165
-15.12375 141.0001 -10.12597
-15.05714 136.3224 -0.7380044
-14.75272 132.8264 0.7307954
-14.52832 105.9482 -3.854071
14.81189 133.632 -1.200802
14.69722 134.0803 -5.126714
14.46025 132.2198 -0.8127366
16.44775 149.6682 -8.55784
7.321983 149.9167 -10.32043
14.00708 149.3125 -9.557781
-20.11217 86.97565 0.2589462
-18.27501 94.00152 -1.523131
-10.76573 151.2852 -7.82804
-14.83753 145.4045 -10.6655
-15.33495 149.4694 -9.141608
-15.39781 150.3662 -8.262231
-15.06599 135.0617 -4.459042
19.26281 78.91309 -4.249685
-19.13624 78.66271 -4.467904
-19.65662 79.20396 -3.516629
-18.99743 81.16482 -4.667332
-20.54048 83.21633 0.4378774
20.47801 83.59938 2.202936
16.66062 100.6493 -1.68788
19.20891 90.74693 -1.052951
7.218467 77.31206 -8.721539
5.049564 78.22382 -8.694281
-17.82319 94.08745 -3.378108
11.54018 118.1243 -1.591011
13.92369 128.2813 1.965949
14.91455 139.1762 -9.299157
14.70479 132.8046 0.6889943
10.72468 148.7228 -10.37334
10.02278 151.9629 -6.07304
12.0306 141.7426 -11.61149
-6.711652 77.69609 -8.711992
-16.00887 78.2443 -7.538097
-18.80414 89.60117 -3.481802
-14.53262 143.3051 -10.79088
-11.4991 151.804 -6.258862
-15.23533 144.3956 -10.62732
-14.23577 131.0483 0.9625182
-14.7761 133.3968 -0.9892105
-14.9847 134.6764 -2.18768
-15.37706 136.6472 -4.663904
18.74988 78.74083 -5.053138
19.71255 80.42912 -3.384505
20.32829 84.84034 2.347939
20.16562 86.19231 -0.4843874
-16.97044 79.34567 -6.867661
-16.04116 77.66443 -7.548278
14.83522 108.2022 -0.5161381
18.18207 94.98183 0.6079081
19.36075 90.59541 1.89079
14.78299 80.81132 -7.999656
1.028565 76.96998 -8.73088
-15.4315 106.8546 -0.6797025
-12.49589 113.1456 -1.077442
-13.9841 110.6968 -1.185155
13.41469 114.0586 -2.049867
-13.09359 123.5205 1.072762
14.28542 127.2383 2.264387
14.10427 129.7422 1.866422
15.13757 137.5727 -8.001538
14.87086 140.3748 -10.05266
14.1998 131.0383 -0.2665234
11.95261 150.7411 -8.550723
2.477612 151.7156 -10.0202
6.042747 151.9097 -9.090255
6.906216 152.5805 -7.937427
14.95391 149.4554 -9.282717
-10.5656 77.16219 -8.740252
-0.1975709 77.48973 -8.714385
-15.14808 77.08645 -8.010098
-20.06063 87.35643 0.5243171
-19.09964 91.45399 -0.568918
-18.72959 92.52821 -1.211283
-12.26795 139.8043 -11.32445
-14.57465 141.8818 -10.62173
-9.237807 151.9361 -7.337436
-5.365424 149.6489 -10.83742
-13.7351 144.5608 -11.01858
-14.00021 128.9459 0.2748424
-14.86536 133.6886 -0.3619944
-14.93319 137.3793 -8.287503
-14.53232 133.0675 -3.76768
18.26242 81.22552 -5.624585
18.96848 81.49916 -4.685548
19.93861 81.33546 -2.865968
20.01456 87.24544 2.348318
-19.91838 84.01324 -2.487924
-20.05781 83.03362 -2.339895
-18.06542 81.04976 -5.8622
-19.14227 80.69009 -4.449425
14.33672 108.8353 -1.357606
15.92944 105.5098 0.5870861
18.5281 93.55327 -0.5077186
17.49764 98.33131 0.5003572
19.18959 91.32065 0.1954779
12.46287 79.15961 -8.589366
11.80595 79.45026 -8.636182
8.363457 78.36058 -8.684806
6.533918 77.82488 -8.703892
-2.22792 77.07828 -8.729993
-16.31243 102.0859 -1.657832
-15.53364 105.6577 -1.020599
-14.09456 111.2896 -0.6253306
-13.48136 111.67 -0.7308725
-12.78132 116.6618 -0.03106843
13.9135 116.0848 0.126471
-13.34478 124.9592 2.31196
14.98455 125.6476 2.334754
14.03103 128.6002 2.563104
12.68891 120.8341 2.168982
14.93565 150.7911 -7.869806
14.67596 148.8288 -9.721066
5.950734 148.7103 -11.2544
4.270378 152.8833 -9.038946
-6.933579 146.3895 -12.01254
-2.828184 152.4064 -9.719632
7.551977 152.4181 -7.719187
8.931376 151.3334 -8.511949
11.73223 149.6781 -9.629103
11.43988 150.4597 -8.941841
10.82825 151.0442 -8.340374
13.9063 146.8847 -10.62646
-7.025373 79.42118 -8.671006
-6.591563 78.34898 -8.692485
-14.17317 78.45695 -8.28297
-12.06539 78.89675 -8.637193
-10.31418 79.80259 -8.639132
-13.387 76.55946 -8.608442
-18.9877 87.95054 -3.71592
-18.30058 92.12959 -3.393942
-17.99767 93.41077 -3.362265
-17.72642 96.75137 -0.4783023
-16.20423 97.69224 -4.885613
-14.98556 143.7244 -10.67263
-7.292057 151.8628 -8.597574
-7.54251 153.0368 -6.429402
-14.30751 145.5207 -10.77543
-13.59464 129.0842 -1.846665
-14.86178 133.8945 -1.157811
18.25081 80.76818 -5.673368
19.95783 83.18371 -2.655592
19.56638 83.77171 -3.510921
18.50151 85.21838 -5.143271
20.00446 84.13913 -2.289047
18.39543 86.8549 -5.024318
17.69234 88.65466 -5.792682
18.3131 84.06254 -5.437274
-20.38229 84.05505 -0.5963368
-17.42629 80.19799 -6.482019
-17.66262 82.98407 -6.236014
-14.75536 82.39913 -8.076851
-16.78835 83.05618 -6.973541
-11.95706 79.9132 -8.600896
-12.67962 85.40082 -9.341332
-11.24847 83.82153 -9.061161
16.47891 103.5794 0.910614
15.95643 103.1588 -1.840564
14.71113 106.6607 -2.162792
15.732 101.8941 -3.321064
16.98526 100.9569 0.1954569
18.05416 95.55652 0.7396511
17.50799 98.34535 1.348117
17.22734 96.7013 -3.026747
14.02817 79.43301 -8.278831
15.13069 83.51141 -8.005511
9.601478 77.7122 -8.711431
2.72829 81.12287 -8.743722
7.402164 79.37465 -8.668828
0.8670387 79.31216 -8.683064
3.052803 79.15679 -8.682228
2.879853 82.41471 -8.92259
-16.00058 104.307 -0.5573019
-15.45478 106.3 -1.289858
-16.98022 100.4283 -0.5366378
-13.12124 118.6842 1.7829
13.2676 112.2181 -0.138677
12.1444 114.7838 -2.111602
12.82742 117.0738 0.2777028
12.67891 118.2667 1.239064
-13.36872 124.2937 2.693859
-14.56422 120.695 1.959236
14.96398 124.2201 2.429476
13.87086 128.0308 0.6159585
13.58867 119.468 2.657233
13.06475 147.9079 -10.42285
11.37642 149.4533 -9.831565
-3.131647 151.1132 -10.26435
7.703089 150.4695 -9.794024
-8.781594 81.52603 -8.730732
-5.727664 82.39024 -8.907305
-4.726123 80.64162 -8.703169
-18.1769 87.00912 -5.360063
-19.12038 89.83805 -2.46007
-17.69734 90.41681 -5.430889
-17.32504 98.17287 -1.289539
-7.988055 150.8862 -9.349507
-2.793417 149.9286 -10.75929
-11.43643 146.3703 -11.22505
-10.93568 144.2864 -11.78416
-12.33994 142.0226 -11.51068
-13.1868 129.9444 -4.696948
-15.51761 82.90974 -7.781719
-13.49817 81.97658 -8.446577
-11.87972 83.82185 -9.040676
14.19486 109.9173 -0.7494112
14.36147 110.4106 0.3200118
15.82954 105.5531 0.162046
16.98865 97.64203 -3.066616
17.34644 97.18102 -2.177731
6.978472 79.01717 -8.674807
11.13361 80.52665 -8.641271
6.493262 80.8903 -8.709082
3.882533 82.20316 -8.878892
3.581698 81.0527 -8.733331
-15.69555 101.4373 -3.653743
-16.73912 100.398 -1.645772
-13.46327 105.4657 -5.019092
-12.67829 114.673 0.8007134
-12.53102 117.3765 1.094556
-13.9471 119.534 -0.02878128
12.3062 119.776 1.467893
13.34138 110.3168 -2.36927
-12.56878 121.9968 0.2734835
-12.84313 122.3604 0.8964745
12.86294 123.6845 -0.3411194
13.35454 128.3171 -2.268116
13.03019 119.3154 -3.006525
9.87627 148.3029 -10.77317
-4.022703 79.50572 -8.682488
-2.446917 79.9231 -8.685489
0.004303973 80.42577 -8.704243
-7.852306 84.69856 -9.59229
-12.70633 84.71611 -9.108802
-17.56282 92.46067 -4.99952
-16.36172 95.03516 -6.040716
-16.49955 92.54173 -6.757567
-16.2407 93.81089 -6.72315
-17.21387 92.61954 -5.552082
-16.86303 91.18627 -6.560323
-9.273414 150.0957 -9.706503
-0.9196045 150.9965 -10.20928
-5.370309 148.2395 -11.51251
-4.600398 148.483 -11.41727
-10.761 147.3436 -11.01385
-13.67655 130.641 -3.930645
14.5319 109.688 0.109968
1.84864 81.79703 -8.831923
0.5545201 83.45358 -9.18651
1.265435 82.42297 -8.939979
6.071674 86.15373 -10.50775
5.240113 82.31841 -8.888946
-16.43074 99.34574 -3.315276
-15.1119 98.52738 -6.331892
-15.56517 97.97603 -5.896262
-14.1534 118.9246 0.3485021
12.47068 119.2189 2.02545
13.44333 110.9306 -1.438192
12.45598 112.8874 -3.61186
-12.7161 123.8438 -2.288143
-12.48885 121.6602 0.6619149
-12.50832 117.9519 -1.091905
-11.75626 117.7457 -0.9444354
11.93358 121.9253 -1.346765
11.44418 148.2483 -10.49368
9.346887 148.5345 -10.74814
-0.31304 81.54408 -8.795879
-18.15525 86.35057 -5.479193
-15.7721 86.17673 -7.808465
-16.99823 85.79975 -6.792046
-17.31754 83.99994 -6.532459
-18.19172 84.65758 -5.601422
-19.55669 84.63108 -3.396718
-17.25836 95.42846 -3.93045
-16.09946 94.73307 -6.58296
-7.094263 149.4165 -10.70074
2.10379 148.1422 -11.56493
-10.89412 142.1909 -11.97785
-14.67613 85.31013 -8.425293
13.47706 105.8282 -4.706831
14.46176 104.9332 -3.792737
12.55495 80.31444 -8.547737
7.628877 87.6792 -11.3452
8.540812 85.37532 -9.975829
-17.27411 97.4932 -2.207619
11.82172 117.3583 -0.1385217
13.30602 119.9348 -0.6699071
11.5849 116.4811 -0.8881436
11.15196 116.0395 -1.595327
13.57872 113.0676 -2.325565
-11.25029 122.033 -2.497353
-9.500653 83.13785 -8.939467
-5.374792 81.874 -8.821062
-19.51366 88.06038 -2.24148
-14.3175 87.58097 -9.05969
4.257656 150.3608 -10.59166
-4.062628 149.8048 -10.86632
-10.26005 144.5563 -11.8949
-11.3511 142.9969 -11.80198
-11.56966 86.62389 -10.20021
13.27466 105.926 -4.97362
13.45678 105.2464 -5.072783
11.64764 108.8158 -6.234489
11.76888 82.20568 -8.737892
-15.82367 98.21886 -5.330978
12.86608 113.7465 -2.80178
12.08879 118.2924 -1.892672
13.20903 107.858 -3.966839
-12.5306 122.4417 0.07723995
-13.74714 126.1879 -1.954104
-11.81691 121.3716 -1.420811
-15.55871 89.38026 -8.250395
2.718823 146.1283 -12.03981
-10.45028 146.5491 -11.36068
-8.783408 144.717 -12.15518
14.93674 103.2151 -4.071293
9.305072 82.53002 -8.85838
9.656685 83.71745 -9.094729
1.075583 85.75405 -10.26482
11.46508 115.1923 -1.677053
-12.43728 124.3796 -1.519838
-11.78097 116.649 -2.07543
-14.08718 89.33173 -9.513873
-0.904309 146.8929 -11.86539
-2.922258 147.7372 -11.6545
-6.009274 144.1323 -12.43925
-4.571489 147.3138 -11.78937
-7.966216 142.3615 -12.5684
-5.841351 147.2641 -11.83005
-9.303795 145.3159 -11.93915
-8.454093 142.6861 -12.48336
14.68631 103.3973 -4.383417
13.5963 104.5691 -5.28407
14.19854 103.5078 -5.079114
13.93812 101.3209 -6.568707
13.9717 103.3925 -5.446448
15.23029 101.0971 -4.765419
6.191451 85.50656 -10.1012
9.590836 85.68008 -10.11334
-2.947719 83.57247 -9.228581
11.95468 117.9348 -2.351361
12.96133 118.801 -1.907315
-11.54013 121.2997 -2.203341
-12.06311 124.6109 -4.05911
-1.538558 148.9038 -11.3041
2.978847 147.9654 -11.60009
4.598259 148.5156 -11.40718
5.139231 146.7516 -11.95515
4.96678 149.8872 -10.7665
2.223361 142.8569 -12.58161
7.134922 144.6193 -12.35785
-2.306794 145.5832 -12.1524
-2.019387 143.8055 -12.44826
12.04091 101.2662 -8.539514
16.64079 99.88371 -2.339936
13.75798 87.35727 -9.400693
4.10245 87.14973 -11.11914
3.81645 85.36919 -10.04057
12.63402 119.1752 -3.165076
-11.7046 121.5754 -3.862057
-9.827468 119.7344 -3.355173
-9.11037 123.5327 -6.405708
-15.19637 89.64431 -8.610278
-13.45271 89.69401 -9.9911
-0.9550921 144.9045 -12.27891
-6.046797 146.0935 -12.11771
9.321507 93.36903 -12.25742
9.311843 86.83971 -10.83143
-13.44496 125.2988 -2.478009
-12.99867 127.5939 -2.827483
-13.92052 88.48638 -9.504724
-2.150631 130.5035 -10.34174
-5.453207 144.0958 -12.42844
10.35962 131.735 -9.20914
-9.226903 138.3305 -12.24553
-14.29328 135.4523 -7.943146
-9.873055 139.8534 -12.24318
9.048215 99.23117 -11.23291
-9.504726 123.0585 -5.745648
2.830442 143.4309 -12.50517
-12.22498 138.2973 -11.04735
11.34696 101.8675 -8.833915
-0.2277279 142.106 -12.6736
-0.9392619 141.0749 -12.76918
15.01725 134.8882 -0.9884182
14.06113 131.2637 -2.86718
12.65054 132.9562 -8.137119
13.62437 135.2014 -8.589223
13.6458 129.8661 -2.798364
6.572223 126.4594 -8.162746
-20.52699 78.46373 -0.6005474
-20.06121 79.07733 -2.510644
-10.78827 150.1347 -9.364463
-14.33915 149.2306 -9.536652
17.25738 78.24812 -6.64593
13.72366 145.2224 -10.95064
11.38325 141.1624 -11.8174
12.148 142.4153 -11.57929
-14.61626 133.4721 -4.211822
-13.58497 132.9946 -6.975915
-13.70115 131.7907 -5.408062
20.46692 84.45392 1.040995
13.83783 137.774 -9.775469
13.44537 135.694 -9.068986
15.24506 135.9649 -4.031887
15.43338 137.5258 -4.404825
10.31348 131.0589 -8.892007
12.6395 135.2837 -9.502208
15.12259 135.3487 -5.043473
15.09002 135.1997 -3.674318
15.34112 136.8007 -3.911474
12.91017 133.5215 -8.224221
12.89754 129.0097 -4.394712
13.8558 139.0607 -10.25713
12.23849 139.6691 -11.33718
13.5617 133.9091 -7.763913
12.76708 131.3406 -6.873116
9.483122 136.3788 -11.61468
9.692162 138.2683 -12.11699
13.52822 141.4776 -11.0087
14.49356 133.1216 -4.412749
10.91022 137.9069 -11.56608
4.627737 134.2836 -11.69156
4.881968 142.2482 -12.65924
8.054564 144.3819 -12.31137
12.37617 127.941 -4.746398
10.9231 139.9958 -11.92268
6.91598 143.3418 -12.54416
7.925157 144.4387 -12.31548
9.961262 145.6002 -11.72991
9.623977 131.2003 -9.341983
12.98838 129.3448 -4.551113
11.60544 127.9669 -5.914018
8.793666 129.7223 -9.00637
11.10261 129.1796 -7.234573
10.85258 148.0906 -10.68734
9.545874 147.2814 -11.28529
11.25514 147.019 -11.03387
10.76453 144.4276 -11.80994
12.78183 134.5908 -9.013628
8.657692 127.5811 -7.995587
10.57479 133.1803 -9.792585
5.810544 128.5949 -9.34545
13.36344 146.345 -10.8467
-13.66637 108.9602 -2.671931
-13.92301 106.5431 -3.936945
-14.38064 107.3266 -3.048928
-11.90037 112.056 -4.479713
-11.96768 111.7076 -4.817424
-12.45999 108.2235 -4.530278
-12.48663 114.8008 -4.279885
-11.31671 111.3929 -6.584463
-11.83555 111.5957 -5.826241
-11.67983 111.2798 -4.812438
-11.13909 110.9886 -6.899373
-13.07904 106.5626 -4.779289
8.72027 87.15946 -11.03969
-11.48907 108.7825 -5.476549
-10.68547 110.4855 -7.48173
-11.61977 106.3748 -6.284087
-9.152918 108.2484 -8.995865
-10.4701 105.6755 -8.333661
-6.274419 101.6925 -11.10365
-8.166231 102.4108 -10.83802
-9.800627 100.1582 -10.55686
-13.45894 100.2357 -7.642734
-12.21181 100.215 -8.858465
-9.236926 97.93142 -11.54741
-11.06691 101.1375 -9.368667
-10.4363 103.1564 -8.947571
-9.365631 101.9008 -10.27819
-9.146327 92.99816 -12.30614
-11.38253 101.6777 -8.88693
-7.963803 100.2779 -11.22014
-4.221342 98.87688 -12.09586
-12.49817 97.9745 -9.505948
-11.76216 98.21694 -10.00535
-14.34459 99.93259 -6.72787
-12.82399 98.84698 -8.886483
-10.61894 79.09957 -8.649504
19.75237 88.45177 -0.7197201
17.9072 93.30943 -3.702424
17.71178 94.05254 -3.711482
18.27028 93.32808 -2.4792
17.50329 83.39066 -6.370732
12.29331 84.57763 -9.146128
15.13778 84.29093 -8.079952
13.27179 85.14407 -9.046024
10.64248 88.92403 -11.28189
17.59181 82.29468 -6.312828
-12.26933 114.3519 -1.410004
13.2908 123.1786 -0.05322791
13.00592 121.5832 -1.359289
13.00495 128.2385 -3.429106
12.39723 125.0337 -3.574686
13.36747 124.4988 -1.427876
-13.23525 128.3472 -2.532511
-12.9197 130.203 -5.634189
-13.35032 129.1406 -3.085551
-15.23703 104.6647 -3.160591
-14.97077 102.7953 -4.33673
-11.69583 104.5663 -7.183946
-12.65752 103.6291 -6.831328
-13.59996 104.649 -5.406915
-3.747898 81.73506 -8.817748
-5.173941 83.03828 -9.036635
-1.732285 84.19301 -9.465432
-8.469506 148.9317 -10.7257
-10.56339 150.055 -9.483232
-12.74998 116.0214 -1.088615
-11.45288 116.1686 -2.239085
-12.55446 114.9233 -4.166904
-10.24408 117.4233 -2.862611
-12.09235 115.5623 -4.082542
-9.678477 115.4461 -3.469518
-10.29862 112.9792 -4.681537
-11.07868 114.6614 -3.888276
-4.047637 105.99 -9.427241
-7.718947 110.3279 -6.232567
-8.729465 113.2555 -4.579924
-8.949529 107.0443 -9.446213
-9.36155 111.8671 -6.578033
-8.320591 109.8466 -8.430494
-6.333271 108.2797 -7.759166
-7.923405 108.2219 -9.549869
-6.868531 108.5987 -8.879575
-4.970026 106.1327 -10.14111
-5.754711 106.5666 -10.55958
-7.741226 105.7674 -10.08194
6.91133 111.3037 -8.983984
-8.815529 113.9223 -4.290126
-6.429665 112.887 -5.401557
-7.158679 103.7419 -10.62496
-9.063176 114.2876 -4.049417
-4.422354 103.8414 -11.2897
-3.345672 107.4789 -8.730581
-0.8987468 105.904 -10.12984
-8.930452 116.5518 -3.74441
-2.280298 108.9862 -8.402533
-8.603911 116.3352 -4.002691
-1.878222 109.5369 -8.047853
-1.650708 105.7284 -10.03789
-9.213924 117.1479 -3.42738
-9.612576 119.641 -3.62269
-10.6665 119.7888 -4.567716
-7.689495 115.8752 -4.529763
-4.226097 109.1318 -7.566476
-2.716544 106.7694 -8.841117
-3.57759 104.3752 -11.7281
-3.82999 110.6095 -7.367975
-1.230253 108.1449 -7.57361
-2.071934 107.7078 -8.122249
-0.1250618 109.16 -7.167435
-0.1955814 105.1948 -11.68833
0.3682833 106.0818 -10.72383
-1.614199 105.2285 -11.18917
2.075284 110.0528 -8.072967
0.2693541 106.3222 -10.09228
-2.397409 105.1947 -11.47771
-4.320724 103.7311 -11.25142
2.401373 108.2618 -8.808194
0.1847524 104.511 -11.78506
2.171188 103.2245 -11.04806
-0.4787737 102.5556 -11.114
2.59872 107.2172 -10.56336
1.972316 104.6089 -11.558
-0.2416402 104.2171 -11.78343
4.359591 104.2858 -10.81795
6.319759 109.9749 -9.625041
5.64704 109.6311 -9.595709
2.96616 105.1793 -11.48037
0.4730006 102.2941 -11.04889
3.975598 103.2208 -10.75094
3.343886 104.8812 -11.37264
12.51296 103.6672 -7.042024
2.01559 112.0561 -5.970305
2.214126 110.9854 -7.699537
3.502815 111.5601 -7.831639
5.687999 112.597 -7.72838
3.579638 112.2392 -6.011341
-0.2135469 111.3093 -6.108713
5.529854 106.9045 -10.605
-2.127822 111.2174 -7.653158
-1.692582 112.8758 -6.040898
-0.4304677 111.5588 -5.866381
-0.9400581 111.5335 -6.102148
6.090501 114.5166 -5.202862
7.408804 104.1011 -9.758591
7.072072 110.0981 -9.460797
1.941837 111.437 -6.220767
-4.404762 111.3716 -6.684038
-5.353083 112.5583 -5.769193
-2.263915 113.6254 -6.371816
-3.27802 113.2663 -6.814842
-5.643256 114.1524 -7.514125
8.387978 106.9976 -8.386585
0.1459589 113.0771 -6.152338
-7.189111 116.0298 -5.850571
6.025898 106.3768 -9.985935
-8.520176 117.5852 -6.041889
-6.843792 115.0577 -6.976078
4.538291 113.2084 -6.047532
-8.245172 117.6586 -4.558511
-9.874248 118.8763 -5.437803
-15.38535 96.90253 -6.705592
-15.67424 96.9726 -6.246145
13.97193 110.1007 -1.07311
-10.55108 87.17031 -10.74034
13.47342 111.2258 -3.756168
9.948018 112.6981 -4.167812
-16.83869 89.95711 -6.813673
12.57293 101.0089 -8.175606
7.484654 87.80189 -11.40444
5.752267 87.66953 -11.36866
9.744122 89.91152 -11.78831
7.139829 91.45197 -12.56904
13.36304 119.8026 -2.467845
11.11177 87.06002 -10.52834
11.21296 86.06396 -10.059
11.43196 115.9072 -4.972534
10.39317 114.0766 -5.503404
10.76331 113.7882 -3.041842
9.42656 111.9598 -4.841375
9.192972 113.1109 -5.143961
8.26188 111.4816 -6.517348
9.278599 112.6857 -6.648409
12.80294 108.1935 -5.476094
7.983026 110.0961 -6.938878
9.180537 113.1719 -7.388127
-14.45706 93.69693 -8.940284
-12.62818 97.0211 -9.726727
-12.96938 97.47567 -9.271847
-12.44765 92.0249 -10.778
-11.80143 87.97186 -10.58454
-10.44248 89.31148 -11.42655
-7.705811 90.52037 -12.3159
-8.802051 86.74134 -10.83883
-4.456969 84.22446 -9.451144
-5.062407 85.33086 -10.01255
-8.519792 86.90086 -10.94596
-11.48294 90.55556 -11.23323
-5.445434 87.91383 -11.5149
-5.55183 93.19301 -12.82899
-7.434313 91.27185 -12.49606
-6.742613 88.22117 -11.64818
-11.32626 94.96589 -11.20381
-10.96887 96.54274 -11.05904
-10.56106 94.02871 -11.74461
-8.733937 95.8709 -12.20005
-6.122505 96.86689 -12.50666
-10.35128 91.84371 -11.84845
-10.42561 94.47251 -11.76567
-8.585416 95.78703 -12.26009
-5.518742 97.38347 -12.427
-11.89178 93.19412 -11.08314
-2.589607 99.70055 -11.86402
-5.905772 95.00634 -12.77778
-4.208891 97.73003 -12.33407
-6.068419 100.9167 -11.32677
-6.439655 99.97395 -11.6514
-2.800694 96.43409 -12.62603
0.1913101 98.94673 -12.18887
-3.45167 93.63266 -12.83854
-11.39416 135.9579 -10.62894
-13.34365 136.8063 -9.73599
-11.0167 136.9149 -11.20331
-12.48504 133.85 -8.853321
-8.318858 137.0836 -12.18854
-9.087814 130.266 -9.137764
-5.568171 134.7743 -11.82503
-9.991432 136.8334 -11.61292
-6.223601 139.8399 -12.7866
-6.347604 140.3814 -12.77476
-11.20701 133.6344 -9.648043
-13.11919 132.0905 -6.939704
-11.69944 131.8907 -8.386775
-4.476003 125.7249 -8.566325
-10.91269 132.3396 -9.182441
-9.01483 132.0406 -10.02527
-7.414873 131.3819 -10.30217
-7.890823 132.098 -10.46946
-9.012175 134.3083 -10.99123
-9.267763 135.5498 -11.37511
-12.60653 126.1274 -3.830964
-12.37871 127.836 -4.631253
-0.4685897 129.5004 -9.894013
-9.885764 129.4375 -8.284896
-11.03961 126.4167 -5.809315
-10.52101 126.9652 -6.676119
-5.244116 133.2605 -11.37929
-11.8254 129.612 -6.787031
-6.492271 123.5935 -7.110614
-6.516891 129.3336 -9.58847
-6.548621 130.5463 -10.16083
-3.654513 132.0246 -10.99563
-6.729414 130.0204 -9.88164
-2.69287 129.9766 -10.08204
-3.01 129.1888 -9.770881
-1.047753 133.65 -11.55274
-0.5588199 132.5793 -11.23217
0.454232 133.2193 -11.44332
2.072456 128.2999 -9.448218
-1.86054 131.5286 -10.83698
1.346981 131.5174 -10.83588
0.770955 128.7873 -9.621102
5.377637 130.0189 -10.08079
3.16777 130.6784 -10.43779
3.923486 129.4812 -9.861377
-13.55425 137.787 -9.988166
-12.33841 138.3008 -10.98514
9.884151 104.0261 -9.192071
3.670541 142.5579 -12.61756
4.083346 138.9271 -12.74075
5.68682 141.5027 -12.74223
2.577132 142.1881 -12.66024
5.679653 138.8776 -12.75513
3.222228 139.8344 -12.79074
-2.883008 134.0683 -11.65415
-1.355067 137.051 -12.4883
-2.163681 137.5351 -12.59972
-4.670425 137.9153 -12.60702
-3.006338 139.8627 -12.78012
11.60289 124.9378 -4.558537
11.06167 125.9326 -5.242508
7.353631 133.84 -11.2964
10.1989 135.2873 -10.91082
6.126629 138.1678 -12.6764
3.988077 134.8819 -11.86454
7.040813 136.0405 -12.06838
8.695174 135.6473 -11.59199
4.57288 135.916 -12.15084
