# .PCD v0.7 - Point Cloud Data file format
VERSION 0.7
FIELDS x y z
SIZE 4 4 4
TYPE F F F
COUNT 1 1 1
WIDTH 1663
HEIGHT 1
VIEWPOINT 0 0 0 1 0 0 0
POINTS 1663
DATA ascii
-20.51693 79.58978 2.853894
-20.59372 81.38161 2.367509
-20.60125 82.51382 0.3131213
-12.41954 72.16899 9.116103
-16.37335 73.12325 8.536455
-10.08476 75.73186 9.650143
-12.11749 75.06777 9.565128
-16.80209 52.19267 3.747199
-15.38004 58.20758 5.399787
-11.43419 55.73757 5.293642
-19.05532 54.52864 -0.8513012
-11.42855 90.46217 9.921775
-19.98175 85.46645 4.108342
-19.36998 90.68893 1.449195
-8.736415 98.78778 9.527883
-8.643835 94.91882 9.388611
-9.648302 97.59711 9.330667
-17.9727 95.65697 2.388521
-17.3122 99.7019 1.594974
-17.05073 101.0912 1.433877
-18.11098 94.59489 3.242184
-15.54834 107.4023 2.794529
-13.83652 110.803 4.75701
-16.57115 103.3606 1.125902
-8.721872 101.5404 9.879393
-12.45317 117.1193 5.468535
-11.80939 118.63 7.148385
-12.97091 119.7406 3.002427
-13.15793 111.3949 5.911186
-9.892081 110.173 9.636583
-7.798816 121.8888 11.15642
-10.40935 129.0343 12.09749
-12.66054 133.6796 11.71694
-12.73413 136.019 10.15791
-19.2278 64.42832 2.792693
-19.85884 66.58142 0.8773664
-19.84396 71.56485 3.582585
-19.22064 71.49225 5.18225
-19.58022 64.83412 1.527396
-16.1656 55.01366 4.59922
-19.17977 87.17604 5.751425
-17.78671 90.83259 6.921848
-18.38829 93.10831 3.895319
-12.73856 97.19132 8.924191
-17.52737 96.78694 3.558996
-16.02834 102.2702 5.545256
-15.12802 107.3678 4.843791
-18.42953 93.86936 2.458091
-15.37338 107.6148 3.546309
-15.14529 106.492 5.595822
-12.32675 104.6212 9.010439
-10.97364 100.6622 9.227731
-12.65934 115.6524 7.436728
-11.90006 115.4743 7.806997
-10.20865 113.655 8.95615
-10.56089 117.5369 8.705961
-13.87973 129.8524 8.319356
-14.78015 132.7479 7.707996
-13.94015 129.5669 7.321245
-13.83621 128.4893 4.385538
-17.80016 67.73916 6.228954
-17.16946 73.46343 8.067823
-16.45819 59.5481 5.097859
-11.96614 97.93674 9.023909
-16.08424 102.0154 5.498152
-17.4459 96.02822 4.515378
-15.82843 105.145 4.76438
-10.05313 109.0929 9.800251
-11.47241 109.7174 8.838942
-8.610726 103.7972 10.26899
-12.17915 113.1504 6.64712
-9.829289 113.8365 9.456334
-12.24451 118.6062 6.360683
-10.2503 121.1341 9.555268
-14.63556 133.4792 8.070946
-18.93032 65.25318 3.891536
-18.01045 74.60744 7.464881
-15.16425 56.83905 5.172782
-18.37718 60.62662 3.018775
-16.19965 94.48981 7.520809
-16.90525 95.74682 5.966117
-13.85172 110.6514 4.884092
-10.14973 100.9801 9.436845
-13.16525 112.3245 5.031075
-18.03565 71.01567 6.764933
-17.71878 71.65585 7.262028
-15.81399 68.00177 7.712752
-19.16479 61.96131 1.677977
-14.14206 59.66634 6.087536
-15.23547 103.1951 6.635726
-10.17791 102.517 9.571992
-13.36799 104.5763 8.423361
-16.51042 99.70084 5.138142
-16.35041 99.23817 5.585266
-13.62938 105.431 8.08207
-13.68888 110.3054 5.681603
-17.08331 74.27985 8.273048
-20.0242 73.95015 3.692265
-16.98574 75.58662 8.527129
-15.92785 75.99152 9.131883
-18.0716 76.35863 7.671146
-18.75049 75.26757 6.645933
-12.27817 100.8753 8.841665
-11.23505 107.1984 9.476561
-12.13211 148.9933 0.09619397
-13.60268 141.7634 4.301773
-12.87615 139.894 5.38613
-9.426698 53.82758 4.999446
-12.38516 69.82216 8.682114
-10.90314 67.82592 8.219079
-12.97018 77.13722 9.822845
-14.90164 79.39243 9.856772
-14.98523 76.95958 9.595028
-13.56515 79.7199 10.09316
-13.84358 82.98476 10.23063
-14.6609 80.14682 10.01489
-17.59647 79.40176 8.428922
-16.22441 79.12748 9.318285
-17.26847 79.10896 8.712131
-19.07369 79.64925 6.66155
-19.46181 77.83047 5.832851
-19.80395 74.06852 4.360821
-20.04773 74.76063 3.808643
-15.85678 85.65939 9.565453
-15.92064 88.15537 9.342058
-12.05245 88.46432 10.12648
-19.02057 86.84591 6.166693
-16.58189 85.15563 9.182036
-14.29921 85.38811 10.14103
-15.11049 81.2359 9.917689
-11.72864 89.89539 9.992244
-10.88184 91.62173 9.743626
-11.86824 90.81764 9.868689
-11.91214 81.54243 10.20522
-10.55237 93.24981 9.51206
-16.05062 90.24857 8.894676
-17.42123 91.22225 7.246653
-12.78895 92.14661 9.675648
-16.69861 88.79237 8.697434
-18.15342 92.44681 5.246081
-14.88834 88.71526 9.741632
-14.62967 131.7242 4.940247
-14.47163 131.2031 3.835126
-20.25226 77.97563 3.77526
-8.370616 112.1904 9.954833
-12.99041 123.9277 5.873663
-11.44925 58.75012 5.927347
-20.37388 74.29346 1.908015
-12.77074 96.39889 9.030055
-15.3471 94.93152 8.123665
-18.2165 66.64957 5.543719
-17.31618 65.69891 6.150489
-18.68381 69.83966 5.700505
-16.23129 66.28426 7.052891
-13.8945 65.1037 7.506248
-15.03954 65.25429 7.285112
-15.53038 68.86316 8.048652
-12.80532 70.99398 8.912549
-17.79016 62.65651 4.774068
-9.052802 110.5084 9.922459
-12.14179 121.9061 7.306765
-15.95108 95.85213 7.308358
-13.15965 56.98125 5.446862
-12.93891 61.17459 6.580335
-13.27153 62.08703 6.808379
-14.78382 60.26374 6.075737
-10.50293 61.91982 6.773194
-17.47207 61.72461 4.809225
-18.78472 62.45134 2.950884
-18.62027 63.48674 3.821855
-11.69084 80.64577 10.15589
-19.83334 84.48161 4.930758
-18.91662 88.02727 6.019457
-18.85228 85.01086 6.870689
-19.94012 83.25426 4.845235
-16.1112 84.59395 9.523855
-16.42163 88.16969 8.990058
-17.96207 85.66245 7.966453
-10.92716 64.39357 7.362022
-11.07259 125.8985 8.938482
-11.78587 123.2109 8.143187
-13.83126 128.9197 5.767371
-13.27919 126.2067 5.613717
-14.54555 69.95319 8.593275
-13.03485 66.19817 7.808359
-17.52296 84.43575 8.507936
-17.3568 80.86932 8.69254
-12.16313 127.6947 8.981861
-12.96667 126.0932 6.414782
-11.99538 126.4684 7.974194
-12.24806 125.2424 7.635138
-12.13071 123.6949 7.692788
-16.81684 54.20012 -6.853568
-2.138831 124.5479 -7.998317
0.1288505 76.9547 -8.586987
-0.005269087 86.09704 -10.45657
-0.5203291 94.87443 -12.92997
0.1607523 88.27493 -11.77757
0.06352529 111.8534 -7.704402
-4.089294 111.8275 -6.589916
-7.644798 112.7484 -5.172438
-8.775515 117.8931 -4.675974
-5.279715 77.50494 -8.804663
-4.040768 106.0072 -8.694009
-13.809 129.4296 -1.204255
-0.8606821 151.8944 -10.85279
-0.7512659 141.0974 -12.6728
-2.678405 150.7347 -10.58285
-13.92383 140.8625 -10.76205
-2.847483 152.3486 -10.04615
-5.512125 149.8989 -10.69601
-6.50757 152.4165 -8.416557
-0.5052084 121.8306 -6.942786
-4.94397 151.4235 -9.881918
-13.67333 147.6519 -10.44703
-1.939769 151.8721 -10.73782
-4.32599 152.9444 -9.122598
-7.346606 149.6599 -10.51746
-9.831355 53.15086 -7.970066
-15.2792 53.47938 -7.717706
-19.22413 54.22507 -3.334937
-18.33748 54.83091 -5.226564
-0.497391 145.485 -12.08482
-16.89 98.87028 -2.403179
-12.95158 107.3082 -4.541462
-1.915154 62.17403 -7.900817
-5.916099 58.74763 -7.637491
-20.12238 73.64069 -1.574321
-16.26042 100.8416 -2.75928
-19.95378 85.643 -1.985462
-19.24256 87.46662 -3.335011
-10.30553 54.68353 -7.790544
-18.41202 57.89918 -4.377461
-15.04001 136.4255 -7.309937
-13.81052 142.6261 -11.1164
-7.831263 152.3587 -7.723141
-14.73393 148.3874 -9.95844
-14.89901 150.6938 -8.137447
-12.44142 115.3493 1.02505
-13.27835 114.231 0.8128181
-18.8804 55.37357 -4.079207
-2.792401 152.8862 -10.09093
-4.721931 150.0575 -10.7251
-15.26393 135.9278 -5.128808
-8.86496 99.80734 -11.13005
-1.21123 145.0037 -12.18289
-7.05869 152.3186 -8.204895
-3.186479 150.8581 -10.43471
-6.042642 147.3024 -11.84887
-7.751309 90.74419 -12.38653
-19.34466 88.57197 -2.575563
-1.009458 99.67738 -11.9587
-1.419697 79.05963 -8.853335
-19.29099 67.76168 -3.413854
-0.7241755 56.44463 -7.697237
-2.074737 58.40681 -7.659947
-6.681357 54.77655 -7.794375
-7.654809 55.24932 -7.748964
-1.353381 109.7796 -7.194494
-12.20019 137.202 -10.70634
-4.344822 139.9356 -12.74567
-13.35238 131.7245 -6.24441
-10.65694 117.6984 -1.908941
-3.81896 110.6828 -7.504395
-12.73509 124.4019 -0.188971
-11.01496 118.583 -2.632843
-0.5344245 149.222 -11.25975
-2.816664 141.611 -12.65696
-11.65919 148.7813 -10.20569
-8.478072 149.4849 -10.40699
-12.34608 146.3299 -11.06582
-13.92564 143.5226 -11.07186
-8.457608 150.2031 -9.843273
-2.868408 84.7887 -9.584444
-3.331581 90.28069 -12.44842
-19.99341 86.79578 -0.9939176
-19.24419 89.00376 -2.623011
-1.622771 101.2106 -11.15593
-2.195058 95.02305 -12.88655
-19.91014 68.75548 -1.324374
-19.32554 72.76598 -3.939154
-0.4881642 66.66039 -8.57118
-8.422197 53.50363 -7.926663
-3.270317 54.15133 -7.858396
-16.04129 55.33456 -7.075747
-16.4315 101.7282 -1.621021
-2.303992 110.6504 -7.870222
-14.08015 138.937 -10.05677
-14.49202 137.9077 -9.201795
-13.95792 140.0205 -10.49778
-0.5032813 140.4763 -12.69191
-0.705151 130.9748 -10.57121
-14.70846 135.3241 -6.928485
-14.73419 134.6445 -6.220881
-13.29067 113.7143 -0.982906
-0.3081816 115.0131 -6.354175
-3.183471 112.6971 -5.92955
-1.442261 111.5861 -8.057724
-3.086811 125.6764 -8.415297
-12.46806 121.4712 1.46911
-13.3338 128.1955 -2.07652
-12.58357 120.9938 1.636651
-2.465139 120.5185 -6.610316
-18.55711 58.49487 -4.027421
-2.503053 146.9648 -11.78892
-11.6547 147.347 -10.87488
-10.57285 150.3897 -9.198191
-0.5797238 79.44684 -8.778514
-1.622758 77.65206 -8.804158
-2.038693 75.91875 -8.404688
-19.82012 78.57083 -3.166954
-20.082 82.31565 -2.440792
-19.04586 88.59933 -3.350537
-16.83178 100.5945 -1.185444
-16.04642 104.1069 -0.6734619
-0.8490764 100.1663 -11.82782
-2.381083 97.98804 -12.27001
-0.4616725 91.91376 -12.78478
-1.300249 72.79333 -9.277793
-19.17199 67.10353 -3.586127
-2.874032 60.30906 -7.734122
-2.399871 57.09916 -7.667132
-5.218221 57.70889 -7.635592
-12.87984 56.61895 -7.605711
-16.9281 57.83231 -5.978466
-17.95079 57.1437 -5.082848
-13.53456 112.1434 0.9249575
-1.224028 105.5029 -8.981544
-1.926701 143.0797 -12.50136
-0.68208 132.7116 -11.24283
-3.599401 130.4003 -10.30053
-14.54284 132.9969 -3.312957
-14.14002 114.4813 0.2770095
-2.473264 110.3143 -7.411743
-3.390095 126.6094 -8.743718
-13.74046 128.9017 -0.9415557
-12.08313 121.0832 0.3260913
-1.154443 119.2206 -7.123059
-0.2185092 122.9447 -7.396994
-17.35981 60.84583 -5.529925
-15.54892 60.59122 -6.915356
-2.889261 144.4361 -12.3144
-7.643384 147.5981 -11.55996
-8.798605 148.6822 -10.79799
-2.43928 83.9241 -9.136825
-2.364803 81.0372 -8.507489
-0.9885076 88.506 -11.87799
-18.58863 79.30823 -5.256525
-18.94188 75.84202 -4.810118
-20.10295 82.90816 -2.270532
-19.83951 80.75477 -3.16611
-19.12988 86.73605 -3.804273
-18.86508 92.07063 -1.196429
-18.24116 93.09653 -2.818405
-16.43773 102.8904 -0.4960102
-1.301913 98.13361 -12.24357
-4.633145 100.78 -11.45429
-4.287388 101.2716 -11.211
-1.323017 96.68403 -12.61337
-2.555342 93.64275 -12.88772
-2.087759 71.80083 -9.178587
-2.516933 67.48567 -8.592556
-19.06295 68.86704 -4.123082
-17.25329 66.08543 -6.332466
-20.20366 72.78938 -1.036951
-3.377358 59.36774 -7.673645
-4.342027 66.43406 -8.536348
-5.602909 63.81915 -8.105605
-10.95794 55.593 -7.700809
-12.64996 55.01281 -7.743213
-13.41341 114.137 -1.227686
-2.22806 104.2247 -9.825251
-4.24629 137.556 -12.51779
-1.820431 126.8355 -8.843738
-5.085606 128.3114 -9.322782
-4.585949 132.3465 -11.09955
-2.576593 132.9483 -11.32115
-14.70276 133.7632 -4.370976
-12.81254 114.5078 -0.6053308
-4.079315 125.3305 -8.188581
-5.996832 127.3132 -8.704972
-7.041434 127.9356 -8.753702
-4.068034 130.7076 -10.43862
-2.268996 126.5412 -8.73614
-10.94603 119.4994 -1.710858
-2.880054 122.3037 -7.16171
-4.294398 124.9605 -8.016989
-9.186429 125.4339 -6.401114
-18.94615 63.46965 -3.553066
-6.60077 145.0729 -12.31682
-5.487651 141.883 -12.71091
-6.256908 144.5343 -12.40044
-3.532821 140.2502 -12.71733
-7.108585 148.093 -11.44736
-3.785392 82.75455 -8.715034
-2.196473 86.21391 -10.54174
-17.837 78.70858 -6.152779
-19.47295 74.77407 -3.71371
-13.535 86.2493 -9.239029
-19.69358 87.49124 -1.942221
-17.53901 95.27533 -3.282913
-18.05823 92.88288 -3.604265
-0.5122861 96.50272 -12.68401
-4.605755 102.5058 -10.69958
-2.335197 89.85822 -12.34924
-19.35579 65.01093 -2.680788
-1.875984 67.39179 -8.592997
-2.644331 66.35278 -8.531406
-6.394264 64.51636 -8.210098
-5.558625 66.5591 -8.551538
-9.436297 58.41498 -7.582985
-1.436199 137.9865 -12.55919
-4.032643 134.1167 -11.67283
-14.01265 132.257 -5.226559
-12.99942 130.2377 -5.528919
-14.29434 133.2596 -5.676332
-12.61974 130.7693 -6.61726
-11.16012 130.6693 -8.094282
-8.088429 127.2189 -8.002474
-4.943515 138.9069 -12.71432
-8.068381 136.8437 -12.20036
-8.308625 148.1158 -11.2235
-0.9029874 86.42166 -10.68385
-6.150515 85.72952 -10.21951
-18.0895 77.68357 -5.908477
-19.16233 82.37138 -4.417329
-16.12616 87.1532 -7.61781
-0.5193294 102.2758 -10.8082
-8.448118 101.3273 -10.68075
-3.795322 92.21995 -12.77495
-3.347602 60.01883 -7.712207
-7.03287 63.84873 -8.10441
-13.87104 57.52492 -7.490484
-14.69087 60.29401 -7.339405
-10.44604 59.56609 -7.620598
-12.89224 56.20687 -7.636111
-4.25173 135.1177 -11.94857
-14.35563 136.2391 -8.430528
-11.66556 133.0339 -9.026709
-11.70718 136.8487 -10.8482
-9.512827 134.339 -10.8379
-9.213095 130.5097 -9.216331
-2.113712 118.5027 -7.248747
-2.596204 117.202 -6.514238
-2.770932 86.39884 -10.66855
-5.817343 86.8552 -10.94624
-18.18674 76.11067 -5.851676
-17.735 76.07539 -6.352884
-17.95712 89.08531 -5.351624
-5.64238 87.72487 -11.4384
-10.94107 61.12594 -7.731033
-6.584687 135.6441 -12.01705
-10.84761 131.3042 -8.698661
-11.7572 127.982 -5.662879
-13.16304 128.2754 -2.776314
-12.18857 125.9165 -3.027672
-10.90159 125.587 -4.936866
-3.825807 121.4147 -6.766552
-5.585058 85.57352 -10.10955
-17.57432 76.92593 -6.470859
-15.03658 85.79787 -8.305093
-5.0243 62.35579 -7.911329
-5.960644 61.59343 -7.824726
-5.511471 68.39162 -8.53987
-5.991268 71.1714 -8.868608
-10.07926 133.4305 -10.19225
-10.10712 133.8713 -10.36451
-8.304667 132.4145 -10.48852
-9.181637 135.8169 -11.52771
-9.6935 127.8795 -7.549421
-4.609273 120.261 -6.240909
-15.24256 68.25996 -7.993555
-8.243153 57.71152 -7.603798
-10.16296 64.11989 -8.128742
-9.271607 68.80706 -8.57696
-9.782402 126.4863 -6.63996
-18.22226 70.44099 -5.720005
-16.88975 73.30743 -7.135173
-9.568872 61.96424 -7.83742
-9.746469 66.59612 -8.516242
-6.994047 69.8698 -8.484157
-16.00591 73.13358 -7.755707
-9.992319 60.86007 -7.716716
-12.47369 62.06445 -7.824507
-15.3435 74.50329 -8.079642
-10.73732 63.50515 -8.033589
-14.81974 72.53632 -8.283424
-14.09436 62.58901 -7.775786
-15.40933 63.2115 -7.363751
-14.41958 66.27947 -8.151285
-18.00522 62.97245 -5.022583
-17.81288 66.05639 -5.734295
-17.62726 69.84739 -6.365611
-18.10913 68.81692 -5.691628
-9.473021 143.8094 -12.20414
-13.91144 108.4003 -2.594376
-13.72297 107.983 -3.144254
-16.00222 102.9107 -1.95331
-3.07574 114.441 -6.129518
-2.367792 111.9699 -6.952668
-3.808501 111.9327 -7.867535
-5.371016 112.2123 -5.958178
-5.354092 111.4507 -7.55632
-11.94098 112.6515 -3.226555
-8.542225 117.2597 -4.601452
-10.15349 118.047 -3.258487
-6.923856 109.5122 -6.470084
-6.673534 111.9763 -5.948882
-4.214867 113.131 -5.776903
-4.026054 106.8211 -8.233857
-7.001391 112.1037 -6.393672
-6.254333 110.1866 -6.578678
-7.543086 110.8534 -6.135832
-9.056307 107.9738 -6.769847
-11.01183 105.9728 -6.929981
-9.977328 109.8348 -5.53837
-6.791989 104.5202 -9.454498
-9.984176 106.7507 -7.094223
-8.660846 106.6009 -7.665267
-11.35201 113.3913 -2.698956
-11.31831 113.3238 -3.086502
-8.592472 144.0848 -12.30478
-7.970367 141.9169 -12.61881
-8.363216 141.3024 -12.60242
-6.459497 140.5103 -12.81935
-4.181142 76.83958 -8.613329
-15.88582 100.8453 -3.644023
-15.18641 135.5227 -4.652626
-13.4007 60.22838 -7.608835
-9.616233 96.21519 -11.82873
-10.60642 73.39193 -8.923213
-5.512932 74.13429 -9.003932
-8.5421 71.98375 -8.954213
-9.810598 72.53481 -8.959281
-8.576048 70.17242 -8.589093
-7.887976 75.31259 -8.616099
-13.74603 73.96581 -8.621385
-7.870622 77.10142 -8.74686
-10.96135 74.74654 -8.782296
-10.5885 70.682 -8.712699
-6.934209 78.23495 -8.820964
-11.29517 81.0069 -8.663004
-6.84534 78.64815 -8.80887
-6.118403 76.34503 -8.548532
-9.220043 82.26219 -8.729561
-16.32975 79.37386 -7.302434
-9.253683 69.94801 -8.582259
-7.290477 80.66737 -8.581195
-10.06807 80.59367 -8.618563
-10.20617 79.48408 -8.63835
-11.04579 77.84827 -8.744101
-4.831351 129.3016 -9.791879
-12.40141 124.468 -1.208777
-12.1577 125.4121 -2.614036
-11.28503 117.2162 -0.982977
-9.580791 123.6314 -5.018066
-5.989655 120.7794 -5.930884
-7.604858 122.5911 -5.857804
-7.372067 124.8407 -7.063917
-10.06402 122.1297 -3.626366
-9.265121 123.509 -5.221375
-7.033151 119.5074 -5.062285
-8.603619 120.5115 -4.342317
-8.301722 118.367 -4.715683
-7.303296 116.8367 -5.341781
-10.05978 118.1157 -3.145184
-7.72246 117.4192 -4.472888
-7.494666 115.5058 -5.383652
-8.349301 114.2502 -4.419553
-10.11088 116.1649 -3.386826
-11.70436 113.8863 -1.889813
-11.07416 115.0441 -2.408074
-10.60615 114.1157 -3.021594
-8.762607 145.6977 -11.95928
-11.94412 79.53927 -8.635922
-15.17171 81.15932 -7.877095
-18.24884 79.68083 -5.707798
-16.87866 78.9987 -6.944803
-12.46865 77.23073 -8.720004
-18.34604 83.1265 -5.475297
-14.94178 58.95511 -7.210845
-3.324215 115.6669 -5.925779
-8.748638 141.605 -12.52515
-8.046726 101.1294 -10.89668
-5.800125 103.3211 -10.21981
-12.65327 135.0227 -9.408572
-11.93389 87.30074 -10.32977
-10.13894 85.31435 -9.845611
-12.64156 85.7058 -9.4684
-13.80064 85.27199 -8.881968
-9.77575 89.76437 -11.75173
-9.785944 89.87894 -11.77882
-8.119759 90.47227 -12.2675
-11.89446 89.65027 -10.92595
-7.223746 91.23943 -12.53632
-4.682186 92.60004 -12.79793
-4.282449 93.76102 -12.87847
-13.73593 83.45119 -8.57863
-16.46082 81.8102 -7.211963
-15.98817 86.22498 -7.674166
-17.2981 87.53245 -6.459295
-17.50407 88.28487 -6.138804
-6.570251 93.03859 -12.81215
-13.36931 86.68217 -9.435663
-17.85105 86.44732 -5.868701
-18.18297 84.78358 -5.62072
-10.01786 136.4721 -11.499
-7.323266 82.78677 -8.794198
-11.55924 84.60947 -9.252687
-8.565738 61.66403 -7.811606
-13.16291 69.59155 -8.622557
-14.78959 69.01373 -8.213958
-12.53101 67.23968 -8.536388
-9.604205 67.39119 -8.598995
-11.78317 142.2381 -11.7207
-11.50241 107.4891 -5.762974
-11.80678 109.6851 -4.441979
-12.44649 107.0149 -5.21598
-11.23536 106.0145 -6.753145
-14.72073 102.1216 -5.091593
-15.10832 102.8048 -4.033431
-2.8364 111.6497 -8.066631
-7.924723 104.7265 -9.084732
-12.2604 110.9973 -3.237579
-10.11497 137.2503 -11.70748
-6.674111 97.02753 -12.44988
-6.502354 94.47326 -12.79567
-4.037416 97.05328 -12.4979
-11.87679 76.41206 -8.773787
-14.93141 73.97289 -8.254926
-4.543581 117.7371 -6.883044
-12.17135 115.3238 -1.447872
-7.937366 97.60276 -12.09631
-5.337815 138.2416 -12.66979
-5.680133 103.7537 -9.990641
-13.59063 89.26698 -9.871757
-8.495089 93.52344 -12.52363
-9.354495 93.0223 -12.27382
-7.818041 94.42193 -12.63668
-11.62595 92.8231 -11.29124
-11.95756 95.45422 -10.73091
-13.78767 93.98812 -9.544549
-8.037073 94.10629 -12.61082
-14.01437 90.99813 -9.679878
-13.03325 98.10815 -9.002715
-11.61004 99.86542 -9.533013
-9.019801 99.08031 -11.30436
-12.53348 100.3094 -8.567822
-15.56838 92.0313 -8.102275
-13.24411 94.99909 -9.808501
-9.013607 102.2735 -10.02515
-13.72899 91.11001 -9.917951
-16.36806 91.44962 -7.236646
-16.79151 92.88934 -6.218693
-16.55911 91.91276 -6.876909
-12.56975 103.7293 -6.879025
-11.23568 100.6478 -9.480973
-10.63498 102.5564 -9.009267
-13.25252 102.414 -6.842023
-12.49969 104.6254 -6.471742
-14.65045 105.0615 -3.40792
-8.075072 112.4385 -5.716278
-11.40796 138.3065 -11.47097
-12.75694 99.38291 -8.732031
-15.90519 98.62801 -4.976017
-14.04853 98.99872 -7.555831
-15.19102 95.43114 -7.614652
-14.04133 94.93965 -9.080602
-13.21278 98.40206 -8.661892
-5.248543 127.6372 -8.989366
8.557518 150.621 -9.438597
19.44483 64.25964 -2.093781
7.229731 151.5715 -8.947454
4.254485 75.31107 -8.498711
6.222795 86.72807 -10.86949
0.4716366 86.98512 -11.06974
19.29609 53.30856 -3.341054
12.8887 54.28503 -7.789948
12.40354 55.1659 -7.731903
18.99115 91.07763 -1.933164
19.22714 56.12236 -2.346477
14.17061 149.5692 -9.359176
16.62843 102.3988 -0.07234992
14.35668 110.1657 -0.1169004
7.294595 112.3112 -7.305626
13.98807 69.32599 -8.475357
20.11587 84.28028 -1.878426
11.06228 151.2509 -7.80917
16.67863 102.0671 -0.229478
13.06143 124.6928 0.7489626
14.91391 136.8841 -8.027163
0.5990776 152.2579 -10.33547
11.48931 149.1511 -10.01735
7.390766 149.8796 -10.34808
13.90085 148.8861 -9.857105
2.206835 55.13926 -7.773312
0.2673035 56.17148 -7.712389
10.53702 117.0281 -2.428361
1.887136 68.8931 -8.41743
0.5067107 68.80995 -8.420899
3.320316 103.4227 -10.30149
12.55225 114.6724 0.2661409
4.608137 111.6629 -6.455315
19.09592 91.42034 -0.7647845
0.2346411 81.49958 -8.469474
1.188325 57.54644 -7.664471
0.6552909 94.97324 -12.92293
4.386031 85.4058 -9.995114
0.5511496 97.18958 -12.4518
4.304675 151.2228 -10.12871
13.1317 148.4209 -10.20265
0.09799957 126.9102 -8.867771
1.066719 151.2516 -10.4092
10.28735 58.46038 -7.55925
3.998893 152.7634 -9.281621
9.921691 150.8402 -8.777763
8.645609 131.0466 -9.748322
9.117021 152.7253 -6.791239
18.95536 88.19659 -3.718311
6.392384 153.3495 -7.374692
11.77594 118.0281 0.2243929
1.063987 150.0583 -10.77833
13.03864 128.0193 -2.842588
3.032905 144.6544 -12.26954
3.741705 150.8531 -10.36589
19.62397 84.36854 -3.301259
5.956974 84.47301 -9.440998
19.62154 88.7575 -1.286857
18.16986 62.77929 -4.72792
18.13565 63.03807 -4.832899
7.616876 96.1572 -12.45164
16.66159 101.1089 -1.362234
3.178674 105.9016 -8.781205
16.29 102.7092 -1.237069
12.00001 122.2626 -0.4372728
0.3041629 128.8759 -9.586027
11.57676 134.4042 -9.808744
4.60241 121.8255 -6.739854
5.236588 135.1912 -11.95005
14.12678 148.5145 -10.00669
3.234483 54.50272 -7.829036
0.9910584 55.74958 -7.73756
2.912543 60.94127 -7.782469
3.839677 146.9922 -11.82735
2.168414 144.3829 -12.29847
1.08302 144.0484 -12.34811
20.26046 75.3436 -1.38631
0.5856949 75.36642 -8.457331
0.9144211 84.62116 -9.499263
2.497221 90.37921 -12.47638
20.38613 83.4241 -0.9385765
19.38585 61.57335 -1.626464
19.52089 65.76832 -2.291632
18.58085 57.80453 -4.135005
14.53949 53.75685 -7.843291
9.723897 54.1679 -7.838152
3.497064 93.57951 -12.87868
17.35015 99.18706 0.1030962
17.16809 95.31306 -4.324359
3.680197 108.1438 -7.521024
2.227779 111.0667 -8.110245
13.75477 111.395 0.01958457
15.18397 106.1024 -1.498807
12.99749 117.1421 0.2865251
11.76572 115.2496 -0.9342601
14.91798 134.7897 -2.159509
0.8211965 133.7989 -11.57355
14.44256 132.5617 -2.779466
14.85277 138.1684 -8.967363
12.5902 125.3406 -1.493694
0.1665039 122.559 -7.243789
1.777813 124.6553 -8.040157
1.93539 136.3721 -12.25636
1.082532 140.7613 -12.67886
8.885015 147.5071 -11.33825
11.53949 148.2503 -10.4979
8.17823 145.7813 -12.01826
13.10308 145.6861 -11.06354
1.018087 60.39041 -7.742956
3.284406 56.92152 -7.666832
3.166732 149.4171 -10.99879
4.52107 147.3863 -11.77295
5.618709 146.9293 -11.94826
19.73409 76.05953 -3.215175
20.22778 73.00401 -0.8856184
19.70747 66.19956 -1.427515
20.33752 76.56176 -1.159304
0.2565289 72.81979 -9.314055
1.243566 76.19453 -8.419703
1.821138 82.58062 -8.589683
3.10482 84.90288 -9.683257
2.226789 89.52934 -12.26181
18.99887 89.08446 -3.244313
20.306 83.62911 -1.379184
20.40483 82.30739 -1.243672
18.70871 56.341 -4.196749
18.5875 59.9056 -3.93699
17.94744 55.90459 -5.387593
13.90843 54.82009 -7.73277
2.367534 92.78415 -12.8501
17.0695 100.4078 -0.1446402
3.44469 102.7887 -10.58628
0.2603392 111.9007 -8.175538
1.623311 112.139 -7.039791
15.12123 107.2164 -0.6565843
13.72262 114.7711 1.19785
12.26453 116.8317 -1.337654
13.75231 130.5659 -3.592248
14.28441 132.9239 -5.294102
0.9358609 131.4416 -10.76868
0.8493977 127.4148 -9.050031
14.14072 132.8322 -5.586269
11.25305 121.2275 -1.472835
1.213963 118.1903 -6.496811
0.8962442 125.0467 -8.185087
3.210276 139.0094 -12.67765
2.216686 133.7962 -11.57183
4.970408 136.317 -12.25952
5.265307 146.1107 -12.11819
4.354871 62.53852 -7.939919
4.781743 57.41101 -7.637241
20.27432 74.18388 -0.9435312
20.03835 72.83495 -1.855307
20.48334 78.37399 -0.7860566
3.396889 72.57945 -9.349779
1.964832 67.65871 -8.557803
1.086915 64.15318 -8.175008
3.206879 75.79253 -8.449126
1.086075 83.52184 -8.937198
2.795189 86.88131 -10.98535
2.904807 89.88354 -12.3517
1.027514 91.7747 -12.76207
19.6502 86.6567 -2.543932
18.88209 89.28607 -3.496138
18.83483 92.61979 -0.2516287
19.0444 83.15141 -4.553373
18.89179 84.3163 -4.688808
16.40476 56.37876 -6.664326
18.44597 56.4043 -4.598114
1.868558 95.1927 -12.90111
1.202861 98.40423 -12.14506
16.41802 100.0612 -2.889858
15.25604 102.4832 -3.969223
14.68759 103.434 -4.375624
1.76463 102.8084 -10.6341
17.56102 97.19807 -1.136205
14.19386 108.6837 -1.810208
14.93478 107.2884 -1.162907
11.43105 115.7123 -1.417646
13.45433 113.9379 -1.799161
13.35486 117.0243 1.151278
13.47412 129.4169 -3.096243
14.11333 131.7864 -3.89922
12.6783 124.9097 -0.8471051
3.354786 130.8705 -10.52548
1.38555 127.4463 -9.0614
3.555382 127.6379 -9.119068
11.0962 120.3403 -2.77938
11.87515 124.7188 -2.634953
11.14529 124.1308 -3.459076
7.227076 118.9453 -4.95607
7.450942 116.71 -5.486494
10.98213 144.8932 -11.69401
3.35343 135.1264 -11.94202
8.198131 138.299 -12.52072
13.20237 146.3846 -10.88945
3.594347 60.66949 -7.756864
13.17264 66.91749 -8.449362
18.78403 80.24393 -5.031912
20.57069 80.41367 -0.4470873
1.419199 64.07471 -8.163651
1.335081 78.88152 -8.861643
11.90575 87.68904 -10.47933
2.795641 91.61192 -12.7143
17.645 88.91965 -5.849029
17.89756 90.53699 -5.067251
10.81597 57.85651 -7.547189
18.3728 57.87995 -4.437197
17.24334 98.01939 -1.906722
14.08446 102.4607 -5.810958
3.833772 105.3001 -9.103148
5.745479 103.507 -10.13899
4.437856 103.3032 -10.29834
6.574139 102.9558 -10.37436
8.00906 100.3748 -11.19768
10.11681 101.7947 -9.68048
4.663664 99.71948 -11.8599
3.071262 111.9373 -6.867336
2.65781 112.5026 -6.000993
4.41081 116.8706 -5.610837
5.966675 111.9636 -6.010728
10.96007 116.6178 -2.730691
10.4727 117.1194 -2.461633
12.22914 125.433 -2.481278
4.65406 128.4904 -9.443848
3.897237 126.9683 -8.846765
3.957897 57.83174 -7.637067
3.858452 59.37812 -7.673893
19.64321 80.05463 -3.564573
3.357439 64.62331 -8.255839
4.742332 62.45484 -7.927888
5.248285 58.27065 -7.631487
8.747493 59.87894 -7.660232
6.020548 88.76508 -11.91016
18.66428 89.10616 -4.043332
17.76637 93.78252 -3.78165
17.30501 92.12206 -5.666373
15.68645 56.65781 -7.033742
15.50946 101.2558 -4.195649
9.738812 101.6171 -9.981087
14.15432 103.3399 -5.240512
13.99324 103.4406 -5.403056
8.523812 97.00958 -12.05769
13.59387 113.5862 -1.241191
14.34322 107.0513 -2.663308
11.79375 109.7475 -4.418115
9.801185 116.86 -3.809433
11.53935 117.7973 -0.4302083
14.08478 134.1759 -7.197337
3.286336 127.0545 -8.919709
5.722375 67.23264 -8.574201
16.77385 89.96689 -6.914316
17.38807 90.4055 -5.971416
17.87575 94.69579 -2.664264
15.57187 92.46868 -8.012344
8.746955 103.0315 -9.728281
15.77295 99.1087 -4.923697
13.02533 98.52528 -8.840553
10.77736 96.15733 -11.28785
11.58617 98.20377 -10.16818
6.855203 98.07409 -12.19534
11.81567 106.8017 -5.8852
12.4037 103.1557 -7.317628
12.79949 108.2663 -4.149083
11.96759 120.0807 -1.159015
5.200654 125.1367 -7.898582
8.15928 128.1742 -8.477539
9.942274 127.1538 -6.91885
9.402242 128.2206 -7.894364
5.533973 130.1126 -10.13127
10.46097 123.1684 -3.771668
6.771263 122.9462 -6.433142
11.99625 142.3796 -11.65398
8.675479 63.54366 -8.063864
6.931589 64.79812 -8.271111
9.293432 64.73576 -8.249449
12.10902 91.05723 -10.97701
9.676092 102.1792 -9.745684
14.4156 99.73529 -6.761979
11.97584 112.9408 -4.314013
8.737044 128.3477 -8.320225
10.54027 127.6754 -6.779203
4.796664 130.9012 -10.52416
7.870443 123.2362 -6.032771
7.5863 139.9715 -12.74776
9.131461 62.64484 -7.923054
10.51352 60.46089 -7.687831
15.37878 93.51125 -7.995234
13.68787 108.6585 -2.773313
10.82575 105.489 -7.300538
10.75686 110.9431 -5.027527
9.241636 119.6275 -4.622288
9.251052 118.1555 -3.410947
12.77489 128.3454 -4.07728
11.92811 132.6907 -8.671921
11.80886 133.6607 -9.292709
11.98286 131.5069 -7.895877
8.597858 134.1213 -11.08021
9.852453 128.6886 -7.895463
7.708082 124.1062 -6.534324
4.254912 120.845 -6.497377
3.185991 120.111 -6.598907
7.972513 139.9776 -12.70557
3.929455 68.22751 -8.510254
13.07425 91.2481 -10.37679
14.86032 94.19786 -8.411801
8.686409 120.2854 -4.586467
9.968942 133.7455 -10.38582
11.91454 128.3949 -5.781651
9.128961 123.5214 -5.351019
4.340045 119.4643 -7.200734
5.38248 120.8245 -6.163163
3.405785 119.5594 -6.950503
6.669453 66.55756 -8.518218
15.43641 90.60212 -8.402432
8.614466 120.0662 -5.450928
5.464256 118.7642 -5.765176
8.643506 116.6848 -4.898764
12.81937 137.8866 -10.56315
11.64022 126.0437 -4.242187
10.4235 126.3288 -5.948239
9.256726 69.84351 -8.597125
4.492331 72.74776 -9.347919
6.770734 70.726 -8.67992
7.489142 119.1447 -5.209065
6.736307 114.7584 -5.250096
14.07081 138.6664 -9.970957
8.805347 67.83482 -8.584288
5.444701 114.2907 -5.823366
12.21775 139.5983 -11.27345
12.48294 68.6293 -8.634027
10.95246 70.87073 -8.732622
14.82791 66.27927 -7.996142
16.19582 67.89999 -7.399154
18.06671 68.55949 -5.715038
18.38972 67.38641 -5.126847
13.30393 63.96041 -8.077919
11.34192 113.103 -4.969927
10.20211 114.4802 -3.22
9.121037 112.8473 -5.86639
6.400876 115.9187 -6.09329
11.98548 64.34198 -8.178744
13.97181 63.02871 -7.85249
9.483182 71.15836 -8.786971
10.97634 72.13044 -8.882022
14.98109 68.43027 -8.094838
6.788088 116.4284 -5.767179
14.49993 64.45647 -7.929882
17.32092 72.27382 -6.776323
10.2929 73.80793 -8.926794
13.02338 75.12737 -8.713182
13.96548 70.38219 -8.506924
2.888898 140.5543 -12.70728
6.022802 143.8338 -12.50008
6.162913 140.4627 -12.82628
7.000793 143.4751 -12.53672
18.15516 64.84068 -5.093866
2.195383 105.5679 -8.948052
2.900235 105.1927 -9.134111
3.341828 108.1037 -7.556268
9.742492 104.1908 -8.648979
18.83499 67.85541 -4.449531
16.61541 68.35696 -7.178951
17.8161 70.90823 -6.227604
19.0568 72.46435 -4.48389
17.83493 73.59247 -6.27679
11.35721 74.89452 -8.806894
16.90429 69.37481 -7.039122
19.08002 77.74862 -4.559748
15.33041 75.80909 -8.037731
3.833375 93.93371 -12.88303
6.758369 96.80535 -12.47662
10.80929 97.07123 -11.03851
6.56149 89.17132 -12.04092
4.813145 92.50908 -12.80673
12.17396 96.25134 -10.35461
11.36589 94.61526 -11.26274
9.209327 89.49947 -11.83301
7.905307 91.14684 -12.42828
6.613059 90.38327 -12.40105
12.84705 95.17244 -10.0936
11.61588 92.32594 -11.28706
13.25175 90.93796 -10.254
13.74778 94.58187 -9.458451
14.6956 105.6746 -2.905767
6.259685 146.7299 -11.97296
10.21881 142.412 -12.15993
3.144331 77.84285 -8.825134
3.289043 77.4966 -8.754261
3.314721 81.15244 -8.540083
2.79101 93.4267 -12.87875
6.158283 109.9133 -6.680096
7.698827 110.691 -6.678123
4.904474 110.6063 -7.33309
7.405457 109.9128 -6.284719
8.57139 136.6389 -11.97925
19.21145 73.6877 -4.226106
18.2651 84.20461 -5.551813
15.22355 88.48882 -8.529649
16.33808 86.73524 -7.407883
18.58514 86.41373 -4.843707
17.90541 84.27684 -5.965975
16.91429 84.10887 -6.892438
11.02278 86.93782 -10.54197
8.963051 85.9041 -10.34328
11.48448 89.50947 -11.09525
8.61621 86.32832 -10.59674
12.27561 88.96196 -10.62212
12.34636 90.42084 -10.79594
10.36572 100.7231 -10.01264
15.57532 98.8211 -5.468351
7.836653 105.5062 -8.615165
7.090965 104.5571 -9.37333
7.613647 106.3018 -8.147119
6.713721 106.9344 -7.878468
7.953999 60.58156 -7.72036
8.58059 54.77859 -7.781133
6.041753 58.17162 -7.616396
5.385629 56.94729 -7.645506
9.784839 55.25065 -7.728058
10.45629 57.46854 -7.565965
14.23034 97.13303 -8.139522
10.03821 110.8381 -5.522797
10.0236 111.5961 -6.252335
4.386425 132.1486 -11.01037
8.428256 140.4993 -12.60981
7.169317 139.6308 -12.79173
13.20301 95.72324 -9.63812
4.827477 116.2294 -5.650816
11.08488 136.2951 -10.94418
13.78331 57.44684 -7.492008
9.342225 108.3176 -6.505842
14.64229 72.09303 -8.370015
5.429617 75.09355 -8.600975
5.069057 80.99281 -8.531678
5.538987 80.25544 -8.593204
7.676954 81.46667 -8.580594
7.639184 76.45464 -8.658561
17.218 80.19603 -6.68057
10.45279 80.94364 -8.634688
4.454366 72.05036 -9.170159
6.49777 75.22232 -8.564784
4.745873 85.73904 -10.22562
8.03781 85.79994 -10.26612
6.493569 83.70165 -9.082253
6.348043 135.0016 -11.84682
6.046022 135.8791 -12.12992
16.6432 84.61461 -7.094182
17.67584 82.27655 -6.260616
18.57907 81.81206 -5.271911
16.64318 80.88019 -7.088895
17.97619 79.58036 -6.019892
13.14805 79.23503 -8.484994
16.68764 78.29304 -7.107533
15.78681 83.83145 -7.692674
14.16061 81.5685 -8.267289
11.85612 85.48634 -9.637035
12.70668 85.71483 -9.464229
8.77648 84.3345 -9.349984
10.53146 106.6446 -6.853431
11.72575 60.87589 -7.710312
6.599115 131.8116 -10.70768
15.73013 62.62111 -7.114602
13.31977 60.28214 -7.633105
8.881331 77.03161 -8.750049
9.923531 77.24416 -8.772686
11.4599 75.20919 -8.797279
15.61257 77.03175 -7.830404
18.25443 76.37211 -5.742992
14.69488 76.68356 -8.264011
9.005317 78.68394 -8.774474
10.83349 78.14925 -8.731097
14.2179 83.85055 -8.45559
10.06276 84.35324 -9.312184
9.466267 85.70417 -10.14084
14.22411 78.01 -8.331723
15.02474 55.81701 -7.417677
14.2045 74.11102 -8.507042
1.180222 70.63848 8.813945
-0.005719822 83.30018 10.29856
7.52089 128.9133 12.65956
5.761704 123.2214 11.93742
0.1046746 123.3771 12.16604
1.100623 92.52514 9.447115
3.924571 149.1633 2.647423
1.818446 77.90766 9.917693
4.360339 148.4538 3.083222
0.1572935 120.1499 11.94992
0.2802725 62.2197 6.846585
8.33236 140.5192 7.977002
11.11404 152.077 -5.151571
0.7128888 149.7066 2.807995
0.9684393 129.7244 13.15136
0.928403 149.1691 3.000197
4.45598 79.10433 10.03354
1.248752 148.9435 3.15704
1.247625 109.2405 12.20925
10.11252 151.0474 -2.137999
1.139924 111.6845 11.98059
0.6404826 121.2872 12.01079
-0.006006886 147.877 4.032186
4.050206 151.5534 0.8657901
0.922807 150.0999 2.534265
5.628977 87.18768 10.22376
5.588344 91.44764 9.752481
1.380532 86.98013 10.2124
3.788436 107.2297 12.23143
5.300326 94.52723 9.370446
4.726339 96.59281 9.708414
8.946383 134.5376 13.50728
5.499286 149.8674 1.469693
3.3392 54.04359 5.014449
0.4286418 99.37196 10.96999
1.493804 76.44476 9.744631
5.716445 72.84344 9.214205
4.444009 54.11837 5.029534
1.70105 151.894 1.627657
4.861812 110.1239 11.85742
2.562024 53.92017 4.988724
7.016819 136.9509 12.18668
6.644989 153.5174 -4.024144
3.260948 52.18977 4.613955
5.98158 54.44485 5.101857
10.48005 150.5446 -1.308366
0.7499474 51.70417 4.508978
1.738949 86.22314 10.23715
6.988014 152.1866 -2.732404
1.45053 52.03649 4.582799
0.1560673 123.6979 12.18759
1.004495 79.21198 10.04594
6.131949 83.74882 10.28837
1.782015 103.2829 11.97396
1.503321 95.68025 9.655579
5.158154 99.63348 10.32717
0.1665812 60.81873 6.498584
1.784694 71.59431 8.99779
0.3050435 71.79295 9.03473
2.188131 76.95155 9.807987
7.511441 136.2499 12.74963
3.567296 127.2341 12.31237
1.96755 132.8254 13.83325
5.525514 139.9837 9.112649
3.381336 117.6008 11.80141
2.419541 106.3112 12.32591
3.888818 121.5236 11.96606
1.327209 120.9914 11.98868
6.13063 55.44894 5.29856
6.346124 147.5175 3.017105
8.843829 150.7758 -1.75381
6.599358 151.3651 -1.263437
9.804697 149.2685 -0.1101091
4.963837 86.92585 10.22787
3.611131 92.53601 9.451551
2.269604 89.01322 10.1907
5.265938 77.82326 9.904494
3.182512 78.97701 10.02274
2.511054 79.78713 10.09507
1.252221 81.299 10.20828
4.104047 83.05738 10.28406
4.343052 101.0213 10.9315
1.905006 104.8292 12.2032
4.303591 95.35971 9.493441
3.172679 99.12284 10.57102
5.50415 59.64147 6.199504
0.7969623 62.32064 6.871745
5.731364 62.46597 6.908225
0.5773633 69.08001 8.496668
3.804891 66.91608 7.99992
5.711983 74.9758 9.543811
-0.03169853 64.54372 7.421436
5.274209 63.3921 7.138972
5.551013 76.3964 9.73561
3.009195 138.5521 10.6382
7.083719 132.6443 13.88384
8.792793 135.8838 12.91577
3.105122 128.694 12.77443
4.642313 129.1413 12.89898
5.598809 132.2866 13.8218
8.510144 132.6582 13.86047
2.821646 141.9853 7.568525
4.399623 116.5681 11.67241
3.292699 118.8958 11.8325
4.644208 107.7641 12.06403
3.242966 112.0795 11.89707
1.386267 124.7879 12.24526
3.012042 124.3806 12.25588
0.7552024 147.8571 3.848008
8.505926 144.2801 4.904311
8.32099 145.6586 3.366103
8.062468 148.6972 1.35176
8.187225 147.966 1.630222
3.212968 147.7513 3.836674
2.013499 88.08965 10.22466
0.6232293 92.0845 9.562408
4.739736 93.97277 9.342301
0.2830086 89.56408 10.17733
4.532924 80.87657 10.17996
1.160037 103.7694 12.10472
1.381271 106.9829 12.3453
0.1394748 102.9938 11.98094
3.649146 98.98506 10.4396
3.960003 97.70734 10.03852
3.88431 56.56413 5.517355
1.396183 60.1367 6.330741
1.442156 64.11566 7.316564
3.362282 70.91875 8.868832
1.8446 73.1693 9.270161
5.965542 71.04675 8.892203
4.399321 75.49051 9.618516
2.988177 64.2067 7.339622
4.468629 65.20737 7.585242
3.534915 75.58488 9.631557
4.273346 136.3231 12.59073
1.289953 140.7293 8.648669
5.112599 139.0282 10.14938
4.899237 137.5234 11.63091
8.594383 136.6113 12.41525
3.333756 127.4912 12.40789
3.993373 128.5031 12.68293
3.791456 128.1146 12.54748
5.294723 132.6399 13.85449
7.959389 142.7369 6.190134
2.15403 109.9813 12.13436
0.7573262 107.592 12.32228
2.873538 114.9029 11.82186
5.801738 124.9985 11.85459
0.7900289 120.5289 11.96583
2.05678 145.0424 5.57976
1.814366 143.9834 6.254958
8.4513 145.5753 3.425008
0.9607031 87.406 10.21939
4.828316 102.2589 11.15685
3.669301 97.86503 10.11929
3.17963 55.56614 5.321895
4.58949 69.96543 8.681423
0.9283171 72.72861 9.197723
3.564128 136.3553 12.56345
3.17851 140.3892 8.871307
7.067204 140.5857 8.230341
5.583039 130.776 13.53772
4.855812 132.197 13.81422
5.739451 141.5622 7.559878
5.553487 142.2072 7.053235
6.036535 146.7171 3.603668
6.441237 144.0412 5.425885
11.88003 151.9953 -5.578721
1.215993 54.49003 5.104715
5.140167 146.2514 4.287411
0.5238377 58.10237 5.854768
6.78067 52.46189 4.666349
16.59568 103.4276 2.207254
19.85045 66.48039 -0.4087743
19.11972 68.20828 4.495018
9.66959 58.34377 5.841203
14.77237 133.558 1.239481
17.34178 83.569 8.68295
7.489588 75.62082 9.633259
13.36968 151.7971 -4.410244
9.98286 90.77547 9.876592
10.70727 100.9914 9.315134
6.020072 99.48721 10.11369
8.661108 132.1092 13.79395
7.379513 104.1593 10.75565
17.06117 101.2115 1.787822
13.35123 140.1117 4.605875
8.514668 139.7687 8.841413
16.13309 103.0432 4.880212
20.57302 83.10133 1.77867
6.179938 117.6335 11.31699
6.045227 115.3692 11.14742
10.82766 148.5006 0.3145781
12.32031 150.9674 -2.282856
7.178766 109.3049 11.0013
18.34458 52.48007 1.541134
14.81731 134.1834 0.4500618
12.4646 150.5038 -1.600718
17.70965 97.20983 0.5104036
15.87053 97.29389 6.904691
10.80323 147.7244 1.298339
15.69844 51.54161 4.194154
9.078829 62.60002 6.942174
12.1599 151.7517 -3.987941
19.57237 74.5062 5.013971
18.59843 69.75858 5.827207
14.26654 151.4576 -3.074068
14.50684 131.2385 4.042912
7.244251 76.54894 9.754315
14.94353 135.7612 -0.646192
20.08373 87.16425 1.943373
14.66215 151.0926 -2.33018
10.31307 126.7597 10.10607
14.88697 108.878 3.682721
12.77249 111.4219 6.597969
15.21745 108.3329 2.48813
13.39244 117.2815 4.254242
11.75215 52.63005 4.718603
14.88395 136.0222 0.9851224
12.88988 123.4374 1.391419
15.34444 107.7644 1.146496
7.613549 51.87862 4.525085
7.383583 57.85311 5.75464
8.991973 53.04641 4.810678
12.37623 61.56402 6.690144
7.750439 73.58451 9.331284
20.33147 73.07745 1.411968
8.18188 79.12 10.032
9.333837 87.64454 10.19111
10.83301 87.15839 10.21115
16.43446 103.9078 0.9684287
7.575155 102.4311 10.33248
10.70485 130.859 12.88033
13.52923 125.6631 2.917863
10.81978 132.9235 13.15442
10.17394 139.113 8.872556
10.49021 133.1547 13.30938
10.54208 145.6528 3.648615
10.35087 140.9048 6.672322
14.20784 140.793 3.231307
8.768502 119.8356 10.80211
13.14735 123.2984 3.435995
14.11407 144.0758 3.196754
12.01451 149.7775 -0.8752838
19.03577 53.94094 -0.6880015
14.50429 132.2378 0.2325812
14.80921 136.4199 2.832297
14.85853 135.0551 1.763295
9.308357 60.60208 6.43573
13.41862 51.65252 4.409437
10.92383 54.15515 5.07582
20.08144 69.67092 1.263576
8.50485 69.25122 8.534614
8.695743 68.79763 8.438443
6.855293 64.63084 7.443744
7.487104 71.09735 8.903329
20.29355 72.04914 0.678035
20.00295 68.93511 -0.6582089
11.642 84.0135 10.2775
20.543 83.35213 0.1211623
19.89166 88.29117 0.1959726
9.892056 96.66156 9.320886
6.863902 90.60544 9.938244
7.599616 89.87174 10.057
17.08305 100.7689 0.6006781
7.635189 103.7709 10.58466
8.103304 100.4056 9.857221
17.31633 99.62238 0.6584896
8.204247 127.0868 11.43826
13.24971 123.8841 3.740374
13.98369 129.1553 0.7484301
10.14495 132.3112 13.41027
14.85607 109.2493 1.569573
13.55595 112.3063 2.92261
5.364356 112.6873 11.45929
10.38665 137.123 11.29025
12.83551 136.5174 9.498731
10.14258 134.2833 13.24284
12.10788 143.6968 4.314935
14.12581 141.0983 3.324966
10.08436 146.5276 2.595463
13.81535 139.084 4.567561
13.27953 113.3116 3.068135
13.38621 118.0648 3.269761
6.257096 122.4066 11.764
13.59533 145.727 2.458768
17.5729 52.43113 2.924748
16.20676 52.10675 4.064297
19.02908 61.39923 1.857018
12.16826 58.89156 5.948953
14.30637 52.21019 4.579823
19.66076 63.98007 0.06882855
8.336373 71.82025 9.033498
8.52784 76.05164 9.688498
8.959902 78.73445 9.995176
20.17392 70.30799 0.3394263
8.315219 80.36917 10.13746
10.66605 82.41221 10.24708
18.56949 79.31476 7.394392
20.28414 86.01437 1.630028
7.979853 94.62378 9.372091
18.50193 93.87026 0.3311355
19.26455 91.10239 0.03931507
16.8819 101.7332 2.935092
6.241432 101.0244 10.43663
6.74252 98.04552 9.743268
9.516888 127.4695 11.1247
10.15611 125.2197 9.690983
13.01718 127.3675 6.793017
13.91833 128.4201 2.178772
14.09721 129.5281 2.827014
14.31914 131.2975 0.3440388
14.72734 109.2299 3.817185
15.24965 106.7038 5.147451
15.99819 105.8334 2.341086
6.633363 106.6689 11.33606
11.90547 138.9271 7.4959
12.2441 137.5578 8.982289
13.79472 133.5621 10.20214
12.67668 116.3744 1.854301
11.83286 117.2352 6.76094
13.37943 114.2515 3.878386
6.062466 115.937 11.28838
7.615606 118.2938 10.66377
12.6268 119.9538 5.146275
6.206773 121.4932 11.61835
18.21313 53.33031 1.876865
19.31487 59.34659 -1.290805
17.75199 60.9711 4.206416
9.887148 61.21655 6.594765
12.14865 53.61626 4.980128
8.909564 72.53838 9.159744
12.58751 71.53629 8.988281
13.40792 75.27718 9.593637
20.20722 77.43481 3.856263
20.34358 73.92668 1.804721
19.62243 74.12288 4.816658
19.79521 71.11117 3.613303
20.38736 78.54307 3.335927
10.86893 78.19394 9.944211
20.10869 85.91795 3.25896
17.96043 84.24129 8.081971
19.46028 85.71307 5.567063
19.79759 87.5062 3.570911
19.53778 87.09252 4.836028
17.74726 97.01654 1.506743
19.41955 90.0227 2.780298
17.54952 98.20232 0.757351
16.29227 104.736 2.576163
11.75343 121.8778 7.925757
12.85857 122.7038 5.849611
13.3705 126.2981 5.288222
14.2741 130.3351 6.156089
14.78413 132.2342 6.923488
11.83079 128.5013 10.56193
12.26171 125.0208 7.593856
10.97825 130.08 12.44734
15.87594 105.5971 4.176236
5.52823 114.3034 11.29737
12.76508 137.5866 8.166167
14.00227 131.4061 9.789456
13.48114 131.6734 10.69788
12.56894 130.2561 11.19263
13.49733 117.5848 3.890738
9.100405 116.062 10.3629
8.440776 119.1712 10.63998
10.88694 120.8501 8.886332
11.37902 119.3335 8.628867
15.01297 55.46209 5.074656
19.31692 62.18095 1.244087
19.03251 62.18001 2.259543
18.18678 59.50867 2.954229
18.92648 65.00056 3.799989
19.01088 76.14189 6.391251
15.4887 72.75571 8.869958
18.18995 82.87361 7.884504
18.90727 83.72808 6.914051
19.59766 89.24906 2.69087
18.24444 94.8177 1.66596
17.31401 97.05732 4.16397
9.765241 124.5783 9.989805
13.27293 110.7906 6.130185
7.730382 110.902 10.48375
13.97297 136.3608 7.306102
14.65619 134.3962 7.650625
9.923608 116.0372 9.961239
10.68801 119.3309 9.593933
10.0547 122.9869 9.864532
16.44086 54.63407 4.449314
18.11478 63.58189 4.673797
19.77276 65.52132 0.5974013
11.16646 69.1236 8.516152
11.94974 71.26147 8.94088
13.54797 71.58379 8.972921
11.96278 80.67826 10.16428
20.05929 70.99845 2.453305
17.46152 82.57567 8.604137
19.27617 88.69246 4.77242
17.0939 94.74917 6.158023
9.183834 108.2147 10.30326
14.37217 103.4931 7.601622
8.30455 109.2923 10.5138
12.62557 107.906 8.456121
11.49715 139.6148 6.986982
14.20598 136.7847 6.080719
14.81213 57.65155 5.426904
18.36503 64.76569 4.69783
16.778 61.3119 5.343766
17.55922 61.8164 4.757368
11.73143 76.32096 9.728022
15.357 77.25928 9.554815
14.46739 79.54985 9.998342
14.57053 80.49678 10.01752
17.48858 80.85374 8.59051
15.55367 78.20966 9.580717
18.11009 76.36401 7.6423
18.07741 78.31404 7.890992
16.80164 96.53988 5.783702
17.46391 94.78593 5.287883
16.70691 97.35594 5.574094
15.49137 96.36449 7.640288
14.72061 95.39068 8.418117
8.729942 100.2843 9.693188
9.481903 101.3597 9.659693
12.05936 100.7576 8.945307
9.074078 96.91698 9.392235
13.45167 100.0956 8.377525
13.77666 102.6842 8.058111
9.208143 94.67716 9.369132
9.30951 95.65556 9.364088
8.975125 93.20533 9.441558
10.88443 92.70777 9.564091
11.5033 93.19425 9.506848
11.29786 104.731 9.41636
15.90393 104.0741 5.158091
10.86655 107.1522 9.658115
12.66924 110.2417 7.418574
9.066218 114.1154 9.451257
11.40267 78.30543 9.956281
12.03954 82.31726 10.24569
13.94316 93.65448 9.184856
13.59284 94.11905 9.190601
16.48545 97.95103 5.741863
9.394867 90.0672 9.996195
12.15939 106.3089 9.014337
10.25175 105.6824 9.820176
15.69065 58.63103 5.356917
13.30794 56.09259 5.261847
8.351144 55.28786 5.270771
11.49647 60.13538 6.308133
11.01239 60.47789 6.402379
19.28993 86.04346 5.86349
18.56888 88.90331 6.323451
16.94621 85.81337 8.904013
11.22027 91.76825 9.713412
12.96813 90.4911 9.895023
17.37528 92.12402 6.953924
17.73276 93.89404 5.210204
15.66986 97.99261 6.989747
13.3219 112.5404 4.237467
14.06914 110.0611 4.941957
11.06959 110.6856 8.786184
11.07459 113.176 8.045996
16.12215 90.16198 8.865828
15.00755 84.78072 9.965267
14.65879 91.48718 9.362827
15.49286 89.57111 9.318929
11.61312 88.7364 10.10275
15.27192 98.34959 7.286264
13.68145 111.4276 4.430389
12.66505 60.84472 6.512449
16.59574 86.3347 9.098274
11.9998 83.47237 10.26928
14.5397 86.02167 10.05889
13.11559 111.94 5.55184
14.22246 88.28915 9.982732
12.59907 115.2986 6.005415
12.25578 116.084 7.359955
12.64312 118.3656 7.120126
10.3986 114.9747 8.521641
14.59638 63.33205 6.934581
11.07569 64.31743 7.365717
12.53376 64.56265 7.423585
10.83312 86.55918 10.23857
12.32618 86.56007 10.2386
12.5224 67.38939 8.116873
11.95232 65.80201 7.726182
12.15006 64.74813 7.468482
17.17621 63.65018 5.691872
10.10486 57.0402 5.529451
17.55156 57.44588 3.333148
14.43636 135.2177 7.455928
14.70452 131.7977 5.272168
14.77347 132.3417 4.907481
12.36949 140.9967 5.303126
12.79541 144.6122 3.488067
19.98161 77.66866 4.631642
19.32317 79.48036 6.222042
19.06222 81.87708 6.699279
20.29044 80.79153 3.923846
8.889923 83.90823 10.27971
13.26477 124.5165 4.93759
18.36452 54.31189 1.41563
13.15092 125.8974 5.87606
14.62638 135.6837 6.045557
12.20392 123.3615 7.523574
11.49521 123.5728 8.540134
17.96833 55.47857 2.406688
18.00465 53.55859 2.357929
18.46287 71.06398 6.252261
17.62625 66.10571 6.032064
19.5517 70.44739 4.130956
12.37111 69.83936 8.673197
13.94025 72.05326 9.046789
14.76799 69.6885 8.485663
