# .PCD v0.7 - Point Cloud Data file format
VERSION 0.7
FIELDS x y z
SIZE 4 4 4
TYPE F F F
COUNT 1 1 1
WIDTH 1662
HEIGHT 1
VIEWPOINT 0 0 0 1 0 0 0
POINTS 1662
DATA ascii
34.97179 8.273437 -1.250921
28.21482 0.166155 -3.72714
25.42265 1.340999 -10.34239
20.81666 0.3592331 -15.05447
8.990877 0.6452475 -19.38478
26.50921 53.96087 -0.6918241
26.99111 46.0892 -0.7009745
24.42524 61.32801 -2.188297
25.40239 60.71043 -1.534864
3.490847 75.7502 -11.42489
8.334824 82.58935 -14.9574
13.98783 76.68956 -12.98751
7.963834 78.01614 -15.70471
22.23147 76.87902 -4.150932
20.60207 86.83609 -1.630528
16.1578 102.559 -1.708188
15.70809 105.9229 0.1190019
8.052814 106.3656 -7.977252
9.933196 110.6046 -5.196446
13.68415 110.356 -1.397808
3.086149 83.91273 -11.61957
-2.735378 89.52659 -12.30903
-29.11741 16.86034 -2.801297
-21.78313 35.26906 -0.9085587
-20.72912 0.1951957 -18.1799
-27.88512 0.2870653 -14.20296
-34.02931 10.5732 0.5338647
-20.28161 64.90634 -2.033764
-19.65381 63.7709 -2.508339
-4.221151 76.47952 -16.12032
-31.0737 1.303976 -7.434722
-32.81543 3.817959 -3.942844
-18.43218 85.76575 -5.163445
-17.23858 91.70342 -5.853212
-4.610941 85.19748 -14.49865
-18.47498 93.30682 -1.443611
-12.44276 110.6808 -3.201293
-4.907396 104.3861 -9.618928
-8.661577 111.0388 -5.490437
-12.62123 113.7264 -0.952736
29.19414 23.55658 -2.72761
29.6691 0.6718569 -6.637641
25.11294 1.228252 -10.82554
28.61788 38.08017 -0.2576335
16.20476 0.8635426 -18.21144
25.90605 51.47788 -1.249884
23.0415 47.72167 -3.796669
27.39813 46.37382 -0.4038158
23.22545 66.29301 -3.096951
21.16925 64.42932 -4.152416
4.51792 77.7129 -12.07964
14.18147 78.33392 -12.35112
22.56664 77.2037 -3.978417
9.999414 93.58294 -12.2527
17.31945 84.0799 -6.821809
8.921695 103.834 -9.221974
16.00589 101.1058 -3.144608
9.622818 104.8039 -8.341307
14.39845 103.4734 -4.796905
12.01435 111.6415 -3.055645
-25.25414 21.74251 -1.76904
-24.12443 26.8915 -2.055105
-21.9998 39.61293 -1.840499
-2.323938 0.147 -18.87663
-16.30357 0.895204 -16.44798
-28.94293 1.308378 -13.99258
-23.61242 2.3802 -16.02394
-33.96275 11.08431 -2.017674
-18.92554 76.64771 -4.778512
-18.05956 67.0163 -6.680529
-6.401444 73.06926 -15.56326
-7.648531 77.74553 -13.99116
-33.42824 5.504161 -2.563053
-32.84505 7.154774 -3.815099
-19.30762 86.99471 -3.751078
-16.74867 86.15018 -7.112488
-16.64195 88.44862 -7.188631
-6.887479 90.72998 -13.8224
-7.593714 80.88404 -13.87098
-6.235099 95.95355 -12.73363
-7.730255 105.6477 -8.526598
-11.3464 109.3559 -4.946887
29.90471 24.55008 0.2478808
28.57538 0.5577629 -8.332794
24.4772 0.8493541 -13.0185
20.2978 1.896119 -17.19597
28.00521 34.01278 -0.9886684
3.901538 0.2478032 -19.13069
27.90042 44.56705 -0.1459513
-2.603474 68.77763 -15.9377
14.62193 81.52441 -10.5559
20.63011 76.53567 -4.89444
17.67056 73.58306 -6.8106
19.04355 89.9739 -3.623297
19.35303 86.63007 -5.366204
15.4722 102.4133 -3.511321
-2.468238 83.57688 -12.64641
-27.83112 19.31573 -4.306633
-27.64203 18.50702 -3.350528
-23.22267 32.54367 -2.308073
-24.68299 31.02051 -4.401489
-13.31086 0.2732901 -16.43676
-30.53645 3.376754 -11.79533
-19.62234 78.2373 -3.913069
-20.43481 58.97651 -0.7990313
-20.32193 48.13425 -1.794213
-17.40961 91.03082 -5.759582
-18.34055 92.7683 -2.74329
-13.88916 95.88501 -8.932887
-15.28639 101.8969 -4.179679
-15.85206 100.987 -3.593814
-15.34263 104.0788 -2.640342
-14.27209 103.0777 -5.204232
-12.95896 109.1219 -3.529635
-8.869373 106.0068 -7.95371
-10.10126 107.4872 -6.607046
-11.3756 107.5 -5.821829
-12.32531 109.4985 -4.05485
-6.985054 110.9946 -5.94774
29.55265 26.07514 0.05609484
33.43038 0.7951445 -1.899608
21.86334 1.821243 -15.05757
16.86181 0.5723251 -18.98561
26.50344 36.86397 -1.525336
21.36388 62.69789 -4.064817
0.1473315 71.66641 -11.75589
5.235665 72.78516 -13.86649
14.19687 81.02164 -11.65661
12.61222 77.31622 -14.03892
12.17962 89.72462 -11.98059
9.467843 102.6004 -9.620646
15.66366 104.2245 -1.682224
11.32894 109.9731 -4.654737
-1.667663 73.60373 -13.21014
-30.02927 15.87255 -6.670212
-21.13036 18.58394 -16.673
-25.27028 34.37688 -6.932938
-13.39087 0.1640625 -18.02663
-19.11522 71.77195 -4.338159
-19.96074 52.6269 -0.5796223
-19.61222 55.0803 -4.533632
-20.13072 55.27442 -6.862867
-18.63982 90.36619 -3.726947
-12.01661 97.8503 -9.925099
-11.9217 109.1383 -4.601247
-11.70196 110.6798 -3.961831
31.42296 18.45934 -3.443826
25.24847 35.93314 -3.595306
20.69721 60.62473 -4.803045
-0.1244167 69.87328 -12.00918
3.246128 69.62408 -11.14536
3.309741 73.22328 -11.29693
14.61739 82.19603 -10.31878
11.96809 76.96091 -14.45598
17.65634 87.38937 -6.698217
9.705022 113.8757 -4.158765
-24.97756 29.07327 -4.178357
-6.954951 0.1456101 -15.95093
-2.896461 0.2113712 -13.68894
-18.82892 69.49338 -4.616724
-18.5717 65.77423 -4.786548
-17.08259 82.07179 -6.953489
-15.98778 92.01062 -7.629155
-15.24691 96.91315 -6.911328
-13.34336 95.06527 -9.749717
-13.24737 93.53777 -10.47662
-12.5165 109.2861 -3.975149
25.26254 0.9217417 -13.84443
21.82042 54.23508 -4.309168
-9.570809 73.96245 -12.69216
-5.687632 72.45596 -16.20307
1.496571 74.2559 -11.20487
10.35781 88.21485 -13.29501
11.33628 74.76033 -15.02257
13.22211 88.28149 -11.20214
-25.43827 29.32506 -5.046296
-27.69949 25.08552 -7.02401
-18.37932 64.11066 -6.49825
-9.148425 87.07438 -12.47958
-12.51904 96.84747 -9.856988
-8.039449 95.91271 -12.4256
-9.97593 95.70941 -11.7811
-11.58445 101.5923 -8.755556
24.58719 55.69409 -2.060304
-4.713593 68.22334 -16.77801
-6.343485 70.57028 -15.77281
18.12072 82.19384 -6.309414
14.05592 72.38593 -13.84532
11.88574 93.54541 -11.18701
-12.91505 1.686555 -12.65016
-5.156518 1.650859 -11.33539
-18.31386 65.32812 -5.749835
-15.32412 91.28962 -9.167015
26.13949 33.51471 -2.512679
-6.916055 74.52086 -14.97901
14.18288 73.04766 -13.62021
16.27213 90.04719 -7.626051
10.50054 96.25289 -11.38982
12.51348 102.4793 -7.526572
13.38803 100.6347 -7.540163
24.97598 36.25461 -4.263676
-6.062854 74.16154 -15.80277
15.72406 75.52489 -10.18958
16.61109 69.6779 -10.44833
13.9382 97.50521 -8.269512
17.319 95.94323 -3.416457
-11.78845 90.31673 -11.79294
-15.01931 90.37426 -10.16871
-8.825299 69.33439 -13.30623
13.04939 92.93079 -10.4086
11.11949 101.0099 -9.376842
2.999085 96.48738 -12.41898
-0.5890328 95.45544 -12.21033
0.5312493 103.7448 -9.96658
2.934802 83.48262 -11.56804
2.306497 89.34526 -11.85104
1.008332 86.23768 -11.51722
8.196072 0.1450888 -15.81303
22.63504 66.56013 -3.406189
20.06712 66.96982 -4.92507
18.36926 64.48728 -7.61946
19.51273 70.30898 -5.268319
16.9698 66.5172 -11.147
15.59533 66.89962 -13.46552
8.671168 66.46358 -16.62668
22.40639 79.31126 -3.778255
30.44935 20.60338 -1.475978
4.042727 0.1594033 -17.48467
26.07534 45.34587 -1.35449
5.200102 70.61966 -15.99592
6.555231 70.1123 -16.47232
8.754735 67.68244 -16.54204
8.411591 67.62915 -16.57355
11.85002 70.64337 -15.33826
10.00625 67.86448 -16.25687
13.47225 68.38986 -14.87113
12.73487 67.06137 -15.38923
13.60226 69.82274 -14.6039
14.49359 65.05366 -14.7403
-23.18202 41.86813 -6.287019
-26.8823 2.258476 -15.331
-22.90875 42.91544 -6.258967
-33.45457 9.424448 -4.208598
-31.77895 14.01177 -6.046046
-33.34486 11.31974 -5.48729
-30.58909 15.4677 -7.430553
-30.22058 15.33442 -3.718633
-33.15232 6.945145 -6.485257
-31.18271 7.3934 -7.979687
-10.08338 82.90491 -12.23609
-9.334671 84.88449 -12.46273
-13.34507 84.79128 -12.20741
28.82435 0.5156085 -8.813395
28.51808 4.473168 -9.977872
22.73121 3.260528 -14.22714
32.23645 1.488416 -5.511353
26.29454 4.886335 -10.69093
33.68867 1.010661 -1.975828
20.61097 3.599839 -13.52575
34.0257 4.947085 -4.54017
23.09128 5.525693 -12.84319
34.45391 8.258713 -4.215968
20.48208 3.735351 -12.89352
18.9803 4.098424 -13.52161
25.91211 5.932087 -11.75878
14.32972 2.590289 -12.27017
11.11551 0.1456065 -15.43285
10.00458 0.147153 -14.78987
4.434935 0.7185227 -12.17487
25.34526 41.81694 -2.092902
16.93281 74.22893 -7.715529
-29.46429 19.47187 -6.027781
-28.00591 2.93363 -13.03248
-14.9246 103.3723 -3.978597
27.87411 27.29542 -2.566602
26.9139 30.27253 -2.918569
28.73094 24.77728 -3.438403
29.89099 21.582 -7.344984
25.47536 27.86445 -11.46967
30.12793 18.80767 -8.042959
32.44972 0.5841285 -4.723844
34.52671 3.200005 -0.8485752
-20.53792 51.84421 -5.785886
-20.249 55.2949 -7.202834
-22.14565 50.23285 -9.053789
-22.19081 51.36056 -9.917369
-21.26663 49.10127 -6.044602
-21.42647 46.63544 -4.700501
-20.37132 50.57602 -4.118479
24.87252 1.244425 -14.70994
26.05634 32.5808 -4.078794
-1.669752 68.17604 -14.16692
13.05587 85.77024 -12.03051
15.44141 85.56378 -8.253238
-3.838477 2.533059 -11.29377
-18.64784 67.91651 -9.653604
-18.66033 70.32068 -11.93146
-18.53604 71.32571 -11.37675
-16.19893 70.72856 -13.37043
-14.78951 67.34552 -13.32806
-12.98197 66.85384 -12.86779
-14.35753 62.47063 -13.28977
-19.18077 59.62856 -6.654492
-19.15541 58.6511 -5.502055
-16.53375 81.89808 -10.88988
-12.66543 81.72199 -12.35203
-14.77858 83.50237 -12.15466
-11.9083 79.76104 -12.32623
20.46651 55.75581 -6.017946
18.59417 60.7923 -9.161133
19.53463 57.08852 -8.169662
-13.26897 98.81223 -8.471341
20.28084 81.59045 -5.231462
-10.26922 0.5320731 -14.14309
-9.543092 2.203312 -11.56791
-12.24789 2.954795 -11.41013
-5.999929 1.4387 -11.58259
-11.86722 5.615144 -11.02137
-8.996714 5.952816 -12.55245
-9.700874 5.183024 -11.17449
-17.91839 3.639085 -12.06736
-15.39793 8.181273 -12.89083
-6.5519 7.763389 -15.52816
-0.3883484 2.910643 -12.79784
-2.860457 1.28467 -11.26397
-16.78745 5.94641 -11.16698
-20.15779 4.578221 -12.6866
-2.120867 0.940048 -11.67533
-19.18691 3.003553 -12.65845
1.811944 0.2410791 -13.30611
-20.17995 2.653527 -14.63665
1.908617 0.147 -15.00745
-9.473449 70.18998 -12.90052
-11.13487 70.41782 -12.56217
-15.69724 69.38869 -13.42156
11.53802 97.65515 -10.36441
12.52121 100.541 -8.438194
16.09646 72.13589 -10.78974
34.92599 8.546163 -1.544655
34.01287 6.556515 -4.530493
22.31262 47.5436 -5.095255
25.05142 49.44242 -1.909856
-30.8475 2.80858 -10.87833
-29.28392 4.674245 -9.198271
-28.32646 6.388737 -10.23299
-32.41625 3.785376 -8.232159
11.27451 64.32457 -16.23878
11.18569 61.21571 -16.54638
8.48106 62.39763 -16.82397
-22.67295 42.13644 -5.085503
-22.33219 45.85394 -6.756163
-23.6472 44.62086 -9.359147
-23.81996 45.93412 -12.21102
-21.61523 49.42037 -14.09391
-24.62201 42.50128 -11.66378
-21.85366 49.81877 -13.944
-19.24636 47.50856 -14.80084
-18.2965 52.1215 -14.47896
-21.05549 43.77734 -14.90116
-23.83124 40.1514 -6.803392
-23.84589 38.56678 -6.019936
-9.002609 78.58114 -12.81193
-11.30744 74.06384 -12.45531
-12.06053 78.29266 -12.39919
-13.75231 79.35078 -12.63849
-15.27663 77.85728 -12.81635
-13.41882 79.02341 -12.60302
-32.1255 11.23908 -8.830273
-31.96371 8.407055 -8.02617
-28.36207 6.949795 -9.691992
-27.4108 4.596815 -11.37243
-26.05718 5.142051 -13.65495
-25.20909 7.979561 -12.21727
-30.91523 16.35484 -9.863295
-30.15116 16.00851 -10.65569
-29.88161 15.03092 -10.17862
27.97168 5.39295 -10.78593
29.21314 9.377511 -7.831708
26.94245 2.693146 -12.44319
26.44472 5.493721 -11.42454
34.65326 5.349531 -2.91531
19.75077 10.02887 -13.76301
25.42296 6.255979 -10.58793
24.62072 9.518487 -11.12844
25.17599 10.87239 -9.949136
30.98348 11.70847 -7.247382
26.98019 6.220105 -9.423555
28.66951 11.81775 -8.39979
26.81818 15.32448 -9.714235
23.13169 10.61454 -12.44891
25.56231 12.16177 -9.444206
32.00475 13.4608 -6.557452
25.04616 17.42425 -10.9145
32.40385 11.64112 -6.194738
31.58491 17.05533 -6.459719
32.20694 17.06611 -4.866177
20.80509 14.12297 -14.16127
32.8219 14.46752 -5.395772
29.21696 16.18733 -8.832586
22.65901 47.2164 -4.47683
14.17732 48.13588 -16.57448
-29.05927 24.83052 -9.012307
-30.26712 17.96103 -10.55726
-28.84908 22.90204 -11.86243
-28.89747 21.14323 -12.04488
-14.15575 104.9212 -4.288276
-26.45212 31.7191 -7.757432
-20.74068 58.22956 -10.02262
-14.21276 106.7465 -3.06953
31.84444 17.74338 -4.487556
-9.208325 68.00014 -13.14129
-8.108879 66.18118 -14.00103
-8.464739 61.07967 -13.93143
-7.660293 64.43909 -14.52766
-17.76319 73.28267 -6.513933
-17.86291 65.09681 -13.60664
-19.1396 65.48849 -9.753435
-19.43113 66.24341 -12.03128
17.67362 61.93294 -11.76289
17.80301 59.71336 -12.56837
17.1299 57.23579 -13.99738
14.99586 57.75797 -15.37544
16.3571 53.8876 -15.02678
14.2667 50.12508 -16.39691
17.3547 49.32693 -14.94284
20.43439 53.56293 -7.248331
19.97486 54.3193 -8.856544
18.96583 56.34486 -11.43202
-25.51401 32.86811 -6.721514
-1.357177 3.404769 -13.25263
10.73178 1.255546 -12.2726
6.751209 0.3994088 -12.94489
21.2919 56.07161 -4.66935
34.66096 8.645018 -3.226753
34.2838 13.61331 -2.3743
23.42417 41.61049 -5.367256
24.22548 38.70216 -4.838606
24.77567 39.94591 -2.923512
24.83875 33.04818 -11.10231
5.624604 66.57813 -15.88667
6.421887 63.58328 -16.29774
-20.16726 45.1258 -14.91853
-24.95475 41.04514 -12.0652
-21.84264 42.56807 -14.80485
-19.63146 41.82301 -15.13188
-21.06814 40.4035 -15.18731
-7.659826 60.1122 -14.71923
-7.466499 61.15683 -14.86807
-25.13105 38.29656 -8.679914
-9.064942 76.83975 -12.83999
-17.98333 73.03511 -10.40986
-17.71367 73.20979 -9.752543
-17.25258 73.96073 -8.065511
-23.63171 6.193441 -13.78327
-18.7181 5.44142 -12.3482
-23.4736 8.442067 -13.9574
-19.73072 7.774489 -11.77288
-19.80432 9.244613 -11.45806
-21.52721 16.97032 -16.69806
-16.6127 11.51106 -16.25775
-17.88015 12.48537 -16.44
-29.33883 20.60589 -6.617645
23.10793 16.40526 -11.57413
21.0519 16.80789 -13.10858
26.66906 22.69504 -10.89865
24.54969 19.43038 -11.65052
23.77681 25.07669 -12.85574
24.64896 28.97251 -12.05089
24.11016 27.67442 -12.5453
23.70761 22.32259 -12.68891
24.23339 29.32163 -12.34534
22.63499 27.17638 -13.5312
21.16229 31.05625 -14.20086
20.07089 37.54615 -14.41025
22.17295 35.19688 -13.30147
19.67187 36.66869 -14.69912
23.59227 32.31953 -12.56523
19.08365 34.46528 -15.17036
18.7492 26.16988 -15.9735
15.17052 27.8329 -17.31326
22.91304 44.37034 -5.111493
-28.55267 26.69341 -10.30548
-27.11913 17.50326 -13.02924
-24.86852 18.8344 -15.66423
-27.75375 20.02275 -13.01659
27.54824 28.03127 -6.687536
26.27546 31.52773 -6.024443
27.35205 28.37385 -8.1149
-23.67955 36.10999 -4.385023
-27.49428 30.46197 -9.149235
-4.222255 64.27069 -16.90568
-12.23633 58.37977 -12.89747
-15.25825 63.91172 -13.54261
-15.34167 58.01828 -13.71101
-18.12617 55.99242 -14.28184
-19.2292 63.23827 -13.36629
-17.51088 62.57521 -13.8677
-19.96837 56.28924 -13.90004
-20.6881 59.54736 -10.75291
-7.337411 63.3471 -14.89992
17.86477 54.8582 -13.78852
-2.393815 5.787436 -14.08698
-1.826768 5.011697 -14.19679
0.3327013 2.276073 -11.95205
1.507869 4.593352 -15.01061
4.548778 4.32557 -14.96966
8.645006 0.8701937 -12.32846
7.617767 4.101747 -14.55103
11.86499 4.976593 -13.59411
8.682431 0.1693909 -14.37881
3.377697 65.20163 -11.23252
-25.90314 35.5222 -8.709857
-17.67267 17.8641 -16.05561
-25.99144 36.65546 -11.93957
-15.47471 51.78652 -13.89358
-17.53134 51.90994 -14.40166
-6.349205 59.01191 -16.05128
-10.65639 61.76493 -12.89185
-8.141329 57.84477 -14.35726
-12.49459 55.93063 -13.01269
-10.22831 53.99617 -13.30902
-32.46469 11.95053 -9.050541
-25.37385 10.11875 -12.78387
-22.95413 20.88937 -16.77472
-19.32139 17.96907 -16.41889
-25.46964 17.80979 -15.52916
-22.08634 13.77244 -16.33947
-21.69985 10.42008 -13.82665
-22.84679 10.65689 -14.8515
-25.26057 11.3718 -12.72818
21.12936 8.137928 -14.17257
24.69478 22.00807 -12.0958
19.92437 21.46218 -14.62812
16.2909 27.394 -17.0245
21.53812 48.0213 -7.653112
21.74892 47.7162 -6.764234
-24.64535 17.627 -16.46468
-26.16128 21.90784 -14.65828
-19.0183 32.83024 -15.59729
-16.0166 21.64061 -15.23251
25.66261 33.15147 -8.6171
24.11267 33.31842 -11.89507
-3.459006 64.83372 -16.78225
-3.017361 59.80423 -16.49547
-0.02089455 64.45005 -12.33173
-2.262923 46.11897 -15.97822
-0.2709427 62.28391 -12.764
-1.144642 53.62658 -14.67603
-0.7503003 54.67459 -14.07396
-2.115248 53.19227 -15.82156
-0.4474805 58.49359 -13.31668
-0.2733579 60.60561 -12.88152
0.1583922 63.79498 -12.21309
3.254695 59.74451 -11.36041
4.560205 58.55271 -11.99511
15.10333 60.42191 -14.99513
18.36512 54.92769 -13.24623
19.79978 51.60599 -12.05378
2.790287 5.732676 -15.8285
5.362809 62.70183 -14.92979
-24.24846 33.81371 -14.75824
-17.34052 33.42574 -15.07028
-17.40134 33.66594 -15.08247
-16.68876 33.69557 -14.83878
-12.24455 51.62805 -13.11974
-14.57113 51.47452 -13.59194
-15.70364 43.05039 -14.18306
-15.53433 43.99535 -14.09041
-14.67812 38.53078 -13.98316
-11.48347 35.36808 -13.83626
-14.1313 42.46978 -13.70858
-11.82104 38.22813 -13.67041
-9.669837 41.66845 -14.09085
-7.34603 37.51991 -15.86138
-12.3983 34.17366 -13.82834
-13.23904 45.36039 -13.39187
-10.67316 43.33475 -13.64162
-12.18803 46.11505 -13.30413
-7.938492 40.6863 -15.32945
-9.969734 46.84457 -13.72055
-5.78511 44.9439 -16.6892
-8.235897 49.21146 -14.67272
-9.536081 51.36536 -13.70201
-7.007136 47.49234 -15.82774
-4.077175 46.53776 -16.98507
-4.592991 40.41151 -16.98545
-8.499397 56.40628 -14.11106
-5.612212 48.7504 -16.70473
-2.809984 55.91084 -16.41858
-5.308522 49.99839 -16.83513
-12.17144 57.70578 -12.91499
-30.23279 10.13739 -11.18146
-27.00158 9.462629 -12.22719
-24.72835 9.756499 -12.9672
-26.60616 14.38589 -15.59059
-27.86006 14.52139 -13.09597
17.394 8.841003 -15.56972
20.38861 22.47486 -14.54922
19.97562 18.2993 -14.08318
17.44514 24.12526 -16.74665
15.6101 21.56751 -17.46108
17.62517 15.0926 -16.56627
9.45197 25.53976 -16.23396
13.38257 22.28999 -17.52362
19.22972 14.15001 -15.64565
11.80072 21.68395 -17.15597
11.73701 24.73579 -17.22633
17.7056 11.84613 -16.3679
16.67845 13.20323 -16.89255
15.97258 11.89685 -16.90885
21.03588 38.71441 -13.73386
23.26021 40.4321 -9.979073
16.03928 36.31254 -16.59511
15.79759 39.07872 -16.50306
14.54451 38.34386 -17.02501
13.50454 41.86058 -17.13541
-23.50462 23.9752 -16.34162
-20.89042 24.49652 -16.41252
-25.50433 31.97956 -14.09488
0.1539788 59.80392 -12.51407
1.653921 57.08485 -11.62421
5.332851 57.95696 -13.68126
4.299242 58.48481 -11.83061
4.812944 51.84167 -12.43535
1.90325 50.29674 -11.7939
3.236297 51.86743 -11.70532
11.94126 56.10726 -16.74327
6.214353 5.67294 -15.84106
-24.18528 34.83129 -14.64328
-16.40963 31.01509 -14.84419
-14.66549 30.90845 -14.32467
-20.15692 29.33784 -16.0262
-13.23242 28.14439 -14.19589
-19.53028 28.10843 -15.95144
-17.64082 27.40046 -15.42029
-13.38832 27.83631 -14.22955
-10.23821 27.61951 -14.53343
-9.010728 26.30515 -15.09175
-9.202177 38.78711 -14.47369
-1.269672 46.21806 -14.97502
-2.308648 42.03507 -16.15363
-28.40637 14.92007 -11.64975
18.31894 10.51794 -15.83695
17.69513 5.770266 -12.2619
3.071672 6.103829 -15.71514
22.253 43.37661 -10.77177
21.89793 41.73209 -12.50843
20.03436 47.03403 -13.26985
19.26618 49.59916 -13.53079
16.91866 50.62093 -15.06916
16.51433 51.48447 -15.20324
16.85218 43.95613 -15.68573
13.57555 51.97868 -16.51257
13.83463 34.48705 -17.36959
11.22106 38.17813 -17.34811
-26.44463 27.3255 -13.92575
-25.56009 26.71589 -14.77877
-26.97107 29.4052 -12.97889
-17.55136 17.89458 -16.01822
8.706155 54.68193 -16.9009
12.94203 50.559 -16.81117
-22.22314 32.94008 -15.66782
-22.29438 28.63938 -16.0561
-23.32801 28.10538 -15.87519
-16.70027 26.8638 -15.13717
-9.610397 35.70762 -14.41312
-4.254234 35.77998 -17.10401
-2.550432 37.72884 -16.4075
-9.46691 32.91103 -14.62051
0.9805328 50.2011 -12.42856
5.153102 48.44328 -12.77425
0.9441614 49.29791 -12.49704
3.776565 49.65108 -11.98516
16.36849 11.42649 -16.75332
16.36785 6.303727 -13.07331
19.35281 7.843953 -14.58338
14.72494 28.35788 -17.40467
11.69172 5.98911 -15.8538
10.79341 6.895 -16.30385
4.260898 4.795692 -15.37173
4.53138 7.749123 -15.59307
22.2778 43.08705 -10.92236
12.84875 36.24694 -17.44951
9.0054 41.74101 -16.70746
10.84685 43.41704 -17.2831
7.725046 43.69593 -15.87064
9.193802 46.16826 -16.95757
10.02379 49.16257 -17.11952
16.24077 46.32935 -15.80609
-26.31219 32.5696 -13.12191
5.545751 53.24585 -13.26745
5.832554 50.39012 -13.51932
7.852249 50.01479 -16.47919
8.046736 56.64267 -16.76522
5.890558 56.62276 -14.75732
-14.13348 25.09869 -14.49465
-12.49265 22.60462 -14.43752
-6.640319 9.436718 -16.30156
-0.5678501 42.59529 -14.30883
-0.2666489 40.79376 -14.09086
-2.563213 34.24148 -16.46263
11.71266 28.40065 -17.32061
7.354603 27.5437 -14.78064
12.19458 15.85975 -17.22093
12.07645 11.86224 -17.10441
9.444064 13.59339 -16.24422
8.941628 11.56856 -16.21342
2.148139 14.75528 -14.83101
1.167967 8.325154 -15.80911
3.235188 11.27188 -15.00457
3.114768 30.26454 -13.13838
6.332141 47.37169 -14.1509
7.059107 41.02537 -14.86377
6.381813 42.82346 -14.08948
4.751591 41.25178 -12.67763
3.522231 38.24505 -12.53347
4.848427 43.65959 -12.66311
5.298175 36.79613 -13.15965
2.782692 38.64845 -12.51166
-0.3514827 37.33781 -14.37054
0.7324352 32.36427 -13.79581
0.4783886 34.19239 -13.84336
-0.6455374 31.06915 -14.95672
6.432419 28.40942 -14.14514
-4.502325 23.00306 -17.18498
3.304385 26.76217 -13.42657
0.5115376 30.85189 -14.07634
-5.500116 32.39464 -16.8784
7.360989 33.64388 -14.89088
2.712407 25.93152 -13.59091
-5.900119 9.624692 -16.42776
-8.408793 11.81655 -16.07905
-10.60147 11.10601 -15.21054
-9.450011 18.56659 -15.2218
11.29138 27.42936 -17.17953
11.62173 30.66527 -17.35784
12.55431 17.43534 -17.3173
5.826286 13.76351 -14.988
9.916103 19.14207 -16.27409
8.455364 15.41181 -15.69559
7.963267 19.10387 -15.26518
4.585558 34.52957 -12.97646
5.195618 35.15042 -13.18456
10.0867 33.7108 -16.9237
-1.394035 34.56673 -15.51841
-4.916975 32.58252 -17.0337
1.337495 23.86009 -14.28243
-10.69148 17.81398 -14.85855
-9.630675 16.72328 -15.24105
-14.57135 12.57309 -15.82104
-13.13064 13.01715 -15.31303
-4.763212 17.25912 -17.07476
-6.628936 12.91202 -16.59916
2.195812 12.71755 -14.9984
0.4479056 10.34911 -16.00086
-1.191913 7.557877 -16.25395
-3.18953 12.83896 -17.04037
7.532721 16.19878 -15.26247
4.200151 17.61462 -14.3113
6.21605 32.50814 -13.8918
-5.538447 27.94142 -16.91363
-1.929567 29.68228 -16.01879
-6.952137 20.24245 -16.31405
-6.251696 26.09773 -16.61798
-8.74863 29.54218 -15.14026
-7.901218 19.52005 -15.85327
-11.38091 22.96768 -14.46648
-8.297489 24.25473 -15.55564
-6.138206 25.1349 -16.6798
-9.845194 23.41752 -14.84711
-4.464495 8.306962 -16.09851
-4.428867 9.779173 -16.67805
6.493625 20.93916 -14.50748
-0.7563583 23.94297 -15.56089
-2.947102 21.1007 -16.98305
-0.2192338 20.25526 -15.51814
-0.1050918 18.25549 -15.62582
-0.9053228 17.83062 -16.14488
4.938029 21.84078 -13.96969
0.273389 23.48056 -14.89626
22.90208 24.96174 -13.42253
17.05628 35.21634 -16.1871
-1.575212 27.54598 -15.87784
-24.62308 18.23112 4.68217
-21.22519 0.1683929 17.18071
-24.83346 21.54125 -0.918842
-24.63906 55.98072 0.7823433
-13.48242 76.83371 12.38748
-31.34135 0.1845909 4.426058
32.53568 1.555362 3.81381
-31.25979 1.922966 2.461734
-20.84838 74.08859 1.072083
-22.42862 65.92715 -1.6344
-22.31307 76.1264 -2.309603
-5.193481 88.69864 13.22594
29.81274 42.3872 1.632316
-16.41891 104.0086 1.441541
-14.31133 111.8418 3.125806
-14.76278 109.7566 2.639234
-6.471265 112.0225 11.1589
-13.8099 80.21673 11.36421
-2.728781 114.1739 11.82205
-10.00386 85.65874 10.89139
-19.8453 88.07507 2.473193
20.36394 77.77783 3.254944
-13.0635 93.62181 9.648301
16.08371 0.8375958 20.21059
13.06409 0.7402662 21.56455
17.94794 2.301438 18.59069
-7.291922 114 10.61898
-0.1863514 98.80909 12.64096
23.96965 72.40812 -1.732587
33.42419 1.377515 4.646012
-6.693632 110.6103 11.04915
34.99418 9.843577 2.4704
-16.29338 104.6896 2.308284
32.5541 19.95329 6.108982
30.41101 32.06866 4.225629
-15.54783 69.28127 10.20841
11.36502 82.68298 11.6132
7.390935 89.61023 10.50793
13.02246 112.8158 6.450294
-14.43119 77.49087 12.17579
4.924131 95.76721 11.02009
24.76252 56.65689 0.9879071
21.71042 81.73899 -1.494166
20.74248 85.02125 1.103488
-20.38272 87.12869 0.6856524
14.20325 112.2792 3.784657
14.92764 77.95118 10.90233
-3.625018 101.0206 11.99825
23.0226 61.86838 -1.256518
34.15093 2.179108 3.758269
13.37535 77.2888 12.26339
7.188079 94.2511 10.89246
6.899156 111.9487 11.36231
-3.578817 105.8722 12.18864
1.967241 110.899 12.00789
-32.94385 6.060237 3.091959
-26.26901 0.5536465 9.217861
-23.25417 0.1478835 15.32324
-22.05111 40.60582 2.199555
-22.38569 81.00261 -0.5339656
-10.77607 77.40204 11.42679
-21.61467 81.801 0.8323004
-18.29223 94.03319 3.019243
-19.82997 88.81871 0.2811675
-17.7293 97.09444 1.220111
-9.443096 100.7812 10.18312
-5.804793 109.9344 11.52673
-7.099023 110.969 10.8025
5.234915 92.46706 10.71295
-7.519217 95.11259 11.5343
17.77772 0.5790066 18.82789
24.48273 0.854322 14.07752
23.48329 70.17098 -1.655124
34.20633 2.251102 4.368435
9.768048 83.78255 11.3013
18.74185 92.94505 1.579197
17.31797 99.54227 1.460803
5.775694 105.2456 11.60823
9.099296 112.0682 10.2848
11.76663 111.9462 7.924668
-0.7401198 114.052 11.82306
-33.60125 7.99103 2.078333
-28.09254 0.9630381 5.883076
-33.3858 11.53067 1.882644
-20.36092 0.9413365 17.86754
30.0593 34.14894 5.762299
-24.18948 60.98946 -0.2287622
-22.43498 73.06837 -2.215173
7.037125 73.50781 12.79342
-12.68824 81.47083 10.91807
-11.08984 89.16235 10.91231
-18.75355 92.99036 0.9804945
-11.90703 101.5175 9.033439
-8.281801 107.0807 10.62477
-6.621603 110.231 11.1622
-11.00951 107.4246 9.550772
-8.746803 102.1133 10.39944
-10.63063 85.58149 10.71355
5.638461 93.9281 10.8477
-7.209001 90.52863 12.54646
18.09216 0.5741936 18.7584
31.60893 24.74081 1.417727
32.65863 5.450069 4.517704
26.1307 62.51901 -0.5748879
22.61222 77.47722 -2.405273
20.89942 83.97234 0.8535353
10.82967 82.64109 11.47274
18.38649 94.14829 1.978845
9.132442 89.65742 10.50669
6.599787 99.62604 11.67359
8.090883 107.2757 10.7901
9.490448 111.6823 10.539
13.92239 110.8219 5.792637
0.1989394 103.4951 12.28402
-30.61964 3.992456 9.615743
-24.98101 19.34276 0.6640412
-28.96379 14.0855 0.2232831
-27.27463 1.233355 9.977731
-26.63733 1.843069 13.44462
-19.50085 1.305438 16.69137
29.48357 39.50083 4.543011
-21.22498 36.9021 -0.1794429
-21.56564 55.48815 0.1470216
-22.41712 73.90734 -2.24602
-22.51134 69.43418 -1.999682
-22.08566 61.36856 -1.040073
8.399029 81.61613 10.84764
-13.00888 75.18 12.7375
-11.4353 94.92324 10.07082
-17.89746 96.18626 1.445836
-16.71241 99.99186 4.544981
-15.71193 106.1999 4.109473
4.423508 91.38155 10.84951
4.731207 98.11852 11.31936
17.83216 1.016185 19.52761
22.96835 0.3258626 14.03748
32.90874 19.77259 2.55655
26.15821 0.7895288 11.33625
25.17599 1.281585 14.51475
30.626 0.9603131 9.142599
34.92815 8.680069 3.409955
25.04755 63.22449 0.07770076
20.90285 72.36043 -1.367965
29.93526 1.211243 6.994043
9.921056 80.64606 11.48645
9.033276 88.33777 10.5146
17.77877 94.37162 4.755256
18.24504 92.7425 4.709556
9.74234 89.44597 10.46014
8.742078 97.22165 11.19108
8.746039 94.28664 10.93196
12.30748 96.16119 9.625004
13.36813 106.0027 8.242373
-33.19176 9.668188 4.970726
-22.43544 30.73762 -0.7485355
-23.52058 22.6084 2.683598
-32.64499 11.66749 2.107277
-29.79766 1.877053 7.617771
-17.87838 0.3159385 17.7906
-9.297401 0.7308913 19.65664
29.44555 44.67929 1.682683
28.92543 47.9044 1.867625
-20.45526 43.37333 0.1715701
-20.9522 37.60096 0.196198
4.84224 0.147 20.31864
-25.71302 52.62873 2.26565
-23.74793 73.45778 -0.7610037
-21.61334 67.8812 0.3108348
6.509782 75.43243 11.67659
4.138997 73.90648 12.41508
-8.348842 82.03424 11.65023
-21.19442 82.78145 1.453748
-14.57059 87.54346 9.945446
-16.42078 98.60915 5.622746
-14.7614 100.9204 7.342516
-14.37109 107.6386 6.260494
-13.03227 100.2404 8.55196
4.31022 88.65408 10.91729
1.693588 88.3298 12.5326
-6.168261 88.41416 12.67433
-4.042424 86.59679 13.93532
18.54403 3.296272 17.253
23.47364 1.723739 16.06304
21.01306 3.489729 17.3971
14.58585 2.311431 18.84449
32.89389 20.26246 4.46664
31.97116 22.3245 6.149548
32.00199 23.58308 3.080329
33.43716 15.30476 5.5892
26.30662 57.93033 1.314585
23.46911 62.63991 -1.058704
20.86197 76.52176 -0.7387953
20.66204 80.82026 1.48785
13.37634 83.07246 10.70512
18.88245 91.59141 3.469642
13.38885 84.70309 10.32283
12.72383 94.39265 9.733004
8.647317 100.3074 10.87036
15.0825 107.4485 5.22598
-5.750665 106.1616 11.59705
-22.31201 28.38895 1.510246
-26.99583 14.54061 2.434054
-23.86664 25.20676 -1.042785
-27.01888 13.18612 5.280919
-10.7946 0.5716975 19.05442
-8.311282 0.914925 20.3175
30.41895 37.91005 2.671679
-21.26954 46.98872 1.178151
0.8689948 0.147 20.74617
-19.82812 55.25826 1.181412
-25.80834 50.18339 2.880669
-14.56151 75.59694 12.2948
-14.25181 91.0237 9.576162
-15.8577 100.2841 6.171346
-15.76038 105.0375 4.973657
-13.02443 110.0874 7.148807
5.754077 85.61288 10.5622
-4.024642 85.23669 14.03086
15.74465 1.957477 16.73905
31.41898 24.20329 4.553802
30.90494 26.01094 4.907944
30.88597 28.45991 1.343233
29.94061 1.065105 9.672198
20.65809 61.79298 -0.8899466
30.37444 1.429557 10.61912
12.89093 75.63464 12.62845
11.10955 103.3079 9.378325
-21.89155 32.97394 -0.4988427
-25.83761 15.08461 4.733865
-23.57437 22.87012 1.487784
-12.13889 1.120975 18.25611
-0.4675653 0.1582623 20.50057
30.04285 38.41239 4.220944
-21.92294 43.16085 1.862114
-23.73252 39.84336 2.868612
-25.32367 44.7434 2.833112
-13.87242 96.14536 8.719719
-15.01635 105.3118 6.420747
3.965661 80.95013 11.71957
-5.845728 94.01934 12.65091
-3.54514 95.64788 13.09942
-4.353395 84.14143 13.93458
10.98302 1.190066 12.99465
33.99389 13.99227 4.521578
33.05822 1.234329 6.227865
22.81214 65.11832 -1.728537
31.90847 4.168636 9.86332
16.86554 87.56957 8.748318
15.32018 92.73205 8.760855
-23.52664 27.29738 3.655996
-25.80166 18.52499 6.173872
-4.565001 0.5949552 20.05919
-5.040105 0.3742513 16.42659
3.938624 0.1957255 17.45453
30.18646 39.79122 2.86278
29.1075 35.69206 5.891592
-23.08391 41.92672 2.387198
-14.94231 89.88619 9.511069
-18.0309 86.57849 7.773852
-18.14348 84.54234 7.870496
-17.4157 83.70599 8.796276
-17.92423 81.5507 8.229422
-17.29744 77.19533 8.797903
4.553614 78.88247 11.61728
20.17578 4.698915 15.48909
29.30655 23.03144 8.59971
31.14355 24.95655 7.500328
30.28795 32.82587 3.268987
12.63809 87.0892 10.2657
-22.14765 29.7155 2.089179
-23.27898 23.59042 2.567574
-23.77391 26.63693 3.879286
-10.40917 2.45635 16.75493
-1.976609 0.2881017 15.82158
-25.89001 41.80671 4.06915
-2.674249 91.60698 13.72687
18.96554 4.798721 14.27311
11.39415 0.5782231 16.23098
27.94729 20.61611 9.174785
32.04147 1.798958 9.448509
17.78285 90.75335 6.906576
12.22489 99.11888 9.241071
-22.99729 24.74542 2.282669
-14.94737 4.041254 19.07181
15.12048 2.865317 14.20145
28.31987 22.96979 8.694638
18.37521 91.11771 5.585355
13.62011 108.7096 7.309872
-18.57974 5.875892 17.93891
-25.92594 42.47992 4.009933
12.23631 1.098687 14.16123
30.79867 31.41967 5.959574
31.11222 19.78152 8.123422
12.62921 107.3566 8.545547
-17.93907 3.514666 18.55583
-19.01509 6.664149 17.15461
30.36538 29.22372 3.807207
29.762 31.56357 6.634096
17.80179 87.43768 7.874077
15.46481 102.5968 6.349575
-17.26854 5.367731 17.96712
10.91141 1.460043 12.19476
28.30233 29.52292 7.322857
14.97969 86.24899 9.918921
14.85577 4.077001 8.488593
16.90022 98.54124 4.58247
27.81598 10.67486 9.310115
16.82386 97.47307 5.236578
30.88866 12.22539 8.813434
15.82768 95.55943 7.541795
30.26731 16.83432 8.961294
27.42034 11.89562 10.76178
26.58737 11.98387 10.92019
23.28381 14.10881 8.997812
24.82909 11.01191 10.36983
-19.90965 87.52686 2.782621
6.815592 108.2595 11.26273
20.46031 82.11703 3.075004
20.08423 80.07427 4.49112
20.25307 76.84042 3.467154
8.94556 108.8995 10.3043
-0.6773101 103.4947 12.44757
-30.96596 8.920496 10.25759
-31.78103 4.537347 7.822987
-32.23351 5.467793 6.449437
-29.05599 3.453891 11.82049
-32.35844 7.448171 5.447948
-30.3502 6.529869 11.15132
-28.68347 11.18806 10.03633
-30.73993 10.03776 7.775904
-30.06393 10.31063 6.745224
-29.59455 11.73064 5.682217
-23.52866 53.11986 0.8383458
-23.72663 51.21048 1.18084
-23.4863 47.99862 1.603737
-23.21264 49.63103 3.981222
-25.41039 53.88048 1.661384
-25.38732 49.07849 4.213307
-23.54723 56.57428 2.564615
-21.84033 54.92745 1.599003
-23.33715 50.66402 3.738158
-24.97395 50.88684 3.959405
-21.62456 50.85352 2.203766
-18.21053 57.49769 2.876042
-22.43621 64.19933 0.9343231
-19.25854 58.96681 1.661163
0.929762 100.5593 12.06247
25.97896 61.56897 0.5456746
23.72153 57.88163 -0.1902318
22.97134 69.27509 -1.845513
20.17822 69.81873 1.669228
15.30008 108.6508 3.759335
27.16433 48.1945 3.42483
25.71728 50.83816 2.508505
-14.24335 91.85729 9.43105
2.379769 86.96346 12.17989
-1.42482 89.50419 13.9383
3.813637 83.10322 11.59866
2.729742 77.60645 12.8715
1.611005 77.41609 13.6652
2.530894 75.7635 13.18175
2.090799 90.49966 12.02931
22.23218 4.268185 15.21405
24.48256 4.473832 13.07117
25.3503 4.468676 12.8139
22.64504 4.966537 13.39515
23.30841 6.007276 10.00367
17.59366 4.092482 9.189328
20.68064 7.888588 8.995086
22.24778 9.057499 8.949389
19.92514 7.815776 8.736071
23.76324 6.000808 10.19376
25.79253 9.647053 10.01587
26.91177 6.427737 9.431246
16.21886 7.35701 6.647314
17.04908 8.746252 6.995971
15.50165 5.408978 7.103581
26.19247 6.167344 9.695647
18.40621 10.53884 7.382202
16.80614 6.670643 7.248713
25.17143 4.37844 13.0618
19.71652 14.37072 6.359918
12.09217 6.575243 6.229528
11.17821 5.258207 7.050149
20.68123 81.40311 1.138743
20.29152 77.69904 3.542448
-27.93222 13.91316 1.885722
11.62529 73.01082 13.54119
12.33329 71.91222 12.80897
-12.47343 91.43267 10.21532
-16.46265 93.25424 7.590825
-15.93898 105.2475 4.22259
-0.4632972 93.39141 13.27364
22.84131 65.52856 -1.75083
20.16722 62.53309 0.1635766
19.99082 61.21304 0.4776062
14.73965 78.03338 11.09659
-20.52909 6.186626 17.92063
-25.80075 37.33283 4.623556
-22.64769 73.33128 0.3206771
-1.361704 95.99431 13.2446
-3.583272 100.3494 12.15111
1.404575 94.25179 12.18072
-6.104898 96.89512 11.68658
5.352495 0.4708395 15.18281
2.195597 0.1865948 17.44345
-24.58262 32.56993 4.168093
-22.68645 28.86005 3.034976
27.09439 45.92528 3.79736
17.14321 90.87842 7.711244
-25.2023 26.09371 5.320501
27.60667 26.68112 7.692811
33.39799 12.35373 4.933972
29.80427 9.991719 8.975952
28.49021 6.725369 10.41667
18.53183 89.88969 5.949718
19.52348 87.59686 4.551142
-3.486324 79.91582 14.58894
-2.770239 78.12591 14.91664
-4.189503 75.06792 14.68429
-1.487896 75.70134 15.10204
-8.048203 76.54403 12.22208
-5.722614 71.05953 14.20311
-1.617242 73.15876 15.36589
-2.906024 70.78819 15.51579
-0.1838894 72.48997 15.05886
9.401631 1.969872 10.97852
2.256207 1.455079 11.72086
-0.4226481 1.67144 11.25599
-2.994096 1.518102 12.00149
-0.03883443 1.691611 11.18086
4.012202 2.000562 10.58092
7.472691 3.099607 9.019124
6.998261 2.163429 10.46189
-7.234272 3.647526 9.393999
27.53992 38.62064 5.424303
28.20635 30.99041 6.977852
16.36338 80.65681 9.657051
17.98225 80.35599 8.094117
26.60427 18.12544 9.308088
-18.46686 93.6485 2.440414
-18.18337 94.86673 2.106999
-3.508813 105.8496 12.19468
-25.07713 2.218834 15.09939
-22.61509 1.399134 16.41072
-30.39268 10.79883 5.897182
-14.22104 4.336757 11.7313
-25.51056 10.64357 11.74912
-27.48497 9.580262 13.14682
-21.33068 6.748656 16.26018
-24.17186 4.758253 14.85289
-27.03798 12.42782 9.301021
-26.74989 16.79885 7.513091
-25.81019 39.72221 6.146966
-25.26194 43.2024 5.794525
-26.09984 37.98757 5.677258
-25.90343 36.11167 4.817752
-26.23962 27.58186 6.273957
-22.25574 39.19571 5.490016
-23.82244 40.25927 6.794965
-22.46148 37.27979 6.255913
-19.8381 42.7083 2.446046
-22.31458 41.82107 5.067814
-18.08516 45.1607 2.203257
-22.29445 45.63882 4.137082
-22.4479 57.70702 1.51328
-18.08356 54.53503 2.568128
0.7693567 101.5395 12.1122
20.18584 72.36407 2.568806
24.5119 51.84987 1.472241
23.84406 56.08268 0.1544032
25.80266 46.49298 3.263232
-20.29128 76.79862 3.313868
-16.96963 95.19303 6.096127
20.1927 15.4251 6.236879
25.97601 3.635487 14.71504
0.9963495 9.555986 8.773971
20.41716 75.85691 2.445768
20.05912 71.8382 3.12406
-20.71989 59.03072 0.8843735
-24.88885 63.14566 1.222526
-22.30326 64.7955 0.7759571
-20.5646 64.03042 0.814788
-20.46354 66.5754 0.8325158
-19.8326 65.40779 1.576139
-20.10343 62.12627 0.9592808
-17.67702 60.95104 5.435069
16.70759 80.2795 9.294364
17.7537 73.05889 7.975872
15.11223 74.09353 10.14759
18.68281 72.94562 6.96541
17.85023 71.796 7.855162
-19.17932 90.36385 3.588342
20.09581 63.34344 0.4961245
20.54971 55.71578 -0.6007199
19.72311 61.11948 1.535856
-22.4764 74.03936 0.2312243
-23.88014 33.82727 3.741662
-26.17769 29.09087 5.883179
-26.46729 27.9067 6.767037
-22.62486 29.4861 9.312461
-21.959 28.28199 9.207478
-26.25858 17.48657 6.730745
-9.968429 2.588432 14.13159
-20.87038 81.83849 2.090767
-19.63793 82.60765 5.592166
-26.4441 19.06532 6.607762
-26.3214 19.59913 7.892715
28.57128 7.159249 8.92593
27.89879 6.430797 11.45453
29.23656 4.934943 10.71555
30.60436 4.347917 11.19146
30.98649 7.625182 9.323231
-11.24686 73.67004 12.53902
-12.78916 75.7054 12.46365
4.381253 71.5501 12.67016
8.281322 5.578746 6.86088
3.514371 3.714577 8.292725
-0.3872469 6.637618 8.236971
0.4948784 9.734486 8.982373
2.72663 8.247721 7.869833
5.057224 8.576632 7.457311
5.907594 9.071155 7.451114
6.105227 9.496562 7.560074
10.03311 10.12604 7.08149
7.40483 10.89166 7.816183
14.55906 17.32036 4.453638
3.719126 27.60043 11.51031
7.369994 15.0478 8.732773
6.398847 17.1633 9.28229
-1.681901 4.06811 8.268693
28.30924 41.44918 4.759747
24.46476 36.98127 3.647179
25.48836 39.69416 4.070604
24.69208 24.00088 6.27716
24.21981 25.83352 5.589297
25.71602 32.39686 5.512064
19.94053 79.05061 4.851819
17.95401 77.54082 7.991969
-27.20877 5.872747 14.09482
-23.86099 12.5571 10.72383
-20.51018 29.2989 6.833914
-24.72482 18.21402 11.18961
-17.53686 42.73219 2.525407
-20.18045 51.04682 1.372122
-18.84481 52.22955 1.721097
-16.52459 52.03284 4.746813
-14.32901 51.57301 8.688877
-17.44934 61.83149 6.189954
22.33935 54.38703 -0.6375239
24.83507 43.52572 3.064688
27.32921 43.90178 4.284645
25.49361 45.16775 3.316152
21.45214 43.47466 0.474042
20.90537 38.91944 0.9894429
22.43328 17.77258 6.483674
-24.78408 64.89932 0.7022098
-19.21681 74.42023 5.763906
-18.19616 65.00436 5.598436
-19.08782 70.31256 5.137564
-18.04818 65.92479 6.117908
-14.26905 67.41332 11.64002
7.10345 70.03452 13.36547
10.06606 72.44875 14.44268
16.54181 71.42487 8.809185
19.89185 70.13259 3.528414
19.91671 68.26572 2.789647
18.94015 65.76151 5.724337
21.56487 45.71366 0.18597
-26.12322 24.97028 6.671667
-25.89304 28.32693 8.358198
-10.33154 33.61494 9.407569
-18.47496 34.47506 3.271207
-8.791721 3.171418 10.68393
-12.37136 3.361392 12.8243
-10.16514 3.614785 10.73097
-9.663789 4.857627 9.133344
-13.61152 5.578601 10.06892
-12.76755 6.883303 8.505405
-20.0688 80.81575 4.605005
-4.865841 71.39724 14.66797
1.122442 2.363791 9.840164
1.626207 11.65079 9.282748
5.832375 16.12153 9.273398
5.805877 13.64952 8.855676
-17.07777 16.05855 10.04747
-5.019841 9.089692 9.15025
-6.163744 12.47266 8.875814
-1.570966 13.9332 10.23065
-2.573707 12.5846 10.07313
1.598558 16.25573 10.1866
-0.5777783 13.7221 10.12316
11.83288 18.34179 7.21962
8.678432 16.79316 8.565229
7.134785 18.32792 9.24573
26.48801 32.04073 6.090399
-22.45941 35.65065 6.863436
-23.30292 31.3595 9.002495
-20.11612 30.23963 5.737778
-15.12294 43.33028 4.824392
-15.89058 36.82442 3.308691
-19.88736 46.52206 1.915373
-14.68437 62.64559 10.32885
-11.76464 63.23375 13.29945
-12.45189 67.30373 13.54418
-7.733215 69.21275 13.7081
-14.22736 70.42928 12.2073
-12.78307 69.28287 13.30576
-15.09655 62.79534 9.852917
21.24849 50.80223 -0.4065103
20.76939 48.4994 -0.1571541
-19.65776 73.48315 4.590393
-19.32782 73.70255 5.412199
-17.79292 79.12554 8.304279
-18.42888 76.06798 7.264539
-16.35543 76.21537 10.00856
-18.48198 72.77512 6.739267
-18.82113 71.93694 6.060454
-16.69897 68.12597 8.571987
-15.32695 74.33175 11.2624
19.47635 68.99767 4.921298
23.14131 54.80721 -0.2171059
18.82706 56.84304 4.199245
18.53827 59.06594 5.539822
17.90167 57.14176 6.397779
19.40194 53.18224 0.9890751
16.9574 50.87207 6.934692
-15.03347 4.424849 15.67415
-21.06081 7.561851 15.71111
-20.0516 6.99612 16.39692
-16.854 6.494256 12.95719
-16.21717 7.350482 10.47457
-17.6647 7.446852 11.25935
-14.35804 7.125187 8.907462
-23.31104 8.974441 15.06262
-15.58445 9.94009 9.974576
-18.61107 12.07458 10.46374
-22.24798 12.97461 12.20273
-24.47716 10.63083 12.57658
-20.60647 12.40016 10.77961
-17.96091 11.64457 10.65694
-19.17303 12.90336 10.42322
-12.7316 3.388768 13.51927
-14.36699 7.816542 8.328641
4.17189 17.95418 9.941801
-6.170783 9.769096 8.438628
3.661745 17.30538 9.955217
5.006135 24.20347 10.6508
26.07878 31.70551 5.896112
23.62593 28.83327 4.508827
22.48845 33.5941 2.66467
24.14016 26.61839 5.369043
22.69436 32.52528 3.016277
-15.11415 45.15966 5.382282
-13.98903 40.74809 6.013686
-14.3811 45.4977 6.882164
-13.70968 44.04143 7.608235
-15.92514 48.9939 4.986331
-14.26013 42.84929 6.213187
-15.92736 45.35087 3.9835
-12.26703 38.75931 8.289621
-12.23587 58.43967 12.11738
-14.18272 46.87665 7.697132
-15.43994 35.48219 3.561806
-16.92322 32.49407 3.304543
-15.96428 58.67677 7.977954
-16.6054 57.965 6.70424
-12.85976 53.27164 10.69866
-12.57887 51.20313 10.59876
-10.54174 59.46706 13.41591
-8.699832 58.95094 14.18761
19.61757 37.24438 1.175177
19.24265 69.0397 5.53244
-23.75594 13.02526 12.87779
-17.10108 14.55443 9.841926
-21.8096 17.25071 12.3713
-19.24535 35.51701 3.418928
-18.7985 30.84789 4.103328
-20.88438 29.99738 7.211065
-10.00397 8.199801 7.235202
-13.66779 8.532594 7.756242
-8.902815 10.25043 6.956549
-2.700683 16.04635 10.53403
3.861232 22.80863 10.7482
1.726578 26.63751 11.76408
4.593644 23.76261 10.70204
3.298887 23.0645 10.91391
3.171658 21.3324 10.66704
-2.531227 22.40593 11.35467
4.89061 28.46866 11.30234
6.5627 27.67305 10.63585
2.558189 27.08176 11.69828
-4.796693 19.11136 10.56089
7.659325 28.75115 10.37959
11.50482 22.27528 7.99851
9.920558 22.89036 8.867326
14.10629 19.47455 5.290442
13.50918 16.67706 5.283342
14.63839 22.18686 5.359731
13.72616 17.57495 5.253984
14.34797 18.37825 4.811383
13.18233 25.52008 7.32182
15.92885 17.28466 3.935924
17.01058 17.35338 3.892244
20.76495 16.73352 5.98341
22.56108 18.4317 6.260324
22.40728 22.18283 5.069989
19.11495 21.73649 3.416785
22.00088 20.24585 5.318144
14.68963 29.03325 6.389666
18.19438 26.60124 2.595998
21.54768 20.7772 4.892199
21.99867 30.95909 2.868646
14.3683 32.47975 7.292158
16.30096 31.60021 4.018534
17.00785 34.80302 3.307072
21.17419 34.11482 1.869769
17.13107 36.38607 3.298234
17.33574 37.93064 3.197509
20.96977 46.26574 0.1341434
21.49686 25.92922 3.626656
-13.34638 38.47678 6.399206
-14.03074 34.24207 4.535002
-9.668058 55.24969 13.26555
-10.27016 56.78292 13.16455
-11.67416 53.84769 11.78715
-7.922531 57.20929 14.27617
-9.192524 63.14506 14.55915
-7.177448 68.20107 14.10711
-2.292479 69.88426 15.64129
-1.259262 67.49384 15.7065
4.792949 68.48701 13.1502
-7.094611 67.20255 14.39122
4.028123 65.83247 13.80503
-6.006541 56.75013 14.84416
-8.528541 61.48009 14.59176
-2.739471 54.99656 15.43749
-1.473583 52.5015 15.31573
17.22014 66.62045 8.170552
-15.74532 12.60502 7.706726
-15.92692 15.7772 8.713845
-20.39077 20.75946 10.86005
-18.15425 28.75927 4.175454
-12.38602 31.41013 6.10972
-20.15599 23.34883 8.289828
-23.99684 21.84464 11.14521
-19.64542 20.13468 10.46433
-24.19694 26.08021 10.25976
-22.46334 26.24096 10.19
-24.15172 23.5319 10.74382
-13.72395 12.19034 6.409084
-8.354549 14.54521 7.424422
-12.64803 14.10431 5.859443
5.866245 29.96987 11.18469
-7.859004 19.56021 8.919905
-9.99378 17.74379 6.465878
12.07294 23.59447 7.827927
13.74967 28.58596 7.310613
14.07766 32.74139 7.603572
13.62053 34.01199 8.164292
15.54341 32.37594 5.7089
10.15032 28.9176 9.454926
16.51437 32.43579 3.78758
15.74842 36.64911 6.270814
17.95856 38.72044 2.350171
18.47749 46.22928 2.404335
-13.18732 38.11861 6.568999
-5.13717 67.02416 15.14167
13.57061 69.83121 11.01859
11.91079 67.92458 12.49928
9.911343 69.20632 14.57459
12.49068 65.61984 11.32227
13.31031 68.03374 10.9563
16.95827 66.76663 8.359948
13.44841 65.8096 10.47415
13.2476 62.82202 10.33408
16.21694 64.70933 8.773233
14.47175 59.05246 9.520109
10.62975 59.78553 11.90728
19.03606 60.74191 4.497351
9.532969 58.67119 12.68549
15.88139 61.69926 8.869726
17.75535 61.4285 7.17022
7.003496 62.76036 15.2189
18.48936 48.53178 2.840437
15.26809 46.90178 8.270618
-13.36389 10.37849 6.920547
-15.27728 27.79478 3.896242
-17.66423 19.86279 7.793754
-5.554139 29.3739 11.65907
6.640933 36.42156 11.76745
7.097099 33.28133 11.16251
10.64135 37.18869 10.08328
11.13137 35.91164 9.750074
12.31573 39.59776 9.502183
-10.53467 52.61332 12.38039
-3.780885 51.93913 14.83879
-11.33907 41.80407 10.06797
-1.232805 49.17959 14.93152
7.903747 53.67901 13.19234
2.811437 47.88644 14.8506
0.5482806 51.27732 15.35079
0.5730429 54.78807 15.78312
4.198217 59.25497 15.85178
3.234843 59.75444 15.61408
5.175675 56.04363 15.39646
7.835579 61.33087 14.9327
5.343235 62.26495 15.07754
-6.561803 63.71423 15.36339
17.40961 65.05334 7.903724
15.20396 50.94844 8.665363
16.58887 51.16233 7.441386
17.07579 49.79826 6.606311
18.21155 49.95019 4.164521
16.26804 49.00065 7.537099
8.601633 47.22488 11.82085
13.30767 49.50463 9.684628
11.6441 51.24066 10.5351
13.78928 45.96981 9.191444
15.74334 45.40597 7.681401
8.508733 56.44138 13.21796
15.75208 42.41187 7.283109
12.25578 40.8739 9.63554
6.343075 38.62232 12.20221
13.67299 41.04504 8.873286
8.401889 39.11245 11.29897
9.720122 46.8865 11.24279
10.66673 49.28809 10.88876
3.663518 60.37522 15.48772
-10.15082 29.85361 8.799158
-13.49146 21.72924 4.737389
-12.4189 21.74212 5.131236
-12.96611 16.11729 5.484581
-13.39 21.24076 4.81003
-11.26756 19.94403 5.730005
-15.15583 13.65651 6.408267
0.107349 28.94073 12.24985
3.118074 32.00048 12.32585
-3.58323 32.78017 12.53932
-5.276754 29.87071 11.79731
-0.5179263 35.10245 13.16375
-5.244218 27.21348 11.48653
1.880564 34.65709 12.98261
0.003268898 36.43776 13.36327
-2.205773 27.61271 12.0642
0.5042364 38.2704 13.61734
0.8263463 39.49444 13.79003
-6.374574 30.60225 11.51216
-9.982256 33.07974 9.65358
-9.244102 32.02267 10.11044
-8.276754 35.72599 11.3153
-10.41944 26.74873 7.662761
-11.80571 31.45911 6.959998
-6.820761 39.79889 12.46339
-7.455634 43.12036 12.63294
-10.74281 45.19635 11.12777
-9.541256 41.72158 11.42043
3.705916 37.07068 12.96005
5.958894 33.79264 11.68843
4.06475 32.79635 12.19575
5.944924 39.19351 12.47056
6.295831 45.67752 13.08889
-10.6001 20.71056 6.296374
12.79357 37.44849 9.045336
-1.698395 42.559 14.06666
-2.732899 45.78559 14.2856
1.605944 40.64566 13.91511
-6.616003 42.35476 12.85949
-0.2569209 58.1939 16.06942
-0.06392372 63.08103 15.43055
-4.54198 64.39371 15.79479
1.150524 65.06255 15.09454
3.405947 52.83419 15.38608
4.826559 50.62289 14.66122
7.458483 50.33199 12.93847
4.979749 54.9842 15.27683
9.670241 52.50896 11.65501
17.71406 43.4928 3.723902
-8.973059 25.16106 9.027643
