# .PCD v0.7 - Point Cloud Data file format
VERSION 0.7
FIELDS x y z
SIZE 4 4 4
TYPE F F F
COUNT 1 1 1
WIDTH 1658
HEIGHT 1
VIEWPOINT 0 0 0 1 0 0 0
POINTS 1658
DATA ascii
-10.27892 77.88731 9.910848
-19.64619 69.53037 3.574655
-12.79044 85.62679 10.25783
-19.882 74.77714 4.336061
-8.622061 77.52539 9.866322
-19.35988 90.70501 1.516087
-17.45494 98.09415 2.632308
-17.09544 98.54012 4.006114
-8.907763 97.56123 9.407018
-12.47231 115.7931 3.824691
-12.84648 120.59 1.725981
-13.55682 112.8379 2.919933
-15.1233 104.8648 6.439282
-16.88027 101.4197 3.225752
-13.06071 110.6319 6.566401
-12.74829 109.6251 7.661163
-13.54557 127.8338 5.338806
-12.45842 128.3344 9.363209
-13.89965 130.9847 9.572333
-14.57416 131.1715 6.475595
-9.616524 136.5823 12.17929
-14.83261 135.4652 4.308494
-15.4147 4.996915 7.180821
-7.529229 14.33645 11.96905
-4.292756 20.02046 11.87956
-9.871672 7.332263 10.74988
-18.58025 54.62291 1.766365
-27.96363 6.697893 1.790491
-23.858 22.93317 -4.231369
-24.93873 29.75654 -5.269893
-27.56151 14.80619 -5.381062
-23.98223 8.119831 2.336254
-27.14881 5.417529 4.455157
-8.020421 26.66087 9.686747
-8.733222 27.92335 8.532396
-8.49775 33.38427 7.895587
-10.44453 44.62033 5.408135
-10.27895 43.23528 5.44917
-6.044172 38.82784 9.655137
-21.97225 44.6133 -2.648624
-16.45026 74.47404 8.716009
-18.65315 74.81031 6.738652
-15.83505 79.79868 9.564404
-18.08338 91.92125 5.802611
-16.22315 96.09084 6.904334
-15.50514 101.1153 6.564369
-7.056956 111.8137 10.67816
-13.03415 120.0966 5.02009
-12.8195 120.4515 6.090511
-10.71793 114.6437 8.789684
-13.1778 127.1076 6.169683
-12.78869 139.3571 6.157287
-16.20856 4.33147 7.51874
-7.554907 15.12776 11.82548
-8.521172 11.33236 11.50128
-6.592157 21.02663 11.59071
-10.16602 9.607468 9.97015
-9.363359 9.007938 11.04261
-28.0245 12.36381 -2.980482
-24.29158 11.65298 -1.195955
-22.99365 18.63457 -2.882032
-24.89203 28.39011 -4.837328
-25.67589 8.278008 2.358958
-24.5487 30.95491 -4.93646
-22.83496 37.5704 -2.981121
-19.56482 64.92097 1.715628
-19.22369 62.04013 1.60566
-19.30659 68.21583 4.111534
-11.63741 78.84538 10.01138
-14.28701 81.43626 10.11842
-15.70017 85.74126 9.6698
-18.74121 82.96452 7.146858
-17.5196 80.56166 8.519097
-17.33528 78.82784 8.616314
-15.63785 78.82902 9.604241
-19.08612 85.98894 6.269393
-17.44951 95.781 4.622734
-12.1696 115.6598 7.868664
-10.88557 120.1593 8.802399
-10.31182 107.5961 9.857554
-11.05979 106.7563 9.568729
-13.15689 138.4636 6.406996
-16.7756 54.02872 4.114802
-23.2809 19.5458 -3.260809
-28.04644 8.550722 -2.237782
-8.866403 31.67025 7.680409
-23.21682 34.56321 -4.325812
-8.503968 36.7213 7.403833
-17.63346 58.04685 3.450845
-16.56487 61.33655 5.519344
-14.68052 61.15673 6.38107
-13.43093 83.66406 10.23766
-18.96816 77.79739 6.626456
-18.42773 74.45988 6.954551
-18.34495 91.28875 5.502716
-12.46613 115.5582 8.148585
-9.794983 120.8445 9.895725
-19.41551 55.71738 0.6799626
-22.80962 11.81224 -0.8048766
-23.65242 20.73296 -3.757979
-25.66772 13.43246 -2.285134
-13.08354 44.69936 4.979931
-19.40056 56.86031 0.5245773
-17.64834 63.63786 5.27401
-10.4997 113.893 8.460691
-10.09514 121.571 9.749637
-9.952008 55.01068 6.035126
-22.23526 24.58247 -1.65918
-12.89962 44.97964 5.018796
-13.20965 45.90146 5.054695
-18.60756 57.83598 1.805882
-18.04874 57.27416 2.68831
-14.40667 63.42501 6.992882
-20.11432 72.05801 2.632797
-16.20699 55.21093 4.625847
-22.83408 20.88681 -2.974508
-14.17709 46.14974 4.949831
-14.76706 65.10294 7.324699
-16.78156 50.02399 3.954915
-16.53251 49.2267 4.128531
-22.83638 20.3309 -2.932218
-21.07377 46.12429 -0.5157052
-20.38406 51.45555 -0.158274
-17.62105 51.32205 2.975897
-24.09798 18.05077 -3.626613
-20.93231 12.99827 -0.1489829
-16.45199 48.94535 4.163517
-15.7888 43.62867 4.325925
-21.11875 19.3896 -0.4870934
-17.0475 47.21542 3.71006
-22.28126 16.85167 -1.919647
-19.60932 17.75621 1.322034
-10.55144 13.79226 8.685607
-15.22783 23.94692 3.649151
-19.1189 25.33403 1.987116
-20.23651 16.40913 0.6614624
-19.67615 28.05186 1.599128
-19.53572 26.74622 1.703183
-17.23222 16.70568 2.649593
-18.92175 29.50073 2.177443
-13.9322 145.0848 2.636067
-20.04447 80.6295 4.712108
-10.82989 94.29318 9.437414
-11.43367 105.4535 9.370018
-11.83984 88.02887 10.14297
-14.41345 132.0602 9.070369
-14.9471 133.1025 6.495749
-14.07859 135.3245 8.437159
-14.23433 135.4496 7.857781
-8.60572 19.31486 10.16426
-21.00716 6.48586 4.768945
-20.56191 78.58788 2.352925
-11.88649 104.2722 9.179848
-15.72697 104.1235 5.588227
-14.57433 105.1466 7.133982
-14.7815 102.5235 7.265838
-11.94316 96.69191 9.092991
-10.71665 95.73095 9.314545
-13.74795 93.54229 9.280708
-14.96329 95.59231 8.236336
-14.10196 91.5153 9.547109
-11.6589 93.57159 9.503785
-12.82088 111.7377 6.311282
-12.29413 71.93599 9.065763
-12.87324 74.09022 9.42582
-13.70245 72.77106 9.200477
-12.97346 113.7577 5.175751
-19.16545 6.841747 4.247922
-8.41818 19.65988 10.34356
-10.28304 20.81932 7.687612
-10.6759 22.78045 6.83156
-11.52824 22.9503 5.85264
-10.7824 21.94855 6.85726
-13.63141 25.13657 4.292784
-12.04331 26.28644 5.100037
-8.608087 27.36384 8.813594
-16.80008 27.97649 3.225945
-14.66575 29.81332 3.973204
-18.25018 22.93191 2.424443
-18.72617 33.58617 2.376703
-18.35659 31.65246 2.5866
-17.10801 32.38254 3.272482
-21.11501 31.8019 0.418601
-15.4429 17.19979 3.503791
-16.8111 20.14084 2.95692
-14.85362 16.81664 3.869132
-21.44217 27.41987 -0.1134178
-17.35631 17.96738 2.645174
-16.057 21.99517 3.304282
-11.00162 85.29208 10.26055
-13.7295 83.98097 10.24215
-18.16818 89.24995 6.935906
-17.25165 84.75935 8.696047
-14.42185 88.60808 9.899583
-19.05328 85.44215 6.467987
-22.25126 41.3828 -2.231144
-15.10111 58.7968 5.635385
-14.13286 57.53665 5.57815
-11.22262 61.14759 6.682073
-9.055499 55.90755 6.273088
-13.79402 54.7398 5.373196
-13.0867 115.1871 7.461394
-11.08246 112.0358 8.310946
-17.65946 68.32397 6.567029
-14.14449 70.02705 8.672224
-17.36738 71.56323 7.500381
-17.86212 71.46352 7.068542
-8.908553 28.7463 8.128839
-9.71515 48.31694 5.704739
-18.07872 33.56878 2.794973
-21.17107 38.96018 0.1676863
-20.47528 41.56091 0.7864166
-18.41138 44.37904 2.598909
-17.4689 36.24046 3.224472
-17.17165 35.88337 3.358854
-20.09851 35.50987 1.341169
-19.95814 33.66127 1.445837
-16.63235 32.72866 3.480435
-19.81324 49.89268 0.8563705
-7.865719 21.98895 10.6148
-11.77157 89.58856 9.995435
-10.91125 12.37878 8.542972
-11.95634 13.66613 7.109747
-15.57966 13.06372 3.833734
-11.43039 10.98401 8.22253
-8.578832 18.37805 10.34031
-10.77592 28.69214 5.873189
-12.05788 32.37502 4.814461
-12.35649 33.89964 4.69501
-11.69015 34.92385 4.942011
-16.86052 41.0472 3.691909
-12.0472 38.84886 4.868669
-9.537879 35.61224 6.340654
-9.474237 39.16928 6.142587
-13.25784 41.83674 4.74838
-22.98026 30.29086 -1.71867
-22.00696 36.51387 -0.6585951
-9.722159 111.3536 9.404093
-16.88905 12.81514 2.808495
-17.46373 6.673332 4.971775
-13.06534 16.5449 5.391686
-14.17938 16.72013 4.37841
-14.91066 14.64886 4.092614
-14.54361 12.04359 5.007566
-16.18326 10.84896 3.944119
-18.43245 8.769309 3.12371
-18.76177 8.371021 3.176111
-22.53879 40.17422 -2.87268
-11.05617 134.8629 -10.33356
-0.3289616 13.32548 0.2745767
-20.18955 74.01325 -1.338463
-0.8431236 152.5544 -10.41865
1.203296 22.48409 -1.127568
-2.498665 55.27229 -8.416154
0.3855171 43.60878 -4.175093
-3.311186 151.8705 -9.893398
-0.6339914 151.7027 -10.73962
-0.8848806 69.83328 -8.672453
-0.2426487 147.9946 -11.50257
-1.971216 79.73431 -8.508646
-13.99102 149.3821 -9.512676
-0.1873139 152.2064 -10.85656
-0.2797687 104.1222 -9.669477
-11.78864 149.2637 -9.921515
-12.59044 124.9634 -1.149252
-13.43083 151.4825 -6.962142
-0.8738998 6.779075 1.040977
-0.713979 127.1811 -8.972268
-0.1871469 130.4956 -10.41372
-0.6379706 2.7813 1.687254
-0.9299619 145.2292 -12.10668
-20.54842 46.68368 -8.024193
-7.501694 151.2461 -9.180413
-10.14301 151.9834 -7.025901
-24.12306 3.594198 -8.682597
-24.35334 5.564861 -7.17379
-24.55081 7.470127 -6.34744
-2.356071 7.426402 -6.541543
-25.53013 25.82483 -7.852374
-25.56603 27.05726 -7.6905
-13.28848 113.4651 1.322401
-13.53908 113.8348 -0.2872054
-14.46088 138.3184 -9.435224
-2.350249 148.5888 -11.26384
-14.12376 151.2523 -7.409324
-17.63398 97.44086 -0.2474961
1.880827 1.634497 1.85242
-16.603 102.0708 -0.6391498
-12.66641 113.323 -2.635225
-13.59527 112.0855 0.1879346
-5.679853 146.5339 -12.03663
-21.56643 15.64967 -11.54431
-18.73324 52.98575 -6.010332
-19.76968 70.776 -2.50523
-19.95655 86.63551 -1.396699
-19.72066 71.59391 -2.786213
-16.91818 101.029 -0.232429
-1.272714 114.424 -5.814978
-4.459339 129.6207 -9.942376
-11.6826 142.9008 -11.72496
-24.59554 15.66919 -7.531995
-23.70641 9.395425 -7.587955
-0.3458863 144.6531 -12.20939
-10.99335 145.8948 -11.45868
-11.87099 146.7504 -11.03357
-7.331406 148.7435 -11.08264
-0.2148345 6.256474 1.343979
-2.052713 7.134948 0.199048
-2.122677 29.42301 -3.848727
0.5650603 15.27188 0.104544
-24.6204 29.39702 -8.349017
-22.93823 37.42452 -8.661511
-21.33141 47.7448 -6.381014
-18.75386 62.57316 -3.829168
-2.203593 68.49458 -8.596606
-4.78543 92.78393 -12.8401
-18.65042 91.76341 -2.651313
-19.20459 73.92619 -4.281483
-14.9982 105.6302 -2.312102
0.05628558 100.1536 -11.60869
-13.63845 110.5483 -1.362255
-2.00418 119.1039 -6.255041
-11.91315 115.0081 -0.7290958
-0.6322736 123.8725 -7.751444
-12.05991 121.5079 0.1814544
-13.73726 129.8782 -2.381242
-14.74146 138.0167 -8.990622
-4.231152 144.4006 -12.33259
-14.18708 136.5692 -8.858729
-24.03995 13.97316 -7.620155
-22.70382 5.067235 -11.87992
-24.20011 6.188687 -7.256243
-10.53436 145.4451 -11.66997
-2.921526 4.687004 -0.9169797
1.130029 22.2036 -1.063273
-2.483675 3.868105 -5.97971
-9.63714 3.390433 -12.85242
-24.88863 27.21675 -8.302243
1.15883 29.12341 -2.089557
-21.224 50.53427 -4.063667
-19.76802 55.02459 -4.719278
-1.059971 63.29553 -8.235735
-19.97026 70.04297 -1.416061
-2.22192 75.42968 -8.901374
-0.8957154 91.1603 -12.61714
-1.534681 84.47509 -9.43918
-20.25747 82.39505 -1.818121
-19.2754 90.47768 -1.244966
-16.30357 103.2949 -0.4758072
-0.1929414 104.9059 -9.227228
-16.96633 97.73888 -3.08651
-14.48124 108.9604 -0.8332662
-0.7423034 120.2944 -6.45851
-10.95959 119.8551 -2.537663
-1.652616 128.5794 -9.432418
-14.43935 132.4907 -2.148284
-1.252067 133.6171 -11.49864
-20.86271 5.08534 -16.92201
-24.52563 14.91934 -7.457829
-21.02302 5.135499 -16.62548
-3.213203 146.3822 -11.91395
-3.754228 141.7133 -12.64354
-2.898171 7.678043 -4.151934
-0.2955813 25.21539 -1.479187
-1.998689 9.631044 -0.2098348
-7.114369 6.458281 -12.65525
-12.79445 3.846258 -13.9629
-24.45364 31.67666 -8.27749
-0.8036979 42.01068 -4.280817
-22.19581 43.65987 -5.659716
-1.884115 46.70872 -6.732458
-18.90161 55.69237 -4.747939
-18.56269 60.50279 -3.999939
-18.63355 61.04635 -3.897166
-1.965238 58.04074 -8.141969
-3.781916 56.80871 -8.694934
-11.23909 58.21773 -7.814072
-19.49757 64.77502 -2.036092
-19.11896 72.01581 -4.332174
-0.3051406 73.83607 -8.845665
-0.04424927 75.75495 -8.90818
-4.020224 66.45328 -8.458873
-5.150027 63.88124 -8.231429
-3.005167 70.3058 -8.697831
-1.647623 83.77499 -9.128178
-19.68857 87.66845 -1.899415
-19.73387 82.2433 -3.318074
-18.4395 81.31969 -5.46406
-18.13835 94.23286 -2.049766
-19.90631 76.98362 -2.8708
-16.29344 101.3375 -2.332091
-15.36407 98.8659 -5.758402
-14.97627 105.0915 -2.72724
-2.426132 108.6348 -7.3623
-3.517351 99.30391 -11.9439
-13.33913 113.8095 -1.247756
-12.75602 114.5611 1.864117
-11.54583 118.5754 -0.6231329
-11.14969 118.4901 -1.17402
-2.748762 124.8699 -8.09059
-4.400171 130.017 -10.12202
-2.636253 135.6374 -12.06468
-14.64212 7.229936 -15.40806
-17.90691 7.614626 -17.76586
-23.01657 18.25827 -8.752676
-18.33428 23.92252 -15.09308
-23.59515 12.92316 -7.859525
-2.540472 143.3257 -12.44484
-2.25696 140.2275 -12.67424
-4.338733 137.9883 -12.58216
-2.91532 9.94988 -2.208214
-1.81886 16.81035 -1.191818
-2.130486 25.46885 -3.053831
-2.144732 6.022798 -7.81454
-23.47404 36.42013 -7.03793
0.1325857 42.68173 -4.004666
-21.47644 44.82095 -7.603446
-21.32791 49.46629 -5.024686
-16.85757 59.64906 -5.94273
-17.94425 60.70168 -4.85071
-1.5984 56.01676 -7.626399
-1.968772 58.86652 -8.136421
-8.563861 76.7432 -8.821665
-6.117455 70.23341 -8.704694
-2.302385 94.06091 -12.92996
-19.68831 88.4314 -1.236178
-20.27981 78.46806 -1.800593
-2.687016 106.8166 -8.293371
-18.12114 93.54192 -2.899854
-13.25631 112.7769 -1.710751
-12.11385 114.1171 -1.04447
-4.92909 117.9574 -6.812545
-2.954754 129.5499 -9.870126
-13.72383 131.8094 -5.541452
-11.88248 129.6596 -6.767065
-3.057645 138.1427 -12.57164
-19.34297 9.856707 -17.19621
-16.15204 10.15298 -16.59794
-22.90431 24.90392 -9.167951
-21.61313 18.08749 -10.68838
-20.76783 19.55361 -13.64313
-21.88852 6.348291 -14.49501
-21.76142 9.465774 -13.81853
-4.545148 135.9426 -12.14206
-2.250537 27.41067 -3.725379
-1.955766 28.69916 -3.355326
-2.969296 9.319094 -10.71119
-10.62197 8.244006 -12.62586
-21.57822 37.79117 -10.21941
-1.906865 41.69667 -5.819108
-2.072153 42.21636 -6.981441
-22.44418 39.56596 -8.439493
-20.19731 41.92535 -10.32815
-1.44647 46.71437 -5.732517
-16.98145 55.72044 -6.376251
-15.01181 61.54122 -7.317806
-5.40942 68.81548 -8.624563
-10.1437 68.49406 -8.599045
-8.276088 70.18983 -8.707644
-15.82659 92.11224 -7.774397
-15.3806 93.58331 -7.96996
-10.46847 111.0386 -4.928754
-10.38435 123.9381 -4.376345
-4.484478 128.2312 -9.341732
-12.62281 128.8536 -4.971318
-20.06667 9.667289 -16.80152
-13.16571 8.728622 -13.73373
-9.904216 8.540922 -12.53702
-20.92071 19.75542 -13.09073
-18.91556 14.52951 -16.5015
-19.05425 15.2922 -16.34385
-20.43921 19.37239 -14.35718
-21.65994 23.93562 -10.15918
-21.24291 10.99924 -14.89275
-19.95116 10.70177 -16.68462
-2.157604 6.477094 -7.789206
-23.12998 28.95889 -9.258137
-1.179413 37.5006 -3.786049
-2.503172 35.91739 -8.739902
-17.73962 49.16921 -8.453444
-17.99543 47.91117 -8.963584
-12.83599 58.13667 -7.590153
-2.297875 76.9097 -8.85915
-7.330253 79.40526 -8.60111
-6.679461 63.88212 -8.2019
-6.46314 93.36955 -12.82265
-4.770404 106.4546 -8.400604
-17.32096 92.08998 -5.624747
-11.81707 113.3404 -2.930257
-5.488474 119.5903 -5.757288
-9.12786 119.5676 -3.689823
-9.8035 128.4443 -7.787353
-10.19173 9.375884 -12.5073
-17.49799 29.20324 -14.09861
-18.18578 17.34148 -16.18762
-5.128654 8.142634 -12.28927
-2.762562 12.24549 -4.787089
-20.86619 35.90912 -11.04314
-2.386917 42.03094 -8.295004
-15.24213 58.69114 -7.050283
-18.9095 67.13997 -4.152262
-11.76196 66.47255 -8.459967
-14.85065 92.86292 -8.733259
-15.25288 86.36024 -8.242574
-12.18666 101.9793 -8.100151
-3.889053 110.8296 -7.448324
-6.218305 118.1149 -5.516649
-6.391328 116.0126 -4.969106
-7.298712 122.1172 -5.839211
-5.655107 121.9147 -6.479873
-5.921556 124.3748 -7.389075
-8.941131 129.8511 -9.016947
-8.630551 9.866823 -12.43765
-21.81109 11.77594 -12.331
-22.54274 11.31775 -9.643561
-17.19082 14.27141 -16.53504
-13.40331 12.73966 -13.48059
-20.25805 21.91502 -14.25776
-6.967382 10.86967 -12.4167
-2.546063 9.608075 -5.783272
-4.317368 39.03066 -10.45214
-4.108689 45.43507 -9.900341
-15.05329 65.56096 -7.835017
-18.42009 67.71069 -5.137265
-9.819477 77.22086 -8.779176
-4.154059 75.15175 -8.884026
-8.801925 73.55737 -8.824336
-5.732751 80.59116 -8.553981
-4.259198 94.57865 -12.84999
-9.764805 84.997 -9.664615
-18.18883 89.91309 -4.688807
-14.22591 95.55406 -8.694972
-9.647068 109.7672 -5.739705
-6.78449 108.5634 -6.99578
-7.360888 106.392 -8.143572
-7.181012 119.8044 -5.064211
-2.383014 117.3431 -6.659619
-10.46517 123.3011 -3.804914
-11.82738 126.0294 -3.804552
-2.814619 120.9078 -6.701983
-5.878229 9.099179 -12.40729
-12.69961 19.39923 -12.46365
-13.03402 13.77906 -13.1283
-11.74692 12.36138 -12.62447
-4.696014 14.6188 -11.82216
-2.662788 46.56726 -8.748804
-10.71961 57.62151 -7.939759
-6.779258 76.2504 -8.869385
-10.07521 72.35449 -8.783059
-8.559495 82.20438 -8.76299
-13.88267 70.173 -8.527964
-12.74281 89.14569 -10.39061
-4.580024 109.2909 -7.1224
-12.77393 103.1301 -6.978487
-13.19308 103.041 -6.604534
-5.299985 96.73479 -12.5769
-5.352302 104.7369 -9.436793
-8.974609 126.5774 -7.206392
-9.585895 10.7773 -12.3717
-7.119664 12.70988 -12.33202
-2.242597 11.01738 -7.529784
-8.971242 59.81392 -7.956559
-12.79649 67.44162 -8.544807
-16.14693 64.14026 -7.062592
-9.930316 72.75495 -8.799519
-11.0413 80.75214 -8.636424
-4.166761 96.32056 -12.64086
-9.04778 112.8754 -6.045272
-9.022367 103.4835 -9.397361
-12.9917 107.5632 -4.359216
-5.958718 113.6345 -5.350567
-15.34565 17.50805 -14.70153
-7.897349 15.59495 -12.13113
-16.70813 38.90435 -12.07781
-18.90885 71.59951 -4.715289
-13.76321 74.63889 -8.604767
-15.81537 72.35289 -7.857778
-7.966453 82.81665 -8.863712
-12.34608 86.66433 -9.934023
-13.24094 81.99032 -8.52564
-10.34733 113.8605 -3.356462
-7.96338 103.8303 -9.588271
-10.64204 13.70347 -12.29886
-15.20732 37.16851 -12.0018
-2.9867 54.74342 -8.763024
-10.6433 86.99871 -10.65488
-8.855286 111.187 -5.893991
-14.31647 20.35256 -13.34923
-10.92162 12.77146 -12.38481
-19.21828 30.74752 -13.542
-2.437051 53.90963 -8.417464
-3.33204 51.87216 -9.122951
-3.965789 50.04956 -9.463028
-4.546197 45.10766 -10.0697
-16.87693 75.85342 -7.092192
-10.47958 86.33946 -10.37434
-17.32038 23.00209 -15.13765
-13.10808 45.29563 -10.77374
-15.98601 20.56408 -14.77632
-11.06895 87.88815 -10.85848
-11.10845 89.25713 -11.19288
-8.446404 52.28015 -9.463195
-9.17552 90.08939 -11.98965
-12.94707 93.54647 -10.33105
-11.88251 93.55276 -11.09623
-13.37231 91.85262 -10.17897
-12.72256 96.69141 -9.777298
-15.04226 96.45615 -7.434773
-6.819692 95.77354 -12.63487
-8.685923 142.3539 -12.48491
-3.710514 111.67 -6.463359
-12.39701 137.698 -10.76482
-10.63794 137.3759 -11.55048
-6.550906 134.8122 -11.76626
-8.541229 136.5782 -11.99349
-5.733475 136.7735 -12.38115
-12.21745 130.8245 -7.231265
-6.536688 134.2313 -11.59225
-9.883215 131.2814 -9.261201
-8.648167 144.9145 -12.16288
-7.739842 132.274 -10.60507
-8.965372 131.0914 -9.617779
-10.51004 144.3569 -11.89524
-5.778173 89.60104 -12.20388
-7.984477 83.33617 -8.997505
-3.891947 83.179 -8.943066
-16.6128 82.98487 -7.117667
-12.08517 78.43993 -8.665661
-14.17466 80.57759 -8.22436
-15.71288 80.50405 -7.61921
-13.47972 75.05812 -8.668077
-3.782545 105.3043 -9.090571
-5.387742 100.1367 -11.65707
-4.412571 99.27484 -11.94255
-12.25611 124.4894 -1.613487
-23.11801 7.534625 -9.432283
0.4077811 15.15624 0.1028012
-2.52345 16.76858 -2.240996
-14.96522 98.45728 -6.627447
0.2565531 23.97036 -1.217739
-1.889541 23.43439 -2.302155
-21.12662 28.80728 -10.7628
-21.48859 32.07426 -10.31433
-21.03778 28.9004 -10.88973
-20.52151 27.17101 -12.37423
-18.52778 29.19461 -14.12388
-20.7645 25.60385 -11.90489
-14.87807 28.37082 -12.79006
-18.72655 24.76778 -14.87988
-17.7541 24.40256 -15.0469
-2.051444 33.77185 -4.457393
-19.53117 49.99669 -7.355611
-18.1476 52.03621 -6.707846
-11.05755 60.1046 -7.791363
-12.70304 63.68159 -8.073465
-9.421722 138.4738 -12.2503
-17.95492 10.45941 -17.32328
-2.358973 36.35707 -8.365641
-3.251594 38.10411 -9.743159
-7.296877 39.25449 -10.70579
-5.424763 40.71708 -10.59294
-5.676917 35.43572 -10.96855
-6.085151 35.12476 -11.03863
-6.033029 40.85397 -10.61093
-9.148487 40.1486 -10.59976
-12.22861 39.12127 -11.04695
-7.181843 45.36073 -10.13193
-6.815968 44.42722 -10.2476
-9.849771 43.26553 -10.41136
-9.362481 65.01631 -8.414182
-17.58487 90.16389 -5.710807
-12.09938 124.9431 -2.342517
-11.53135 100.4581 -9.335751
-9.75431 14.80071 -12.15419
-8.172338 14.58826 -12.17162
-2.880594 15.96396 -10.35438
-2.306315 14.18472 -7.181063
-2.265601 15.11374 -8.412328
-17.53612 70.35149 -6.50458
-20.18419 43.47936 -9.694795
-19.68723 39.24426 -11.35061
-13.1967 22.82666 -12.39289
-15.11585 26.99728 -13.12803
-10.05961 23.73349 -11.66553
-15.17901 21.52212 -13.916
-15.54231 21.01492 -14.30334
-14.23876 26.72915 -12.5836
-8.714289 94.54115 -12.40355
-11.302 99.55576 -9.86827
-8.194108 98.33 -11.81965
-7.388024 86.11797 -10.48977
-2.482646 14.93275 -5.980841
-11.60137 54.05407 -8.641228
-18.11492 24.35188 -15.03762
-2.399194 30.37499 -5.561278
-2.107607 36.06347 -5.288534
-13.87548 34.17606 -11.77437
-12.29979 37.00868 -11.17077
-14.46138 38.06019 -11.74186
-8.677713 32.62213 -11.1439
-11.59066 31.97329 -11.30284
-7.036499 23.68646 -11.72738
-10.09785 26.83823 -11.48045
-5.972549 27.33088 -11.46882
-4.570453 32.49815 -10.89629
-9.794529 28.74972 -11.35838
-6.539001 28.95112 -11.45138
-3.24545 25.89238 -10.41854
-11.16743 44.79533 -10.53058
-11.93021 40.57705 -10.90801
-14.72049 41.38405 -11.44127
-15.43799 38.97381 -11.90484
-17.74016 22.60064 -15.35801
-6.261992 16.00617 -12.1044
-4.931171 22.64009 -11.57463
-2.363637 24.05117 -8.487453
-6.590028 19.34432 -11.95062
-5.264315 19.39464 -11.78185
-2.538143 23.82156 -4.474752
-2.622759 19.70058 -4.242095
-2.533708 23.97108 -4.645042
-2.391374 22.86848 -6.043213
-2.363234 20.8785 -6.099976
-6.552805 99.72298 -11.743
-14.40335 32.02132 -12.17494
-2.331756 26.86312 -8.192797
-2.397326 28.83114 -6.03121
-4.252723 30.84353 -10.83185
-2.954266 30.01275 -9.903702
-11.37448 29.96973 -11.39953
-15.00791 43.51622 -11.14066
-17.78014 41.1122 -11.53386
-2.5668 21.34681 -9.314147
-2.666318 17.43056 -2.804836
-16.66591 46.89973 -9.912871
-15.27496 29.11217 -12.94045
-13.92561 44.4407 -10.93911
-11.9556 27.70399 -11.65413
-7.633405 139.5959 -12.72694
-17.01584 52.00039 -7.393056
-13.99904 53.838 -7.882061
-15.96224 50.03231 -8.642656
-14.01769 48.53293 -10.14948
-12.67955 50.30483 -9.83997
-15.13034 49.8804 -9.177178
-6.957042 54.15765 -9.10587
5.314076 115.6585 -5.756688
25.72797 10.39923 -7.71765
22.51688 13.68204 -11.136
24.11419 31.67402 -6.880976
23.59878 35.55232 -8.123568
24.67659 4.537478 -8.283783
22.26362 7.010021 -15.07593
0.4641872 152.2749 -10.90766
19.51958 63.52181 -1.494497
1.637174 149.7394 -10.82163
20.39276 77.4564 -1.093688
18.45597 93.90215 0.01138053
17.7502 88.87384 -5.704381
16.1416 104.2505 -0.1290341
12.10408 117.885 0.5985267
3.515193 151.5449 -10.02989
15.21399 136.7148 -7.05483
14.72888 135.7878 -7.480923
0.867939 132.637 -11.21188
2.4453 143.6519 -12.38953
14.02296 142.5045 -11.20724
25.37451 5.209924 -7.384332
14.06798 114.1457 -0.6073546
2.222134 60.20346 -8.381446
0.9608981 69.78708 -8.669685
3.061262 149.1934 -11.07691
23.70918 4.034633 -10.39646
25.17528 8.117074 -7.934081
0.2631763 96.46114 -12.59129
13.39307 149.3724 -9.612824
6.423542 152.6374 -8.196797
1.865583 121.8182 -6.995136
3.45577 4.933741 -3.058365
1.856696 150.4044 -10.60101
4.846133 153.4968 -8.402838
5.012292 50.65851 -9.777701
2.419134 117.6501 -6.792042
11.60606 94.40944 -11.15164
0.7143211 91.43015 -12.66658
6.217388 153.6591 -7.05911
0.3405669 105.0156 -9.174747
1.24082 103.8517 -9.904154
1.994445 29.81934 -6.14624
8.394533 53.50174 -9.348532
2.578903 66.20944 -8.455463
4.972128 80.25317 -8.540915
15.28796 103.1414 -3.437011
2.414287 111.1402 -8.126436
3.757557 119.7009 -6.246485
3.56799 133.4538 -11.4416
13.93653 140.3168 -10.59252
14.07406 6.428771 -13.47353
2.929543 17.92258 -3.31023
3.060263 3.349256 0.1528121
2.074447 143.5028 -12.40534
24.40965 7.374318 -8.604396
23.6324 6.590098 -9.840418
24.741 26.49123 -9.411748
21.35351 4.308501 -17.16536
12.83238 4.299324 -12.69713
0.6771767 52.06797 -5.87034
3.16852 66.47705 -8.474948
0.2522677 68.36021 -8.584378
20.31649 83.01335 -1.475353
2.665527 85.15352 -9.807035
15.98844 102.1018 -2.611807
2.344009 104.538 -9.441338
1.763541 111.8852 -6.888869
12.48553 116.3105 0.8428138
13.47709 112.3495 0.5124799
2.725555 119.4853 -6.347184
14.94097 134.8408 -2.553469
1.271743 126.4778 -8.706059
1.20127 131.2443 -10.78191
14.59429 137.6657 -8.987455
1.462576 136.1138 -12.1909
13.284 144.4333 -11.17056
11.8307 148.1865 -10.49722
12.53224 144.3582 -11.37139
8.798397 144.6631 -12.17425
6.181404 144.7611 -12.36249
6.085737 142.675 -12.64392
5.853892 150.8732 -9.983959
2.515533 17.4073 -1.527885
3.302844 9.02041 -2.334371
3.29867 4.310986 -3.767452
3.323041 6.828116 -3.316839
3.207006 7.795422 -1.289702
4.487935 147.25 -11.80201
24.20489 10.5183 -8.938335
25.27595 20.69579 -9.135486
25.08841 10.37422 -8.23029
18.23469 6.176598 -17.68036
2.07142 30.96469 -3.720825
1.159765 42.81954 -4.491473
24.75897 29.8797 -7.24682
21.45232 48.83914 -4.306932
2.263623 65.23013 -8.383725
20.13289 75.42724 -1.919418
19.04237 64.68073 -3.543579
19.28602 76.64613 -4.215546
3.835421 77.9425 -8.713853
20.19381 81.26192 -2.207633
2.602877 86.27557 -10.58048
2.692865 88.07919 -11.65698
16.4291 100.069 -2.828554
0.8011511 108.1963 -7.532842
15.45669 106.1242 -0.6912316
12.06822 119.4343 1.186635
12.48164 117.7547 0.7637605
14.49458 132.7037 -1.814845
0.6571594 134.3226 -11.70707
13.19093 125.9927 -0.19435
2.703079 138.7579 -12.63782
6.693749 140.8472 -12.79539
12.85586 144.2921 -11.29507
5.433103 136.0351 -12.17523
1.431322 3.751712 -12.17578
1.897593 24.87681 -2.049479
2.351778 10.39534 -0.05073424
2.885353 4.532778 -4.757367
19.82903 5.968275 -17.76585
25.47239 22.43246 -9.133904
24.8597 15.21505 -8.831893
14.42722 4.493117 -14.02067
1.95367 35.39255 -4.486116
1.607887 43.20111 -5.541611
21.95924 44.82469 -5.94113
0.3850514 55.81159 -6.515997
21.96712 45.20091 -4.780285
1.243688 63.3828 -8.232455
19.53575 60.55252 -1.743229
19.41115 73.09322 -3.794778
20.22187 78.19878 -1.899906
10.92737 65.39021 -8.364678
3.065778 73.90208 -8.844748
19.91449 87.58563 -0.7996772
19.94511 83.67158 -2.633014
4.50429 80.85369 -8.560751
1.421126 84.94497 -9.672629
1.64681 92.03159 -12.76598
1.438884 95.12665 -12.82551
16.92332 98.64463 -2.513381
15.05442 100.9998 -5.113394
19.13651 91.17529 -1.001313
2.291902 112.2278 -7.641154
1.228391 113.67 -5.906805
3.612039 113.2908 -5.858572
4.070227 118.7462 -6.146717
14.15376 131.7676 -3.575868
5.095118 134.4064 -11.74246
2.516535 122.5015 -7.247598
5.674223 136.7934 -12.3834
5.468282 142.5684 -12.63346
5.730772 4.661818 -13.19965
2.791605 19.94749 -3.744774
1.89189 4.755469 -6.583082
3.210763 11.54247 -2.652861
24.61832 25.2098 -9.57995
24.63297 30.9384 -7.790598
16.82277 6.337197 -16.60942
11.96791 7.515591 -12.17004
21.47207 37.93843 -10.37238
1.709318 44.58264 -6.260351
21.55552 45.65158 -6.716099
4.602597 52.40479 -9.606515
18.94831 55.70427 -4.475797
2.882102 57.12434 -8.894814
19.94065 76.52853 -2.71515
7.870414 64.9073 -8.334122
3.219227 75.45145 -8.904658
19.32442 85.76105 -3.672656
6.4134 80.33189 -8.560447
3.946268 89.18977 -12.04455
4.721904 101.5142 -11.13772
19.10127 89.52811 -2.772599
3.850146 112.5518 -7.349874
1.432745 109.2053 -7.290566
13.33451 108.7538 -3.266291
10.82547 111.6609 -4.510641
13.62028 112.8255 -1.081864
11.44105 117.9652 -0.5710838
11.14624 123.4584 -2.940054
7.261036 126.1087 -7.73516
11.43773 122.1809 -1.593573
13.74289 132.7682 -6.510249
12.65737 127.6699 -3.668737
1.173178 5.151505 -11.45759
2.562357 24.42821 -4.289199
1.328548 7.946364 -7.610032
3.200226 6.700164 -3.890904
2.472843 7.956944 -5.429376
22.5141 8.152041 -13.48756
21.65866 29.22974 -11.11379
24.44837 30.88784 -8.771487
1.710519 44.04976 -6.956743
2.494463 50.60548 -9.258069
19.07928 51.01601 -7.19343
2.892919 57.59574 -8.806988
2.789033 69.50449 -8.653417
6.22514 79.75441 -8.55719
3.352306 105.8335 -8.795223
5.764768 111.6582 -7.382082
10.23528 111.6347 -4.927186
11.37901 115.9506 -1.290019
5.216997 118.354 -5.696677
5.828352 128.241 -9.184471
8.433358 121.6689 -4.921626
14.04446 134.0187 -7.089064
6.292872 5.177338 -13.07061
1.654214 23.52239 -7.05051
1.041198 10.92583 -10.3962
22.46357 9.497293 -13.0258
1.437609 55.16644 -7.351842
22.22305 42.2611 -7.08394
17.11476 59.75049 -5.713633
16.20328 64.03513 -6.997118
16.85687 89.66913 -6.821302
6.25958 102.8339 -10.46247
4.240251 105.0121 -9.252872
6.617976 104.7472 -9.346878
8.202029 109.654 -6.212322
8.267118 109.1382 -6.41406
8.798087 112.4718 -4.841296
11.10412 118.3759 -1.090109
12.43513 128.2955 -4.806321
1.006239 10.56151 -8.911344
22.55231 9.446286 -12.55155
22.523 12.23082 -11.38309
1.614298 30.91413 -9.673796
1.461979 30.54438 -8.165682
3.607821 51.65078 -9.657968
20.64982 44.48785 -8.790357
16.94842 53.65153 -6.928047
17.42695 60.31206 -5.431335
3.052082 102.6706 -10.66904
10.17967 119.57 -3.233227
10.56377 128.0958 -7.014628
6.891819 10.5069 -12.68375
1.500779 34.12149 -7.97879
4.053482 49.57249 -10.02059
10.58616 45.40395 -10.33244
5.723696 114.3115 -5.891127
11.15634 127.3964 -5.998795
3.386873 7.938185 -13.01302
1.522929 34.17662 -8.618491
20.80468 38.5738 -10.79564
11.60191 47.69362 -10.33732
15.57827 52.40584 -7.844299
10.11142 127.5305 -7.030715
23.17399 16.74769 -10.01838
2.320869 32.41131 -10.60238
1.52579 36.67447 -8.027263
18.18026 39.33445 -11.84118
7.530373 114.2586 -4.913012
8.858195 114.9614 -4.564074
4.172137 126.2045 -8.513778
24.03358 14.55658 -9.28839
21.89202 16.24321 -13.01452
6.581652 53.07832 -9.28013
20.71031 39.13461 -10.73366
16.93518 88.67887 -6.793429
17.19891 91.05773 -6.132661
7.239804 112.6896 -5.290846
8.813714 112.9651 -5.07325
24.65607 12.49814 -8.70833
2.205418 24.79238 -5.629221
14.41483 94.93049 -8.698469
21.97126 15.51259 -12.83601
1.949212 25.82314 -6.286994
21.67535 35.7148 -10.62441
18.80279 30.56385 -13.81887
18.23008 37.45043 -12.35093
14.0488 93.48123 -9.424744
17.58679 93.95689 -4.132782
16.21546 38.54755 -12.06753
17.06456 96.15748 -3.920095
16.86938 36.53053 -12.45607
14.21695 38.7943 -11.58727
4.705321 129.6143 -9.910172
5.387456 130.1438 -10.14619
6.766581 146.2449 -12.05985
18.99122 66.42997 -3.944496
19.34268 71.28542 -3.725247
15.93131 71.13007 -7.785206
19.4301 81.44699 -3.996246
12.51524 137.3056 -10.55227
16.26846 8.580243 -15.79505
19.54843 10.94311 -16.91193
19.28114 8.534164 -17.31909
21.57265 14.93058 -14.52818
20.84919 15.18959 -15.5415
1.694216 41.41573 -7.009867
2.109467 40.88461 -9.656435
3.270182 32.96848 -11.16337
2.394018 39.80961 -10.11208
3.760896 35.7955 -11.16918
3.830122 36.06993 -11.15348
11.61372 32.80979 -10.98547
15.01796 77.40704 -8.082546
18.1784 80.10804 -5.754313
16.86796 79.37247 -6.961472
19.47385 75.8138 -3.817247
17.06296 85.11567 -6.738444
17.8203 83.36757 -6.085599
13.13543 80.22694 -8.472362
14.56357 73.45853 -8.394433
14.65547 77.1541 -8.24079
3.603938 127.3227 -9.005961
5.171195 130.7246 -10.43334
7.211285 130.9367 -10.15843
7.659143 131.8103 -10.41482
8.738224 133.0461 -10.61153
21.86658 20.75019 -11.65911
21.20456 21.82134 -13.74429
20.57924 19.16596 -15.05599
19.5185 22.19217 -15.10092
15.32555 10.71424 -14.32424
18.66762 19.23927 -15.67656
17.26715 23.19505 -14.48688
19.99259 23.95179 -14.56126
18.97973 24.51497 -14.83376
21.3923 24.00085 -12.39179
21.20497 26.66191 -12.05909
12.66017 7.405721 -12.3965
17.25586 15.09312 -15.7641
19.74301 76.58031 -3.229055
6.110213 82.56492 -8.79141
5.958037 90.28325 -12.32753
13.01497 132.2978 -7.255783
10.49969 131.1693 -8.865279
8.323515 136.5884 -12.04972
10.47641 137.4773 -11.6451
11.87631 125.859 -3.609614
2.450166 15.7169 -5.25014
2.096016 14.39119 -6.030729
22.56839 37.17655 -9.431328
3.955598 48.00286 -10.16364
15.85877 70.19842 -7.787764
13.72328 64.85953 -8.164531
13.74109 62.55358 -7.767072
15.30431 61.7497 -7.219688
8.930814 64.43336 -8.219155
11.40137 65.69865 -8.402299
12.67387 68.76917 -8.622535
9.721091 121.6092 -3.769623
1.328966 20.23789 -7.934532
1.136909 18.267 -8.710828
1.230584 16.54249 -10.24311
2.03153 18.51671 -11.51521
7.236521 105.9577 -8.457006
11.65073 108.031 -5.367525
5.172265 104.2457 -9.733215
3.157579 8.082086 -12.94362
24.30738 8.129451 -8.749829
17.99331 54.3894 -5.826127
5.46643 45.25756 -10.41968
12.57859 54.54836 -8.028921
13.14799 56.79528 -7.632269
14.659 59.70604 -7.323675
9.395596 54.43775 -9.138079
5.415996 126.8141 -8.578191
1.459961 26.18709 -7.720427
1.448718 20.73656 -7.483294
7.708157 28.6482 -11.38761
4.98148 25.25726 -12.02726
4.840455 31.88392 -11.57983
5.886119 30.79138 -11.60954
7.931802 26.87225 -11.45377
5.675992 28.05636 -11.80608
7.006807 57.96223 -8.408987
11.15828 112.5698 -4.743145
18.82387 45.41168 -9.675613
8.611944 29.69044 -11.12678
13.7623 31.84993 -11.56257
13.79834 30.71236 -11.6061
11.61626 36.05069 -10.87029
7.509205 38.45652 -10.72246
11.99588 38.54036 -10.86945
9.066707 38.29493 -10.51532
4.037756 38.85794 -10.95576
12.98619 39.5016 -11.13603
6.748091 76.42554 -8.853177
6.246542 76.96058 -8.818204
6.143198 78.83343 -8.60736
2.739423 73.29228 -8.821089
8.999206 77.3195 -8.777445
15.1286 73.97439 -8.19004
11.66817 74.39802 -8.815432
6.933557 68.65631 -8.607639
11.81379 77.02466 -8.770417
7.409452 71.02588 -8.743146
6.431926 84.52355 -9.492557
1.784255 38.1788 -6.276146
4.415879 46.21264 -10.3569
2.781033 44.44982 -10.01863
7.753483 40.19077 -10.54313
5.05823 40.623 -10.90888
4.580183 41.49939 -10.8002
8.59036 48.7846 -9.83034
7.691199 42.97389 -10.29284
11.00417 46.87596 -10.33623
9.511425 49.66604 -9.900949
8.896172 50.89282 -9.718238
12.04749 50.12136 -10.01748
2.429242 37.61469 -10.26819
6.654877 34.05422 -11.21464
7.247562 36.13099 -10.94033
12.75441 81.71465 -8.591213
14.39268 82.32544 -8.237428
9.531978 83.96706 -9.179432
9.930496 84.05856 -9.1973
5.636089 83.80386 -9.172786
11.94191 77.61867 -8.731784
9.351485 91.54416 -12.17409
10.90353 90.64893 -11.52766
7.995142 89.80297 -12.12278
11.93927 92.84158 -11.08792
9.258012 90.13776 -11.97443
9.934045 89.37023 -11.62387
13.37971 87.12907 -9.58917
4.262102 86.09013 -10.44884
14.69226 87.48891 -8.80962
12.34439 95.68686 -10.35485
4.359837 127.4864 -9.026309
19.21385 27.38603 -14.32179
15.62213 24.90115 -12.90405
17.82309 21.67863 -15.07518
15.53694 23.29691 -13.02506
7.586625 67.46447 -8.513402
1.321753 9.675886 -7.64217
21.02089 32.50394 -11.52842
11.95702 58.75504 -7.679665
1.100525 16.75671 -9.062488
11.17709 105.3639 -7.152081
13.28168 104.6245 -5.649666
15.43053 103.8943 -2.648153
13.32238 99.80337 -8.023201
11.61943 102.1772 -8.478246
8.920654 100.2254 -10.94376
11.2344 98.47398 -10.26356
6.534375 101.8498 -10.91515
2.981812 10.57612 -12.71352
15.4172 43.53668 -11.13167
2.08585 11.237 -12.14338
3.185362 13.1468 -12.57365
2.012954 14.97815 -11.68842
6.204127 17.49475 -12.41138
13.71085 20.67601 -12.01564
14.3577 20.64074 -12.39737
8.236911 15.96974 -12.02894
11.633 21.46509 -11.44726
6.379086 10.98248 -12.78928
6.098967 49.23277 -9.791503
7.849708 55.53827 -8.920184
16.14327 85.72721 -7.505459
5.720969 25.99821 -11.94442
14.90983 96.43905 -7.579859
16.40984 30.34587 -12.89566
14.44565 33.99025 -11.77027
11.50386 43.55386 -10.60028
7.917 71.09669 -8.74785
4.774082 95.67959 -12.74024
9.716084 96.44941 -11.7467
9.784947 97.31709 -11.52289
12.22697 96.31593 -10.28442
12.33799 97.11295 -9.960863
16.68464 10.74941 -15.94709
4.607764 41.90502 -10.75445
15.25903 23.51776 -12.78642
12.74588 23.81457 -11.56319
11.13908 23.47082 -11.29038
11.82999 23.80646 -11.35371
10.8076 23.45371 -11.28567
5.431518 20.78968 -12.32579
14.74786 27.97792 -12.11555
16.54152 33.26348 -12.69998
17.24052 35.38854 -12.68525
16.23336 13.92065 -14.99486
15.08113 13.47233 -13.69569
14.31184 18.58026 -12.54762
12.40998 13.45481 -11.97256
11.56745 15.83667 -11.70309
14.32497 12.29297 -13.09693
11.66084 10.43154 -11.98514
1.583944 16.1127 -7.072929
6.446017 61.00688 -8.059233
8.701578 59.4902 -7.973208
14.108 60.77312 -7.553952
15.57306 43.98735 -11.04921
5.41555 18.79564 -12.47733
14.38247 84.77563 -8.50745
16.36808 29.10132 -13.00803
6.135402 19.06411 -12.32166
9.448208 17.16612 -11.67151
12.97081 19.20334 -11.81423
9.970874 17.98681 -11.57325
11.49764 151.838 -5.447239
1.300666 47.0764 6.201506
7.807153 152.8327 -4.836767
0.3598922 64.23335 7.435328
1.767319 83.35429 10.26049
3.032235 67.73276 8.19448
-1.156377 7.677899 6.032411
2.409945 3.820583 5.038972
3.066301 8.079719 5.606679
1.116318 126.926 12.28821
6.05006 64.57873 7.499759
2.576099 79.03033 10.01912
2.061837 150.2077 2.373276
1.118951 140.7988 8.666937
0.2144287 101.3748 11.5749
10.54295 149.312 -0.5293708
0.3695842 108.075 12.30462
4.308307 122.3691 12.03832
2.160185 75.15366 9.558259
-0.2979811 36.69129 6.08531
3.391478 26.60483 7.012775
5.783559 78.21667 9.943413
3.778044 63.99473 7.388231
0.03441666 17.82487 5.435915
3.155884 19.00967 6.305531
3.908733 9.863127 6.330131
0.3499183 120.4398 11.96123
1.531339 102.6369 11.85965
3.99824 30.68991 8.127559
4.546751 105.0996 11.86036
2.141179 150.7661 2.039828
4.528591 111.5944 11.78563
1.849263 151.1147 1.952207
0.06277661 129.4792 13.0621
2.566136 151.4932 1.557598
9.712184 147.7728 0.969705
9.071013 152.2656 -5.386602
3.514035 149.9996 2.39363
6.128343 151.4789 -1.047523
1.233113 130.8661 13.63605
1.460351 117.5733 11.86867
7.299205 135.8427 13.02062
2.20202 93.4272 9.553989
2.346452 87.11122 10.2161
3.888633 90.88453 9.835229
4.831081 112.2862 11.6245
5.78497 66.37465 7.892725
0.07944632 58.94371 6.853545
0.9551594 147.6454 4.095936
3.593772 4.591975 5.739955
7.449542 149.7928 0.6750261
5.29943 57.18232 6.871208
1.411068 45.8131 6.158509
2.005157 49.11288 6.475016
0.3820758 78.96252 10.01361
1.613379 72.61113 9.162027
4.152036 69.51559 8.579783
2.259177 65.40404 7.681515
0.9350072 70.60877 8.79637
2.76216 39.81269 6.772844
-0.1749369 10.40577 5.270792
-0.1071854 17.21128 5.489954
1.197296 32.5761 5.815664
1.056282 37.71385 5.887335
0.3253668 26.52465 5.576789
2.813708 129.3446 12.99433
7.689328 131.7851 13.87198
2.830512 133.7573 13.78519
6.054143 127.7631 12.14636
2.186839 116.7522 11.86343
7.652337 139.3972 9.561774
1.188817 145.621 5.303097
4.157054 99.81932 10.59548
5.124955 87.14935 10.20752
3.08432 84.88689 10.27243
5.959362 92.40986 9.645522
0.5140185 96.32644 9.917371
4.78273 107.6405 12.03077
4.39154 64.05923 7.400928
2.349177 60.248 6.88715
7.761401 150.4244 -0.6493242
8.427802 147.7175 1.610979
4.079226 46.56068 7.796503
-0.01312204 46.19343 6.205189
3.940056 50.81231 7.447988
3.962097 78.35073 9.95411
5.220864 83.64706 10.26524
0.3254469 76.57816 9.750793
2.917611 40.91977 6.950913
2.252146 9.994768 5.305603
-0.1535329 15.35104 5.442113
2.849318 16.06799 5.878139
0.4035164 20.67198 5.447993
2.183691 32.37656 6.172667
1.175915 36.42847 5.854354
1.15125 31.91628 5.786162
0.1599894 130.1936 13.37443
5.116408 131.2418 13.71951
2.777115 133.3474 13.88634
3.361787 128.1401 12.46624
4.893353 121.0866 11.7891
2.048298 115.4618 11.86263
4.831738 138.1241 11.07178
3.745507 139.016 10.21662
0.6605712 142.6883 7.227669
0.5098401 97.447 10.30664
1.137905 104.1815 12.15901
3.035839 82.36234 10.23116
2.622536 91.45266 9.755095
3.600037 94.53568 9.535362
0.9275385 108.7069 12.25702
3.393987 56.96835 6.873549
3.648019 6.870779 5.919848
0.4216715 55.04257 6.646592
2.470604 81.39339 10.19013
2.898865 70.02553 8.682509
2.585128 23.62796 6.118241
2.679066 29.01484 6.381276
4.462592 133.4341 13.84602
1.914279 123.8713 12.20845
1.808599 138.4461 10.75505
4.209119 140.5769 8.712047
4.792858 144.1606 5.782403
4.948733 101.245 10.82385
2.330388 8.395653 5.277267
1.132538 34.14873 5.807856
2.998672 147.3991 4.071976
3.522064 151.4198 1.320033
3.338637 148.9997 3.103964
0.7313113 151.0027 2.445799
2.123914 60.26188 6.888407
4.691017 2.022105 6.629572
9.029292 4.119498 10.89727
12.28022 119.0106 2.090441
4.314971 21.73081 8.06343
10.04353 6.9796 11.63174
14.73138 133.6564 -0.2903866
4.118201 14.06115 6.957945
5.792071 109.9726 11.54423
7.400274 61.54625 6.909876
11.40363 150.402 -1.550461
14.89271 136.378 0.7485377
7.733923 82.32381 10.23035
8.393996 97.37797 9.479202
9.00489 135.0463 13.33424
20.34124 82.81203 3.368187
9.909393 129.6607 12.68153
10.66101 29.13808 7.495907
6.537421 113.3208 10.86649
19.10228 61.71462 1.818871
5.680331 53.40816 7.522462
12.36986 62.1563 6.846887
14.79648 136.493 3.314111
21.23769 49.85448 -3.034602
12.39389 118.5778 2.136261
5.918324 1.968586 8.176611
19.44435 61.25159 -1.606257
5.719805 1.720839 7.893741
26.34505 21.98793 -7.581856
27.01247 4.326243 -3.867857
22.7729 38.4322 -3.459555
12.27685 53.63131 5.529621
14.58238 132.918 -0.9152183
13.80962 128.3884 4.311776
14.54547 144.7485 2.522546
23.08206 8.784247 1.599415
13.77076 151.6739 -6.081172
8.333423 63.58699 7.270592
19.39534 90.6522 1.145135
19.8298 88.71959 0.5341097
13.20522 151.1429 -2.445328
13.45572 117.1446 2.02513
20.60277 79.06503 0.4087717
21.84034 5.82498 6.956618
22.50235 36.89762 -2.328199
12.43201 72.76939 9.222062
13.54062 86.81401 10.18815
17.6979 97.32716 1.012992
6.066139 103.1706 10.99537
14.77664 142.6827 3.24153
9.961224 140.4474 7.551924
13.59414 126.0213 2.899709
13.31939 117.2069 2.828596
9.791756 117.8516 9.382342
10.65438 147.9315 0.8103163
27.43938 15.69548 -6.575333
27.99158 5.410192 -0.3767996
14.56287 132.41 0.9297448
18.93057 62.89359 2.826087
9.087104 57.63802 6.391099
9.999577 61.62385 6.817813
5.959516 5.63808 8.654891
7.211101 5.392607 9.92778
5.420708 12.15565 8.64525
13.50524 2.29384 11.61975
24.23387 27.2029 -4.919282
4.446016 39.85866 8.485785
7.502907 69.07573 8.492524
19.87053 66.59137 0.5295615
20.33259 73.46907 1.726079
9.998845 88.48427 10.1127
20.40589 84.35896 2.321057
20.01944 86.12526 3.582126
8.681444 94.24497 9.476084
7.556278 102.5866 10.41366
8.462173 93.73537 9.511956
11.2439 133.4986 12.88887
11.7441 145.0993 3.726422
11.47469 141.5294 6.066072
14.83761 140.75 3.171385
10.7375 138.8249 8.828403
9.065793 133.2352 13.72205
13.62713 126.4199 3.261153
15.92611 105.5765 3.604472
5.433106 111.2652 11.56489
7.566194 118.1833 10.58743
8.104637 120.4372 10.98221
26.10693 6.122524 4.490868
27.64846 5.554152 3.327051
27.94151 4.510352 0.6074507
19.69987 57.91661 -0.3783215
20.71786 53.84299 -2.486838
7.957536 60.42185 6.728926
11.52598 1.964578 11.39715
4.548434 15.51338 7.732216
5.44425 14.78726 8.993173
20.18622 4.103359 9.363265
24.55724 25.43256 -5.046101
23.51927 30.87163 -5.390608
22.50533 40.62022 -3.611592
6.960176 42.96458 8.664919
21.37343 47.86198 -2.409783
7.837153 70.77918 8.838747
7.748451 71.77003 9.024721
18.92479 63.51886 3.161584
11.28925 84.82498 10.26803
20.66513 81.55027 1.1106
18.50539 93.866 1.246979
19.51813 90.12145 1.385336
17.58948 97.95702 1.472802
6.861695 100.8858 10.22206
12.05643 138.2548 8.254234
13.80332 136.7624 7.214861
11.04688 130.7573 12.71327
12.30703 125.3289 7.554878
7.728564 126.6183 11.22281
12.96692 122.1688 4.117213
12.734 128.1051 8.642404
13.00817 124.5193 6.008644
15.48656 106.2907 4.885488
16.42401 104.1221 2.592631
6.965187 112.4864 10.67244
13.78046 112.362 2.191478
8.977916 112.8327 9.577629
13.55587 117.6233 4.281828
9.202874 119.4893 10.11677
27.63194 13.37069 -5.923109
28.16531 6.073745 0.4787024
14.88661 134.2835 3.19514
20.37049 54.32968 -1.273633
8.642199 67.91651 8.239215
13.75977 3.638449 11.7599
4.696893 22.72546 8.82411
6.41024 15.16566 10.23434
17.3345 7.438214 6.275095
26.14522 19.60271 -6.891137
24.08762 25.85011 -4.184778
23.03555 37.84141 -4.530864
21.15281 44.94763 -0.8093894
5.286225 43.89589 8.664607
4.649467 35.53473 8.840078
20.61048 48.55492 -0.333084
9.741599 73.12696 9.259986
11.54664 74.009 9.402169
19.81771 66.37933 1.20715
9.881682 82.96922 10.25115
10.51055 89.52881 10.01321
19.91116 77.45737 4.739406
19.9459 87.38995 2.782881
19.0024 91.32098 3.312769
10.59811 92.3926 9.651377
16.46533 103.1984 3.840911
9.66536 135.5413 12.88592
10.77432 127.0285 9.850592
13.7934 131.6853 10.23593
13.73319 128.7187 5.925884
12.67843 120.255 2.964478
13.71388 128.2746 4.878794
11.71762 124.5509 8.326379
16.44617 103.7369 3.021096
7.782154 115.3952 11.08759
26.88009 18.97533 -7.415493
27.97294 12.44067 -4.456439
27.95653 6.573785 1.672975
26.62419 5.103541 5.54374
18.58092 56.86357 1.91973
4.660574 26.64787 9.052081
7.294388 13.09087 10.82885
22.12136 7.144998 4.076962
24.94083 19.96589 -6.048769
23.52518 23.6228 -3.057068
21.9889 40.87543 -1.837036
23.03639 33.23949 -3.466487
8.963346 44.27961 7.243712
5.998254 39.01198 9.221629
8.717516 79.51553 10.06797
11.46444 95.23595 9.328074
11.63437 104.7933 9.278557
9.048511 126.8006 10.72953
9.602736 131.9621 13.54546
6.763678 122.025 11.55063
14.25099 105.1131 7.571747
12.14979 120.0689 6.856797
27.67117 14.05452 -4.921625
24.21276 7.282231 3.12343
7.866039 52.88951 7.092499
7.888094 17.04733 11.13757
24.12271 22.70413 -4.716197
23.16946 25.13494 -2.299423
5.759983 30.62718 9.751681
8.598687 27.38651 9.769249
9.250308 41.91943 7.249683
8.50215 47.50961 7.254318
12.45047 80.18764 10.13822
12.02509 95.09673 9.324604
9.32284 99.52 9.510383
11.9134 136.1762 10.97225
13.30725 128.0684 6.794798
11.69585 121.7203 8.078944
9.136279 108.9249 10.23676
24.8783 8.483043 1.380152
7.98196 50.1741 7.328462
9.38396 15.61217 10.97645
22.91461 23.28861 -1.962883
7.356799 26.90735 10.27443
7.463879 40.8756 8.730545
12.32442 97.3605 9.013757
13.64376 100.3486 8.249652
13.9212 134.8339 9.256562
12.70515 107.635 8.435102
22.08737 10.72552 0.1470138
14.52753 58.79597 5.791583
11.92157 50.11573 5.224838
21.71632 23.47108 -0.1751586
8.961172 26.2025 9.707787
14.26837 104.9582 7.581059
15.26959 103.9028 6.469034
12.13531 108.0651 8.813205
8.783949 114.8472 10.25213
25.4205 8.848204 0.9271575
9.713206 49.40889 6.139662
21.65472 30.97812 -0.3186213
6.182265 22.63931 10.3469
13.128 102.5473 8.529591
12.02765 106.925 9.054068
13.25227 109.7546 6.867942
23.88875 11.21385 -1.060732
24.34724 13.39321 -2.800716
24.92613 14.0786 -3.473059
22.38247 21.29179 -1.256403
21.01775 25.48169 0.5734479
8.442955 29.46646 9.619336
10.02628 29.77854 8.188299
11.99883 26.07084 6.30745
23.71617 12.77096 -2.109917
10.97704 48.22823 5.368159
17.71534 24.34253 2.463612
22.59234 7.845492 2.894349
19.7932 8.426923 3.581314
24.14212 14.27079 -3.240251
17.4193 55.98751 3.433615
19.98336 25.97936 1.36005
21.48072 15.6648 -0.3461497
13.06754 57.28199 5.747976
11.65615 57.43729 6.002046
12.94963 59.69757 6.248068
19.17461 29.28008 1.916165
17.42549 22.34288 2.576276
17.40979 51.23753 3.471369
22.03266 19.04383 -0.8861151
18.91641 20.16629 1.915944
17.25047 52.22268 3.617781
19.28542 51.25761 1.524503
15.39598 56.41434 5.036889
13.90552 59.53044 6.088043
15.55603 61.04255 6.045623
17.84869 27.21759 2.463282
16.47226 53.9262 4.362705
19.09303 54.56379 1.419383
17.92124 49.47364 3.024559
18.16634 66.77589 5.62649
19.81731 49.39122 0.9567098
19.79816 43.03352 1.328131
19.15694 44.60281 1.945829
18.42758 65.38482 4.841346
17.6179 67.80993 6.483469
19.23572 43.94955 1.872447
15.74916 26.5282 3.277357
14.64449 47.77954 4.674607
17.83704 42.97601 3.023843
20.48015 40.60101 0.5877271
17.22211 33.58102 2.984119
15.39388 71.11774 8.623049
16.71509 67.93055 7.194659
16.17665 66.83035 7.214936
14.74487 61.99405 6.571536
11.8473 70.87921 8.876887
15.77732 65.70417 7.136362
20.06828 74.5914 3.681665
19.74717 70.00435 3.38432
20.18307 82.05809 4.230064
18.6262 82.30158 7.354199
11.66057 5.042402 11.75503
6.050097 6.59306 8.87642
7.526067 8.711655 10.48665
