# .PCD v0.7 - Point Cloud Data file format
VERSION 0.7
FIELDS x y z
SIZE 4 4 4
TYPE F F F
COUNT 1 1 1
WIDTH 1668
HEIGHT 1
VIEWPOINT 0 0 0 1 0 0 0
POINTS 1668
DATA ascii
-12.57524 68.37843 9.768296
-12.07193 65.52703 9.750868
-11.93271 66.10364 9.984871
-10.88899 65.50287 10.46797
-13.78415 71.71213 8.501664
-1.839615 69.00978 11.67539
-5.118582 68.35758 11.58751
-4.224315 74.76917 12.31229
-11.09336 110.8056 7.236113
-12.23262 108.894 5.421545
-11.39984 111.7352 5.443685
-12.24668 102.3083 7.67475
-1.829934 111.7227 12.91059
-5.344032 108.7381 12.33292
0.005577576 108.0131 13.17998
-3.004939 106.8304 13.116
-12.42559 72.72676 10.50596
-14.11513 79.64275 8.637691
-2.328076 77.22975 12.43663
-6.554556 80.6293 12.45969
-8.810531 82.67504 12.37008
-7.331936 82.30962 12.46244
-9.614105 81.88763 12.2568
-9.731112 79.27729 12.2887
-4.895366 79.65103 12.48537
-14.611 85.64208 7.860136
-12.44291 81.99509 10.84779
-14.98237 86.72406 6.78198
-14.96126 89.3325 6.523985
-14.37165 89.0929 8.03622
-3.554528 84.04154 12.25651
-4.3606 86.87414 11.94814
-9.783294 91.3756 11.05521
-6.942451 91.39637 11.18801
-10.25576 88.67342 11.35414
-7.836283 85.17236 12.16765
-2.749844 88.13981 11.75019
-14.40563 94.70679 6.548594
-2.935898 93.57921 11.18474
-11.53342 98.32901 9.230792
-4.921175 97.44329 11.24296
-11.49504 99.28986 9.228071
-12.44692 103.7371 6.966718
-1.952462 103.6075 12.96977
-2.452151 99.6537 12.05255
-5.576812 101.7844 11.94828
-12.29749 131.2203 3.140074
-3.712157 127.5913 13.09388
-2.82579 130.5757 12.90655
-5.112307 133.2447 12.22868
-9.965052 117.5895 7.557758
-0.146804 113.718 12.84174
-3.521449 66.48585 11.24831
-11.88854 63.16328 9.438016
-10.82001 63.81006 10.24814
-9.990384 65.60918 10.87891
-10.33026 68.43912 11.24016
-10.43905 71.81976 11.66954
-12.96837 72.47485 9.926091
-5.997396 70.23509 11.82795
-5.117457 71.65052 11.99547
-6.16003 72.28477 12.07485
-8.588288 73.49828 12.19235
-6.810962 73.94931 12.25543
-12.63987 107.8717 3.823918
-12.14574 105.496 7.00225
-5.073186 109.4854 12.35475
-13.7151 75.62175 9.048179
-11.23339 78.26774 11.72353
-12.80522 77.08368 10.26542
-12.9992 80.06422 10.4061
-13.83723 81.98123 9.293665
-9.615891 80.86575 12.27667
-14.73867 80.90919 7.289043
-4.395107 78.03083 12.45199
-14.46601 83.91496 8.186051
-9.78762 86.16879 11.86318
-13.59039 85.80256 9.50244
-13.90451 87.75884 8.941451
-14.23299 90.89899 7.996638
-5.890391 86.4195 12.02141
-12.71546 86.53096 10.31036
-9.166474 89.35448 11.4407
-11.71247 85.78796 11.15093
-14.84919 93.62711 5.909372
-3.08292 94.10411 11.17048
-2.676707 95.97523 11.37941
-12.24458 97.1863 8.942075
-9.676161 96.7076 10.45154
-7.343146 96.35629 10.90542
-11.9831 96.99989 9.169052
-8.063159 96.18225 10.82219
-11.93081 100.4453 8.423936
-13.19982 99.46211 6.755191
-11.69019 102.4529 8.523379
-8.686152 100.6465 10.88103
-10.63316 102.3007 9.742898
-12.72683 103.2838 6.196926
-3.674884 105.6316 12.90274
-2.860352 103.9633 12.90245
-11.40658 130.3255 5.893603
-2.907645 132.3495 12.56035
-3.596085 66.29942 11.21147
-3.093271 68.65295 11.62658
-4.060424 66.96634 11.33993
-5.552969 70.02521 11.80389
-4.009289 64.9489 10.93435
-7.707961 63.45481 10.61955
-7.107763 64.56287 10.84555
-7.5458 68.97594 11.70299
-11.67765 67.49721 10.40822
-12.3347 71.14983 10.38136
-11.67472 77.11344 11.38455
-8.751537 74.03408 12.25938
-4.054867 107.0747 12.87073
-12.16169 73.60902 10.76955
-10.08435 74.69257 12.02742
-10.68407 73.38506 11.72198
-12.34564 79.96822 11.00424
-11.12087 76.59151 11.77126
-8.040321 83.57965 12.27727
-11.44765 85.2097 11.38296
-10.58989 83.80137 11.87026
-13.77006 81.66568 9.346755
-11.24364 83.32025 11.67343
-13.3001 81.28285 10.02826
-9.116594 85.72476 11.99929
-13.24798 87.39191 9.743445
-8.585877 99.82793 10.82114
-3.996333 101.4367 12.20507
-11.54445 131.0002 7.712102
-3.13046 135.6795 11.34063
-5.877216 131.8876 12.62457
-7.216758 70.08511 11.80674
-11.21484 71.95193 11.31071
-9.744988 62.94004 10.38375
-7.417815 67.68093 11.4989
-9.947141 77.74162 12.20041
-6.152561 76.84261 12.4456
-7.610801 74.43192 12.30315
-8.52127 84.57287 12.18271
-8.859562 105.2117 10.97371
-1.359226 130.9842 12.81613
-10.49686 113.1795 6.926803
-8.077984 71.19229 11.89587
-11.80589 71.04811 10.8158
-9.068228 76.26079 12.3819
-4.692696 103.1835 12.37028
-11.44108 130.6985 7.076957
-8.814446 134.7102 10.57261
-10.06203 134.267 9.747508
-5.125823 134.9842 11.4281
-8.487503 76.9219 12.49911
-10.89502 127.326 5.78705
-11.10614 130.4142 8.676484
-10.80717 129.2959 7.280115
-7.718441 124.9217 11.47653
-10.50317 133.6888 9.508412
-9.090808 134.3965 10.56665
-10.79388 136.8553 8.93557
-10.0742 128.353 9.142658
-8.498052 135.4936 10.36513
-8.375556 134.7356 10.73244
-11.04998 135.0446 8.624164
-10.84188 132.6212 9.469977
-9.157849 131.41 11.56302
-7.198829 130.0492 12.70526
-7.549228 129.1551 12.44209
-7.446589 128.089 12.24446
-8.620831 130.4851 11.962
-6.651111 136.0745 10.46764
-10.72398 126.8091 6.436221
-11.3545 126.561 4.243812
-9.934628 127.4591 8.647515
-7.95034 133.1731 11.64018
-8.605557 126.683 10.74372
-9.632307 129.6764 11.15624
-10.52775 129.8949 9.848544
-4.419085 128.8959 13.02347
-10.0442 139.9408 7.165477
-9.329977 137.0843 9.341803
-6.094585 134.9882 11.22756
-10.82445 122.516 6.243418
-10.6713 120.7404 6.187122
-7.23656 126.1812 11.92059
-7.809384 139.5101 8.212569
-8.876899 122.6676 10.27965
-8.180144 126.8239 11.26233
-4.986561 124.0778 13.07745
-9.806047 123.3613 8.956064
-8.240077 123.9466 11.02217
-9.755658 124.1917 8.960721
-8.453547 122.5564 10.75775
-7.660995 120.0679 10.94371
-6.258777 124.6665 12.46265
-2.589219 123.2299 13.46388
-5.19146 121.4055 12.7297
-5.894444 120.7522 12.28101
-3.280928 120.4872 13.01188
-3.54213 122.9157 13.36906
-4.884356 123.3061 13.06016
-3.272872 116.9581 12.61082
-3.489066 116.867 12.54311
-4.103458 115.0745 12.21504
-6.119807 115.9212 11.10712
-3.843568 113.9363 12.30556
-3.439211 112.3784 12.53721
-7.700231 114.8978 9.96353
-3.336664 114.5355 12.48275
-7.045374 117.3817 10.80709
-9.069768 117.6083 8.847409
-5.476824 113.1457 11.59523
-6.507149 112.3421 11.1101
-5.722546 109.7255 12.03935
-8.664622 121.0699 10.46013
-9.422431 115.3753 8.577515
-8.798022 114.2698 9.053186
-10.21587 111.5084 8.332413
-6.331202 109.4156 11.79753
-8.640098 119.532 9.805761
-8.523587 120.7367 10.54774
-9.451594 122.8058 9.453356
-9.692722 119.3403 8.904826
-9.550637 111.4868 9.137811
-7.413942 108.9252 11.32024
-7.524191 142.5158 6.795932
-11.71194 106.9991 7.862501
-9.745808 106.9477 10.2059
-10.64315 103.556 9.7077
-8.318996 109.5873 10.70572
-10.0179 108.1236 9.822233
-9.959025 109.7731 9.421495
-11.24777 90.67975 10.68568
-11.60532 89.10548 10.75998
-10.82963 88.85358 11.12441
-13.28319 92.26939 8.960828
-11.25348 92.87418 10.33826
-6.358738 90.65038 11.29962
-9.538646 91.88436 11.00589
-7.310469 91.69159 11.12677
-9.073929 93.03821 10.89961
-11.96215 95.49007 9.515135
-10.46619 94.78088 10.40723
-10.21669 92.16714 10.81425
-11.71734 95.22222 9.71106
-14.31071 92.35367 7.65434
-10.37678 103.3687 9.946042
-6.145671 102.8572 11.96305
-9.684269 103.5866 10.50859
-9.014322 103.4668 10.91132
-8.728039 105.0001 11.0404
-7.922145 105.7448 11.39541
-6.265503 105.1106 12.06578
-8.066357 99.64249 11.00342
-9.405141 98.17148 10.5179
-4.520911 99.11873 11.61792
-8.064734 107.6285 11.20022
-5.960696 108.1424 12.12349
-7.977501 74.72949 12.33308
-10.04378 112.1634 8.246299
-11.4558 138.8449 7.88693
-9.824446 128.8747 10.39962
-8.119758 122.75 11.10392
-8.583604 113.6954 9.349212
-9.534693 115.8129 7.929481
-9.88173 110.0272 9.414842
-12.85726 91.67947 9.43098
-13.60263 93.81227 8.345742
-9.988296 140.352 6.934862
-5.414657 135.0638 11.3224
14.95494 93.79497 3.76378
5.580425 92.53301 10.99052
4.888737 87.35987 11.86437
8.130513 61.06279 10.09409
1.292475 109.6671 13.09106
9.74755 141.4514 6.369893
13.0828 140.2496 6.276085
2.761055 105.4191 13.08457
11.98954 110.3327 3.217334
1.047662 65.46701 11.04104
15.28239 82.82892 4.60542
13.23483 103.1341 2.890692
1.883356 65.47506 11.04203
5.255521 85.25256 12.1436
1.256055 80.40972 12.46809
2.874495 84.91674 12.17891
1.554621 70.87582 11.93381
12.03374 60.69626 8.740559
10.24262 106.1707 9.923032
3.906026 135.4966 11.35508
1.451278 127.5064 13.21895
13.1876 103.8932 2.919878
3.137211 123.8054 13.4574
11.46333 125.8692 3.41494
13.15515 137.3955 6.530843
15.33467 90.57069 5.017612
11.03822 120.7959 6.607752
7.776487 128.0492 11.95927
1.400503 75.48443 12.35721
4.928536 137.1028 10.32708
1.450422 119.3444 13.14787
12.81583 135.2077 4.717185
15.32561 90.92176 4.082502
13.08619 141.201 5.694294
14.29256 141.7041 4.94524
13.75478 61.45795 6.224043
7.667761 140.4055 7.829609
11.40733 111.7462 5.365391
14.66993 83.39597 7.687999
13.83996 60.77254 5.757799
15.19958 90.88467 2.325555
13.93826 97.67771 5.890966
13.25168 145.1292 2.587917
3.500199 75.45826 12.35847
14.56686 70.40675 5.46438
13.28171 102.5398 2.842687
12.8431 143.5529 4.223029
12.65155 145.5419 2.065943
12.95236 105.7426 3.817806
7.869813 61.61543 10.21916
1.860151 99.79111 12.16527
0.72336 89.43311 11.52025
12.03062 78.55331 11.13749
1.869904 62.25385 10.36843
2.096931 95.65135 11.3837
12.94808 105.4651 4.197979
1.428277 133.2993 12.27408
12.70368 105.341 5.657184
11.52236 119.6832 4.198234
14.06569 97.34536 2.83457
4.553299 119.2837 12.43018
1.563016 66.91435 11.32519
11.94976 146.1129 -0.8742986
11.06629 146.4391 -0.1833715
11.00203 146.666 -1.913839
13.2305 138.3017 6.685
11.60789 127.2194 2.835176
7.29446 128.0938 12.209
2.533545 133.4288 12.26456
12.99973 132.3642 3.015383
14.06866 138.0735 5.550423
12.22267 146.0365 -2.275378
12.80772 136.1104 5.657902
13.70667 99.29635 2.775236
12.35134 132.7293 6.264006
3.881317 101.52 12.24714
4.17927 63.07488 10.54066
3.350358 76.77773 12.43398
12.59676 64.74212 9.0449
15.10522 80.16332 4.895277
4.818968 80.12309 12.48148
14.82875 75.32236 3.791108
10.77858 119.3499 6.161936
11.40868 125.2787 3.865491
9.492558 61.38871 10.04948
13.73724 62.5897 6.633618
12.00834 130.9867 4.137001
13.22282 135.872 4.668999
11.29502 122.6539 4.694115
13.41365 143.8067 3.919531
1.66179 129.5206 13.001
1.759966 132.2094 12.5776
1.743792 90.32376 11.29464
2.255151 88.01385 11.78215
14.99028 92.19673 2.00494
15.42873 88.38728 3.994005
14.52485 95.77379 3.126819
14.50428 96.16841 4.382634
5.6992 84.79926 12.1904
15.32398 83.13239 4.04153
15.35548 86.44644 2.647517
15.44402 88.78325 3.202197
4.292599 108.22 12.75053
2.028632 114.2186 12.77283
12.27943 108.7537 5.154292
12.8499 105.0368 5.046842
12.18359 108.9972 5.396887
11.071 115.1069 4.456502
0.6825754 97.4025 11.7711
13.54976 99.90503 2.428962
6.534508 64.80959 10.91746
1.649395 68.73177 11.63947
11.01158 60.8479 9.434401
4.677382 62.20148 10.35293
13.85865 68.67422 7.856109
14.98175 81.19539 6.516677
0.9608101 79.86689 12.47226
0.7729029 76.83262 12.42467
0.9094731 73.66666 12.21835
14.75389 74.66125 4.802567
14.38296 70.3114 6.597328
14.31605 74.3825 7.545064
12.15565 76.36372 10.87381
13.28204 74.72637 9.65836
0.745815 119.6583 13.17924
10.45717 116.5321 4.7391
11.18084 114.5481 3.972567
11.22612 120.2651 3.922207
11.4552 123.5214 4.118367
12.74184 63.66014 8.709676
10.80018 64.39424 10.29077
14.08209 63.83675 5.818709
13.39256 66.13255 8.302708
11.36773 128.5 4.188807
12.05342 131.12 5.126593
12.58592 134.9102 5.068382
11.74856 146.1738 0.1488175
1.202613 125.536 13.44507
3.406204 127.2133 13.12611
3.785759 127.7823 13.06295
3.062682 132.1847 12.60841
1.727604 125.4452 13.47095
2.779051 89.77168 11.42679
5.32198 93.96506 11.0442
2.056965 89.32987 11.54369
15.21483 92.08868 3.577776
15.45166 89.30908 3.182612
14.80812 93.99361 5.647385
14.74265 93.18867 6.368212
14.82844 94.27048 2.936086
1.228163 83.99005 12.27083
2.103041 87.65719 11.83323
1.897805 89.01892 11.60294
15.2905 82.56657 4.191598
14.33003 89.52454 8.116078
13.94173 86.97569 8.858108
15.11018 83.40071 6.276516
0.853698 106.901 13.26528
5.247025 107.0102 12.48378
2.700907 110.5403 12.90999
1.612159 113.8284 12.84022
13.54315 100.5479 3.646905
11.14976 112.9883 4.481544
1.94071 98.14462 11.80452
5.461759 97.33224 11.21298
3.662255 101.9589 12.39248
13.34608 101.9208 2.944711
1.231225 69.02962 11.68174
1.995353 71.89486 12.05299
6.963811 62.38189 10.39017
14.46425 68.59304 4.819377
14.96842 77.97238 4.092089
14.60248 81.48824 7.653004
1.637798 79.50549 12.47126
2.997613 82.43488 12.39602
3.841881 77.26466 12.45088
0.8581833 75.8445 12.37941
14.56812 70.45369 4.51567
3.867175 75.48859 12.3617
1.621864 118.4073 13.07452
5.109093 122.7451 12.96497
11.2153 121.0256 5.755017
10.56072 122.9127 7.149449
10.27482 119.9742 7.217731
10.30406 122.5555 8.41129
10.5204 62.09313 9.848054
13.9938 63.97413 6.239111
14.27525 65.49645 5.115304
12.1414 131.6471 5.906869
10.82314 141.4025 6.024252
11.5157 145.3029 2.927743
2.900798 133.2713 12.31798
3.899709 91.16767 11.15065
8.447557 93.67179 10.86209
15.02507 91.05635 6.216091
13.85873 97.21542 6.54015
3.957889 85.44888 12.12328
12.54171 89.12662 10.09005
7.525959 88.80236 11.64392
10.69863 92.35053 10.64084
5.374347 105.3664 12.38898
1.603816 108.4518 13.12271
6.816278 109.1688 11.6029
3.60462 111.5484 12.61504
6.55264 108.7423 11.78898
12.34133 106.1762 6.66301
12.25982 109.3087 4.353928
0.5230948 113.5993 12.84614
4.529302 114.8226 12.00275
2.455168 98.49278 11.81144
2.518106 102.9695 12.77779
13.43406 101.1885 3.92073
5.641084 62.81107 10.48108
2.809415 65.92106 11.13122
3.102026 66.98572 11.33922
3.785211 69.80891 11.80779
9.732044 65.12843 10.78514
14.11647 68.7617 7.228221
14.71232 76.11218 6.130653
14.50063 81.72177 7.901861
8.400502 79.64109 12.47182
6.386213 80.55611 12.48945
2.894049 82.01151 12.41992
13.31777 71.32138 9.245457
1.011341 117.4616 13.00084
2.549843 117.3581 12.82141
7.18619 116.3651 10.40922
0.4333231 122.493 13.42249
4.782823 125.9809 12.97169
5.37065 119.4672 12.13353
3.792073 124.5289 13.32595
11.08016 119.5421 5.813336
10.27606 117.4186 7.289232
9.849828 118.1136 8.628863
8.696049 116.9 9.132757
14.02769 66.72316 6.952
13.52844 65.72298 8.012672
10.95972 127.6829 5.611235
10.50564 142.0133 5.75316
4.818488 91.70525 11.0721
6.444941 95.81961 10.90892
4.437012 84.62907 12.2086
5.956977 107.1868 12.21044
5.507228 110.4363 12.02947
11.87945 107.5985 7.416291
11.69617 111.3041 3.068693
2.598316 113.8614 12.67255
6.111248 95.98598 10.92632
13.34049 102.0118 3.573003
5.594679 69.84903 11.82783
14.86138 78.46222 6.194784
15.16748 82.33527 5.945478
13.8376 81.21305 9.265052
14.21629 70.82461 7.362097
12.77454 68.87062 9.697783
6.725418 122.4006 12.08246
8.529662 123.2232 10.71722
9.324766 118.5019 9.366982
7.471949 116.7629 10.27932
10.42699 66.5176 10.7838
11.12258 65.44624 10.37417
11.10014 69.31128 11.04324
11.11902 129.1938 6.31788
9.62858 122.5496 9.325096
4.290689 111.8851 12.3195
4.337115 96.4447 11.2296
13.07516 103.4922 4.561615
13.84756 83.33596 9.292457
5.420387 120.9572 12.50403
6.363263 126.8519 12.4358
4.411352 126.4132 13.00711
10.9759 115.7037 5.478527
8.417965 115.358 9.311344
6.167412 118.3206 11.46584
6.628582 67.65619 11.46959
7.825431 68.83184 11.69274
9.666028 126.7226 9.120969
10.53982 125.4847 7.098712
4.360551 99.29407 11.67426
8.777136 95.48441 10.70806
13.68795 99.42629 5.281458
13.76037 81.95764 9.381617
6.084065 122.0424 12.46487
6.610809 120.5233 11.84413
6.441858 125.9832 12.36714
4.119035 116.5129 12.25671
10.30647 126.0963 7.637365
10.20479 124.3078 8.037443
6.216442 100.0693 11.4999
5.278716 98.87733 11.44497
5.74513 93.07529 10.97422
7.325335 91.27494 11.19945
12.4009 96.71967 8.840577
9.959953 125.8955 8.385029
10.56365 123.3641 7.143485
10.00154 123.3132 8.673097
10.48594 111.6668 7.816642
6.299424 116.1709 11.01085
8.240882 121.8376 10.83164
10.48409 92.01054 10.72152
10.4839 90.22553 11.03312
10.5738 91.3605 10.78524
11.7944 88.21108 10.78153
14.58372 91.3642 7.124524
8.470324 95.72586 10.74643
10.07999 128.4661 9.212861
8.652944 127.5306 11.16805
7.126382 123.1287 11.8914
7.712863 126.0436 11.56332
11.40004 110.9821 6.300063
7.589455 122.1918 11.44152
8.856404 119.6906 9.633363
12.3249 86.30953 10.71823
9.898228 126.4767 8.565373
9.274512 89.66316 11.36491
9.273891 88.27668 11.6094
9.104526 128.6693 11.33781
13.42543 89.50797 9.286544
13.74303 87.94784 9.084746
8.518698 86.24129 12.03391
7.680038 84.93196 12.17719
6.954716 80.63597 12.4932
11.35253 84.25339 11.41262
13.13327 83.09415 10.24235
12.82911 85.43896 10.44202
14.39565 85.07485 8.324666
6.66036 87.62276 11.81341
13.95595 85.5268 9.045446
12.53364 145.8716 -1.318001
12.03352 133.2915 6.839064
10.27257 132.8141 10.09764
11.28127 134.8596 8.132735
10.82121 135.5502 9.168038
11.85419 132.4347 7.380186
11.37902 131.0836 8.082402
11.89195 131.8211 6.852037
9.550249 130.8128 11.36159
9.189478 131.1636 11.64997
9.16061 131.8409 11.53212
7.916505 133.3944 11.504
7.127423 132.7896 12.09593
4.320669 130.5362 12.95862
6.036716 130.8908 12.8444
8.532036 129.667 12.06164
8.606584 130.8709 12.04295
4.301296 128.3935 13.00327
11.58625 130.8901 7.172141
7.488177 133.9478 11.37444
3.663347 132.5843 12.52309
10.64462 136.7482 9.039899
4.47105 134.834 11.60167
9.070791 137.9158 8.689067
9.160703 139.9988 7.417558
10.45467 137.9073 8.498226
10.54517 140.7628 6.497879
11.5738 143.0177 4.819726
10.16446 145.5699 2.944257
12.7307 104.2465 5.880766
5.628716 72.66345 12.16208
5.390816 74.91369 12.3202
4.580256 74.63153 12.29696
5.059978 74.11575 12.25344
6.141252 74.94116 12.32193
14.59386 90.89917 7.455232
10.47127 94.75528 10.39468
7.062749 78.31886 12.47257
6.335612 79.97276 12.48839
9.769648 78.41458 12.25794
9.841632 80.2894 12.25037
8.262012 82.03695 12.48626
9.653199 82.82473 12.16804
9.829981 83.01821 12.09208
10.6756 79.05608 11.98914
7.624033 81.24032 12.4833
10.0686 84.45977 12.00331
14.07528 76.18421 8.325757
9.691523 77.36583 12.25629
12.82185 76.39668 10.27268
13.97786 78.83517 8.920908
12.88265 76.85721 10.18478
7.372163 142.6203 6.799988
8.742242 142.0476 6.526552
13.46688 97.90585 7.167378
10.63937 99.29413 9.743626
12.4473 99.03997 8.13348
11.1638 96.22784 9.868123
10.23949 98.43447 10.07786
11.63189 96.78056 9.532661
11.41326 99.81476 9.031532
10.33895 99.4875 9.944065
11.10443 99.96599 9.249631
8.735005 99.79877 10.79099
9.684625 101.4343 10.39281
5.422086 89.24752 11.54165
6.679992 104.5551 11.91003
4.770183 103.5261 12.39805
5.44954 63.40327 10.61027
4.623601 66.6786 11.2776
7.400111 66.46951 11.22777
5.588023 66.80576 11.30016
14.22215 78.18648 8.427132
9.867152 110.7475 9.014813
5.350047 113.792 11.58407
5.763454 114.1766 11.33619
7.602088 112.9716 10.29704
8.173134 112.7119 9.955091
8.806353 110.7429 10.0355
6.384026 105.2892 12.0508
8.724441 104.9901 11.03827
8.282863 113.9415 9.5789
7.275601 114.6885 10.2935
8.035567 109.4807 10.89386
7.624304 110.6226 10.85981
9.4543 109.0779 10.05224
5.322073 115.2679 11.59051
8.687403 116.5152 9.098651
6.365511 98.13154 11.13729
11.4757 92.70607 10.14347
13.78512 92.96943 8.070853
6.926686 90.76673 11.26594
7.514456 89.63108 11.44782
7.632994 89.18336 11.54695
5.944656 86.64584 11.98377
10.93594 132.0045 9.337146
4.989456 135.9934 10.93479
6.648016 138.7825 9.001747
12.65954 103.9139 6.262034
8.128358 69.734 11.859
9.71894 69.87408 11.64643
12.46956 73.37008 10.47678
12.73727 72.82381 10.14517
12.40246 71.13432 10.377
8.385741 75.66837 12.3848
12.59851 95.05879 9.142015
9.901281 74.00087 11.98389
12.09658 101.3884 8.039753
6.932999 100.8521 11.45988
6.743322 68.36801 11.60236
7.36826 134.6558 11.04349
5.685237 137.1721 10.12765
8.051644 136.9168 9.568905
7.942359 74.44456 12.27671
6.850485 72.92336 12.18713
11.89143 73.34046 10.97135
11.16652 74.58986 11.42297
10.48011 76.6066 12.01364
12.9593 76.00978 10.16737
10.09935 102.9633 10.21989
11.8299 104.5671 8.102427
10.49993 99.73273 9.850379
9.402306 101.4253 10.53085
10.18318 108.2205 9.514228
11.13613 104.5766 9.081202
9.11911 108.1662 10.5074
10.41859 104.1062 9.902628
8.559354 103.9671 11.12113
6.518966 103.7268 11.9109
7.951939 105.9843 11.37416
5.607558 106.8584 12.35549
13.04824 103.5002 4.713674
12.92943 101.0609 6.628289
15.06199 91.43127 1.809101
12.28709 92.40236 -4.499446
14.04029 88.5373 -2.129654
12.44887 144.3144 -5.852614
11.85692 110.5382 2.172669
12.61776 107.5058 1.332624
12.97875 97.99111 -1.045549
8.866992 104.4288 -5.952411
-0.2012476 61.74483 -2.53749
13.68925 61.58609 2.041279
12.26053 59.75577 -0.1903351
14.27902 65.7081 3.958382
3.929188 63.5494 -2.764632
14.09581 68.30614 2.448134
12.99335 60.1079 0.7263045
13.1461 60.90225 0.9510724
14.59552 77.6223 1.743323
2.926353 87.84406 -8.988968
11.4341 123.3058 2.274015
13.23565 62.39442 1.023499
13.02605 105.2451 1.361943
10.9759 118.7304 1.830347
12.75091 131.8399 -4.940183
11.44789 123.883 2.6547
13.97792 145.4133 -2.668917
2.434101 89.81759 -9.712769
5.235284 61.16058 -2.48689
14.46364 137.0262 -7.028255
9.04628 145.1956 -5.536038
12.04573 134.5293 -7.333879
11.58736 146.1383 -3.935776
10.06726 145.8813 -4.588867
1.063253 92.92001 -9.985493
10.38781 114.4184 1.456572
5.207032 63.59869 -2.774128
3.107444 90.13417 -9.800697
9.104553 98.55097 -7.724689
12.86572 138.9022 -7.914107
0.1310837 102.3473 -8.336719
1.318534 74.85451 -4.121633
-0.4294669 74.17867 -4.024949
1.220144 93.91823 -9.985668
-0.255435 76.52735 -4.419348
0.27071 85.13275 -7.401503
-0.4266596 88.362 -9.154552
14.11898 65.67828 3.171628
13.02103 145.4582 -3.003654
13.32979 140.7124 -7.629637
0.5549784 103.1154 -7.987884
2.03418 108.0732 -5.485996
0.880838 111.86 -4.064082
3.318351 103.8582 -7.63412
10.03756 144.7863 -6.093687
3.095057 143.7269 -10.07526
8.948519 142.4591 -8.791726
1.436872 138.2032 -9.613332
1.976623 143.2389 -10.48233
12.79508 61.73619 0.3825128
12.54488 75.72908 -1.622692
-0.02308405 68.28983 -3.36682
11.71509 146.0388 -4.046299
1.754624 123.8294 -6.325287
6.321126 138.7982 -9.320649
0.09032278 134.014 -9.178891
0.7330476 135.5431 -9.165137
11.31131 62.52395 -1.17094
0.2128918 140.706 -10.79586
12.95523 140.0553 -7.838778
0.9631138 106 -6.518379
6.035937 103.7225 -7.460454
14.10263 94.48508 0.349063
1.265353 86.44376 -8.181242
11.76932 108.28 -0.7274787
3.584022 100.3664 -9.064442
14.09226 63.42093 3.386432
12.68807 60.57029 0.2532636
13.23892 71.03572 0.1296923
0.8032588 73.44227 -3.929036
3.835132 77.88431 -4.690818
-0.3168837 83.59795 -6.579212
14.45011 79.60561 0.5535253
2.965823 71.385 -3.698598
10.48334 124.0104 -2.461746
2.19677 126.0356 -6.670305
12.42349 136.2205 -7.623039
1.389289 110.3185 -4.775784
2.600824 61.97415 -2.564926
4.464771 59.83397 -2.385233
1.174769 65.29395 -3.008508
13.41982 137.2669 -7.614365
0.5854922 137.3982 -9.434656
2.671215 138.8862 -9.752662
-0.3174012 90.9613 -9.839951
-0.5128699 95.49902 -9.891685
13.95062 96.25707 1.114983
13.66874 95.71207 -0.1615248
13.62122 97.21564 0.7100261
15.02505 91.35488 1.559522
15.18107 85.60307 1.112285
14.92685 88.3512 0.04302974
12.66804 106.9295 0.9581788
13.40427 100.5552 1.635328
2.019723 102.6791 -8.213953
2.859653 103.2547 -7.945096
1.761751 105.6106 -6.723534
0.0684662 110.9239 -4.366796
11.30875 60.81216 -1.097744
13.48899 69.65207 0.7434948
13.59877 73.76752 0.2546807
3.841603 68.86948 -3.421306
0.7976229 79.35155 -5.08506
3.925129 84.10228 -6.762272
14.75846 84.41597 -0.04972119
14.8009 82.06934 0.8045725
11.39557 122.3017 1.471693
10.60593 116.8932 2.818252
1.897465 117.689 -5.926544
1.625934 113.1963 -3.766593
-0.04797836 123.2382 -6.086958
0.08787739 131.0786 -8.910707
13.57659 132.9143 -3.633311
12.47727 130.5368 0.7996488
10.59098 117.0003 3.241509
1.173986 114.6713 -3.595002
0.08150817 62.35139 -2.602704
13.18036 68.1945 0.4355192
6.785966 62.54882 -2.637798
3.18417 64.07251 -2.837113
12.30525 141.0928 -7.930704
0.3823608 136.1368 -9.195411
1.180101 133.2402 -9.208379
3.263376 136.0089 -9.184902
1.154238 88.54341 -9.249539
2.042818 87.38394 -8.727753
2.150265 95.59058 -9.900553
1.431299 96.0058 -9.851515
13.1727 98.94857 -0.1217397
1.183718 98.47737 -9.50424
14.39336 91.19689 -0.7199328
14.17428 94.87862 0.8302206
13.85995 89.3773 -2.375679
12.32021 91.53099 -4.556
14.86435 91.28598 0.6976646
0.4177941 85.74601 -7.766862
13.1334 104.182 1.112168
10.79119 105.5175 -4.009701
13.15537 103.1907 0.7146536
11.55744 111.5236 2.410573
3.050934 106.8503 -6.059618
5.007612 105.3739 -6.74001
10.47445 110.3354 -1.629009
6.823909 106.3681 -5.844857
-0.152023 107.5976 -5.72115
10.99186 64.22252 -1.588844
14.28489 68.65276 3.091781
13.45791 67.87756 0.9342784
13.92678 70.78558 1.491793
14.4457 73.45573 2.563192
0.5768057 72.94276 -3.866162
0.4479285 76.56807 -4.429163
0.769182 81.77199 -5.8259
3.00296 80.52638 -5.399927
14.81597 85.03004 -0.03070241
13.51738 75.81952 -0.3473494
15.09432 82.30016 2.010799
11.58845 118.9767 3.562266
11.34927 123.8147 1.211816
12.33368 129.4197 -0.3075924
1.061911 114.2544 -3.486357
0.2245051 131.2924 -8.995826
4.729238 129.0203 -7.52395
13.29039 131.9378 -3.396307
11.42291 131.1311 -6.321481
11.33082 112.7415 2.446687
11.05602 117.8555 1.073572
1.016449 115.8057 -5.026858
1.184395 110.3944 -4.701499
9.331197 62.70472 -2.329035
2.85871 68.29647 -3.362664
9.410659 68.87426 -2.996621
2.181244 66.45263 -3.165446
-0.2661766 63.74775 -2.783593
11.46851 139.1924 -8.313045
1.616716 132.9635 -9.21136
3.001804 90.94427 -9.872185
3.259529 88.52648 -9.35448
4.174478 87.90614 -9.11732
5.199927 91.2914 -10.0111
8.280337 88.28487 -8.423435
3.259412 96.66798 -9.816637
3.979789 91.40297 -9.994868
0.9112018 97.35453 -9.68655
5.505203 97.2318 -9.648157
-0.0402752 101.7221 -8.588522
12.96954 93.83397 -2.755315
12.44865 98.38113 -2.386728
11.08621 95.71931 -5.915949
13.34016 96.60407 -0.5419596
3.047321 85.13264 -7.379025
5.08972 84.07925 -6.672177
12.972 104.7514 0.1993104
12.49478 106.7989 -0.2836966
11.66912 110.4936 1.169577
6.145067 104.8349 -6.879801
4.39949 102.9938 -8.075908
1.991965 104.839 -7.127631
13.01425 64.95547 0.4640987
12.41742 67.79809 -0.6103072
13.62354 66.45586 1.497422
13.15144 69.52042 0.2168422
12.29579 70.0702 -0.9819251
12.23825 71.34557 -1.133115
13.57289 72.07915 0.5131528
14.53124 73.66389 2.934654
1.599087 73.98905 -3.999181
4.818497 71.62788 -3.720937
4.611342 78.62761 -4.859257
2.958451 74.94006 -4.126893
3.027473 83.912 -6.684115
4.251288 78.72311 -4.88861
2.185245 80.98624 -5.553653
14.8326 84.63524 0.1077341
14.51144 78.12411 1.266978
14.24999 78.53324 0.3731961
14.91546 81.73668 1.34164
13.10864 80.96292 -2.327306
12.17707 128.7494 -0.6321124
1.780381 122.6747 -5.643382
0.599368 126.4709 -6.762048
4.535241 131.722 -8.9584
2.167883 126.7375 -6.69488
12.91768 130.848 -3.003622
12.10911 129.2168 -3.508965
14.19057 135.8633 -6.468606
11.96822 128.6475 1.370885
10.48968 116.0446 0.3856594
10.94082 117.3261 0.9637331
5.28934 114.4106 -3.644741
2.625863 62.43936 -2.61726
6.471241 61.65149 -2.526821
3.158252 91.9518 -9.983431
7.385862 90.68875 -9.417548
3.619642 98.02173 -9.64123
1.463734 100.6533 -8.975111
12.34472 98.62856 -2.596327
13.32414 101.2897 1.471168
2.348052 102.2954 -8.393253
7.933681 99.91917 -8.223934
13.15448 97.34528 -0.7387309
14.38873 87.51223 -1.453309
5.337249 84.18268 -6.717978
10.71794 109.2566 -2.012128
10.35114 109.4458 -2.373648
7.912716 108.8137 -4.400005
10.41538 106.9415 -3.750744
7.19026 105.8043 -6.073382
2.93283 104.9249 -7.087274
11.82406 103.9494 -3.285282
11.59395 71.35777 -1.7374
10.94661 71.61472 -2.401429
1.255585 72.97706 -3.870614
3.673891 70.01833 -3.551215
10.36968 76.31635 -3.433697
14.57112 85.35684 -0.7923105
13.48064 82.20235 -2.142762
11.34031 86.95932 -5.76479
14.60109 83.66519 -0.2894316
11.68666 125.6558 -0.3538696
3.608687 117.7452 -5.711088
12.41284 63.27817 -0.1782613
6.479117 92.43825 -9.817732
12.1702 98.12905 -3.130677
11.63052 93.01385 -5.531209
10.39257 96.68685 -6.769727
4.452901 85.55376 -7.640211
9.298477 112.7407 -1.773335
8.867536 106.8408 -4.92289
7.842258 108.4183 -4.583039
5.565415 107.7926 -5.412196
5.377051 101.6777 -8.56974
8.253683 100.9325 -7.702336
12.19628 103.8186 -2.608029
11.27265 68.59749 -1.827168
12.11257 68.12605 -1.002307
11.34959 66.93598 -1.598762
7.528584 69.12326 -3.486666
8.954551 76.15407 -3.970377
7.43091 71.37908 -3.705268
8.263216 77.06749 -4.354034
3.980225 77.11289 -4.523049
3.302242 116.0882 -4.867882
3.291107 118.1583 -5.747126
6.799312 130.1776 -8.15597
6.820348 132.5167 -8.899716
5.591972 130.8195 -8.559052
5.665861 129.9898 -8.077075
7.741814 132.0168 -8.634411
10.21591 135.0693 -8.239646
10.24874 129.014 -6.226945
11.95848 130.9651 -5.566711
12.22675 133.6679 -6.747228
3.301501 124.0796 -6.286819
12.49078 131.7147 -5.271591
7.233473 134.2697 -8.987673
11.4351 128.9369 -4.789251
8.847488 132.3072 -8.341951
10.4384 128.2154 -5.523227
6.15253 99.85775 -8.94198
7.595151 99.29007 -8.540309
6.913898 97.62722 -9.143887
9.70488 94.44823 -7.847123
12.57303 94.05934 -3.505974
11.5746 94.5634 -5.349366
12.04952 91.90584 -4.966987
9.00238 109.5781 -3.507371
10.75175 110.9486 -0.7265376
9.788232 111.1629 -1.936138
5.047145 108.0419 -5.339732
5.55966 111.7363 -4.432942
6.275371 101.3888 -8.417173
4.04791 101.2129 -8.858389
11.86521 104.8205 -2.751787
10.96231 67.00793 -1.90577
5.766561 72.30784 -3.774965
7.871993 71.69988 -3.669789
3.934502 70.72533 -3.632224
8.094141 73.64443 -3.839189
6.425087 73.39465 -3.910746
9.873293 77.19604 -3.868754
2.044961 112.6241 -3.976699
9.846211 135.4814 -8.434134
7.330958 100.3225 -8.386875
7.986586 96.74828 -8.861847
5.600701 94.98197 -9.864496
8.814006 95.30931 -8.525212
8.883294 96.11259 -8.377334
9.491077 93.52364 -8.157663
10.63584 92.42069 -7.010868
7.178502 92.51955 -9.615652
5.866504 107.8557 -5.344678
6.571926 110.2004 -4.067118
9.960051 101.6788 -6.027764
12.30569 102.5735 -2.431983
11.73474 99.96109 -3.772245
6.103138 133.674 -9.111286
7.592241 100.9708 -8.066674
9.879139 95.74704 -7.609709
8.082065 96.90974 -8.787225
10.65312 90.99253 -7.049151
7.389837 110.9293 -3.670721
11.0205 102.586 -4.697856
12.14341 89.65479 -4.975271
7.98686 91.60651 -9.235296
12.43773 90.33075 -4.503612
6.89459 88.78523 -9.15494
9.132369 89.47723 -8.329887
6.932697 87.51106 -8.590401
8.745513 91.88924 -8.820122
14.62861 88.7027 -0.8192104
5.222569 85.79793 -7.812284
13.01812 88.85726 -3.670661
9.797777 87.32964 -7.135488
13.75373 88.3773 -2.559632
11.85735 86.58237 -5.034049
14.35023 86.75245 -1.491848
9.099029 85.83611 -6.822177
9.564752 83.25037 -5.532193
13.50518 87.25211 -2.908445
11.71751 85.18153 -4.785189
8.945166 83.12989 -5.632515
13.02973 85.96503 -3.425077
12.40458 81.50996 -3.210967
9.259155 81.0528 -5.101723
12.73433 79.75161 -2.46679
10.82084 81.92454 -4.627824
5.030107 83.46521 -6.359859
11.02478 78.62598 -3.612362
9.915175 74.82951 -3.32808
9.371449 79.56792 -4.67279
7.513931 81.77579 -5.585093
4.377166 82.6966 -6.061464
7.371088 80.77856 -5.429196
6.818401 81.33141 -5.563799
13.41431 77.33098 -0.8992485
8.818914 79.59819 -4.84308
10.80593 81.02023 -4.410884
13.1768 77.31166 -1.257153
11.58489 74.87395 -2.375693
8.924138 77.19172 -4.207837
11.33665 143.6594 -7.019961
2.951228 62.25805 -2.596757
3.836833 66.25572 -3.145206
5.889364 63.72392 -2.791756
7.038772 135.9979 -9.142525
6.635551 138.409 -9.252503
5.200999 137.9797 -9.336637
6.363412 136.664 -9.222126
10.80607 119.7253 2.541504
9.735439 117.9693 0.05232891
10.22495 119.3124 -0.3038619
10.83615 122.5563 -0.5516273
11.48053 125.9047 -1.218701
3.151586 122.552 -4.972324
6.213744 121.2017 -4.074039
0.6703742 86.99473 -8.500005
3.011101 86.58658 -8.309313
3.870464 129.3342 -7.688561
4.284201 123.9673 -6.189687
4.186598 125.6755 -6.570474
5.138266 123.7772 -5.938111
11.04445 112.53 1.47051
14.03291 74.6806 1.00707
12.05429 128.628 0.5031235
10.7645 124.5411 -2.263211
8.444425 124.7215 -5.648456
11.50771 126.6505 -2.011258
9.891093 126.3836 -5.390096
10.97705 127.3194 -4.40062
10.01815 115.3495 -1.356726
9.710315 114.6716 -0.9532091
8.03252 119.8264 -3.26515
10.17101 117.0262 -1.103663
11.26573 100.7698 -4.609964
11.25493 66.33154 -1.604852
4.567067 68.97079 -3.42913
8.76855 70.7887 -3.39669
8.221152 68.27129 -3.281601
2.657409 118.578 -5.493126
4.608767 128.233 -7.090106
6.084567 127.2211 -6.636327
6.40414 76.06541 -4.287917
10.05617 74.66863 -3.23876
7.864785 75.24081 -4.03875
8.757504 72.9563 -3.613414
11.10607 75.92754 -2.880843
7.256713 100.5279 -8.364815
8.801625 98.63618 -7.956275
10.90997 100.1478 -5.244611
10.51263 101.9269 -5.360083
4.136029 112.6331 -3.776052
5.902474 112.9045 -3.868408
7.466972 112.7012 -3.976414
7.714642 112.6804 -3.555083
8.382267 113.1252 -2.773727
13.78527 85.20708 -2.237357
8.309221 85.1719 -6.930496
6.974298 76.84577 -4.441348
8.483477 77.83396 -4.481004
11.88348 142.9715 -7.286565
10.87723 142.8731 -7.827286
9.202379 143.8927 -7.606483
7.556009 144.9783 -6.916816
7.311392 144.1422 -8.208222
7.7053 139.2398 -9.188389
7.562372 136.9288 -9.085643
8.085885 138.7709 -9.033815
8.988297 141.0733 -9.056775
10.03389 139.1243 -8.640695
8.46652 137.16 -8.928085
4.650462 134.033 -9.151359
3.128817 135.4186 -9.153551
9.983786 120.3316 -0.6170413
9.959538 121.309 -2.362985
7.162858 117.5046 -2.565124
9.286215 120.9779 -3.738186
6.565698 114.1526 -3.053578
7.256964 115.2445 -3.336466
6.574845 120.2244 -4.093144
7.516365 119.5068 -3.769074
7.096934 121.0874 -3.862383
5.359741 119.8286 -4.183806
7.000791 122.7934 -4.393126
6.194308 117.3941 -3.491548
6.155199 118.4295 -4.516947
3.526877 119.6326 -4.269676
10.59371 122.472 -1.136926
10.05294 121.8565 -2.017607
11.23433 123.6027 -1.574505
7.342257 124.9774 -6.104811
10.85526 97.33381 -5.915453
8.479201 66.40105 -3.004517
5.515098 127.6653 -6.81683
6.128479 127.8017 -6.887154
7.980817 128.0309 -6.939148
6.426542 126.7297 -6.432026
6.324177 114.681 -3.150105
5.014215 115.2636 -3.564731
7.67596 115.7947 -3.479456
8.873793 114.9188 -2.377698
4.199046 143.7452 -9.795645
4.814694 141.0619 -10.11829
5.088 141.7825 -10.16082
7.61424 118.0644 -2.198614
5.705966 122.5564 -4.733106
3.200764 115.5475 -3.778966
5.628773 116.4212 -4.621279
9.116741 121.6828 -3.635385
10.19959 122.2274 -2.751496
7.017785 122.0668 -4.097502
8.280955 123.6083 -5.088787
9.328908 122.929 -4.159356
7.097381 123.7302 -5.042245
5.748642 143.7396 -9.27367
6.540736 63.33926 -2.738575
5.394603 64.62559 -2.925948
7.95679 66.15942 -3.09226
-5.514854 62.11052 -2.532756
-2.225563 87.17699 -8.601734
-1.188413 80.74158 -5.493806
-0.7604019 85.89469 -7.853398
-1.638313 85.59123 -7.674
-14.59382 140.4277 -7.309585
-2.621315 143.9841 -9.946298
-1.443425 96.67954 -9.775261
-0.6072692 99.25851 -9.336194
-5.774252 81.31123 -5.610905
-1.818716 61.39361 -2.497304
-0.895487 64.50458 -2.891314
-5.015554 60.32076 -2.401602
-1.312214 116.4387 -5.6622
-0.7267159 76.82168 -4.482057
-0.6400205 65.90486 -3.088623
-0.6738853 138.4209 -9.800383
-2.558547 80.51837 -5.427784
-13.7035 75.23692 0.1160704
-1.289968 126.4171 -6.833799
-1.540943 72.5786 -3.826854
-2.166152 123.7943 -6.064093
-0.2831373 119.2072 -4.483551
-1.057682 141.8485 -11.28688
-12.32358 64.10883 -0.3239145
-1.873405 138.2987 -9.768435
-1.371283 130.1773 -8.402021
-15.143 92.08395 2.681976
-14.09616 74.6994 1.109651
-2.220688 142.6157 -10.87268
-0.5116671 109.6832 -4.86252
-12.62904 142.8004 -7.095053
-5.772308 144.6277 -8.198621
-13.00039 145.2491 -4.234624
-6.357677 124.5726 -5.54926
-3.766411 64.52084 -2.887886
-0.9204984 104.4257 -7.339305
-14.40224 68.85995 3.558616
-14.0292 60.8364 4.133463
-14.9612 78.40698 3.496296
-14.66821 73.89954 3.441041
-14.81001 78.94759 2.113771
-15.37612 86.56779 3.00332
-14.60593 84.38428 -0.4460269
-11.18649 60.69843 -1.142739
-13.91726 69.25934 1.679152
-14.17019 97.21687 2.811507
-3.734032 109.5298 -4.761023
-13.22058 79.72996 -1.834992
-13.37756 101.7485 2.549788
-11.98284 138.7829 -8.302238
-5.625751 90.71329 -9.821251
-7.567152 85.45464 -7.388128
-12.78555 106.7516 1.053582
-8.220619 144.4778 -7.637458
-13.8425 61.31979 2.513843
-0.9049848 86.50819 -8.218325
-14.30469 143.6465 -5.76451
-12.24967 144.9757 -5.213222
-9.779395 145.1882 -5.553236
-8.51192 106.7221 -5.151865
-13.39572 143.9362 -5.847715
-10.36973 116.7997 2.054292
-12.4895 108.076 1.549539
-11.80384 127.7487 1.747256
-0.6743467 118.4044 -5.428361
-12.8133 145.6184 -2.731632
-0.1426213 130.1261 -8.374564
-12.89911 130.8038 -1.103275
-11.66825 124.9405 0.9582521
-11.80848 110.6488 2.107939
-1.939617 63.47576 -2.740764
-3.622129 59.9419 -2.361057
-2.470835 62.56965 -2.6237
-5.292001 62.36686 -2.567163
-6.906695 75.25634 -4.072364
-13.58748 63.74763 1.620995
-10.31449 130.111 -6.81567
-11.60656 125.2852 1.794451
-11.39021 123.2512 2.612338
-14.01325 134.5654 -5.512478
-13.47675 60.04964 1.4734
-14.21057 64.12206 4.302615
-14.06996 61.4903 3.551145
-2.584486 139.4092 -10.2457
-3.465295 142.4266 -10.64942
-6.529622 140.932 -10.05447
-9.296517 137.7435 -8.978969
-7.687255 144.2048 -8.053703
-6.229922 143.7916 -8.763268
-9.254266 142.4116 -8.637025
-1.478841 137.0591 -9.371767
-12.46511 135.7107 -7.52083
-13.53602 144.5762 -5.018964
-13.38593 144.9711 -4.342647
-10.94857 145.4645 -5.2054
-5.108963 89.91901 -9.796375
-0.6133701 93.35406 -9.992124
-15.39656 89.33614 2.946404
-14.78398 86.34762 -0.31753
-15.25992 87.97147 1.723527
-14.55862 91.01089 -0.417357
-13.9796 92.4192 -1.182876
-13.35617 97.57643 0.01282202
-1.612064 83.25365 -6.398031
-1.564006 74.77287 -4.10743
-15.15965 80.93327 4.03739
-14.75497 78.40929 2.074097
-14.76516 82.07126 0.6691961
-0.7820266 84.55522 -7.072731
-0.8527229 102.9329 -8.076275
-2.712065 101.0792 -8.863868
-12.63913 107.8136 2.855297
-12.75242 106.1549 0.2935622
-2.240041 113.1565 -4.068489
-2.343952 67.67731 -3.304776
-4.107749 64.24841 -2.84744
-7.613701 60.51886 -2.448512
-2.802197 74.42423 -4.050035
-2.693673 76.4818 -4.405123
-1.980079 70.84738 -3.635227
-14.82725 76.17787 3.970352
-13.79915 133.333 -3.680737
-13.16998 131.3896 -2.889676
-5.276739 128.6222 -7.279518
-1.672597 129.7983 -8.118711
-11.5988 126.5193 2.582216
-10.94672 121.1259 2.503659
-0.3494361 117.2776 -5.954085
-2.170846 121.8963 -5.219395
-11.19866 114.0391 1.51969
-11.17845 122.1204 3.276323
-14.61358 136.7326 -6.828033
-12.94224 132.2364 -4.929253
-12.95215 134.7521 -6.733884
-0.7324749 131.2134 -8.983183
-10.97377 60.27874 -1.287736
-14.12496 65.41354 3.128096
-14.10143 62.05643 4.345497
-2.026689 139.5547 -10.33675
-5.010713 138.3698 -9.634562
-14.57179 138.3884 -7.380675
-6.902464 143.2148 -9.012536
-8.900679 142.8034 -8.577629
-7.208903 136.5994 -9.157245
-11.27091 139.1064 -8.551311
-10.53912 145.0804 -5.876537
-3.436758 88.44299 -9.293587
-2.138268 92.52522 -10.00568
-2.653903 94.10683 -10.01152
-4.717123 95.45564 -9.943656
-15.29919 89.68047 2.31703
-14.10082 91.03825 -1.440645
-14.32163 95.00214 1.454899
-14.28336 95.16734 1.442613
-13.42119 101.624 2.925459
-2.148867 83.9671 -6.740394
-3.750559 83.01318 -6.226274
-2.216841 82.82221 -6.211894
-2.283037 77.9846 -4.739772
-15.12996 80.78372 3.616115
-14.16274 81.48342 -0.8175769
-14.59709 85.06165 -0.6356274
-2.297465 103.0797 -8.019708
-4.677195 108.4622 -5.170148
-2.628588 102.1959 -8.425818
-1.905304 109.9063 -4.724306
-12.2596 106.2532 -1.086946
-12.10073 109.8127 2.529084
-2.140101 110.5525 -4.541294
-3.592912 63.15631 -2.688508
-3.357397 64.5686 -2.895872
-2.123267 72.86752 -3.860038
-1.548713 70.4518 -3.593244
-14.02606 75.55125 0.7836912
-14.49991 69.75546 4.367348
-12.741 130.2412 -1.488562
-1.771664 124.4033 -6.52889
-11.62414 125.8384 1.247668
-11.694 124.3278 0.439085
-1.283891 117.1821 -5.921626
-2.498543 119.4437 -4.274486
-11.49402 115.0841 2.062837
-0.4993442 131.5635 -9.083655
-14.36813 67.33097 4.50456
-13.50274 64.84765 1.378485
-8.403392 138.0843 -9.203097
-3.295708 137.8716 -9.588626
-4.316529 137.1545 -9.355527
-1.601143 134.836 -9.131039
-10.317 138.2032 -8.788856
-10.9823 139.9498 -8.656322
-3.335422 86.548 -8.263733
-3.37834 90.83984 -9.884898
-2.779209 92.08173 -10.0082
-5.840512 91.25584 -9.897319
-5.091793 93.43736 -10.03956
-5.051869 96.44363 -9.809131
-4.340328 95.92117 -9.891752
-4.328804 96.81396 -9.775231
-2.744188 99.62107 -9.29283
-8.34023 91.55121 -9.018839
-13.72079 87.83285 -2.589465
-14.41714 94.07487 1.100412
-12.7025 100.6692 -1.435683
-12.22598 99.60502 -2.738141
-12.27269 97.27587 -3.078699
-13.5706 96.70501 0.1713965
-12.09961 95.32703 -4.101277
-11.90366 98.08852 -3.756764
-4.571824 83.35571 -6.325624
-4.026288 84.466 -6.940223
-5.21711 81.47382 -5.659799
-2.442636 78.65575 -4.910648
-14.74429 82.45244 0.4742384
-15.01137 81.37105 2.002146
-14.12003 79.5612 -0.2814056
-13.71333 78.80187 -0.8169785
-11.46856 78.15802 -3.185543
-14.50045 86.44162 -0.9469399
-13.60306 82.9109 -2.073039
-4.499075 106.4863 -6.173048
-2.069007 106.6142 -6.193709
-0.8293611 100.1154 -9.129731
-5.456878 102.6766 -8.146211
-12.53095 107.4568 0.7273461
-11.47416 106.176 -2.821942
-13.2096 103.7312 1.539627
-12.74558 103.8426 -1.207908
-2.416383 109.6819 -4.778386
-3.148192 113.7045 -4.166968
-8.162715 62.55931 -2.530937
-13.78262 72.75686 0.8297545
-10.68533 77.43517 -3.510922
-13.18738 72.88915 -0.2205409
-14.5669 70.41908 4.891814
-13.7532 70.54176 1.252693
-13.13528 133.5101 -5.642464
-12.64151 133.1911 -6.067102
-8.170779 129.2423 -7.432577
-12.02247 131.4721 -5.846426
-12.03176 128.997 1.555368
-0.9068137 123.6606 -6.217856
-10.78179 121.8337 0.4721327
-1.841964 114.4266 -3.50718
-2.974672 120.9045 -4.574199
-10.96066 113.0808 1.904008
-4.543385 130.6505 -8.616081
-14.02424 68.01598 2.241832
-14.16824 68.06509 2.749332
-4.372507 133.7442 -9.107758
-4.851377 131.8416 -8.982213
-9.182243 135.0574 -8.652693
-5.804662 88.93645 -9.485891
-7.188118 91.09173 -9.510887
-6.737622 92.34859 -9.740948
-13.49734 93.49522 -1.817723
-3.965885 97.7811 -9.689759
-13.25479 100.9217 0.7371389
-13.84131 96.36246 0.8210556
-11.61545 80.61906 -3.691855
-11.01075 80.63257 -4.165287
-12.76199 83.19563 -3.161742
-7.160024 81.5472 -5.610225
-3.29257 76.02685 -4.306581
-5.884837 80.61654 -5.442681
-9.609733 81.64088 -5.07365
-9.990597 79.33572 -4.367008
-9.742684 78.35855 -4.169082
-11.51784 75.13887 -2.452794
-11.20892 77.2328 -3.121729
-14.8859 86.86664 -0.03650409
-3.663324 104.5442 -7.295735
-4.12506 100.6385 -9.055772
-5.544641 97.75186 -9.538404
-6.146435 101.9367 -8.340403
-12.18558 104.6635 -2.363674
-12.95007 102.6366 -0.432147
-12.99054 103.8978 -0.09664937
-5.167575 110.0141 -4.466341
-11.01722 110.142 -0.8947803
-2.57835 110.1169 -4.665052
-2.987525 113.1268 -4.238749
-7.866293 62.6769 -2.575642
-13.17824 77.85683 -1.396207
-12.86424 77.25579 -1.62207
-11.04557 73.17478 -2.510379
-14.5667 71.35172 4.478458
-10.95757 122.6169 0.1536585
-11.06209 123.1792 -2.667625
-10.76778 122.3347 -0.2481354
-9.67503 121.5794 -1.778467
-8.786757 120.237 -2.283205
-3.741627 116.9266 -5.691177
-3.115139 119.5446 -4.185395
-12.79893 67.65271 -0.06945995
-10.0128 142.657 -8.245491
-8.125894 142.4604 -9.025503
-5.419952 134.2175 -9.088425
-9.069242 135.4976 -8.759373
-9.37839 134.4911 -8.454204
-9.254504 137.0557 -8.923446
-6.841937 129.5164 -7.847952
-5.951099 87.40962 -8.710455
-6.275735 86.28303 -8.062908
-10.05441 93.29894 -7.562284
-12.24137 96.48791 -3.378267
-12.71152 93.51195 -3.450085
-12.99686 84.47993 -3.237713
-5.914315 79.25976 -5.06595
-6.171153 77.90367 -4.68223
-6.398118 79.29996 -5.080483
-11.25969 84.64017 -4.945259
-14.84229 87.64633 -0.2448679
-13.89214 86.85825 -2.291282
-11.95512 85.50713 -4.635386
-4.760635 104.1651 -7.466253
-12.49475 100.1737 -2.022013
-11.78358 107.6893 -1.362813
-10.56435 107.324 -3.389294
-10.46298 109.7877 -2.035022
-10.14544 108.2254 -3.29077
-12.12247 106.8551 -1.00572
-4.747628 112.9678 -4.142448
-8.290852 65.21136 -2.894706
-9.198251 64.62932 -2.561681
-14.65361 75.93913 2.690104
-13.68157 74.74718 0.1659778
-13.72281 67.91929 1.464446
-12.09896 128.5257 0.670838
-3.918497 121.4259 -4.935503
-11.58511 66.24784 -1.262912
-12.02921 133.9734 -7.068951
-9.329376 139.1335 -9.158769
-6.229174 86.87012 -8.383091
-8.921287 96.65869 -8.221416
-11.99815 92.76978 -4.920805
-12.97078 94.04628 -2.685852
-11.63186 94.22009 -5.266878
-12.61975 92.17433 -3.954868
-6.203664 73.39231 -3.924923
-8.844215 83.64539 -5.838604
-6.79087 107.8724 -5.166315
-10.80252 107.9794 -2.634927
-7.403755 64.04103 -2.816997
-11.64114 63.36302 -1.022748
-10.93122 62.99628 -1.499576
-11.73247 63.97736 -0.9694198
-13.70097 69.43177 1.210491
-4.026754 116.0276 -3.825916
-5.173732 118.6637 -5.540459
-3.606584 122.9134 -5.285596
-11.90858 67.29117 -1.112048
-12.35111 67.33037 -0.6312153
-7.931377 96.27653 -8.998863
-10.72937 96.72728 -6.255637
-6.261922 98.34872 -9.271909
-9.870032 98.20164 -6.998473
-11.15968 92.72608 -6.263481
-10.82856 92.21808 -6.754613
-4.110039 75.4183 -4.179985
-10.34715 83.10796 -5.156411
-10.82412 89.36897 -6.682029
-13.32621 85.33542 -2.943054
-10.13631 82.71464 -5.187238
-7.498066 85.90034 -7.63211
-8.090286 86.291 -7.554251
-9.794629 84.46311 -5.877806
-7.363773 111.5163 -3.445181
-8.39854 110.2567 -3.516017
-4.455616 110.0263 -4.547925
-5.990022 105.0859 -6.774366
-5.458812 107.3628 -5.627151
-5.604203 115.3555 -3.397533
-5.73028 119.2582 -5.105681
-4.98181 120.2974 -4.279866
-3.774181 128.3684 -7.119435
-11.45148 94.9707 -5.39752
-11.07102 95.51488 -5.964947
-10.98037 97.87341 -5.587834
-12.1264 101.4287 -2.847709
-10.22915 100.8321 -6.015904
-10.26493 97.86401 -6.644766
-7.191926 97.25476 -9.140759
-7.961159 92.85189 -9.295744
-8.294995 90.3476 -8.939524
-10.03867 90.16405 -7.675178
-10.01223 91.07525 -7.72455
-7.347167 83.23532 -6.010782
-4.052003 111.5377 -4.347756
-4.016327 110.987 -4.382205
-7.081726 106.6737 -5.672532
-11.15305 105.3926 -3.65476
-9.452837 105.1406 -5.243508
-8.913038 103.707 -6.189997
-11.23786 103.3494 -4.238835
-5.543475 123.8065 -5.267153
-4.72588 65.61869 -3.04709
-6.782684 65.026 -2.951022
-11.29792 102.7158 -4.2739
-7.473439 103.1316 -7.332796
-9.85114 92.47578 -7.831423
-10.25333 87.43324 -6.813539
-7.363325 82.81534 -5.874515
-9.676364 111.2863 -2.058579
-6.017236 114.5894 -3.596888
-10.39221 104.5763 -4.760806
-8.780277 102.0884 -6.906102
-6.90642 123.5117 -4.746791
-8.904861 124.6379 -4.862292
-5.546851 68.81622 -3.419006
-7.437737 66.61837 -3.209966
-8.069208 101.4332 -7.668172
-6.804441 102.2797 -7.959835
-9.87014 86.4518 -6.670409
-13.60834 88.33598 -2.826921
-11.65348 86.65731 -5.245607
-4.963706 114.9336 -3.730358
-7.067781 118.1777 -4.168531
-6.849421 69.4491 -3.476322
-9.193565 66.44221 -2.800317
-12.32486 88.53629 -4.605677
-7.831915 69.51508 -3.504246
-6.586549 67.0928 -3.256185
-10.97988 100.7903 -5.100728
-8.345852 68.16582 -3.266529
-4.826238 71.42342 -3.69749
-4.969042 72.56711 -3.823673
-5.190717 74.31005 -4.009681
-6.562141 72.15146 -3.772226
-7.338442 67.26579 -3.275908
