# .PCD v0.7 - Point Cloud Data file format
VERSION 0.7
FIELDS x y z
SIZE 4 4 4
TYPE F F F
COUNT 1 1 1
WIDTH 1666
HEIGHT 1
VIEWPOINT 0 0 0 1 0 0 0
POINTS 1666
DATA ascii
14.94507 133.0851 7.165361
11.37976 138.2578 9.185954
0.09405874 136.3604 12.16912
4.444068 136.5258 12.29509
-6.065483 134.0019 13.69822
-11.74464 135.9805 11.46526
-10.77541 138.5999 9.271605
-8.34987 136.907 12.28236
13.35893 130.9903 10.76316
13.04199 134.7109 10.90993
10.97683 136.0231 12.03205
8.534804 137.9338 11.24532
9.364572 139.2916 9.249283
8.468986 136.4271 12.6616
12.30812 134.8612 11.6718
5.585036 138.336 10.93247
14.55025 132.2687 8.849373
-14.62188 132.0924 8.556482
6.852368 139.3895 9.810925
-6.797141 138.3874 10.92719
-11.19334 132.2627 13.029
-5.507457 134.103 13.5694
-8.498888 137.1063 12.07902
-15.02592 133.9664 5.605614
-13.52642 127.0159 5.281701
3.186629 142.7506 7.159951
-14.13547 129.842 5.635256
-10.14437 145.752 2.782098
-14.69679 131.8056 4.095202
-2.399067 141.613 8.098238
13.59464 136.981 7.746594
-10.09693 145.1393 3.325161
14.86812 132.6748 4.337929
2.388436 141.3894 8.283998
6.012477 143.9014 5.77815
-0.5010066 141.2644 8.419493
9.797411 146.3456 2.333362
9.90415 149.9074 -0.7332002
5.949745 151.6039 -0.966106
-6.035014 152.3208 -1.649038
3.987844 150.8435 1.068893
2.279733 150.1913 2.215031
-8.140416 146.8807 2.545524
0.6154174 142.7613 7.281658
-6.886045 146.5706 3.357142
1.165973 142.1347 7.741651
8.919757 148.1238 1.151672
-6.724294 151.5073 -1.501054
5.449356 144.4291 5.500801
-4.278088 145.07 5.321235
8.843619 149.9222 -0.356306
-3.206493 143.3752 6.680273
8.106024 148.0813 1.577376
-4.165376 143.8442 6.212917
5.731922 146.827 3.634013
-5.697878 148.8755 2.259825
7.855598 150.6324 -0.8781684
-2.377845 142.9708 7.054637
4.244624 145.7561 4.852061
-2.018074 146.2344 4.891979
-6.480021 146.3443 3.708447
6.890878 149.4774 1.19524
-6.17932 151.4991 -1.104164
6.088656 149.7614 1.321549
2.72006 147.5512 4.05081
-3.150785 145.7284 5.070138
-5.204426 145.7152 4.616138
1.165234 149.6742 2.941069
-2.131582 149.7324 2.445135
-7.245263 150.1246 0.2483803
-1.835899 144.9576 5.705626
-2.820216 148.0736 3.773047
0.1169769 147.0247 4.423759
-3.153505 148.7454 3.232309
-0.7427552 145.3712 5.48384
-9.909923 149.6032 -0.4199694
-9.058996 130.5371 -9.387551
-14.25673 130.4754 0.1639083
0.7470084 129.6595 -10.03606
3.181055 134.417 -11.66728
5.665124 132.3562 -11.12826
-8.171144 130.6207 -9.792691
2.746486 142.3574 -12.22945
8.880225 128.9027 -8.676696
-0.6535733 140.3885 -12.00466
3.677576 136.8211 -12.26439
-9.766131 130.1951 -8.827402
-0.4025706 140.058 -11.99658
-3.088572 138.7995 -12.4016
-5.712365 132.2686 -11.09309
-1.865334 138.0182 -12.05469
-1.687176 140.4655 -12.08971
-1.420234 136.9872 -11.92779
-6.48033 130.3501 -10.15875
-1.967256 136.3263 -11.91267
6.407592 152.2139 -8.755485
-7.649595 152.8737 -6.933195
1.750598 138.9877 -12.08199
-14.02044 130.3892 -1.657068
-7.012639 129.4637 -9.623814
-1.582368 133.1472 -11.25915
-5.15934 129.8971 -10.11183
-0.793621 130.3958 -10.328
14.14434 130.1738 -0.4856251
12.77592 130.4206 -6.250701
1.429258 150.9715 -10.34465
-8.057093 152.5243 -7.32492
-0.006464649 129.3757 -9.92649
2.491882 140.4427 -12.26282
4.087703 129.6523 -10.02196
0.1192557 132.1699 -10.95863
11.14296 130.8696 -8.337824
-12.33694 129.6542 -6.263913
1.206644 142.8086 -11.94531
0.6674649 141.9641 -11.95196
-2.327079 129.2403 -9.872818
13.10786 131.0525 -6.240168
2.002649 151.1872 -10.27175
-3.280872 146.1731 -11.92561
-6.373477 153.1219 -7.823711
2.579839 145.056 -11.94272
5.855956 131.1812 -10.65412
11.40065 131.1397 -8.297774
-2.793614 144.0154 -12.09431
0.3609404 149.853 -10.71038
-0.4234035 151.5461 -10.15235
-5.859582 149.7449 -10.84943
-2.969784 152.1896 -9.867635
-0.863833 132.1093 -10.94409
2.939163 132.8808 -11.23152
0.264332 147.5516 -11.31548
-1.627582 147.4516 -11.43311
3.022883 135.8362 -11.95867
1.249596 135.1024 -11.67549
-5.508725 133.8437 -11.63422
0.8137404 146.8495 -11.47426
-14.08096 131.2015 -3.546848
-12.35928 131.6044 -7.757385
-9.343601 132.8529 -10.40211
-14.35745 131.6956 -1.842248
-8.735614 152.2576 -7.348693
-7.938624 151.5532 -8.824802
3.610224 152.916 -9.389991
7.807037 153.0142 -4.948025
1.155344 151.8777 -10.03954
-6.755857 153.8543 -5.949271
6.89039 151.742 -9.062405
4.642516 137.1876 -12.51417
8.674855 152.588 -5.531585
3.105501 144.2643 -12.1501
6.84665 151.4616 -9.34724
6.297499 150.4767 -10.26444
7.248952 128.3268 -9.023842
13.48778 129.3928 -3.442655
14.23909 130.1545 0.80551
-4.091531 128.7145 -9.671774
-11.91116 129.0321 -6.485602
12.89515 125.9444 6.750422
12.77026 125.1438 7.012706
-7.371316 127.4222 11.60527
5.522147 125.6157 11.96262
-13.00972 125.0413 6.417922
-9.454206 127.2277 10.86983
6.583472 126.9447 11.49031
13.50142 126.1239 5.120245
-10.05833 127.0556 10.35122
-11.96346 125.914 8.132987
10.02468 127.1856 10.54903
-8.953967 126.5691 10.49756
-9.59238 125.57 10.09682
1.130093 125.0214 12.35844
10.62039 124.5896 9.477891
10.13704 124.9045 9.824862
-5.618789 125.7081 11.92017
-3.6894 126.9951 12.15148
2.276347 127.0427 12.28527
8.976289 125.4076 10.50207
-12.67279 124.6441 -0.9767422
8.14701 122.5911 -5.676869
-2.822198 124.3729 -8.033896
4.756194 122.8868 -7.245505
-13.64473 125.6379 2.907245
-13.69499 126.0987 3.758687
-13.22279 125.0952 0.5345539
13.37527 124.2961 2.607088
5.479333 122.9158 -7.058962
-4.350582 122.6513 -7.243564
-12.24271 123.5515 -1.117876
-12.04198 124.5595 -2.399273
10.89538 123.5855 -3.656409
5.922997 123.5851 -7.189202
0.01741015 123.455 -7.705403
-10.12268 122.8374 -4.152749
-5.478152 124.31 -7.610944
1.44104 123.8089 -7.842426
-12.62737 115.2732 3.91682
12.15793 119.6748 6.891074
-12.89355 121.2034 3.991396
-11.4784 121.7955 8.449513
12.51562 115.8707 4.031909
-12.53507 115.8026 3.480621
-11.74245 114.7671 6.950301
12.52473 118.9249 5.163169
12.34956 116.2312 5.137336
12.84176 120.9715 3.641865
12.79452 121.0635 5.377892
-12.44305 119.0972 5.81812
-11.1742 121.7432 8.826782
12.64362 122.2725 6.536016
12.52718 115.2823 4.631625
11.83815 117.6599 6.956997
-1.928393 115.369 11.92496
11.29541 123.8635 8.84882
12.60091 121.7646 6.447816
-12.27048 116.5615 5.511767
-7.657973 123.3316 11.39522
-7.433878 113.5651 10.44042
8.778184 122.1545 10.80015
-10.62809 116.1425 8.355242
-7.257063 123.7442 11.54879
-4.259094 113.9092 11.74997
8.736435 113.6885 9.745371
6.004633 113.2396 11.23906
11.32211 122.9025 8.789673
-11.25197 116.1782 7.683848
-7.600303 123.877 11.39407
-1.95206 115.7935 11.92671
1.090066 115.5879 11.92864
-3.340066 116.0196 11.88152
2.142413 115.7595 11.92824
-0.9077144 123.5806 12.264
10.07062 122.8962 9.938294
5.764623 121.9641 11.85919
6.011827 113.7689 11.1583
-6.817278 122.7149 11.70583
2.989981 114.9276 11.89529
2.255943 116.1701 11.92829
3.650447 124.5448 12.31836
7.497991 118.9873 10.83874
5.560207 114.1269 11.34779
-7.212511 115.4371 10.53433
9.257574 113.957 9.415242
1.932112 120.0958 11.99837
-6.785359 119.2539 11.11466
-9.14044 120.211 10.32947
-7.606956 116.1555 10.37918
1.893562 119.3413 11.95797
-3.012939 120.8865 12.03716
9.701701 116.1476 9.235356
-9.407457 117.7496 9.694358
0.6262358 123.237 12.23258
10.93797 118.6456 8.544258
7.695796 117.6598 10.5155
8.224398 120.2239 10.82805
3.031916 119.294 11.92619
-11.63373 118.1471 7.477962
-10.56444 117.0182 8.78532
-9.593996 118.1678 9.660352
-9.572233 118.5685 9.729741
2.877086 118.6461 11.91362
-5.764413 118.4664 11.31723
-5.587796 119.8513 11.53848
10.1206 121.8671 9.833965
7.913951 119.8724 10.87903
-9.263651 118.1903 9.87312
12.99327 114.8389 1.757801
-12.18942 117.3195 1.684127
12.91714 122.2832 2.492493
7.777816 122.3014 -5.707801
-3.666996 114.9155 -5.86628
12.22192 117.6208 1.811398
-13.08052 122.5838 3.406038
-12.8677 121.0639 3.758976
12.3297 118.0577 2.465741
12.69849 120.6276 2.952228
10.41466 119.6651 -2.383996
11.79994 119.1472 0.3172432
11.65403 121.7265 -1.026902
12.02479 120.8437 0.3059914
12.57972 116.4682 1.314502
10.75582 115.201 -2.879785
-11.60888 122.8655 -1.839134
-12.6848 121.3712 2.231646
12.51902 116.3935 0.6497109
11.81378 122.3497 -1.080331
7.438003 115.0608 -4.826035
-10.00297 121.4336 -3.482089
-12.18691 118.096 1.714259
11.01003 115.8095 -2.251557
0.03297417 114.9234 -6.207986
-9.833182 115.9292 -3.432563
-11.74102 120.2062 -0.1215353
-10.73272 119.1717 -1.840524
-10.53103 116.6478 -2.350344
9.189941 116.3417 -4.22657
0.1847451 115.3151 -6.505724
2.364893 115.5515 -5.816666
-2.060822 115.6023 -5.748233
-5.518901 115.7107 -5.40517
-10.06314 115.1674 -3.247568
-8.668943 120.6173 -4.413649
-3.306953 114.9848 -5.99579
7.184937 115.9591 -5.552698
4.923565 119.6667 -6.0371
1.168564 121.6566 -6.925621
-9.280148 115.6441 -3.935624
-7.864111 116.5125 -5.116948
-11.68786 116.1312 -0.6632338
-3.052751 115.8101 -5.844073
-6.05192 119.9573 -5.70522
-10.18493 116.4075 -3.03953
9.7261 120.7752 -3.512138
10.16243 118.7241 -2.588189
-4.700854 118.0069 -5.753278
3.506213 119.5797 -6.344116
-10.4126 116.7531 -2.473575
8.582929 118.1898 -3.994754
-10.59597 117.0251 -2.864447
-10.59909 116.9761 -2.182172
-7.014127 117.3654 -4.769426
-1.251392 117.5924 -6.021739
-6.752759 118.7863 -5.409125
10.49655 117.3824 -2.216619
10.92651 117.8946 -1.531191
7.754859 117.0228 -4.435082
-3.363179 117.2547 -5.93025
4.107075 117.6123 -5.848346
4.349345 117.8984 -5.826901
-10.94479 120.8622 -1.917587
-3.944909 116.3295 -5.736043
4.428361 118.7409 -5.96953
-5.284541 111.6452 11.68658
-9.396938 112.0801 9.562378
-7.690229 113.2619 10.34353
12.92713 114.3125 3.710839
6.367563 112.3206 11.06784
9.758422 113.4957 9.167562
-0.1875677 111.5337 12.03629
7.929472 112.4037 10.26805
13.15487 113.6042 3.54049
11.27837 114.6162 -2.234718
6.374372 113.5528 -5.374199
0.09730658 113.5572 -5.889424
-8.840439 114.1295 -4.356445
-1.930704 114.7439 -5.967435
-11.89011 115.0323 -1.059412
4.664651 113.8215 -5.696815
-5.363969 114.4016 -5.468764
-12.09754 114.8813 -0.7358076
-16.88336 102.641 2.020581
-9.492656 100.7882 9.673625
15.54086 107.1757 4.106311
-13.30427 112.4161 4.89164
-16.95134 102.0025 0.6989803
-15.62407 107.5695 2.426661
14.03672 111.0308 4.160591
-13.89123 111.774 3.048858
-13.93708 111.3111 4.092316
16.49035 104.3945 2.522309
13.81414 111.7789 3.683852
-14.91521 109.4874 2.258544
-15.12325 107.6475 4.945444
-14.4257 108.4672 5.878496
0.3875035 99.96638 11.97886
-16.99803 101.1568 3.521817
17.00468 101.851 2.552133
16.35927 103.9109 4.287332
-13.47349 108.0594 7.690748
8.221631 108.2663 10.93624
9.370873 111.1845 9.861813
-16.44737 104.3749 3.2048
-14.88826 107.2435 5.881718
-15.64066 104.716 5.779088
14.25388 110.202 4.607993
13.88463 109.3881 6.276398
12.63095 111.2988 7.092109
12.1375 108.8446 8.738919
9.402255 111.8189 9.611977
7.249231 110.1102 11.06585
-12.24761 109.2692 8.494119
-9.56908 111.4925 9.585757
-15.11586 101.6703 7.114652
5.314867 100.4422 10.64563
12.64533 107.2076 8.763012
6.890331 109.3562 11.20934
-13.06592 108.0895 8.156589
-11.66243 108.5827 9.159998
-4.781959 111.3188 11.86251
-16.23239 103.0726 5.132591
14.85805 101.8171 7.378555
-14.15112 103.5007 7.96042
10.79221 111.4171 8.865767
-2.85942 100.0283 11.68071
-3.242219 100.7591 11.2161
2.273528 99.93826 11.60483
-13.56155 101.9122 8.370821
-10.16832 100.9166 10.30891
11.30979 100.9046 9.896813
-13.49711 105.1031 8.420734
-10.66223 108.0207 9.823225
5.03073 110.8053 11.90413
-9.537481 108.609 10.20302
-0.1008904 100.0369 12.03757
1.156056 101.6059 11.73063
-1.649193 109.1791 12.45279
-3.695529 109.8965 12.23967
-14.12331 102.4116 7.98526
-6.589987 100.7188 10.34732
13.23625 103.4819 8.629413
4.629336 109.7765 12.08467
-3.621989 109.2192 12.31743
6.616842 101.4484 10.44454
12.14954 103.1559 9.147448
6.732005 101.2705 10.36632
15.61191 104.4946 5.910092
-8.914608 106.1161 10.52804
-3.774699 109.4116 12.27353
15.79875 103.7353 5.844737
5.124261 107.5918 12.06078
9.297199 107.1739 10.39327
2.316314 107.4006 12.46284
4.903915 106.467 12.06918
1.538897 106.2116 12.49189
9.212105 104.3901 10.18883
10.76648 106.3475 9.84701
-12.9272 106.6357 8.637245
-9.695579 104.0731 10.18161
-7.224393 103.5773 10.932
-4.909613 105.1478 11.87067
-0.8236137 103.0201 12.09422
-4.060036 101.9252 11.39741
-5.209485 103.3575 11.45146
1.843678 103.4968 12.13931
-2.464453 105.0955 12.32646
4.336634 100.3482 10.87546
4.022112 102.8393 11.65235
-3.739802 106.6905 12.36992
-2.801892 107.119 12.46472
-1.460173 107.5499 12.41989
-5.441283 105.9375 11.82248
-5.676149 108.1084 11.86241
-5.754424 106.8306 11.85384
10.04816 103.4309 10.01374
13.43668 104.1679 8.511209
14.77532 106.2195 6.727019
15.25953 102.5517 -4.148381
14.80715 109.4659 0.5728316
7.195448 104.5878 -9.4719
13.56323 112.4366 1.261483
-13.66278 112.3147 1.719427
-8.635661 104.1955 -9.288183
-15.91764 103.3567 -2.173127
-15.5076 107.2695 0.4345543
16.6215 101.7558 -1.356698
16.14734 105.6934 1.471795
-15.16647 105.4725 -2.34115
-15.16694 106.5377 -1.487393
14.55707 109.7603 -0.7230922
14.53815 108.8644 -1.22395
14.55883 103.2594 -4.924948
16.0608 101.7576 -2.93519
-16.49587 101.6351 -1.852094
-15.46152 104.7006 -2.239421
-1.528702 104.0181 -9.842566
-12.03589 105.1796 -6.729953
-13.29874 112.1364 -0.5617443
-13.79354 110.9617 -1.304205
15.82998 103.4456 -2.320558
13.05401 112.4756 -0.8037988
0.3579254 106.5779 -8.801268
9.550803 104.8064 -8.547154
-11.75296 113.2909 -2.39764
-14.26952 110.576 -1.341713
-14.03341 108.6442 -2.461043
3.095618 113.1198 -5.977305
10.62866 104.6456 -8.044378
-13.23797 103.0222 -6.715109
-6.530147 112.5552 -5.605306
-5.295517 104.322 -9.803227
-12.65369 111.2891 -2.794633
14.34638 105.1423 -4.087053
8.550285 112.2427 -5.16713
-0.5652989 113.1611 -5.912137
10.01576 103.8186 -8.855041
6.131896 107.309 -7.84157
-9.868852 111.7825 -4.837564
-3.047463 112.7122 -6.053768
-8.863121 105.2618 -8.5653
-14.38889 107.9349 -2.249564
-13.06814 107.7137 -4.357995
10.11997 111.9629 -4.58287
-0.6338747 106.0913 -9.360124
0.4421504 112.3 -6.321881
12.52068 105.6573 -6.038765
-8.836253 111.9726 -5.842353
-12.62246 104.0897 -6.80266
-14.28703 104.5283 -4.578587
8.540966 111.9321 -5.301213
14.49567 105.8533 -3.40622
-12.7181 111.2923 -3.886611
9.125597 111.5655 -5.994678
12.65793 110.8679 -3.056403
13.78377 106.0076 -4.401096
8.925109 109.7254 -6.10914
5.081873 111.0684 -7.19838
6.494811 106.5597 -8.307797
-8.452815 111.631 -6.477374
10.16138 108.3199 -6.30428
9.572549 109.9262 -5.836633
9.117037 108.9574 -6.396562
13.98417 108.9315 -2.36417
11.40979 108.6863 -5.38786
7.898099 107.2485 -7.594039
5.441299 106.3962 -8.621077
3.060912 105.8569 -9.313346
-0.8489559 105.9015 -9.416643
2.164662 106.6435 -8.612551
-2.232518 106.2842 -9.136656
-2.692524 105.1488 -9.338129
1.21614 106.4507 -8.956646
0.46843 108.2829 -7.615722
0.414978 108.8711 -7.276177
6.150768 111.6146 -6.106587
-0.4914714 111.4821 -7.950523
-0.5221986 108.3957 -7.553014
-1.606984 108.5527 -7.470124
-2.715826 108.6847 -7.388953
-3.076102 110.5239 -6.697759
-4.720987 111.8672 -6.982515
-2.506272 111.103 -7.553307
-4.576755 109.7864 -6.771483
-7.052354 110.0051 -6.375773
-8.386408 108.6366 -6.727094
-5.785187 107.6186 -7.685776
-10.00885 108.4189 -6.321674
-13.18214 104.4267 -6.04036
-9.769163 107.1658 -7.086958
-11.45967 106.0919 -6.698601
-5.372369 106.605 -8.467265
12.39954 109.3114 -4.257341
-15.7392 14.38172 11.95006
-16.15283 22.57062 12.11125
-13.30636 41.37228 11.05823
13.40888 7.040773 8.356832
10.84208 6.436047 9.117624
-15.83086 6.439335 11.98545
-17.20044 99.74918 3.415129
-16.62076 57.55968 11.28798
-16.83128 66.96047 10.83694
-17.20924 97.92028 4.312982
10.83723 6.01411 9.133327
-17.64554 95.30706 4.819462
-14.43175 99.89402 7.900503
-9.059217 100.3749 10.62941
5.344358 2.438768 13.49785
8.552115 3.192095 10.67307
15.98874 45.38538 9.681493
15.56507 18.319 8.476626
15.71277 7.892961 8.168536
17.03937 40.89531 9.728641
14.86754 21.28127 8.52134
17.33517 7.041039 8.05617
-3.730954 99.74965 11.87893
13.97263 100.1263 8.16368
-15.17444 5.350531 11.51742
16.67721 61.85248 10.55109
-16.72514 100.2869 4.723334
-16.68232 98.18497 5.54693
17.33542 97.68754 4.047914
17.08951 99.09368 4.169996
-10.08041 35.02385 8.853462
16.07964 43.35556 9.611
-14.56529 53.46312 11.37277
-17.49971 80.6176 9.96443
-8.446693 99.70951 9.852791
-16.58724 97.08855 6.165621
-15.34379 100.6163 6.978532
8.143347 3.706657 10.98647
15.62433 10.31457 8.237961
15.15447 100.0636 7.23694
15.63766 96.62555 7.556743
-16.16324 5.67265 12.19404
-13.49808 32.03265 11.00152
-8.052123 4.646192 5.841444
-3.886242 1.245579 5.737146
-11.585 43.11916 10.32069
-13.44077 63.19525 11.19223
-17.92046 76.61761 10.10055
0.2663679 99.84592 12.21615
-2.573094 99.52431 11.98621
-12.6685 100.034 8.805469
1.232199 4.045464 13.82933
10.64028 3.289518 9.342002
16.34475 89.72786 8.949589
15.28599 94.24388 8.531047
16.53207 100.1264 5.268928
16.43167 97.40958 6.301334
-11.38973 4.009661 8.39592
-16.3869 32.74717 12.02883
-15.83808 20.17511 11.97978
-5.741852 6.553934 5.329716
-1.779911 0.9759988 8.844066
15.24766 42.35917 9.35046
-16.04748 35.15883 11.88652
15.35508 65.48676 10.38167
-17.48623 53.04703 11.48214
16.53429 71.82328 10.69278
-16.64242 72.91817 10.56789
-17.75317 83.95081 9.614661
5.162532 99.8364 11.69447
3.713363 99.07269 10.61936
-16.38753 92.05756 8.269887
-16.9805 95.3389 6.291793
-8.903583 100.3035 10.64277
-2.640497 98.471 10.55731
-17.43236 96.40942 4.615611
-14.39249 98.16978 8.210695
16.99389 17.1596 8.490292
7.917621 3.754402 11.18167
13.96113 13.48759 8.353487
17.86359 88.76507 8.119303
13.7566 95.38847 9.056225
13.74514 98.22472 8.559872
14.67976 97.34637 8.183165
-12.01747 5.378689 9.037948
-11.44952 5.482364 8.534313
-14.44627 28.89341 11.37423
-16.59836 20.7616 12.34439
-5.214775 4.120083 5.287224
-1.713717 3.626107 9.047636
16.87765 38.34486 9.555776
16.30541 44.0155 9.701399
-17.04572 46.4467 11.75752
14.68824 53.28916 9.677731
15.49354 49.3511 9.727322
16.39776 65.13332 10.57975
-15.63935 58.20483 11.3017
-15.41188 49.6781 11.50075
16.4333 76.58325 10.6557
17.46572 77.27502 10.63284
-16.94413 75.20564 10.39126
-15.7073 81.35715 10.30371
-17.6726 67.52998 10.67631
-15.9117 90.01221 9.173704
17.13043 86.91447 9.333092
3.059896 98.72071 10.56449
-12.16398 100.4513 9.085777
5.714587 1.667845 13.2858
15.1807 21.82226 8.559775
9.519966 5.640196 9.854796
9.243989 2.967595 10.166
16.14915 94.7563 7.628159
10.78675 100.1196 9.467603
12.38432 97.38338 9.097398
-11.5006 6.158996 8.615927
-15.19851 30.09754 11.67378
-15.4143 27.18208 11.76163
-15.21308 10.14665 11.61035
-9.374056 7.053923 6.818846
14.84969 32.64845 8.859927
15.33793 38.93028 9.223243
15.28795 45.25569 9.486928
-16.81578 45.76638 11.75689
-16.90203 37.28285 12.04624
15.21514 52.73601 9.804219
15.77855 49.99371 9.837268
12.60599 50.4222 8.992833
15.68251 60.47316 10.26831
16.75077 64.51859 10.63256
14.10874 65.85602 10.10134
-16.27625 59.93884 11.21212
-16.38133 65.13698 10.98007
-16.01311 52.93334 11.45829
15.73845 75.9314 10.64315
14.95878 77.34198 10.60485
-14.88775 79.78435 10.55157
-17.12366 70.12015 10.6284
15.56847 87.55228 9.805799
3.764033 97.93096 10.14553
5.915177 5.027582 12.9376
16.00052 18.66595 8.510345
15.50699 24.55716 8.672517
8.955754 6.134838 10.22204
15.63836 91.39622 9.021057
-15.39739 31.21012 11.73865
-8.905678 32.56804 7.732689
-13.23684 29.05384 10.80254
-12.40523 27.58551 10.24954
-16.34376 12.96481 12.30404
-9.563954 6.537636 6.937528
-1.387385 3.471606 10.11222
-1.282079 6.155465 10.38121
-0.3656923 5.257972 12.38969
-1.567776 8.08745 9.468342
-2.457555 8.731404 7.396826
15.70681 30.13728 8.917788
15.61677 42.2022 9.437947
-15.14625 42.2221 11.56327
-14.04801 46.79626 11.31031
13.39254 48.22519 9.10755
12.16913 54.33187 9.02251
15.7355 61.61683 10.32714
-16.25477 66.27815 10.94705
-13.80191 62.27949 11.22392
-15.98045 69.7095 10.84057
-16.22302 66.41299 10.94599
-15.41783 47.52699 11.53688
-13.09046 50.61366 11.11067
-15.96986 82.44011 10.1828
-14.84831 88.33185 9.907524
-15.60952 77.43188 10.54508
-14.97853 87.51546 9.969692
-15.93438 84.54057 10.02669
6.819173 81.6915 9.663565
-0.4646858 2.779016 12.2945
12.07205 18.32439 8.552116
13.59358 11.22636 8.362173
12.97138 93.90901 9.508476
-13.37667 12.98376 10.43665
-11.95365 26.9562 9.910617
-15.46896 16.21324 11.79878
0.02266755 7.429967 12.82262
-3.190955 7.821004 6.459492
13.11022 34.79863 8.654968
13.8925 48.87756 9.264642
15.1128 63.05291 10.23188
-13.63742 67.85714 11.11737
-12.87907 68.63321 11.08921
-13.77399 52.57152 11.27633
-14.44446 82.11787 10.48803
10.14492 87.24104 9.996835
1.420108 4.33401 13.90997
13.31844 91.67652 9.80149
-12.79758 15.94349 10.11884
-1.501329 9.821016 9.680866
-2.531322 3.869013 7.188569
12.87873 48.92041 9.002903
-15.0106 67.15778 11.05616
-11.04743 53.55494 10.39568
-13.69579 83.55444 10.48676
2.303461 6.596396 14.08091
0.9609268 4.291236 13.67402
15.15641 91.31255 9.326528
-7.822219 9.703802 5.95122
-2.896108 5.305031 6.714895
13.37064 31.91624 8.616765
11.24117 27.57401 8.607802
13.04231 47.77479 9.005252
12.03552 44.73327 8.734579
10.57238 43.30192 8.67231
10.45466 64.82629 9.001563
12.53732 67.23505 9.708612
-14.28738 82.06988 10.51124
-14.59266 76.57058 10.74864
3.602789 6.393655 14.0928
2.249915 8.156792 14.01894
10.19902 19.39767 9.026921
9.334145 21.31359 9.376082
-12.43235 33.97 10.49353
-9.72165 34.00492 8.490108
-11.0689 8.754168 8.363304
-9.856134 16.65673 7.688858
-14.06522 16.3889 10.98813
-6.904982 7.778128 5.501217
-7.399967 5.627395 5.570987
-6.164131 5.141068 5.292089
11.26661 66.34917 9.252837
-12.51359 85.33581 10.40394
-5.983879 86.55048 9.665962
-11.13875 75.89468 10.72771
13.62801 24.48147 8.518225
6.948792 6.726807 11.94357
5.27536 7.417243 13.28932
4.251577 9.89644 13.7212
-7.500404 8.428255 5.75735
-9.060307 78.81569 9.99467
-13.46816 79.96024 10.69862
6.589643 9.204081 12.16282
-8.55506 38.82764 7.783953
-8.357999 37.72418 7.570298
-9.318262 30.9604 7.980449
-9.299115 32.26447 8.033353
-9.638756 10.64751 7.205672
-10.89271 10.3765 8.285536
-13.48519 80.27895 10.68244
-10.28012 74.68076 10.46168
-7.509254 37.30851 7.016139
-10.33315 31.30881 8.862849
-11.60801 28.16293 9.706929
-13.27494 13.74973 10.38896
-7.210829 11.02299 5.717319
-8.890246 13.63121 6.781585
-10.62185 14.57026 8.251301
10.65641 32.07169 8.680962
-8.90204 74.16293 9.834229
7.518115 11.76042 11.14661
-9.234886 29.07287 7.810183
-13.97799 10.14894 10.78104
-10.71422 12.5736 8.233408
-9.334795 75.60117 10.07776
6.053505 14.84468 12.30185
-1.417962 13.19538 9.824563
-2.322677 12.3034 7.702627
-4.024549 13.66693 5.973013
10.01794 30.04645 8.876708
9.097339 16.2964 9.661906
-9.49695 27.61979 7.944666
-10.74829 15.30304 8.400061
12.29359 33.87354 8.575299
9.936009 15.50154 9.253047
-10.63584 14.59905 8.265135
-1.60094 8.866989 9.368484
-0.6760197 13.31295 11.72197
13.7309 36.63057 8.787453
10.61625 41.68608 8.647393
-1.188969 87.7816 9.705592
6.986036 16.93275 11.33788
6.78571 20.17873 11.37859
8.572164 13.14623 10.16164
-4.143367 37.01342 6.574422
-0.6744568 9.294159 11.83287
-1.238886 12.34085 10.46026
-5.356946 13.52953 5.533576
14.02591 39.61064 8.94994
-8.315162 75.12386 9.563517
8.463521 19.57131 9.969209
12.17241 12.85874 8.565297
9.822484 13.54709 9.373692
11.52143 16.10175 8.692296
-1.869732 13.26717 8.5045
8.708048 38.42586 9.210643
7.967784 34.00082 9.782929
11.09271 39.96486 8.619168
-7.598348 88.80448 9.753983
6.606757 16.78703 11.70329
-7.657279 25.68979 6.560744
-1.007768 12.57159 11.14384
7.457273 37.80828 10.02818
-6.382305 85.78895 9.651393
13.15043 10.25232 8.401985
6.641689 12.82644 11.89459
8.440711 42.98763 9.218156
-10.09567 87.71608 9.981377
7.814898 20.65791 10.43056
0.6874878 13.19512 13.23474
9.116176 40.17227 8.980458
-8.193304 91.48686 9.664664
-12.19289 87.07847 10.29136
3.214054 15.20048 13.79253
1.813559 13.74544 13.76669
-11.16568 91.54412 9.791797
-5.187558 89.54075 9.678544
3.069941 16.72226 13.75665
1.941563 15.95245 13.73046
0.9952677 11.94706 13.45118
5.030778 20.55315 12.82921
-9.457226 90.75857 9.757792
-4.710073 90.15813 9.65945
-2.767582 90.19759 9.649175
2.077799 12.00226 13.86993
-1.378651 89.42808 9.672712
-0.3116899 15.31484 12.19473
-6.423372 90.6274 9.666915
-3.355813 87.79534 9.678709
-1.185012 13.29482 10.62386
-4.704993 91.2941 9.62041
-4.414323 86.5396 9.640646
-0.785401 13.99048 11.50941
-8.84093 94.08342 9.498322
-11.82958 96.10878 9.322302
-12.51508 97.01181 9.126519
-11.76874 98.67938 9.132225
-4.667577 87.13882 9.661047
-15.02533 93.82857 8.797714
-6.258778 93.78822 9.495123
-0.315141 17.98189 12.13805
-2.151585 16.03002 8.0015
-2.608361 16.65293 7.310925
-14.56118 92.43694 9.355504
-2.991601 24.66256 7.008765
-2.652245 19.5455 7.273515
-11.74809 92.51346 9.728325
-15.70854 89.3602 9.408277
-1.282419 17.1439 10.18102
-2.884022 18.55546 7.005887
-8.100929 24.95302 6.788708
-0.377778 20.81615 11.98944
-1.079414 17.91138 10.72625
-9.374969 16.89137 7.304667
-8.314965 15.82927 6.476573
-5.526184 16.04057 5.593871
-5.094031 23.06186 5.9393
4.904479 22.79244 12.84192
-1.98007 20.78466 8.348082
-5.935924 19.3595 5.742606
-6.654688 24.50921 6.080873
3.772673 20.83566 13.42007
-1.26809 22.72167 10.14347
-9.501454 20.17772 7.565221
-7.06873 20.72259 6.074206
2.472971 23.20654 13.49742
2.460327 17.67872 13.74931
-5.774813 21.0735 5.787695
-9.705963 22.08015 7.831672
6.965132 99.75251 10.75711
5.347836 98.78304 10.04951
9.181024 97.09016 9.389609
6.635396 95.17361 9.442668
2.873277 96.0228 9.720317
4.11897 95.29779 9.509563
-3.853079 93.74518 9.492226
0.647282 94.85732 9.551705
-0.7595384 94.27454 9.502107
-6.030074 99.14217 10.11676
-7.055403 97.43567 9.611077
-4.645594 99.63392 11.56586
-10.52621 98.69408 9.342409
-15.16535 96.92448 7.91546
14.84314 70.20374 10.44926
10.72107 67.18018 9.136737
11.89865 71.17112 9.706626
11.2178 73.27834 9.599025
10.84866 8.664872 9.042023
10.80183 11.92557 8.978649
-12.42212 35.94236 10.55205
-13.39029 39.64343 11.05702
-10.6842 40.28425 9.597069
-10.78183 39.23898 9.630112
-10.23803 39.45462 9.212823
-7.930703 40.131 7.401129
-8.398835 40.72385 7.772171
-7.93699 41.07594 7.454107
-12.41868 43.87626 10.78761
-13.70636 40.08767 11.17825
-10.6785 48.54778 9.966883
14.98874 58.36839 9.996305
11.20885 58.34107 8.9504
10.51313 59.08159 8.8585
12.01445 62.26333 9.289122
7.559219 68.18358 9.175317
13.10394 85.89301 10.38181
12.21778 83.21682 10.3008
-9.824786 23.38506 7.997496
-10.81596 22.45331 8.80123
-13.00482 19.08543 10.37176
-12.21112 23.3947 9.955369
-11.67678 24.74935 9.612106
-14.07317 19.31298 11.04981
-15.04565 19.84445 11.58252
-14.60008 60.37324 11.27181
11.45791 91.46133 9.827811
9.623294 91.16117 9.757297
11.40504 90.5483 9.914544
8.744687 89.46974 9.830181
7.122597 92.44576 9.599553
5.151135 93.4582 9.5152
-14.17381 54.55312 11.32765
8.764298 29.90344 9.443138
9.54374 43.12577 8.787566
9.754881 46.58699 8.740877
8.57474 47.96142 9.041023
6.606862 45.34893 10.43141
7.783468 41.63848 9.663961
10.984 68.0788 9.253325
-11.47209 57.37231 10.67539
-12.94648 57.37935 11.12784
-10.9971 60.11827 10.54992
-12.77199 60.81738 11.11311
-7.029303 54.67632 7.636903
-9.945469 56.92076 9.845992
-5.392017 54.60856 7.168603
-9.064987 59.72764 9.334718
-9.939677 61.14526 10.02049
-13.78194 66.76844 11.14815
-12.6214 65.4482 11.09196
-6.923253 63.31745 8.102033
-9.231964 64.76862 9.688259
-14.14183 65.82877 11.15506
-10.79833 68.5596 10.61358
-10.97883 63.95724 10.62148
-8.790176 70.68486 9.647399
-5.299744 65.16125 7.732507
-3.202042 58.76147 7.863692
-2.753471 62.19619 8.229845
-2.597445 64.43642 8.367668
-5.652313 60.40368 7.503154
-7.480072 59.14953 8.155779
-4.794798 61.99066 7.501574
-4.161416 59.94266 7.478089
4.071598 8.698308 13.87028
12.66515 23.7309 8.49757
12.30733 25.17664 8.525183
10.75284 26.47066 8.715135
8.698422 28.77375 9.511815
7.282003 24.10636 10.73601
7.77849 28.89718 10.12691
9.851889 25.3787 9.044371
6.098755 29.74268 11.57522
8.512944 27.6192 9.645332
6.117496 23.97449 11.81288
-11.45177 50.64314 10.49323
-8.321284 49.93817 8.231683
-5.795002 51.55568 7.045522
-10.73577 46.11953 9.895676
-13.34861 47.86981 11.1461
-10.82989 43.96885 9.873784
-9.684678 44.44256 9.031641
-6.475791 49.29228 7.103976
-9.006632 43.55129 8.41591
-8.765213 44.51557 8.273028
-6.606411 57.14687 7.584549
-3.59737 56.55164 7.555345
-6.333729 53.75767 7.294171
-8.202633 55.21288 8.428963
-3.791873 56.32057 7.451148
-3.381753 53.47006 7.539153
-0.9767752 53.94686 10.25995
-1.149772 52.9273 10.0317
-1.264732 58.15232 9.77401
-1.303922 55.32967 9.755804
9.458239 56.54172 8.79583
0.02288313 60.23702 11.16194
-3.649316 50.80065 7.347939
-3.451488 50.5211 7.450757
-0.1988433 56.50304 11.12241
0.1395162 51.11313 11.64607
-10.88647 73.76823 10.67579
-8.680159 68.485 9.487441
-9.248367 73.175 9.99041
-7.030631 67.95982 8.457357
-8.335237 66.70284 9.174842
-5.818119 71.9762 8.253937
-6.473266 73.60238 8.601556
-8.685189 82.64377 9.8731
8.646194 11.85502 10.17385
-7.547232 27.3971 6.566639
-5.970262 33.0862 6.282169
-5.09079 28.74382 6.096621
6.720868 38.58345 10.60261
1.162323 28.79839 13.0921
6.737228 36.86556 10.66743
6.178439 31.5964 11.41012
3.015835 40.31401 12.8216
6.057611 36.09832 11.32203
5.090415 35.17006 12.17733
3.852645 34.69212 12.82941
-8.432488 81.24908 9.793699
-8.126965 81.14547 9.69783
-6.696592 79.22482 9.143236
-5.792181 78.71487 8.88587
-0.5853775 85.70046 9.759974
-4.202339 78.78045 8.804559
-4.689363 83.5174 9.402401
-5.445865 75.9688 8.549211
-5.4179 72.92195 8.26704
-3.038477 74.81694 8.669655
-0.1404477 84.49813 9.832109
-3.600049 71.68825 8.314566
-0.2829794 73.49363 10.36121
-3.259437 81.24058 9.214726
2.934107 73.5836 11.16292
-2.01559 79.52135 9.366971
-0.07193397 81.00769 10.0699
-0.1484219 70.76167 10.57705
3.344992 72.62623 11.08387
3.263997 70.03897 11.29335
3.352309 68.66502 11.36716
2.1187 25.36614 13.42939
-1.235527 91.80125 9.585894
0.7228783 93.10618 9.520055
1.90575 88.20475 9.745653
-6.400691 98.86667 9.896014
11.12911 74.01361 9.614113
9.816326 74.0343 9.284136
7.986691 77.92046 9.321344
7.265406 80.21146 9.524722
6.510745 83.45519 9.774598
5.984592 78.15874 9.738718
4.962974 80.64648 9.992837
4.525801 76.13898 10.35348
5.500279 70.1217 10.13109
6.765154 73.41078 9.435777
4.035212 80.39394 10.24734
1.214067 75.84332 10.86932
-0.6334434 74.83687 10.08994
8.231235 72.2837 9.082096
6.24273 70.06214 9.715191
0.217791 76.278 10.51103
5.587992 69.75109 10.09135
5.214433 83.47947 9.899629
10.36889 70.30006 9.211059
8.005573 83.00343 9.690691
6.507171 67.84364 9.612475
4.037866 67.62656 11.12418
6.820668 67.31843 9.455142
5.052762 66.09051 10.61307
10.24709 64.65178 8.95796
5.984678 63.50105 10.07156
-0.2419293 63.90593 10.80735
2.295906 64.65776 11.77863
4.747226 63.3654 10.97039
9.17482 74.13346 9.181181
9.768567 59.4049 8.822141
7.942772 62.56317 9.096077
11.86589 56.73988 9.039028
8.024891 57.28769 9.090005
8.959954 56.29945 8.847044
14.33247 79.38428 10.576
10.72534 77.37135 9.687588
9.660141 75.36317 9.322695
10.33432 80.73052 9.803238
11.88143 85.72238 10.28048
9.558517 49.0661 8.764954
9.763459 50.19867 8.764335
7.084456 48.5075 9.890563
8.532538 53.04044 8.946692
5.51727 53.35971 10.99136
8.793965 53.99544 8.865782
5.528595 53.38958 10.97993
4.259676 52.59639 11.85645
4.619993 56.41154 11.46297
8.683182 57.30959 8.901072
7.553487 56.01594 9.310229
5.99683 57.83671 10.3454
6.938355 60.87999 9.535205
6.559841 60.68386 9.789431
4.775258 59.69529 11.1744
12.28448 88.95115 10.16891
10.46675 88.25819 9.998273
7.862903 89.82135 9.780354
8.527705 90.09293 9.786566
10.70284 85.16775 10.06021
7.164286 91.14085 9.686572
5.155967 90.80032 9.671714
4.80449 86.828 9.832664
6.377528 85.16461 9.830438
-0.9348972 63.19062 10.12596
-0.3221956 61.71181 10.79055
1.126167 66.89138 11.43597
2.269604 68.83555 11.51478
-0.209184 64.73854 10.80182
4.329719 28.28682 12.90856
5.0034 27.35318 12.5759
2.829139 24.65311 13.43924
5.635058 21.71466 12.32479
3.182731 27.00357 13.28465
10.67353 29.01536 8.709922
-6.841039 43.93148 7.019756
-6.461926 46.90659 6.964155
-6.264868 43.45362 6.778299
-3.484284 47.32007 7.308854
0.01483555 50.71246 11.54771
-0.8997523 54.55124 10.36486
2.26886 54.53071 12.28092
2.24074 50.9523 12.40855
2.907567 50.07481 12.42677
-0.1642129 51.3455 11.35102
6.575846 48.65478 10.30817
7.197312 43.86351 10.00555
6.218249 42.45609 10.90576
5.227576 42.87976 11.6996
2.972579 46.00041 12.591
6.440552 43.21201 10.67582
-3.073432 46.55262 7.537752
-3.350079 41.42971 7.169055
3.687503 45.80201 12.44301
-3.152389 42.36023 7.336277
-3.277831 36.57196 7.08223
2.005288 43.66734 12.71386
-1.862846 44.66362 8.816738
-3.688456 43.60316 7.071579
-5.591757 35.79318 6.371623
-1.927131 42.51328 8.687674
0.5399759 49.8029 12.00609
0.3173098 45.16492 11.96216
-2.26372 41.79277 8.210703
0.8931659 40.55458 12.50731
-1.51634 43.9684 9.457456
-3.341211 31.42708 6.91126
-1.57441 31.78786 9.32573
-2.546937 40.21041 7.839219
2.699062 42.18546 12.78719
-3.543588 34.88566 6.852676
-3.783752 36.00131 6.718199
-1.57927 32.96024 9.333043
-1.720878 37.26577 9.07384
3.061625 41.53592 12.76091
1.291994 43.33201 12.58921
-1.998927 39.31295 8.595233
-14.44631 73.43359 10.8915
-4.998768 65.49447 7.725948
-4.081245 69.04237 8.051821
-4.616158 68.00594 7.90433
-4.767356 70.34216 8.044197
-1.060517 68.02437 9.872902
-8.080036 29.89025 7.003155
-6.180617 29.54914 6.181376
5.723165 32.09433 11.80585
-0.4764517 36.01812 11.52561
-0.4626059 39.05121 11.44988
-1.537723 37.64663 9.448595
-1.495764 35.86946 9.545567
-0.2167388 34.19147 11.90275
0.477853 33.49221 12.53168
0.9330327 35.30843 12.70825
2.38073 28.91786 13.29647
2.194807 33.54566 13.13393
2.06318 31.25575 13.23346
-1.298238 67.71384 9.635281
-0.6439542 68.24393 10.2727
-0.4270718 22.4589 11.90774
1.165684 24.04666 13.24814
-3.839651 23.08811 6.352172
-3.937638 23.61363 6.314443
-2.901224 25.21278 7.129343
-3.503768 26.08339 6.596065
-3.48886 26.93168 6.633632
-2.874524 27.00958 7.216477
5.787743 92.85151 9.557501
1.776781 90.77599 9.640895
4.054223 92.38467 9.572346
0.5853521 81.27739 10.19152
4.246003 84.08064 9.953321
2.662012 81.03587 10.37356
1.244673 80.32829 10.42433
1.245971 85.54078 9.86
-1.701507 77.05947 9.414971
9.82795 71.84834 9.17594
10.67713 69.31159 9.237131
0.7864733 60.97538 11.61267
4.604716 62.36262 11.11913
3.041632 58.84738 11.98703
2.197857 59.53516 12.04869
1.282405 57.03196 12.00727
9.466728 79.71609 9.559732
-0.6360422 44.52297 11.05109
-2.828698 29.12684 7.331618
2.243035 28.23043 13.32273
-0.2702674 86.76086 9.747453
-1.717604 27.8036 8.989397
-1.176177 25.48213 10.31163
3.382961 85.47234 9.900406
4.042116 89.66142 9.712311
1.635104 93.03893 9.52649
-0.3542648 27.82209 11.85168
-0.8108516 31.59053 11.0827
-1.629194 29.95146 9.182034
0.426352 103.2246 -10.53929
14.37649 16.78468 -14.51109
13.8294 29.35874 -13.69476
14.36141 31.17242 -13.30761
1.925853 1.540533 -4.932068
12.56289 38.24994 -13.76221
14.22952 43.84003 -12.25417
17.03218 100.3689 -1.036362
14.17014 65.96764 -10.42185
12.81345 10.01155 -15.17146
15.34346 75.2912 -9.234543
17.08138 91.70949 -7.419185
17.17401 100.229 -0.3562003
-11.04823 6.522996 -15.33802
-2.755382 0.8081967 -6.906794
-3.691145 2.60037 -13.32614
13.44745 12.90657 -14.94218
-13.91048 49.74641 -11.25115
12.84753 65.1942 -11.59195
-13.83379 15.16271 -13.12469
-13.76657 38.94063 -12.22221
8.991793 5.879631 -14.98101
-16.45983 90.41838 -9.329706
-14.17854 12.98379 -13.00801
-16.53635 100.0887 -2.86931
8.073904 5.177103 -14.57171
16.08338 91.37485 -8.723118
1.408249 5.380167 -4.758101
-15.08541 70.73119 -9.776423
-14.13658 31.61867 -12.31031
13.10444 45.12606 -12.94867
13.45057 59.62513 -11.50271
-4.08884 100.1515 -11.77365
15.85919 97.36332 -5.998045
-4.594384 3.827604 -14.95565
-14.01963 10.97494 -13.22419
-16.22092 97.56985 -5.231508
-10.86389 102.6517 -8.958373
14.23225 15.98421 -14.60464
9.901836 7.463066 -15.2349
11.65125 10.20877 -15.25277
7.978409 6.022933 -14.56941
8.863103 7.990352 -14.98595
5.36638 2.87756 -11.81093
14.37493 32.26617 -13.20692
14.42906 40.58561 -12.41801
15.06305 70.91977 -9.486447
-14.3666 80.35732 -10.26663
-3.058051 102.373 -10.88894
15.09335 101.1351 -5.223164
-14.144 16.70035 -12.84109
-7.525695 4.777649 -16.28773
-13.10381 9.885242 -13.89587
-11.76108 8.305984 -14.83112
-15.99531 87.12619 -10.56209
-14.64776 97.7135 -7.577869
-16.46919 92.71072 -7.463167
-8.88243 102.8669 -9.90064
14.31518 13.71394 -14.75928
5.357203 2.363195 -11.75113
-14.31586 24.08182 -12.41833
-13.23435 30.47101 -12.86743
14.18611 30.36306 -13.45711
-14.43039 35.64813 -12.11387
14.38136 41.21269 -12.39173
-13.45752 62.05282 -10.85785
13.02213 70.97247 -11.02964
14.25268 64.21075 -10.4726
-14.89162 77.54721 -10.00044
6.524045 102.831 -10.5616
15.45833 91.97671 -8.917543
15.05389 100.649 -5.566049
15.98304 97.35973 -5.790081
15.98686 99.51841 -4.513347
-13.48779 17.54039 -13.24308
-4.162601 2.113903 -14.28417
-3.062836 2.5938 -9.042292
-8.714946 4.282411 -16.2565
-16.4637 86.97836 -10.46963
-16.16852 92.90575 -7.705297
-8.638391 101.6436 -10.60006
14.54297 21.56049 -14.07848
12.56875 14.27327 -15.00722
6.28306 5.501089 -13.23755
4.474455 1.547269 -9.91809
-0.08499754 0.7279577 -3.886879
-14.36548 25.35522 -12.34335
13.86831 29.89377 -13.63712
14.55219 37.29291 -12.65366
-13.30837 47.28352 -11.82707
-13.75582 56.34519 -10.94132
14.20275 40.98172 -12.52843
13.32797 47.04781 -12.63336
-14.57137 62.28339 -10.15871
-13.26279 60.03773 -11.07559
-13.20306 54.93908 -11.39368
-14.94616 75.73721 -9.916628
14.62402 74.15912 -9.710441
14.30233 64.80656 -10.39127
12.60634 60.42492 -12.16803
-13.24277 82.81978 -10.65509
-15.71674 77.42822 -9.756413
14.60774 84.80017 -10.12135
1.815347 102.5991 -10.81669
14.78103 93.56971 -8.829618
14.57389 100.6166 -6.311018
-12.24516 13.97474 -14.25359
-3.599903 1.951071 -12.95955
-3.462072 2.898053 -12.62508
-2.814665 4.663562 -7.286383
-5.319444 4.395399 -15.63196
-16.25795 86.59771 -10.55122
-15.44178 90.40455 -10.06795
-8.44346 88.47925 -12.65572
-13.01126 84.21298 -10.78313
-6.043778 101.7395 -11.13841
-1.251623 100.463 -11.65817
-6.707784 99.66415 -11.85412
12.95695 21.05586 -14.57831
5.824492 7.452699 -12.84954
-2.506676 1.400324 -6.079517
-14.24006 27.43957 -12.3588
10.44409 27.06861 -15.05163
13.34979 37.23479 -13.36465
-13.94645 36.40397 -12.28625
-14.04434 50.46593 -11.11275
12.96387 49.02523 -12.75315
11.27393 41.70737 -14.30284
13.33981 49.03712 -12.46345
-13.61548 65.30376 -10.62062
-12.54391 71.21922 -10.99692
12.74996 70.50911 -11.28148
12.88315 76.84928 -10.80011
13.36127 66.59259 -11.05036
13.26236 61.29177 -11.53377
-14.75433 78.88231 -10.09734
7.077263 100.4171 -11.5349
7.563935 100.4361 -11.43116
3.662376 102.7702 -10.70669
2.272666 101.6004 -11.20897
15.06872 88.1974 -10.22208
14.53202 95.485 -8.569193
12.89608 100.6288 -8.239958
9.914454 96.62383 -11.75618
14.1148 100.0813 -7.173431
-2.919041 2.965597 -7.681825
-14.06713 83.49263 -10.55007
-2.305259 100.6534 -11.58865
-5.222442 99.34743 -12.03989
-10.51521 98.74522 -10.83358
4.419997 4.521832 -9.975753
-10.95424 22.34812 -14.66432
13.19519 31.10755 -13.85776
-13.09927 42.88523 -12.26803
-14.48119 38.69635 -11.95456
-13.71698 50.87663 -11.30249
10.41692 52.38254 -14.31404
10.63269 50.89662 -14.26152
11.67924 54.27866 -13.37152
12.39663 47.57154 -13.28127
13.7191 77.19689 -10.23046
12.73909 59.35276 -12.1372
11.29429 59.80566 -13.30017
3.075522 100.8456 -11.51694
0.2334236 98.04616 -12.3653
12.77903 91.94481 -10.74871
12.72171 97.98824 -9.486813
-11.36522 22.48508 -14.40591
-9.769476 6.591974 -15.90648
-7.01388 8.074782 -16.22876
-3.734584 7.772464 -13.89024
-3.739727 5.649938 -13.74438
-1.394349 99.62166 -11.94388
-13.33254 25.94004 -12.98553
-12.25371 28.16468 -13.58804
11.41866 28.63639 -14.73853
11.70479 31.79593 -14.50479
-11.56522 38.7553 -13.49583
-12.18363 51.55259 -12.32447
10.96314 50.54481 -14.09523
8.118597 54.13284 -14.97562
-11.90906 65.26357 -11.70173
11.54481 78.12487 -11.72624
12.12737 64.22312 -12.28767
10.92396 99.69337 -10.2352
-12.08994 21.55046 -13.98836
-2.580827 3.453762 -6.506087
-9.356169 8.75793 -15.97122
0.7169768 99.22617 -12.05761
-9.811425 30.00173 -15.03711
10.59127 33.76933 -14.85514
-11.44534 35.20948 -13.76167
-11.86201 35.41637 -13.47806
9.749722 51.04336 -14.70186
12.97858 55.8387 -12.20422
9.935107 56.57683 -14.39881
11.68999 41.72644 -14.08078
12.57847 73.53476 -11.21721
10.25813 75.57781 -12.94733
-9.202044 21.73071 -15.61454
-3.09341 8.00958 -11.59925
-7.012811 9.894405 -16.21736
-0.105172 5.594027 -4.437392
-9.841356 30.65655 -15.0076
9.804805 31.09691 -15.1125
-9.820296 39.08125 -14.68557
7.259734 53.57993 -14.93256
11.89193 42.44731 -13.93175
12.05749 46.483 -13.59602
12.10878 46.07636 -13.58796
11.40153 81.2504 -11.63484
-9.109102 23.98532 -15.58518
-2.985744 3.892458 -8.304908
-3.173952 7.476444 -12.06028
-7.066976 10.26667 -16.21496
10.8408 31.03449 -14.85013
8.866974 35.55306 -15.17048
7.980243 34.62333 -15.13876
-9.771399 37.49683 -14.78945
10.02477 47.05133 -14.65928
9.138038 45.25393 -14.98219
10.52278 58.6286 -13.93566
9.883414 46.20317 -14.73788
13.6285 82.1393 -10.27271
10.63778 61.55206 -13.66413
8.599163 62.00389 -14.71211
-9.089556 22.85397 -15.62226
-2.982987 8.161069 -9.25669
-2.888944 11.11882 -8.75146
-3.448494 12.53918 -13.59075
-2.939958 10.51226 -9.097526
-3.083126 5.957452 -10.788
10.91809 30.72215 -14.83562
-8.225061 45.54899 -15.2873
-7.884707 37.03428 -15.67046
12.11295 79.81273 -11.19334
10.28523 64.83823 -13.70006
-3.239645 15.4923 -13.23688
1.780292 5.207051 -4.971448
6.919199 32.02158 -14.75134
-9.402564 45.57003 -14.65957
-5.730567 42.14792 -15.78767
-9.754651 41.02832 -14.63687
5.443117 57.54596 -14.08244
-7.657032 23.35422 -16.01121
-2.494991 16.32083 -7.788638
-0.7937977 6.517447 -4.646285
-11.37764 49.37314 -13.04619
-6.245724 40.66354 -15.81364
4.848767 59.1181 -13.52449
7.809985 59.06208 -14.90501
8.031838 71.22491 -14.42524
8.094834 66.18364 -14.66988
-3.218048 14.65158 -13.13863
-2.810449 14.75785 -9.411882
-1.903564 14.55647 -6.404136
-0.5169703 6.228612 -4.547876
-9.333766 49.38956 -14.52255
5.644311 60.02703 -14.19988
10.50956 70.80953 -13.11988
-2.783308 11.68526 -8.284604
-0.1633921 15.21458 -5.367929
3.85905 6.354795 -8.510284
3.542662 10.10039 -7.75221
-12.79581 49.40081 -12.02882
-10.15403 46.9571 -14.08277
-8.346166 46.45858 -15.19574
4.190549 62.08525 -12.5584
-3.319452 19.40059 -13.65593
-2.628777 16.77789 -8.418302
3.501755 11.45919 -7.699318
-11.78214 47.05994 -12.88259
-3.911718 14.87098 -14.58086
-5.024171 17.90575 -15.63877
-2.819053 16.20932 -10.66956
2.31815 8.592847 -5.763791
4.55884 3.033317 -10.20897
-3.004272 16.9944 -12.48168
-2.82391 10.80249 -8.337754
-2.363328 15.62655 -7.299863
5.087634 67.25716 -13.79343
-2.385149 12.36358 -7.020197
5.014138 7.09322 -11.45914
5.242823 8.742517 -12.00581
5.3525 66.76083 -13.97033
-8.676358 19.74156 -15.86113
-2.781479 18.86931 -11.38875
6.85215 13.52654 -14.21572
2.960546 10.07464 -6.625653
6.600332 11.17744 -13.86425
-5.650049 25.80379 -15.90592
-4.362202 12.17884 -15.01134
-2.702839 17.85899 -9.260774
4.789001 5.016986 -10.86681
4.848233 11.85109 -11.44974
5.670187 13.80949 -13.00623
7.367495 15.25211 -14.59241
-2.756154 18.51091 -10.87451
8.475233 10.89746 -14.91093
-9.183899 11.47104 -15.93699
-2.545153 25.24643 -10.101
7.787964 15.51208 -14.80377
-7.621218 10.24248 -16.21313
10.20211 16.23588 -15.21006
9.026821 11.27678 -15.07771
9.567997 13.95617 -15.20038
-15.69734 95.63776 -7.0485
-13.14993 101.7616 -7.438986
-13.30218 97.68176 -9.048294
-10.16491 100.8951 -10.20111
-9.897282 99.17922 -11.02022
-14.02594 99.44765 -7.576653
-10.5369 65.04302 -12.74396
-9.877312 57.04536 -13.74316
-12.18507 56.99944 -11.98909
-10.75941 55.83245 -13.13746
-10.57896 54.23293 -13.37289
-10.11322 53.19723 -13.78702
-7.506592 46.83173 -15.50941
-11.06987 53.65997 -13.03123
-10.02413 55.63462 -13.71226
-3.839736 49.11545 -14.82794
-10.04553 58.26844 -13.54294
-5.917855 47.19616 -15.67323
-9.092519 52.80161 -14.52673
-4.420513 45.85419 -15.297
-4.79483 45.15244 -15.49304
-6.587388 44.54002 -15.73784
-3.820891 44.20638 -14.85739
-3.321326 44.40998 -14.26793
-3.040789 45.04051 -13.82776
-11.52646 14.80624 -14.67745
-9.805426 19.2215 -15.44071
-10.26909 17.81478 -15.25875
-7.476305 20.19789 -16.09078
-6.40084 21.39252 -16.05429
-13.62885 92.03329 -10.42132
-11.12688 85.64196 -11.45777
-9.358855 83.17847 -12.52799
-8.863867 84.66111 -12.73488
-8.83912 85.79282 -12.66571
-7.674562 87.74984 -12.95692
-11.97743 87.93762 -11.23546
-6.539151 89.94473 -12.92869
-8.630795 87.78398 -12.62859
-7.098716 81.53179 -13.75672
-9.371399 81.92014 -12.58747
-2.763118 62.44498 -13.37354
-4.231084 82.73182 -13.84223
12.99634 23.24825 -14.42887
11.87292 24.01857 -14.74473
-11.34777 70.68927 -11.78741
-9.748245 68.64569 -13.14176
-10.6295 68.39064 -12.46401
-10.64356 65.22063 -12.64941
-9.779472 62.74097 -13.47902
-4.924186 59.58517 -15.2612
-6.161322 60.23175 -15.32084
-5.228705 62.76217 -15.23216
-5.661742 60.66159 -15.33904
-5.498817 61.55143 -15.29756
-7.752776 57.61969 -15.00739
-4.785617 62.08019 -15.14278
-8.804889 65.86828 -14.01444
-4.128832 65.4655 -14.6948
11.59561 68.00138 -12.45552
10.91587 71.15114 -12.77527
11.25055 67.64866 -12.77213
12.59352 67.18662 -11.65927
-14.08704 78.78222 -10.26803
12.03662 39.45737 -13.99323
6.086005 97.76672 -12.45973
3.826961 99.60399 -11.94906
11.67872 37.26292 -14.27598
11.80912 40.02915 -14.08925
9.603448 38.01443 -15.03372
8.289858 41.26712 -15.1674
4.74194 45.16463 -12.96292
4.666805 41.81744 -12.65349
10.05033 99.01238 -10.99485
9.272913 96.47419 -12.05267
8.312498 97.08317 -12.23036
11.5266 74.84846 -11.97983
9.163594 73.60274 -13.80305
8.88774 74.41363 -13.88751
8.756295 75.81468 -13.83961
8.323485 69.92418 -14.42169
7.901053 73.1514 -14.3365
7.696805 72.7075 -14.39678
5.686475 72.18424 -14.07462
4.776776 73.18793 -13.51024
5.568023 68.70857 -14.08541
3.384493 72.54343 -11.84145
4.439476 70.07943 -13.12657
1.080221 70.05564 -9.965606
0.5558602 69.92352 -9.911123
3.573142 74.37609 -12.18697
3.34053 70.52358 -11.651
-3.775448 80.26266 -13.89044
0.803974 78.7279 -10.77336
10.90466 78.29302 -12.2304
11.48897 82.73841 -11.49766
10.37313 82.32013 -12.33323
9.804187 83.32447 -12.64033
13.6691 88.7236 -10.59638
12.87578 85.34655 -10.69353
9.397571 86.53647 -12.57774
10.61054 87.10583 -11.91527
9.483595 85.06905 -12.66845
7.777375 86.18998 -13.15706
8.809586 89.76224 -12.51415
8.800255 83.0486 -13.19241
8.533359 91.14701 -12.52523
8.261561 80.6684 -13.62368
11.47056 91.91174 -11.49965
4.461881 86.88653 -12.98094
7.707962 93.20581 -12.80337
8.480599 79.11063 -13.68389
5.927492 81.89301 -13.75498
