# .PCD v0.7 - Point Cloud Data file format
VERSION 0.7
FIELDS x y z
SIZE 4 4 4
TYPE F F F
COUNT 1 1 1
WIDTH 1656
HEIGHT 1
VIEWPOINT 0 0 0 1 0 0 0
POINTS 1656
DATA ascii
-3.110616 58.39673 20.89083
-4.296923 55.76226 20.32066
-3.701686 72.32196 20.24364
-23.00317 69.03632 1.98147
-3.850832 29.48773 20.80347
-22.74463 54.38015 1.759791
-7.453185 19.43753 9.38364
-23.33478 64.29483 1.891966
-0.8671303 83.74013 19.92499
-3.007028 83.9889 20.00071
-3.85509 38.09082 20.84333
-4.802935 39.4659 20.01884
-5.276196 33.4589 19.80508
-1.066732 47.39639 21.74742
-4.248797 75.38973 19.8994
-1.868456 82.82472 20.09596
-22.21707 67.97085 4.233505
-22.26567 78.45551 3.529254
-5.19933 42.89065 19.72359
-22.14808 64.57767 3.954651
-21.26072 81.47363 5.539878
-5.812025 39.82316 19.15953
-21.96894 61.88034 3.774457
-5.010598 42.71528 19.87572
-5.072282 44.48656 19.93244
-4.887249 46.51302 20.1266
-23.16029 62.85859 2.268827
-20.50644 85.09481 6.19401
-6.247928 84.38284 12.54392
-5.76594 83.23803 17.8367
-19.10753 83.99397 8.242057
-18.37599 79.24689 8.77706
-6.993147 31.13759 10.83632
-7.053373 37.78495 16.59507
-11.0289 53.5659 8.682924
-6.941735 41.48065 16.68761
-4.386366 88.80254 19.39554
-5.818612 89.6381 17.49693
-7.202363 37.8652 14.81013
-13.86041 115.0107 8.970411
-2.923012 104.7958 18.80597
-13.49399 114.9046 8.507027
-13.93464 113.0348 7.956931
-14.74771 113.584 6.029147
-14.47152 111.0781 7.633272
-16.04009 115.1174 5.656425
-14.93969 109.8989 5.884078
-13.54487 109.3878 10.58576
-14.26374 105.4674 10.68059
-12.6162 107.4473 9.922706
-21.94592 43.29942 1.666682
-20.16988 41.45449 4.318224
-20.21792 38.34343 3.790385
-22.33701 39.44598 0.7632505
-7.420674 24.37023 15.55793
-6.007312 111.0824 15.07598
-4.981667 109.5391 18.13987
-5.835584 105.8832 15.37547
-5.011007 107.9487 18.13803
-22.07524 46.12619 0.2180873
-21.43763 45.59734 3.330548
-22.67257 37.48872 -0.4119515
-20.75677 88.04395 2.03956
-4.034189 26.10098 21.13964
-2.826218 89.17432 19.84318
-2.321001 91.66045 19.7184
-18.23465 94.06818 3.381848
-19.0413 90.7524 7.608272
-18.82783 91.12814 4.371568
-15.93107 24.48295 5.81279
-7.017423 23.94544 12.68421
-6.896296 23.88438 11.1609
-4.755633 30.7401 20.30972
-7.266288 33.79868 15.79735
-6.637103 27.13745 18.41013
-6.808329 29.03144 17.93694
-7.294067 28.83685 14.07135
-15.15272 27.66717 6.618714
-7.083874 36.93479 13.14948
-6.90376 33.84881 11.77699
-8.146688 22.4372 8.749147
-20.79976 69.8471 5.949517
-19.74573 73.48363 7.291149
-22.23772 76.26334 4.491118
-21.44072 76.37547 5.546857
-18.89855 79.67348 8.343309
-18.37041 77.5078 8.747526
-19.06896 81.70834 8.237963
-17.54396 79.98665 9.363507
-16.35335 79.46034 9.809145
-12.86465 82.11406 10.20106
-22.15831 78.6916 4.145478
-6.046041 79.57384 14.50894
-15.54434 79.15385 9.974163
-15.7808 75.9772 9.761301
-19.79421 60.4057 6.795374
-20.64486 60.42682 5.715339
-16.22023 59.93171 8.726581
-14.98163 59.02199 8.958826
-23.15744 59.3734 1.826833
-17.92164 56.5114 7.756016
-15.73627 59.31971 8.82974
-21.04583 55.35021 4.994083
-21.2183 56.41933 4.597167
-12.61769 54.19508 8.786827
-3.785077 50.71932 20.76906
-5.826316 78.87672 17.72034
-5.38019 79.33373 18.68022
-6.070194 77.27935 13.97404
-5.459441 73.72996 18.70518
-5.276058 67.54188 19.10694
-5.051949 66.16917 19.4441
-6.140729 69.74034 14.61021
-6.633757 33.19492 18.1369
-7.106409 33.40634 16.67636
-6.560119 29.69601 18.45588
-5.92473 96.43823 15.89739
-6.002218 85.0914 13.91507
-6.147535 81.63055 12.88297
-6.014105 82.44563 15.35227
-6.041044 80.11969 15.29104
-5.936566 90.53796 16.80493
-11.83789 76.85428 9.797797
-6.268301 79.86259 12.52998
-6.153564 87.77682 12.99479
-14.03125 85.36012 10.38724
-5.319095 91.64353 18.37779
-6.096491 75.07171 15.27884
-5.295753 91.97328 18.41139
-6.017715 93.29095 13.41534
-7.302346 93.19199 11.50882
-6.025441 93.15119 13.40459
-7.156093 31.05018 13.47878
-7.005501 34.73231 12.8901
-14.40467 113.2243 10.11394
-17.21893 107.7474 4.160399
-8.91274 108.4206 11.61895
-12.68114 105.6367 10.06364
-21.53558 49.2146 2.401201
-21.29403 46.15295 3.642499
-14.23283 37.90339 7.749896
-16.27087 41.74467 7.355508
-15.54198 40.88256 7.608766
-15.40253 38.11483 7.427501
-16.77488 45.07037 7.385254
-16.88347 45.73389 7.392574
-15.41124 48.98486 8.224915
-12.26488 50.39325 8.568728
-13.83845 44.92913 8.268085
-8.790292 106.8798 11.49116
-3.446174 93.24271 19.55671
-5.927237 97.23252 16.49922
-5.086091 101.9675 18.33928
-5.208808 101.1712 18.26453
-5.887902 97.42362 15.41119
-5.891273 102.6691 16.80195
-4.407759 101.0908 18.89096
-5.855892 100.7345 15.42261
-9.160199 104.1372 10.89785
-7.408527 103.4406 12.28568
-5.785223 101.4101 14.65493
-16.09253 103.9597 9.854238
-8.442811 104.6914 11.67523
-16.21895 103.6297 4.959401
-15.42895 26.84223 6.405791
-6.896936 28.00215 11.66268
-8.59197 27.03674 8.468987
-7.011127 29.70166 10.75191
-7.220744 31.93089 10.17688
-6.986229 32.64674 11.12015
-8.902021 29.18872 8.306596
-7.158977 35.23176 10.51504
-6.915032 35.5938 11.34467
-7.657065 41.11536 9.658854
-10.33753 43.41953 8.207095
-8.98097 41.57151 8.600774
-12.33188 38.67189 7.933197
-11.08894 39.59448 8.007929
-8.209209 31.27019 8.883644
-10.86985 42.8607 8.159985
-9.491055 44.24396 8.467574
-12.98055 28.14568 7.335574
-10.12821 32.47478 7.88753
-9.230256 31.47843 8.194103
-13.2819 36.21547 7.75207
-12.83286 29.5761 7.434351
-11.21636 25.51185 7.42618
-14.91914 32.41286 7.130933
-6.871008 44.00508 12.54609
-20.05325 29.40342 2.442726
-18.10174 35.94597 5.478256
-18.10066 94.02209 5.610516
-7.055812 20.82556 10.35299
-19.76654 66.22985 7.023276
-18.58106 70.17966 8.284173
-16.11464 63.44862 8.981089
-16.50899 67.09564 9.088458
-15.3294 67.37621 9.373557
-11.4036 60.52131 9.013927
-10.9151 60.84382 8.997143
-11.30423 62.2582 9.102828
-11.31614 64.94662 9.231628
-14.5442 67.25354 9.47255
-11.59946 74.10571 9.649638
-17.00958 74.05877 9.299213
-13.43707 64.76931 9.344578
-9.519525 65.28156 9.30722
-20.93073 78.6979 6.197496
-7.549228 76.82306 10.65342
-11.11935 76.25005 9.694845
-10.31963 79.88374 9.765735
-11.27663 79.11488 9.820446
-10.56638 74.52183 9.547385
-22.56334 55.21735 2.152697
-17.01065 58.90886 8.378008
-13.21571 54.15469 8.802674
-6.795276 51.59912 12.22491
-5.59405 74.50114 18.44062
-10.93359 84.88562 9.969206
-11.46107 81.1848 9.939034
-6.554415 71.10141 11.79428
-6.384695 71.15369 12.33636
-8.628942 72.89292 9.921572
-10.92289 71.34891 9.46328
-6.205948 69.26578 13.77606
-7.574522 87.35738 11.02085
-6.957338 43.83182 13.30898
-6.767304 48.05887 16.87866
-21.95499 49.67043 1.167718
-2.202897 97.72704 19.34159
-16.65045 99.9393 5.514757
-8.400775 23.16162 8.556813
-11.82041 48.76472 8.462291
-9.109138 45.59827 8.682126
-6.900797 48.55315 11.39904
-11.08843 45.37214 8.26322
-18.81782 32.29267 4.285758
-17.23992 36.48366 6.223879
-18.28004 93.8041 8.332516
-18.3616 91.89313 8.648432
-15.81488 90.4875 10.42273
-10.911 89.59182 9.999028
-14.91206 90.01546 10.58709
-8.8725 59.56038 9.218426
-5.944072 61.45291 18.14328
-5.877496 58.23145 18.29652
-12.16184 80.43605 10.02515
-15.08583 53.01733 8.56947
-12.4412 50.93247 8.605085
-16.07873 51.91026 8.214275
-21.3135 50.03493 3.519835
-22.14449 52.02201 1.923799
-12.31489 56.67217 8.894434
-7.372097 69.00507 10.48186
-6.142286 68.87343 14.86641
-7.54618 64.01565 10.26332
-6.775107 66.9192 11.28889
-6.406491 64.85988 13.93787
-8.275668 74.96783 10.10979
-21.01811 52.33425 4.648889
-8.125388 107.1972 12.28153
-11.6665 102.9561 10.66145
-12.22143 101.647 10.49275
-14.93774 101.3509 10.90039
-16.3199 102.7601 9.75718
-10.41089 45.15302 8.300699
-17.90459 29.3802 4.730051
-18.8302 32.64275 4.329575
-17.99369 30.97294 4.881552
-20.03283 28.9294 2.379565
-9.996341 87.77272 9.974384
-15.93983 87.33919 10.287
-17.14831 84.21802 9.750204
-17.91422 88.67329 9.350683
-19.10125 90.73224 7.082319
-14.69797 94.48633 10.75072
-11.89572 95.2793 10.15929
-13.10871 100.2171 10.59585
-16.5105 102.1538 9.620296
-14.1645 97.91295 10.91661
-11.61203 93.58678 10.08722
-9.377 92.7452 10.21056
-9.496781 93.66905 10.20922
-5.70704 62.34506 18.7176
-5.902332 55.14019 18.53553
-4.8158 52.75716 20.05465
-6.632196 50.42561 16.56677
-6.953275 51.93986 13.94096
-6.480866 54.90941 15.97514
-6.783913 57.82291 13.48622
-6.705414 60.73917 12.78375
-10.51583 53.82931 8.715901
-9.008075 56.08463 9.091937
-8.661861 57.84691 9.225937
-12.59455 55.58899 8.856795
-6.927953 59.64495 11.0343
-6.397234 62.56788 14.19895
-6.779497 61.62001 11.44288
-6.724547 57.87633 12.23746
-6.696688 56.58234 14.76665
-16.20998 102.1287 10.15389
-16.86888 100.9949 9.245213
-16.72126 101.8561 7.071092
-18.65108 26.42747 3.486354
-19.66582 87.50928 7.282483
-18.50244 92.57535 8.042453
-7.846521 95.47794 11.24163
-5.64641 51.13207 19.04995
-7.884886 54.53104 9.722086
-16.24265 28.05102 6.001688
-6.964252 51.25766 13.98757
-14.85851 143.6882 2.885022
-10.43852 124.7768 11.97126
-14.44563 146.9462 1.668955
-15.53796 140.7359 2.966561
-14.83653 145.6794 1.925789
0.470187 126.3627 15.10269
-7.027356 125.0768 14.25235
-5.539698 126.0618 14.36948
1.153936 124.1028 14.70509
-10.13771 148.1172 1.572339
-12.55922 146.6855 1.550521
-6.186607 146.1573 4.597315
-10.11627 147.1435 2.912974
-2.453054 137.9543 10.4763
-0.3068668 131.5992 13.4792
-4.547805 126.2882 14.37124
-6.330911 145.5981 5.132047
-15.14777 133.2638 1.428494
-15.29691 133.9705 2.039798
-4.632464 136.3285 12.15948
-13.90507 145.9241 3.436357
-9.368471 144.0514 5.368383
-14.99477 127.3993 2.914258
-14.93623 128.9165 0.3694281
-0.2218802 134.4888 12.50554
-0.2152374 127.6029 14.70862
-8.068501 144.274 4.977618
-15.12693 127.9086 1.462833
-15.22001 128.7246 1.712118
-2.12546 131.7693 13.48699
-15.92518 136.6051 0.1941004
-9.617137 145.6662 4.253589
-15.24482 126.2398 2.556782
-1.443456 137.5475 10.89361
-12.37809 125.7726 10.51502
-13.66741 126.2688 9.264814
-3.776582 140.8702 8.458048
-15.63037 134.88 3.017004
-12.31159 142.0179 6.546374
-6.668132 142.5152 7.758092
-2.537761 133.4949 13.05862
-13.9945 125.9862 7.455256
-8.257915 128.6876 13.64167
-8.481215 124.3039 13.65225
-8.619015 143.6895 5.353204
-5.157574 136.3159 12.28379
-10.21003 124.8485 13.56326
-7.47036 144.3732 5.644942
-15.21463 130.1597 5.209734
-10.0715 129.9936 13.5924
-14.15086 131.1482 9.805831
-11.67685 131.0554 12.64124
-14.69897 132.7021 8.037289
-13.01432 133.3479 11.36573
-14.55357 136.4315 7.037633
-14.04133 136.9589 8.378097
-15.27336 132.8336 4.567689
-7.977665 132.6613 14.17396
-10.9093 137.3391 10.91973
-9.306397 132.5263 13.66546
-10.05171 135.2781 12.88792
-11.15188 138.2196 9.995581
-10.49455 139.8021 8.984492
-12.78778 138.7388 9.254132
-14.76972 138.7902 6.0168
-14.27323 137.7515 7.619928
-15.4959 138.497 3.343085
-14.13309 139.5924 7.314907
-14.62381 128.7454 9.129364
-14.2183 127.7406 6.637493
-11.31136 142.4224 5.771255
-3.542502 133.1774 13.24535
-9.128602 135.0498 13.25306
-6.780322 136.0591 12.83457
-7.898355 141.5638 7.590055
-3.562442 129.817 14.88684
22.96659 41.67765 0.5353914
-19.6154 106.2567 1.461285
21.94843 51.94019 0.5348811
21.92533 59.7822 -0.3203074
22.48153 18.3487 -6.931568
22.36015 24.06465 -7.978097
20.90706 23.28124 0.5401326
0.4396757 18.01031 -12.0955
22.42128 81.00265 -1.779248
23.537 78.2225 2.151186
5.035609 116.796 -7.495476
-22.6122 22.44438 -4.233991
15.5493 110.055 2.805435
13.95249 106.8633 -3.889967
13.06948 118.8624 2.309683
-22.39509 20.7645 -3.152777
-13.0089 114.7184 -1.191228
-17.86953 17.96064 -11.09406
-19.93277 17.91751 -10.62645
-23.02719 26.32138 -4.277699
15.21523 112.3204 3.652439
12.81454 117.657 1.719944
13.41241 117.4437 -0.7110503
9.153632 113.6255 -7.36574
-23.16923 57.73459 -1.920828
17.24089 70.21001 -7.162542
22.64029 19.27525 -6.280166
-21.21513 30.70289 -10.38515
-13.62976 116.4989 0.544587
-21.89157 84.04482 -2.187291
18.48957 95.07445 -2.69085
21.57302 26.28806 0.2585709
23.33119 38.64893 -2.820704
-15.62888 114.9333 1.280802
-15.50101 115.5972 1.841511
-19.89755 47.00758 -10.96766
23.22003 44.0185 0.05467002
22.43621 21.00143 -7.540537
-20.50311 85.25114 -0.2123431
17.88974 101.4092 1.904631
15.71599 111.8618 1.456697
13.57362 115.9031 -1.982075
15.41972 111.169 2.28124
15.00267 113.9054 1.160004
-20.65551 18.78351 -10.11248
-20.67664 98.38408 0.8049391
-9.637512 114.3171 -5.783236
-12.79607 116.975 0.2876395
23.31574 63.58405 -4.846958
-20.91334 57.24601 -4.798671
16.4351 19.80371 -12.29627
23.33637 43.14303 -1.781675
22.28656 23.71961 -2.45178
22.96143 33.77734 -2.562672
-21.74205 87.37637 -3.493914
22.21754 78.13931 -2.811334
1.724573 115.1139 -8.29744
16.05166 106.8364 1.908224
15.53784 109.9834 3.017856
-23.26357 37.8077 -2.999147
-16.91941 19.5091 -11.29707
-20.90072 99.25414 -0.08924913
-16.31212 107.3182 0.1765184
-9.827477 116.9188 -6.069702
21.06334 54.56676 -0.7041376
22.01412 49.69637 -0.475873
11.62045 19.00826 -12.2169
-4.669653 18.44925 -12.02102
16.84018 18.55991 -12.30873
15.84152 23.30445 -12.16028
12.17982 24.39556 -12.3422
22.54248 44.02163 -3.192578
21.86879 22.50877 -1.586869
22.16496 30.01157 -0.8493572
-21.04854 79.53345 -0.4883829
-21.37102 88.58264 -1.010164
23.43424 77.74908 0.474284
21.24298 95.51166 1.640006
-2.205994 115.6035 -9.022802
10.4278 116.0697 -3.464736
16.38511 104.2771 1.435278
-13.47021 18.15105 -11.49296
-23.19537 38.25537 -3.453634
-22.75605 24.53152 -6.901657
-22.82034 23.49755 -4.870857
-18.06903 104.4735 0.3912758
-16.82738 109.523 1.531227
-5.167399 116.953 -7.315964
21.44773 52.17664 -0.07595577
23.06491 46.86006 -0.0765555
4.116508 19.57974 -12.12406
-0.6989515 20.60178 -11.80323
-23.7316 50.93491 -3.516196
23.23815 36.69248 -2.69893
23.01017 34.44285 -2.434817
-20.92576 65.97491 -0.8809634
-20.86262 81.54597 -0.9795356
-20.78207 74.66527 -0.3923147
22.9842 83.90469 1.10543
22.50569 87.78383 0.8419215
23.77005 71.83572 0.08188299
19.82844 92.74301 0.3917909
-1.870604 115.2009 -8.304037
9.755675 116.9203 -5.599239
10.89247 116.409 -1.85609
-23.1753 38.48521 -7.56573
-18.13899 21.31215 -11.23975
-23.1794 29.52566 -5.474494
-21.33846 94.41608 -1.507323
-17.5966 104.0556 0.1263742
-18.73027 99.40283 -0.9391943
-10.00729 113.753 -5.878662
-13.05003 114.7023 -1.853676
21.2044 52.74038 -0.7939139
23.65983 57.02972 -3.050107
21.31391 59.09781 0.4938699
8.717298 20.80804 -12.30836
13.15967 23.78786 -12.33064
13.42515 21.13606 -12.19995
3.385508 20.0556 -12.0235
-22.44361 55.75315 -3.108551
-24.09167 51.20331 -1.886851
22.85295 37.05902 -0.9651557
23.14511 34.75058 -3.044559
-20.78283 72.41445 0.1619861
-20.76297 80.27986 -1.895577
-22.25516 77.69804 -3.874501
-22.21837 74.94019 -4.723009
-21.71962 89.99965 -2.582738
23.05785 82.50038 0.5114019
21.00824 86.98453 -0.6301635
23.52915 75.74332 -0.07020187
23.30763 79.32079 0.2354944
23.74451 73.17448 0.4315156
18.49514 93.8418 -0.7640412
-4.441388 113.7437 -9.138995
1.382765 113.2694 -8.575336
6.002525 114.8568 -6.539511
-9.005114 20.43179 -12.01575
-21.33893 38.64454 -10.53189
-23.31951 42.75459 -4.393444
-23.7093 41.11114 -5.804469
-17.84316 23.08053 -11.34654
-17.3912 23.0252 -11.38079
-23.11317 28.23404 -5.442833
-21.19102 97.25633 -0.4037848
-17.35173 108.2987 1.18443
21.80763 53.13199 -2.719784
23.60563 56.65273 -5.219478
21.32301 50.95575 -1.545685
23.82861 59.91886 -2.727633
23.7683 69.17361 1.167733
-22.10114 60.16531 -1.701737
22.99746 28.26753 -4.525109
23.71303 74.12623 1.947499
-1.132779 114.001 -7.408156
0.6911054 114.0471 -7.189045
13.5744 111.491 -3.5678
-8.681875 22.07154 -11.95127
-23.02855 37.44221 -7.860015
-19.61372 94.55755 -2.639265
-8.92409 114.7424 -8.181302
5.566048 20.63381 -12.12909
23.16845 43.63353 -2.123944
22.90595 29.87992 -3.666633
-21.57298 81.34348 -4.915517
19.57511 87.66921 -2.831472
20.26371 82.92916 -3.590764
18.9381 91.2662 -2.378606
19.72402 86.63254 -4.207979
-0.5174411 108.7886 -9.377611
-0.1158941 109.221 -9.487955
9.192587 110.3791 -5.770741
-13.25372 24.21122 -12.01733
-22.38379 28.56856 -8.562132
-9.022491 112.9819 -8.982359
-22.85124 48.45909 -5.251406
22.07485 44.76549 -5.350946
16.09295 98.02754 -5.499303
9.692671 110.7687 -5.307543
-10.59071 23.32113 -11.96901
-17.17201 100.7047 -1.329507
-17.17008 97.14254 -3.143071
-10.97314 113.2014 -5.70173
23.13229 38.47602 -6.198247
21.09358 80.08338 -2.925162
8.905528 110.0435 -6.320479
-22.76379 29.0189 -7.45691
-15.83511 109.8674 -1.478811
22.192 44.08648 -5.720803
9.133673 110.95 -5.931951
-6.672702 23.20758 -11.64994
-8.986206 30.9222 -12.65156
-16.27055 107.2748 -1.287205
22.01778 45.22068 -5.766588
23.36233 39.48257 -4.876287
-13.40697 108.3328 -3.493686
23.22303 35.55701 -3.913474
23.3094 39.44249 -5.252142
-12.71588 107.3368 -5.051328
-8.716007 108.5024 -11.89976
-12.78348 104.7991 -6.428071
-10.09892 29.70979 -12.21466
-10.70278 107.9757 -9.655931
-12.7827 107.4422 -4.894257
-11.69314 107.2958 -9.013556
-13.42204 104.8891 -5.692041
-5.121485 111.8167 -10.48643
-14.09507 102.9188 -6.859606
-13.48968 100.9244 -8.630114
-15.79687 99.05365 -6.512706
-15.22597 96.87515 -7.621552
13.83971 113.6459 -2.666661
14.58884 112.4683 -0.08171657
15.8257 105.6347 -2.548391
13.44166 109.5831 -5.232907
22.73285 25.34352 -3.84311
22.69801 23.27492 -4.224808
12.61782 114.1394 -3.207928
-13.20958 112.1346 -1.643918
-14.79982 113.168 -1.095611
-14.37014 109.9533 -2.336959
-5.355627 21.71184 -11.77277
-3.143589 24.02439 -11.48096
1.775791 21.19139 -11.77209
1.369997 25.863 -11.91071
-0.2414014 25.09759 -11.71999
0.8435002 27.35054 -12.29278
-0.3206922 29.60395 -12.83864
-1.357603 31.63787 -13.29026
-6.757995 30.06976 -12.68314
-3.156375 26.42584 -12.03659
-21.03829 66.839 -2.82567
21.96814 84.56765 -0.9748994
23.34852 61.04324 -0.575617
12.5856 26.83187 -12.23999
2.911788 31.39581 -13.11786
13.32994 25.46896 -12.36211
22.39835 46.69629 -6.386773
22.90709 47.77067 -7.004736
-22.07966 72.28388 -5.173982
23.06094 74.16154 -3.359947
-23.13023 42.19149 -7.210582
-22.91769 41.48209 -7.76939
-20.88979 44.86788 -10.08993
-21.14724 46.77684 -8.065866
-19.63753 49.35174 -10.8407
23.35272 51.75845 -6.086844
4.287807 23.00338 -11.66502
-23.25925 33.52788 -6.198996
-21.77758 37.22575 -10.0068
-21.38608 35.75351 -10.42457
-22.11499 30.73403 -9.227429
-18.84586 29.73324 -11.55468
-19.15696 27.77699 -11.34594
19.74232 88.64496 -1.091282
-1.916603 110.695 -9.686985
6.937506 112.3016 -7.87586
-21.19905 49.66697 -6.552161
-21.53674 53.96077 -4.110769
-20.94527 56.14487 -4.563798
-12.90454 112.258 -4.030231
-11.84065 113.5422 -3.631019
18.09956 83.57924 -6.434391
20.79374 77.56679 -4.855396
-10.29764 24.96373 -11.77144
22.97512 36.05387 -7.489772
22.80524 35.65618 -8.21874
-7.555614 105.3996 -13.25045
-15.52849 100.8864 -6.053757
-17.04844 95.28847 -5.362249
-13.51933 99.46271 -8.67473
13.29661 108.0839 -5.029128
14.0947 108.1874 -3.061608
16.78517 106.389 -0.4028487
17.27195 103.2749 -1.577173
17.40255 102.765 -1.350346
14.94489 104.3895 -4.007136
13.46621 105.1937 -5.549726
11.92995 106.5939 -7.657653
13.2441 106.9794 -6.216202
11.86706 105.1751 -8.507133
11.63365 102.6076 -9.498592
-15.91348 110.5418 -1.127022
3.924996 24.51221 -11.4916
-0.2476701 30.52718 -13.06223
1.33892 33.38116 -13.06901
5.121129 36.97433 -11.88202
-2.846322 30.82734 -13.11795
5.449373 31.65105 -12.978
-12.26233 33.28395 -12.74049
-21.91922 88.49773 -2.196011
-19.98128 89.45447 -3.807698
-18.59534 85.49548 -5.198981
-19.33516 88.28159 -4.05809
-19.12733 92.36098 -3.226023
-16.78326 90.80461 -7.980755
17.22043 101.4626 -0.4468014
23.65367 57.89423 -4.987364
14.856 58.50949 -8.76844
22.9277 62.6468 -5.772522
20.84501 69.90243 -6.997365
12.3274 29.2477 -11.89648
12.62269 29.82955 -11.9046
7.012331 30.91555 -12.63335
9.816101 29.20793 -11.75997
-20.89782 56.02508 -4.835008
-21.8327 62.51734 -6.085634
-20.78513 60.95689 -3.298359
-20.72526 68.75052 -7.523785
-20.54241 68.0267 -1.574939
-20.79018 69.83442 -7.263155
21.97443 76.66595 -3.501493
21.61554 76.46841 -3.91077
18.39945 79.88978 -6.570927
20.50172 69.92294 -6.9914
-3.464706 110.6408 -10.82523
-21.11775 53.22651 -7.150846
-21.13868 53.09083 -9.330221
-21.22162 49.75474 -7.86643
-20.29462 53.21821 -9.998247
-14.18011 41.61818 -11.42404
-18.03217 26.9335 -11.49203
-21.9024 25.6327 -9.062595
-22.04878 25.38172 -8.805114
22.995 57.06814 -6.556099
4.002489 29.18403 -12.54574
6.619525 26.40417 -11.60322
-10.90903 28.08799 -11.74936
-13.26925 29.562 -11.83877
-14.27207 31.12352 -12.00115
-15.59988 25.93187 -11.87625
-14.68291 26.13361 -12.01295
-16.53722 30.36274 -11.98995
-19.05357 42.83535 -11.68439
-22.81424 40.48548 -8.155097
-21.60601 36.22789 -10.19992
-21.11205 36.49222 -10.67051
-16.36501 36.63468 -12.46132
-13.59764 35.80118 -12.92989
-19.83542 38.61169 -11.51968
-9.861772 31.97415 -12.78919
19.85222 86.21651 -3.329916
18.59319 92.11958 -5.001579
11.55362 103.9619 -9.168731
4.57657 111.2712 -8.755687
22.75485 43.64382 -8.527405
23.15717 31.41589 -5.938263
16.27809 85.68823 -7.429438
20.24865 78.1628 -6.207915
20.9778 76.22051 -5.404996
16.71806 76.07207 -7.214966
15.84318 80.4202 -7.820122
15.05667 82.14195 -8.793064
21.9434 35.06072 -9.758394
22.75245 33.30258 -8.161168
20.89161 32.44024 -10.76562
19.72555 35.25281 -11.58913
20.11594 40.74194 -11.02874
10.96453 37.52448 -11.69285
20.80969 39.86856 -10.72124
21.665 41.43853 -10.09815
16.69637 25.9551 -12.18105
20.73627 33.34934 -10.91167
16.83512 29.61305 -12.29358
14.35745 32.91102 -11.9738
19.03181 26.21496 -11.90512
17.79917 30.24627 -12.19059
18.16604 29.96019 -12.13655
22.16126 23.48839 -8.389055
21.18822 28.61885 -10.33322
20.84738 20.6697 -10.32876
18.42835 31.40757 -12.0667
20.15755 23.04144 -11.2478
13.75401 103.6757 -5.817998
9.920328 104.029 -9.613621
12.12576 103.5419 -8.78083
13.22225 103.0886 -6.663182
9.246184 97.78828 -11.60396
12.59069 100.6548 -8.885807
17.59337 100.4385 -2.913643
0.1337043 34.4711 -12.45212
-1.657533 34.99966 -12.21625
-7.279283 34.72057 -13.03177
-5.202507 35.69274 -12.2153
-21.55014 89.9295 -2.930801
-19.48385 84.60306 -4.738924
-19.35765 82.63495 -4.939708
-17.62292 82.91431 -7.754099
-17.13184 94.6571 -5.147377
-17.05161 93.07809 -7.114542
-15.84183 91.92798 -8.564094
-12.96591 93.73016 -10.7772
-14.70678 94.54972 -8.60931
22.74977 59.96223 -6.488479
23.33179 65.6134 -4.535797
-21.50559 65.25904 -3.898594
-21.94592 65.05345 -5.985231
-20.01159 64.95831 -8.395372
-21.08977 55.85645 -8.955709
-19.55093 56.49905 -9.833429
-16.9447 70.2535 -8.825936
22.45661 64.00131 -6.268843
20.89925 67.65942 -7.208251
-2.776327 108.4896 -10.47509
-4.390093 107.5055 -11.45735
-7.575774 107.2212 -12.59439
-2.213122 106.5137 -10.06008
-8.588847 104.8575 -12.61437
-20.51064 44.03042 -10.85956
21.24811 51.93361 -9.0639
-20.9747 39.60642 -10.8493
-11.53247 36.76097 -12.76242
-13.90839 38.90945 -12.10033
-17.94333 40.47357 -12.12205
-15.35532 44.74762 -10.93674
-11.47458 45.87329 -11.34115
-13.90287 45.2832 -10.62228
-8.005281 38.40885 -11.85715
-16.11122 45.14967 -11.11081
-15.82348 47.16187 -10.54344
-17.29234 43.12175 -11.93117
18.61067 86.5928 -6.210973
17.15707 86.35515 -6.673024
17.58802 87.24022 -6.484503
16.50591 37.25954 -12.20251
18.08624 39.21709 -11.82776
13.26718 42.76713 -10.72116
14.15237 39.30619 -11.68331
16.27903 36.18077 -12.19436
13.94774 37.47847 -12.31736
11.5109 34.43828 -12.66149
19.21907 31.48256 -11.82079
-11.04323 107.2234 -10.10791
14.64891 99.42998 -6.597325
14.30672 96.19926 -8.420837
12.51516 98.57785 -9.575307
18.32302 96.2462 -2.675472
-22.03701 80.99152 -4.377331
-14.52237 87.79886 -10.29832
-14.54439 82.26966 -10.56337
-11.98625 86.35433 -12.2869
-12.15573 82.34122 -12.22308
-14.62183 83.90981 -10.39049
-17.54428 79.8177 -7.708611
-18.90531 78.05397 -5.9461
23.40202 68.40234 -3.840263
-20.69465 60.35418 -8.841822
-15.97115 59.13308 -9.025316
-16.57661 58.67884 -8.844857
-15.58132 56.12442 -9.321649
-15.19599 56.07797 -9.509269
-14.92753 56.76648 -9.751781
-12.49844 54.84251 -11.77123
-14.72732 53.47324 -9.952422
-18.7661 52.51188 -10.49511
-21.76082 75.58952 -5.608704
-21.76071 76.87347 -5.308893
-19.16435 76.06341 -6.066454
-18.34986 64.59214 -8.058636
-18.53099 65.74066 -7.862431
-14.1833 78.6083 -11.16358
-18.02056 70.091 -7.449105
-15.62552 67.79929 -10.04471
-16.92119 73.16002 -8.484599
-16.10408 74.26128 -9.756513
20.61103 62.71185 -7.941648
16.88833 63.05642 -7.871793
22.76955 49.77251 -8.087236
22.59367 55.09527 -7.439052
-8.00712 35.72798 -12.5995
-10.16246 39.70837 -11.78591
-6.619967 42.85341 -12.73247
-7.924518 37.07788 -12.05089
-14.18279 51.67785 -10.26461
-16.89435 48.12318 -10.79236
-12.97555 51.41101 -11.27652
15.5933 95.09859 -7.212637
18.19368 74.42013 -6.81776
7.029473 34.98696 -12.297
6.170059 36.13968 -12.09055
11.7817 36.83431 -12.11421
-0.8207269 99.99465 -13.5048
7.225981 106.7316 -9.965332
5.403761 102.0286 -11.9825
5.033104 100.6574 -12.82362
5.264945 99.68446 -12.64122
2.351229 97.61864 -14.87998
1.262082 97.92965 -14.95925
3.602491 98.44229 -14.03518
3.842979 96.68921 -14.53273
11.51973 90.54588 -11.36681
11.66637 93.37215 -11.21399
-20.00427 81.56106 -5.008591
-13.61759 87.97092 -11.20348
-13.29354 91.98009 -10.91108
-12.03554 93.04826 -12.08777
-13.03477 92.21172 -11.16207
-10.7491 91.47531 -12.52526
-8.69646 91.42808 -12.40956
-10.94036 84.06277 -12.50003
-9.418548 85.08312 -12.34381
-12.15793 79.29872 -12.21421
-17.41715 78.19222 -7.494879
-16.39267 65.17262 -8.882616
-13.54016 65.45436 -11.56158
-13.6251 66.27348 -11.52669
-11.56712 65.63409 -12.29124
-9.420377 61.54288 -12.3988
-14.07253 62.55631 -11.07415
-18.57059 52.35916 -10.48922
-20.85301 63.17229 -8.342665
22.19257 50.36776 -8.52131
22.39874 58.23223 -7.206284
-10.32078 46.84069 -12.08853
-1.229768 36.7536 -11.98327
1.267988 37.8932 -11.73933
-12.04025 53.14052 -11.88147
-11.11486 49.61848 -12.02752
-10.30039 45.94082 -11.96249
16.51585 89.59969 -7.377835
15.25228 86.99088 -8.587437
9.520104 91.12049 -12.08349
6.147703 95.7593 -13.32948
11.52423 94.49466 -11.19178
11.15743 96.4584 -11.18856
-14.93161 79.14281 -10.48936
-12.2261 72.3291 -12.1705
-15.98894 76.91438 -9.849524
-15.25473 75.32211 -10.4837
-13.892 56.84637 -10.85171
18.40944 63.71232 -7.853512
19.46774 61.49579 -8.368185
15.72352 68.54932 -7.938152
17.67596 64.07008 -7.700852
-2.683075 41.73731 -12.72956
-3.491771 43.33301 -12.91904
1.538636 40.32375 -11.5411
7.056317 37.27319 -11.729
-1.620407 40.9282 -12.49001
-0.4437224 41.15639 -12.1779
2.244612 43.96087 -11.47581
6.352776 39.61267 -11.79092
-4.166299 42.56337 -12.87397
8.082324 86.52578 -12.19794
13.34627 90.88029 -10.23553
15.37162 89.05761 -8.496995
12.71877 86.39545 -10.7934
14.34064 92.51421 -9.286882
9.136525 93.18501 -12.32513
8.272468 87.38719 -12.19157
6.819583 92.62072 -13.3546
4.075036 95.39557 -14.44422
-4.952252 103.8874 -13.15896
-7.370403 102.9381 -13.58099
-3.266717 98.91679 -13.50957
-10.19945 102.212 -12.36925
-5.624752 100.6454 -14.14714
-13.46091 102.9942 -7.845916
-12.16507 102.938 -9.027981
-9.173221 96.82832 -12.54879
-9.631371 105.4209 -11.79773
-7.053364 96.94769 -13.8263
-7.184998 94.05271 -13.10603
-6.022513 97.54198 -14.69509
-6.106442 94.9845 -14.67988
-4.505653 94.00104 -14.64762
-1.833641 96.57089 -14.57359
-8.723959 88.55775 -12.3753
-4.733051 89.93217 -14.9549
-6.648764 85.92545 -13.57936
-6.350093 85.7443 -13.94659
-7.145318 81.81976 -13.00318
-3.782102 86.05956 -14.7895
-14.30535 75.31979 -11.18058
-13.49178 73.36492 -11.67335
-9.458227 75.24702 -12.3268
-11.44425 76.76485 -12.40022
-8.0734 78.97793 -12.39185
-6.306506 78.41867 -13.61022
-6.290917 76.25096 -13.5097
-4.95734 77.50607 -14.51704
15.80836 63.74343 -8.117567
8.770805 40.00322 -11.87093
-7.275252 48.24445 -13.14662
14.9408 84.74693 -8.973019
12.73985 86.63168 -10.7744
7.335008 86.15124 -12.60687
9.442764 84.62093 -11.56396
14.5772 76.41942 -9.194735
14.72413 82.13988 -9.210146
9.708393 81.26125 -11.41266
8.036197 84.47089 -12.01751
6.171816 86.57481 -13.42745
6.069201 92.32149 -13.55785
4.37313 96.4719 -14.3039
0.5838381 93.1954 -14.47173
-1.589598 92.18621 -14.96885
2.267679 106.5868 -11.26282
-2.371664 101.803 -12.14785
0.5523375 102.1123 -13.60872
1.004929 105.7706 -12.39003
4.917079 106.714 -11.35667
3.59716 106.921 -10.93606
4.145671 107.9135 -10.18193
-4.063614 97.49828 -14.54469
-10.8483 98.95632 -12.25051
-9.946466 98.58354 -12.56237
-5.260652 87.17881 -14.86522
-12.93518 66.96278 -11.89776
-13.00783 68.24877 -11.85174
-11.61477 66.22655 -12.29209
-5.675003 63.99498 -13.57581
-1.083777 64.4548 -14.24744
-8.660493 67.39066 -12.40454
-2.206031 44.66298 -12.8957
-7.68985 73.00869 -12.50483
-6.859628 69.77616 -12.92314
-4.433563 75.33325 -14.58765
-5.489275 77.97614 -14.258
-12.70062 72.84023 -12.06089
-12.13313 58.523 -12.06367
-8.799114 52.55748 -12.61273
-10.34028 53.81592 -12.36831
-6.457861 58.1375 -13.25408
-3.884394 57.95436 -13.99431
-6.883643 57.98183 -13.05697
-3.87727 43.77455 -12.97588
13.36503 39.576 -11.42388
6.19376 42.78788 -11.65529
6.559042 41.12582 -11.78957
-7.990727 50.77572 -12.88425
-5.882873 47.87982 -13.24927
-4.007915 56.04963 -13.89609
-3.636643 58.08787 -14.02305
-0.4344264 55.15522 -13.39876
-1.522108 55.89393 -13.69341
-0.8402011 58.57411 -13.75623
-0.6073176 60.92796 -13.90524
-4.776139 65.72846 -14.11217
14.20966 79.4826 -9.7286
9.760867 80.01287 -11.37383
-0.1331376 89.66654 -14.25965
1.801577 87.97698 -14.6906
-4.483968 89.02129 -14.95282
-1.38207 83.56173 -14.47358
-2.969747 86.38265 -14.5599
-8.164608 61.02332 -12.54025
-8.449418 57.34116 -12.57172
18.08598 59.09672 -8.571514
15.19394 42.64089 -11.11208
-0.3429882 73.80613 -14.6332
16.64228 66.83399 -7.588371
13.49885 43.79005 -10.54753
15.02401 44.57059 -10.59141
9.067871 44.7164 -11.81684
8.831324 46.73568 -11.82822
-2.755428 52.35512 -13.57897
-6.552176 49.46315 -13.32009
3.759189 45.41959 -11.34387
0.1258844 48.43416 -12.62667
-2.811135 65.76976 -14.40979
1.336387 67.25748 -13.87073
15.58468 77.2625 -8.022804
15.57555 74.35201 -8.069207
-1.372046 107.5302 -9.826767
0.3669345 106.0176 -12.37966
3.142346 110.9227 -10.17025
0.1554629 108.5169 -11.13696
-2.681236 78.61625 -14.84309
-4.98637 80.80056 -14.6389
2.808319 83.99619 -14.66334
-3.053383 71.53977 -14.66388
-7.584486 59.56069 -12.73865
16.50616 70.13848 -7.472265
-4.769606 50.29442 -13.48997
4.225196 44.37117 -11.39175
1.158704 53.82361 -12.72984
-1.145691 59.96558 -13.92837
2.063824 58.71561 -12.76471
5.168205 54.7541 -11.30781
4.217793 59.21562 -11.73507
3.639205 63.84595 -12.44676
8.548789 75.0375 -11.37334
6.489697 71.1903 -11.62762
1.127171 108.7098 -11.14268
-1.496192 81.18998 -14.56611
1.828687 80.82493 -14.68118
2.182647 79.10831 -14.51087
3.624049 86.74358 -14.53934
5.221861 87.3478 -13.8449
13.63207 64.79585 -9.704295
0.5959008 53.80113 -12.94549
6.064919 51.42568 -11.35806
1.674781 61.91037 -13.29638
13.23601 73.43 -10.45829
2.957503 85.90259 -14.67923
4.700807 83.16216 -13.87301
2.188409 83.92407 -14.71575
-3.069403 78.37322 -14.84107
1.719113 75.1668 -14.36752
0.4688351 75.31474 -14.61989
3.69854 76.18444 -13.74364
3.132175 79.3865 -14.25782
5.206171 91.76936 -13.78549
-1.532487 70.48361 -14.58459
3.105331 51.8359 -11.64434
5.066792 55.32861 -11.30916
4.823675 45.56886 -11.40065
12.35064 47.01741 -10.34995
19.95938 46.91235 -10.39747
22.69929 48.07943 -8.40799
11.92142 50.69173 -10.72458
21.82561 52.23659 -8.585329
19.84244 51.91243 -9.758648
18.86601 51.98661 -9.872252
20.8529 49.84787 -9.597755
16.5344 49.65167 -9.867177
18.74099 56.54071 -9.145381
11.0426 51.65317 -11.24536
11.16714 58.38506 -11.35291
1.798164 65.44428 -13.55423
3.744949 63.86497 -12.38834
4.204874 67.08026 -12.45459
4.221017 71.97437 -12.99302
5.377166 69.54447 -12.04259
5.661279 76.51398 -12.5955
6.827873 68.85661 -11.44093
17.71907 74.80659 -6.736465
6.884065 51.27358 -11.50416
4.779557 49.81031 -11.30173
5.954649 46.49863 -11.50906
11.07452 53.65434 -11.29109
17.26397 53.44546 -9.324585
14.74365 50.91108 -9.493265
13.15158 52.96508 -9.898091
12.19701 56.76349 -10.68074
6.147975 62.34317 -11.34447
11.38415 58.88762 -11.24817
10.54004 60.65824 -11.48348
10.06342 63.8848 -11.4897
10.15822 65.30057 -11.4344
10.01345 54.00154 -11.65044
10.91823 64.52523 -11.42302
7.449152 56.14184 -11.41191
6.683269 57.34183 -11.28734
12.76898 64.30228 -10.51031
13.23368 66.98135 -10.25289
15.2817 70.72924 -8.248456
14.21124 71.05493 -9.32093
10.38396 72.1269 -11.36236
8.633485 72.43217 -11.32417
8.543058 46.42257 -11.84431
-12.46078 91.68722 -11.88343
2.845722 91.64775 -14.76176
12.57701 77.52831 -10.87297
-4.04188 119.8374 -6.920784
7.503706 122.0329 13.42093
13.45322 120.3659 7.667387
11.41594 119.2469 -1.125525
7.279009 118.4945 -5.030262
-0.2129298 117.9395 -6.748046
-2.855494 121.0432 13.05016
-7.019691 123.7147 14.09012
9.204823 123.313 12.29079
11.91545 123.7201 9.126146
12.85056 123.7541 7.858557
12.47937 122.1422 0.9354975
9.793885 120.963 -3.378177
-1.76058 122.3041 12.86416
-4.947954 118.4498 -6.792332
-6.472675 121.1068 15.11546
-12.8543 120.0139 8.221352
-9.68228 120.5996 12.97214
-13.781 120.6706 2.831169
4.331153 121.2995 13.91717
4.604001 122.0909 13.75734
-8.894768 121.9482 13.33338
2.15723 123.0286 13.00069
3.028032 121.1623 13.02411
11.72993 124.1049 10.29158
13.35196 122.1804 5.559489
-1.797735 121.3313 12.5005
-0.1537766 120.9666 12.34486
5.986133 122.0141 13.67057
-1.634061 120.5038 -7.244651
-11.28311 120.5219 10.83245
9.894122 120.4421 -3.08445
-10.89527 119.8584 -2.880859
-3.572807 122.3434 15.22335
1.824892 120.9164 14.44342
5.85925 118.8824 -5.645937
-10.61251 117.6904 -4.149421
9.737082 119.5167 -3.090001
-13.37423 120.9282 1.71481
11.49835 123.2474 10.42612
1.469271 117.7418 -6.56468
-2.379174 127.0194 12.59699
-1.102128 132.5508 11.79198
-0.9628237 130.7952 12.30052
0.13608 137.8879 9.676616
5.093282 149.3443 2.167465
8.576725 125.6549 12.55391
-2.099346 126.0805 12.64713
14.34625 125.737 5.104739
13.72352 146.3406 1.620888
14.72124 142.1871 4.799742
4.318873 125.3803 13.35722
15.11863 141.9223 3.966784
0.4018211 125.9867 12.86186
3.533397 125.6596 12.7859
5.52577 149.8135 1.827732
4.097002 146.3122 4.564837
9.544154 129.4853 12.94473
10.24842 125.2802 12.54823
3.036351 136.6945 11.50186
15.0611 134.4829 2.577924
7.97009 144.0003 6.325424
9.091843 142.8871 5.957083
12.85788 142.5436 4.777503
11.58881 125.2856 10.25865
13.14166 129.2872 10.50522
4.849376 143.9644 6.67792
13.71105 142.2142 4.758497
3.898175 143.7309 6.45959
14.09122 125.6125 3.252306
15.83604 138.3639 3.050207
0.9204085 132.5565 12.15636
9.574912 126.8734 12.53175
0.3559577 135.4129 10.88451
3.847405 145.3167 5.223334
6.348939 128.161 14.07919
5.841512 143.0221 8.066039
13.91074 127.7767 2.496855
14.8255 132.6547 4.627107
14.08523 125.3515 7.141348
3.70297 142.4183 7.385445
2.448062 127.6936 12.59694
0.04575064 137.4236 9.914804
0.1799979 133.8499 11.39277
14.60218 130.8461 4.450115
13.0135 127.4829 10.08405
14.32397 130.4395 9.274217
4.236361 138.0277 10.75584
14.80127 132.085 6.462309
13.72105 130.8454 10.29977
3.77759 136.5149 11.84849
14.14643 128.0046 8.963103
0.9533473 134.2042 11.458
14.53824 128.412 6.464901
15.05311 137.5818 5.845906
14.18178 131.8239 9.595116
15.22885 135.6009 6.026663
14.90972 139.15 6.215786
0.1822472 131.6967 12.26045
3.870543 136.2394 12.04338
7.63629 131.8215 14.26737
8.260364 133.2291 13.91325
10.28238 133.8144 13.29851
6.166282 138.1962 11.3921
11.10859 134.0377 12.86921
5.835161 135.0636 13.20286
2.997896 136.5351 11.5813
3.202283 133.8153 12.5311
7.148829 141.3996 9.295466
7.105597 143.6563 7.705894
8.686773 142.8289 5.888549
6.984801 133.5457 13.90359
10.28898 136.9116 11.79943
7.1984 140.0897 10.35478
12.17631 136.5586 10.38097
13.42537 137.9023 8.328479
13.87616 136.2041 9.138054
12.16039 123.5165 -0.9604748
14.69548 132.0871 -0.04353523
15.90863 135.0866 -2.545215
-10.80734 148.7379 0.5372143
1.180478 151.7296 -9.981656
-14.53835 148.9052 0.04132654
8.196384 134.5356 -11.33598
13.89112 151.7944 -4.625096
13.78633 148.9216 -0.07199484
14.70402 148.0249 0.4657845
10.07574 151.124 -8.438827
5.980714 154.0193 -6.849379
9.710906 148.9155 0.6944671
5.81421 151.6366 -0.2199748
-7.040524 121.6074 -6.543152
-7.814002 150.619 -0.7576763
15.08491 149.7049 -0.7832375
14.81954 140.4662 -10.11469
-13.62343 123.7927 0.5268322
-16.87976 133.7311 -4.336612
-17.28218 133.2246 -1.345363
15.37969 150.2453 -8.438034
-5.798671 131.7439 -10.80764
-14.18722 148.8075 -9.831812
-8.676493 152.7328 -4.398186
-16.94342 147.1215 -9.752654
-15.7269 151.525 -4.599226
-15.69481 147.2665 0.756058
-10.26975 152.7179 -5.306063
14.6036 151.1409 -7.414114
13.68537 150.7234 -8.363435
12.14445 130.0799 -6.74761
6.348657 123.9704 -7.056142
8.736647 137.2668 -12.2283
-8.142206 129.7246 -9.468999
-15.27334 140.3314 -9.916919
-17.83232 134.6829 -1.635006
7.689205 152.321 -3.447015
-7.3121 151.7006 -2.121159
12.60396 151.6727 -6.269689
-14.20217 151.3294 -7.110969
14.63178 131.0303 -0.7131527
10.03614 125.4119 -5.691943
9.363799 135.7027 -11.43417
-7.225143 132.0102 -10.63808
1.79363 154.4123 -8.942823
-15.88634 135.589 -7.568037
-15.69779 137.0158 -8.609814
-10.61557 124.8357 -6.197093
-15.42436 132.3491 -4.948987
6.346544 154.0462 -4.623958
10.59678 152.482 -5.352634
11.44595 151.9099 -4.714571
-0.161142 154.4463 -9.063622
-16.32332 147.8427 -9.711147
14.08382 128.9824 0.729304
9.499696 124.4475 -5.585006
15.08402 133.4886 -3.52357
9.367092 132.3251 -10.00658
6.882336 130.8811 -10.23468
14.98136 137.9716 -8.781463
10.86175 135.6086 -10.75596
-4.700689 122.6619 -7.640511
-2.449198 121.2702 -7.447024
-12.1596 130.9759 -8.081827
-15.91457 133.2586 -4.904149
-15.98909 129.3921 -0.9313031
-11.07282 133.1947 -9.578686
-10.61027 129.2563 -8.143797
-13.44181 124.3407 -1.319959
-12.2289 124.8848 -4.7664
8.220356 151.3823 -2.275297
10.87905 152.0557 -6.059055
-1.291729 155.0501 -8.829573
9.856338 122.9362 -4.314019
10.46635 128.6798 -7.462157
13.73277 129.9297 -2.489421
7.703644 133.5059 -11.08658
-9.488887 135.7471 -11.55734
12.79407 140.0337 -11.13852
-0.3211282 125.1844 -8.481111
-14.36899 128.1978 -2.164336
-11.42188 130.4947 -8.221943
-12.20223 135.7477 -10.06684
-14.15569 142.2591 -10.87659
9.616051 144.7589 -11.99739
12.00042 149.036 -10.00333
13.40159 144.2206 -11.13027
11.50028 127.5106 -5.654689
11.88003 127.7096 -5.217672
11.84137 131.5334 -8.033528
12.2522 129.1218 -5.852718
-6.337868 133.3659 -11.31811
12.22627 134.2221 -9.264915
11.65131 143.4705 -11.67378
-13.98719 127.7485 -2.72265
-11.32057 126.5166 -6.655638
10.66573 129.4252 -7.754787
4.963925 126.4181 -8.466158
7.348595 133.3869 -11.12187
-6.85289 136.1918 -12.14167
-9.610388 137.7867 -12.27927
12.71561 138.3809 -10.77404
11.36079 142.865 -11.80688
9.466505 140.6013 -12.36843
10.15824 142.2718 -12.16792
7.939927 142.3221 -12.57513
-2.3387 123.4722 -8.300205
-13.73913 126.7345 -3.396527
-13.25435 129.742 -6.996578
7.999522 151.4503 -8.757921
4.315212 150.8768 -10.43373
0.5569692 152.1595 -9.862532
5.151303 130.7632 -10.41917
-9.258465 141.0555 -12.42153
13.23174 132.5072 -7.139079
12.50092 145.973 -11.10565
-0.9098177 126.7804 -9.047434
-12.37897 125.0823 -4.739924
4.094321 154.3054 -8.264576
3.835413 135.7987 -12.01657
-6.689365 138.8574 -12.72888
-9.947783 143.3282 -12.13732
-4.920618 136.6634 -12.30134
-1.760006 128.52 -9.688594
0.2831547 129.0035 -9.768035
-3.299247 149.5527 -11.03416
-3.803778 149.9435 -10.85367
-14.37492 139.713 -10.12203
0.4694617 138.9331 -12.45253
2.3536 129.1118 -9.773878
-3.018183 151.1197 -10.40673
-3.486859 138.9408 -12.56373
-14.03849 145.5789 -10.84091
-11.83477 139.0247 -11.49992
-5.798788 151.2612 -9.748851
0.991855 131.0447 -10.50073
-13.07877 149.7833 -9.388618
-1.003137 130.3045 -10.27168
-12.05945 144.2632 -11.49985
-5.433533 141.3147 -12.73155
3.558906 137.1117 -12.26771
-4.117764 130.3774 -10.45449
-4.295597 148.2263 -11.51009
0.07372784 135.682 -11.97878
-4.263177 146.0061 -12.09544
-2.325898 141.3955 -12.60643
-2.85991 133.6797 -11.43204
-2.590812 143.3691 -12.47942
-4.839731 146.0083 -12.10431
-3.059164 136.0927 -12.0425
-9.204861 145.0887 -12.01878
-9.934183 147.3066 -11.18824
-0.1453532 143.1386 -12.50352
-12.67503 146.615 -10.91934
-7.219761 148.738 -11.10344
-12.69149 148.8683 -10.0144
-11.168 151.894 -6.921701
-14.69104 147.8322 0.8796895
10.48672 148.5333 1.304123
10.19031 150.5282 -1.654047
9.025972 149.5606 -10.50407
8.739178 148.3571 -11.01815
12.96532 129.1814 -4.498549
5.416399 148.1868 -11.50624
10.04145 139.0171 -12.13718
4.249807 129.7562 -9.986901
-12.78746 147.5693 -10.60242
0.4508051 134.2031 -11.53021
3.822342 140.4623 -12.6572
5.942999 145.4664 -12.2317
-0.4079968 145.637 -12.12984
2.043536 146.4892 -11.94024
3.835938 144.8597 -12.28433
-7.447158 151.4454 -8.976862
-1.763361 148.5877 -11.27517
21.74037 29.47159 0.74001
-2.054825 29.5508 20.80681
-0.3402851 105.0408 13.06846
-3.707745 36.21 19.45085
0.1618642 56.52177 16.00841
-2.871541 54.21134 13.91602
-2.376776 117.2644 11.88882
3.523165 116.5009 14.82835
-4.879182 73.16493 12.09925
-2.736865 95.44388 12.19717
-4.81443 66.4273 12.17985
10.99901 120.1225 10.57913
-0.4195495 119.0747 13.1819
-2.808048 108.5124 12.99956
15.12811 115.4385 8.450861
-1.95218 116.4474 12.97998
11.06082 20.59848 15.68073
7.649269 19.60644 17.28018
22.82477 49.1887 0.9133574
-1.780955 19.62944 21.56796
20.05676 62.34792 2.921676
22.43364 85.15092 3.609614
17.73807 111.6572 4.756916
15.71463 117.3942 5.261207
15.83753 115.2358 7.270295
22.48479 74.83782 3.944003
18.97892 105.1837 2.681817
7.878642 76.73878 13.99439
22.25114 51.73582 3.901765
-1.570419 93.77471 12.88795
0.1995694 117.4267 13.62559
-0.1252388 116.5307 13.77392
1.554247 116.0812 13.05584
19.36429 20.31229 1.403551
11.39413 119.217 9.741894
20.62164 100.1387 4.405027
7.655162 118.7917 14.27239
-2.143075 22.60084 21.21517
-3.484988 31.73973 17.91634
6.598157 19.26204 17.51765
20.97065 35.52338 3.648819
23.23342 67.52186 2.163218
-1.86276 88.91804 12.98478
-2.896826 110.3192 13.79931
-1.440795 114.445 14.04316
0.01483245 113.3178 12.51062
4.03917 119.4822 14.4848
11.17402 20.49074 12.54575
19.22696 19.36931 1.132353
13.83706 118.9344 8.26166
12.73119 115.9331 9.329821
20.17603 102.7867 3.133235
-3.333475 105.765 12.74419
-2.836715 25.44443 20.51192
-2.954221 28.73392 18.25303
7.282805 20.60812 17.07342
-4.48945 41.54343 16.69339
21.47943 42.53293 4.023859
-3.133106 72.14309 12.84827
18.90552 71.10065 7.181353
22.63984 84.42442 3.258178
-4.050898 105.2787 13.12219
15.07758 18.69269 6.171775
21.57361 37.01659 3.035643
18.18093 21.11616 3.33716
17.46487 110.1964 4.343484
18.79305 106.5056 3.037729
21.02234 96.44684 4.595152
-2.628383 27.44245 20.75345
-3.286408 32.70195 19.78218
-4.003227 35.29202 18.29729
1.795252 41.40956 17.23641
-2.05637 30.49212 16.91628
10.50532 20.85265 16.01067
4.603192 21.09205 17.08896
-5.137913 50.28279 15.56645
22.6544 51.44959 2.342831
-4.691374 64.77715 12.41963
21.12173 63.53561 2.168484
22.45661 66.40297 2.518871
21.96849 76.3493 4.422672
22.03609 92.32742 2.652497
-4.776693 75.96982 12.12049
6.247313 117.4565 13.60608
11.43099 23.46318 14.55752
22.18121 34.65162 1.194389
9.856611 117.6377 12.63537
14.89382 114.5964 8.812181
18.733 107.2156 3.521131
18.77826 99.01479 6.995341
-4.13911 101.0424 12.58053
-2.232257 95.09895 12.45864
10.09252 20.04314 16.3347
-3.795711 55.54442 13.65652
22.49652 48.07855 2.893213
21.80538 52.46243 4.715985
-4.318949 58.74519 13.27737
-3.641021 68.13672 12.49233
20.14717 60.67824 3.248543
20.33275 74.1897 5.08266
21.63658 88.31288 4.526946
-2.950207 88.42191 12.40585
-4.835437 81.03173 11.92785
7.930574 118.6786 13.28346
11.60396 19.77452 10.61689
18.9322 33.21357 5.55659
17.48379 112.8682 6.170515
19.9618 103.8505 4.728158
21.07662 98.22754 3.710382
2.598091 21.82705 17.30293
-4.446989 48.74979 15.04396
22.31497 46.07352 3.026616
21.35009 57.30589 3.101454
-3.151514 57.66509 13.49694
-2.754505 63.68248 13.21959
-3.880317 70.36388 12.43914
19.8948 63.52709 3.513664
19.23141 67.6775 5.795384
19.47449 71.33092 5.76335
18.88109 72.28773 8.404349
23.19056 75.74946 3.119039
21.04156 91.4205 5.044326
-3.358698 85.05361 12.36996
-2.666841 76.12472 13.1285
8.430161 114.7144 12.65343
2.64172 114.7707 14.77608
8.338423 116.8825 12.51271
21.40115 35.39556 2.948874
16.09547 111.0576 8.328504
18.84879 101.5427 6.624973
-1.007355 37.2825 15.99119
-3.583206 54.37607 13.88083
22.06392 41.05855 2.868594
18.87489 42.43327 7.021294
21.81238 50.16477 4.449895
21.53842 51.42957 5.007003
21.36443 59.56406 5.327815
-1.802163 62.29663 13.97398
13.84032 59.66758 10.32954
-0.8877194 93.56265 13.46396
-0.8937297 109.8576 12.38488
2.862233 118.9031 14.26463
13.76465 22.50953 8.752971
15.96203 21.12148 6.276
17.53399 111.3542 6.738819
19.07712 103.5872 6.222067
14.69443 100.5317 9.147838
-1.32236 99.17435 12.67752
-1.059163 48.3175 15.35891
-2.271552 55.34705 14.10174
19.23848 38.26927 6.131378
20.49052 54.3173 6.742927
-0.7346458 58.53546 15.08091
0.9414737 75.26885 15.7095
0.8303918 76.62774 15.57878
-1.448982 91.70399 13.12493
-0.1937229 92.46673 14.19096
-0.3748918 88.45903 14.19972
21.13335 34.90188 3.299471
17.88929 102.8497 7.702173
18.37136 96.89288 7.965356
19.51263 91.88071 6.172509
0.2170337 48.19818 16.34494
21.11959 56.90739 6.212564
-1.899185 66.84447 13.7199
0.5667861 70.73907 15.59205
0.9673076 80.45396 15.55506
-0.5938258 92.0714 13.81894
0.3071066 86.79565 14.85686
0.5519602 78.20591 15.3228
1.870328 81.57619 16.0963
-1.594979 85.85952 13.32492
-1.237301 47.4837 15.28095
-1.31991 54.50332 14.97452
20.50782 58.20195 7.144929
0.4902052 64.96739 15.76111
-0.581002 93.96926 13.7518
-0.02852378 77.1682 14.87817
-2.94341 45.2371 14.89796
20.01318 48.98225 6.674201
17.25914 38.95344 8.070811
18.17284 42.19294 7.63666
19.63214 55.8196 7.832809
2.349417 71.84735 16.73265
0.4179704 92.16528 14.78153
1.966125 78.02103 16.30312
9.457933 44.09662 13.52612
17.50429 40.88914 8.077917
16.09643 42.25519 9.138148
17.65167 44.69795 8.362819
21.22524 58.18971 6.138471
18.6277 57.35608 8.872097
0.5794634 98.12928 14.68219
10.79659 25.89124 11.10262
-0.09814736 52.7817 15.97342
17.16148 55.61906 9.651508
-0.5774887 99.19187 13.53179
4.75843 78.15582 17.09561
18.63675 23.60538 3.717716
17.43032 25.63086 5.877025
15.02702 55.70851 10.26478
14.59396 48.83332 9.838464
14.61126 59.61475 10.45752
11.19521 48.22897 9.858071
15.7176 47.31455 9.64871
17.09374 46.56011 8.941833
18.88084 47.62902 7.631409
14.52544 58.79475 10.4153
-4.669838 39.74492 17.72632
11.89429 111.2418 11.90618
10.46056 112.4085 12.45136
8.276533 111.4853 12.74379
8.042068 113.3004 14.20371
9.588938 22.60591 16.08571
12.13101 114.4983 9.461963
11.25161 113.1323 12.30301
11.71479 112.7725 11.65649
17.76578 108.7766 6.979904
17.10219 103.5624 8.336193
16.35785 103.9536 8.712703
