# .PCD v0.7 - Point Cloud Data file format
VERSION 0.7
FIELDS x y z
SIZE 4 4 4
TYPE F F F
COUNT 1 1 1
WIDTH 1668
HEIGHT 1
VIEWPOINT 0 0 0 1 0 0 0
POINTS 1668
DATA ascii
9.946358 132.7447 -9.989381
-6.546039 152.8869 -7.912336
13.828 130.9661 -4.0928
12.89405 130.9811 -6.476308
11.76317 130.5013 -7.548376
-1.492825 149.5136 -10.82339
7.295031 118.6423 -6.685724
4.673978 120.8397 -7.387059
5.28352 118.4409 -6.920944
3.488157 119.7707 -7.669972
4.167063 117.6635 -7.279929
-9.502917 115.7613 -3.934854
-12.27549 115.7027 -0.7154411
-10.68846 118.4562 -2.352877
-11.64903 121.9822 -1.652823
-11.46299 121.3857 -3.422537
-12.21828 117.8285 -1.169358
10.29377 113.9652 -4.711362
-13.08797 115.9715 1.684387
-7.656175 125.7913 -7.551109
-4.22701 128.8553 -9.65291
-4.430355 123.8645 -8.297213
-5.232833 126.6024 -8.5683
-3.948543 125.9191 -8.612885
-0.3363155 123.5943 -8.459091
-3.379563 121.591 -8.209886
12.13543 115.3102 -1.553732
-4.839614 121.9817 -7.957271
-1.602352 118.9218 -7.772629
-3.777939 129.9026 -10.11561
-1.256148 130.0651 -10.1729
5.850386 144.7626 -12.38531
4.849681 144.4888 -12.34335
7.090284 142.8195 -12.66166
2.938575 143.9275 -12.08117
3.608758 142.7115 -12.33799
-1.087872 142.7345 -11.97605
-4.464918 147.2543 -11.84632
-2.856254 148.4162 -11.36205
0.2200187 144.8169 -11.69793
0.3481216 143.3748 -11.86605
0.9534174 138.1622 -12.08546
3.060352 139.0626 -12.3675
0.003843916 141.956 -11.9956
2.798176 143.1493 -12.13295
-2.577602 131.0199 -10.55657
-0.8629379 129.5158 -9.949729
-4.686336 150.3347 -10.6078
-1.766643 150.0572 -10.66999
2.674394 125.5828 -8.683035
-0.6551514 119.5522 -7.832314
-0.7259231 119.188 -7.778767
-6.177737 124.1943 -7.689435
-2.15087 120.9688 -8.082204
-1.236701 118.5014 -7.696672
0.1529168 129.7299 -10.03497
-1.107158 127.4159 -9.195765
0.6447065 127.2865 -9.17828
0.5471184 126.4684 -8.961106
-1.231691 128.9457 -9.727233
-3.215819 127.8508 -9.274278
-0.6140223 126.4466 -8.954247
-0.8885999 123.3581 -8.406404
0.3680034 122.1856 -8.2687
5.42726 143.3333 -12.56724
-3.452141 144.0328 -12.17177
-5.747802 149.1605 -11.11571
-4.655153 149.2062 -11.1777
1.641887 119.4865 -7.877182
0.457871 119.4607 -7.817216
2.878202 122.8027 -8.152494
-12.66879 119.9265 4.099975
-13.644 126.1141 3.048284
-2.370035 111.6479 11.97806
-12.66515 111.4196 6.8334
-12.884 111.0334 6.695258
9.056881 146.4391 2.93697
-2.407157 137.9284 10.9618
-13.51208 125.348 3.882843
-13.19258 137.2058 8.05662
14.80696 134.1845 1.073032
-10.70469 143.9912 5.368943
8.829535 150.3754 -0.8716542
-6.519578 149.2784 1.628833
15.06799 133.0405 4.685631
0.4393558 136.1424 12.1436
-9.32474 130.6693 13.34595
9.639453 148.3151 0.7630956
-7.728626 151.5589 -2.323019
4.858639 142.3464 7.821485
-2.311135 144.7605 5.995245
-11.11866 113.5678 7.988928
-9.132093 111.0453 9.825555
-10.27778 110.4058 9.34902
-4.713344 111.2449 11.79603
-10.28123 143.2884 6.418752
-9.418221 110.0589 9.821296
-11.9001 110.7316 8.082737
0.4932145 109.8686 12.10114
0.4687866 139.0596 10.19786
-0.4511223 138.9155 10.2494
13.73789 126.7429 2.380147
1.607511 137.0434 11.63417
13.83543 113.9368 2.891942
-0.1108184 142.4828 7.871203
0.5135128 146.275 5.480322
-0.5620924 143.7596 6.97414
0.7724335 141.2909 8.736672
2.316341 146.8041 4.784606
14.84307 135.0593 2.4642
13.70616 116.5417 4.681911
12.03746 140.7773 6.541441
13.03083 117.2922 3.07074
-10.60485 112.3055 8.664221
-12.51803 116.5466 6.404798
-1.290604 145.9343 5.457163
12.93991 138.9479 6.479498
11.47673 143.4087 5.024874
11.70055 142.8913 4.566393
14.4557 131.6683 1.419338
14.94429 133.5941 2.826003
11.58581 110.0356 8.573816
-4.771425 149.1011 2.529936
-12.03148 110.5677 8.007284
-10.00519 113.4272 8.941893
-4.121285 111.5492 11.90991
-14.70304 132.469 1.742289
-0.3512809 147.7563 4.460571
6.570821 149.9884 0.7328989
14.97641 133.165 1.74824
5.070754 149.4671 2.070284
-11.11075 114.5881 7.882843
7.352228 150.1978 0.07520106
7.348318 152.4609 -3.490154
7.073422 151.3237 -1.519909
-1.535978 140.4574 9.050958
-12.34412 118.6623 6.587594
-13.08603 114.5643 4.631507
-3.452862 111.5147 11.9646
2.103443 110.9207 12.04567
-1.152256 112.4652 11.96212
-14.91633 135.0931 5.089467
-13.97526 129.2009 3.329828
-8.178545 133.7607 13.81175
-8.904826 146.2728 2.478814
12.22419 138.4193 8.695555
2.53496 138.6998 10.43139
-3.050854 142.3857 7.424825
-2.861959 144.6257 5.953885
10.58768 111.1378 8.992012
14.06397 111.1544 3.439573
13.72133 126.7437 3.278277
14.361 131.2371 1.91911
8.854267 149.2002 0.2166281
5.571875 145.5845 5.351336
4.962554 145.398 5.311368
-12.55587 119.0046 4.946845
5.707812 112.4047 11.35931
2.635346 112.148 11.95586
-13.92486 128.0903 2.541509
-14.47458 130.7229 6.599703
-0.6272628 137.4934 11.2662
-9.429969 145.5552 3.695253
-7.551372 147.0603 2.756878
12.05078 140.0166 7.231831
9.537441 144.8695 4.525088
5.080752 140.4502 9.390033
-3.080115 143.9719 6.337948
2.94362 144.5442 6.04433
10.66273 112.0567 8.69271
13.88246 115.0601 4.100795
13.06552 121.787 2.257527
12.50482 111.0746 7.261232
12.00291 113.4264 6.926423
13.95701 128.4496 1.327255
12.9792 122.4245 5.224902
14.04937 137.7954 7.021399
7.256546 146.6882 3.333796
7.390652 145.3659 4.059396
-12.41276 119.4553 6.039773
3.197067 110.5988 12.07791
2.701645 114.5924 11.89075
4.199552 112.7202 11.80138
-11.02367 115.8324 8.006272
0.5973342 112.7922 11.97006
-13.489 126.8789 5.103547
-13.73714 127.3062 3.848033
-14.29165 131.89 9.279042
-3.096535 138.808 10.26921
-1.253985 138.5922 10.44548
-10.51139 142.6507 6.967835
-12.83237 136.2259 9.892296
12.0494 140.9955 6.082536
10.13539 141.2695 7.940679
13.25295 136.6755 8.777416
10.98659 139.5657 9.105039
5.645743 138.1848 11.11041
4.18249 141.0735 8.70257
7.843879 140.0786 9.092032
-4.07339 143.2993 6.616878
-4.655067 141.3143 8.258274
13.86156 113.1892 3.025924
11.72316 114.2429 7.190268
11.47377 115.7753 7.380251
13.31176 123.973 4.834307
13.37118 124.8299 4.644794
14.68961 136.8324 6.159726
-12.80657 121.4425 5.510925
5.102764 113.9671 11.50829
-7.016864 115.5785 10.71892
-10.22387 115.4589 8.738801
0.2564784 115.4565 11.99634
-13.95475 129.5183 6.66053
-14.1536 136.6969 8.100508
-0.608314 138.3273 10.65432
-5.790107 141.8822 7.852208
-7.456183 145.2041 4.209006
9.930134 142.9053 6.466714
8.588646 143.5 5.666594
6.443079 145.0194 5.693942
7.072865 142.8466 6.671182
11.32727 140.2266 8.433875
14.24133 136.5155 7.741513
2.077276 137.2787 11.4759
-1.252406 143.5158 7.026358
-6.188071 140.7157 8.730681
14.26901 130.3285 2.555931
13.47844 126.4901 5.184867
14.95334 134.1475 5.060019
15.05752 132.8732 4.308697
14.03656 129.4909 6.297871
-11.89463 119.3154 7.984781
-5.310717 121.0435 11.90927
-1.227142 116.5382 12.02858
-2.853708 114.0989 11.88556
-13.20687 123.7899 4.786505
-0.06977268 135.7647 12.36468
-7.727409 142.5082 6.398172
7.027492 144.6463 5.262178
10.91948 140.0308 8.731808
3.581566 136.0745 12.37647
3.273527 142.0284 7.86361
-6.557522 142.9588 6.784655
-11.51819 120.6313 8.675207
-8.245727 118.4202 10.48051
-10.1817 118.152 9.202882
-1.752866 134.4897 12.97561
0.3831254 133.5661 13.13649
11.62968 136.2715 11.27788
13.5371 133.6471 10.68013
6.430887 137.9591 11.30904
8.574893 137.1636 11.94208
12.35706 135.2006 11.36198
12.84678 134.5594 11.15524
10.69339 135.4073 12.58205
12.31804 133.1551 12.15378
-6.251898 143.8709 6.250098
-6.149742 146.3134 4.04748
-8.812759 116.0842 9.811114
8.03841 136.8018 12.35388
5.901239 138.9069 10.57183
14.5625 135.1209 7.414683
-7.044427 146.4815 3.742427
-8.482164 116.1535 10.0179
-8.533627 119.1657 10.46047
2.442037 131.4981 13.3588
-7.589528 121.0956 11.22355
-6.494956 117.5277 11.13292
-5.67106 120.9327 11.81014
4.957988 132.5445 13.59434
3.420976 134.0985 13.1708
5.496081 134.203 13.47075
-9.295591 148.23 0.709512
5.522074 147.6948 3.429636
7.816782 112.0296 10.37282
10.80978 114.7822 8.22128
7.20756 112.7759 10.60936
9.097931 114.1792 9.511562
6.706758 115.7005 10.80722
-13.30211 124.7524 5.061975
-12.56044 127.07 8.073083
-14.16908 129.9137 6.423125
-12.19749 125.902 8.382588
-11.90623 125.8674 8.911955
-13.40581 130.3247 10.26357
-14.15007 130.2231 8.330831
-11.22748 124.2941 9.519633
-10.99654 122.6539 9.517057
-12.0747 121.6686 7.787558
-4.747711 127.4918 12.86426
-10.21925 124.7735 10.60538
-9.860575 127.7343 11.74716
-8.965568 125.3414 11.45896
-10.09271 125.085 10.77541
-11.00899 129.9239 12.32712
-12.7022 132.5485 11.84777
-8.004649 123.1131 11.41035
-8.540307 122.2768 11.03427
-7.241993 126.0746 12.24318
-7.335883 122.8303 11.61713
-1.950513 132.9464 13.31761
-6.645675 130.7434 13.58583
-4.291133 127.0564 12.81865
-3.025353 129.9886 13.28145
-1.530219 126.6196 12.83047
2.091074 129.69 13.18311
-6.636209 126.6924 12.50347
0.8960336 131.2228 13.31339
-1.435333 133.0468 13.26887
-3.142676 134.8079 12.93787
-1.815393 122.8081 12.45471
-2.111683 133.7402 13.18999
-5.658788 139.1701 10.10816
-4.842457 133.1835 13.582
-14.613 136.0481 7.948588
-14.62367 133.5634 8.408263
-14.24337 134.6069 8.822091
-13.6626 133.3412 10.52219
-14.64741 131.6234 7.914994
-8.703752 139.756 9.445019
-11.96822 139.0657 7.687904
-6.219995 136.9164 12.20179
-10.56587 140.0102 9.209692
-7.866321 139.8893 9.069449
-9.782491 140.0718 9.500747
13.33678 123.6199 4.395966
12.68596 126.212 8.028483
13.12216 118.4751 4.878114
12.6304 122.0574 7.927784
13.40293 117.9055 5.260551
13.25734 118.5022 6.411841
3.739282 116.4971 11.80516
3.300505 116.7876 11.8839
-0.5840139 116.725 12.05188
5.979623 115.1861 11.12739
5.032395 117.8598 11.535
2.290636 117.952 12.02623
4.661847 121.5304 11.96024
4.885921 122.139 12.00819
7.772414 123.0123 11.40991
3.82204 122.3591 12.16525
6.958794 123.217 11.73017
8.867875 121.5166 10.66574
12.15211 123.9484 9.141979
8.645334 119.5596 10.44998
10.66864 121.7123 9.469735
11.98298 130.3775 11.98444
7.595968 117.8447 10.60963
4.112472 122.6559 12.1664
12.50269 124.949 8.13853
8.895624 117.337 9.897938
4.450438 123.7865 12.26124
9.495601 125.1892 11.16109
7.376003 125.3405 11.96683
8.599851 116.3396 9.926167
9.282423 118.5752 9.916705
4.769798 126.5882 12.62168
9.332651 127.0037 11.80349
11.48535 123.9703 10.04535
12.78483 116.9968 6.313575
13.18234 127.4828 7.353411
11.12956 122.5793 9.683116
11.56208 122.9682 9.691683
12.24582 116.9045 6.601763
12.8729 126.0491 7.349204
12.40323 126.3638 8.947511
14.78107 132.2373 7.755141
14.65207 131.3309 7.079964
14.46099 130.712 7.134842
12.34862 127.6119 9.624023
6.201177 144.1532 6.543467
-12.18901 122.6039 7.543548
14.56568 133.7746 8.516183
10.7766 134.4366 12.99229
11.79801 129.4953 11.5505
11.44138 130.4713 12.3718
7.978553 131.2298 13.73218
4.276741 132.7954 13.48811
8.440434 130.3221 13.41489
9.708301 129.0552 12.43709
9.573277 127.9999 12.06749
10.07739 128.2743 11.97249
4.353622 130.4809 13.36205
10.30359 126.5736 11.31326
3.770159 127.4534 12.82323
5.523248 130.4594 13.41164
1.996183 132.029 13.3599
0.2940951 128.2105 13.0065
-5.56546 147.1075 3.507231
7.446742 139.5672 9.729673
-7.256556 120.3596 11.22944
-7.476923 121.7532 11.38122
-2.90623 117.529 11.98023
6.172344 148.5249 2.569307
-12.17205 130.5526 11.79125
0.9377009 131.8419 13.3267
-2.722453 135.3446 12.69095
-3.93354 134.1752 13.25452
-6.121224 129.3756 13.18608
-9.097302 129.0929 12.68776
-8.63439 131.2065 13.67383
-12.09741 133.4962 12.30903
-9.889727 135.815 12.72482
-12.19103 131.8731 12.2422
-8.090526 139.1696 9.933129
1.859903 118.7696 12.09971
11.97977 121.3136 8.923926
4.431288 127.7782 12.84881
1.848947 121.3919 12.27652
0.03709526 121.8308 12.38792
-1.345314 123.8217 12.55337
-3.211858 117.8758 11.96491
-1.619777 124.7487 12.63669
-3.464166 120.8635 12.1837
-3.43949 119.4673 12.0602
-4.169112 135.9285 12.52553
-7.264344 134.358 13.69888
-6.039803 137.4869 11.68048
-7.821417 138.7683 10.39351
-10.35976 137.0756 11.50168
-9.132439 136.9949 12.02037
2.620239 129.8326 13.2065
-1.819486 126.0822 12.77202
-4.153741 124.0914 12.43182
-5.90563 122.3788 11.94652
-3.832514 137.7829 11.15921
-6.715537 141.8493 7.551107
-6.740866 143.1114 6.474576
-21.90825 65.30302 4.342014
23.39101 64.65854 1.741957
7.303855 69.42205 9.5202
-26.3581 65.88654 2.337747
-4.304785 69.30228 9.896926
-20.03562 64.02869 6.218563
2.526621 75.45199 8.195885
-17.99704 80.26855 8.658412
-3.479838 65.30711 10.15509
-18.98177 73.66885 9.428949
-1.74132 65.7621 6.664647
21.69023 78.90877 6.53609
-24.84117 75.47879 2.100121
24.64427 67.73251 5.246994
17.91723 82.4836 8.711936
5.974802 71.81567 8.28795
-20.60604 82.5944 4.376799
-16.84241 81.46651 9.688916
-20.41135 77.03814 5.100151
-20.401 84.07195 3.414945
7.313546 75.08385 9.494448
-16.37436 90.78616 8.473857
10.59364 79.56367 11.09668
-15.4401 83.3662 9.938026
-8.238814 82.95203 10.6791
24.76345 70.38371 7.471001
-4.419984 84.80563 10.24738
-17.96418 78.62831 9.09091
-11.21835 88.88076 10.1144
-8.011472 90.9704 9.440006
-8.544083 85.33613 10.33377
-5.506236 78.16857 10.17278
6.436856 67.5743 8.841619
6.298187 65.55508 9.244028
17.85144 86.42593 7.97801
-2.441301 65.57623 7.501061
10.38451 78.08671 11.21308
23.68905 73.11235 7.561757
23.21505 74.14735 6.291312
-15.93541 84.16408 9.610003
-14.93792 88.10274 9.771825
25.48825 66.17593 5.009863
23.83609 64.95838 2.448298
26.12556 67.32684 6.658402
25.0243 69.86139 7.5908
-19.62668 69.43344 7.176663
8.338911 74.99831 9.990419
6.626882 67.00871 9.404344
-20.20035 63.42049 6.050747
11.61737 86.86314 10.14089
-14.87727 85.80017 9.938926
11.33007 83.16221 10.53126
-19.0793 81.1694 6.699914
14.97835 88.74876 9.691529
-19.57909 70.26775 8.490996
9.393563 74.6644 10.88467
19.4038 80.69551 8.0962
-2.157585 73.76928 8.102218
-4.686313 77.32313 9.751858
17.41754 90.78364 7.382028
18.47511 90.44324 5.71298
-18.90527 74.44489 8.142828
-25.10378 69.4176 2.70234
21.357 79.74899 -0.8692788
-20.55422 64.87648 5.493818
22.40682 63.29403 -1.018801
-24.22694 65.52286 3.234468
-22.94553 64.66058 3.827875
-20.91109 67.87305 4.898844
-17.523 87.82702 8.123962
-18.9856 89.60181 4.999075
13.40627 88.89383 10.0386
-20.78598 76.63142 4.738135
-22.83472 78.3652 3.295931
-3.3678 89.84616 10.43532
20.55227 76.27282 0.6073337
19.24826 90.54028 2.938649
-19.29517 64.47973 8.234106
4.755289 65.97065 6.838456
25.46637 67.99749 6.219533
-18.99067 75.71249 7.272682
-8.259894 86.92719 10.16732
23.55053 73.46343 7.261096
18.10576 85.79401 7.804201
21.57817 79.00864 5.353426
-19.21685 72.52224 8.705208
-17.69044 80.93177 8.968676
-7.803629 79.62844 11.26231
9.373055 78.50401 10.63334
-24.92901 66.73333 2.90826
-20.11136 82.16402 5.463978
-15.97085 82.41603 9.91431
20.96695 65.94756 -1.350611
23.28184 65.70022 2.519676
-11.15333 91.18183 9.676446
16.96602 89.82016 8.194611
-3.205393 64.96372 9.255765
-24.01812 74.15532 2.959134
-23.64647 77.68939 2.65564
4.1863 90.39841 10.25127
-5.132885 89.61645 10.35702
23.00861 73.29484 5.243707
10.0424 88.10972 10.2963
19.47715 90.2229 1.630776
18.67377 90.40363 5.282172
5.165825 66.89485 7.281004
17.77621 90.19845 7.084503
-9.368474 84.09963 10.53924
21.60225 75.4558 8.513295
23.16599 72.65182 5.191041
19.63548 83.23659 6.089367
-19.8549 68.35568 6.393836
-17.75235 82.19189 8.616332
-18.61786 79.88191 7.420788
-4.190426 77.81419 9.659491
-5.948155 76.78236 10.37735
-4.496342 74.41403 9.467625
-4.316056 71.24802 9.345882
7.60419 80.65292 10.44189
9.554081 80.65755 10.65599
8.589054 76.79024 10.21581
-17.5872 84.52476 8.419172
-20.3036 69.27233 5.483271
21.76117 65.18372 0.704416
24.21575 65.03765 2.886992
-17.84067 90.57304 6.852342
-17.56621 90.31384 7.378014
-9.103525 89.47874 10.23408
-15.68466 88.29237 9.401306
10.71155 89.48386 10.23193
-1.931608 66.07932 6.882864
-23.33998 74.99001 3.283312
-22.30566 79.12017 3.696272
-19.75767 88.11687 3.115444
0.6891228 88.95177 10.49192
-4.313421 89.76449 10.36202
21.15379 77.19144 -0.5856087
4.459522 90.54713 10.04007
18.41091 88.09842 6.866356
20.46863 84.04781 -0.8365664
20.13991 86.42551 -0.3306392
22.60855 76.2482 6.614997
20.74209 78.1971 7.998828
23.42217 70.51703 4.95243
19.16219 87.46836 5.617472
19.87768 82.6297 6.237412
-19.59059 82.82484 5.955368
-3.63988 82.51188 10.51499
7.646386 79.81443 10.35078
6.709953 80.37636 10.32849
20.1638 68.10639 0.05710886
-21.69581 67.80103 4.311699
-20.84351 70.082 4.844471
-22.6192 70.0831 3.710959
-23.95095 68.63112 3.219304
-22.10408 70.43848 3.967796
-22.4839 66.94733 3.925138
-18.0228 88.55296 7.359048
-17.34156 89.14656 8.024722
-17.45436 86.17059 8.421407
12.6493 89.70228 9.978642
-2.761249 68.80965 7.798628
1.044843 64.4978 4.686577
2.394188 69.27736 6.180502
-23.42441 75.2011 3.218939
-19.88344 84.16982 4.826768
-19.37545 83.61341 6.093512
-18.92317 82.41003 6.926083
-22.08399 77.22684 3.878494
-21.20901 80.94759 4.406685
-2.852598 88.84766 10.42083
2.008443 90.1564 10.40765
-7.397087 89.72285 10.31752
20.87589 74.96735 -0.380115
20.64097 78.244 0.9348936
6.942608 87.45866 10.22848
19.2322 88.35686 4.998994
20.48623 83.74071 2.443046
20.84151 80.1857 -0.1857268
20.6974 79.17585 0.5266129
22.22501 71.81632 4.16923
20.49358 82.09157 5.497778
-5.92418 82.34156 10.57476
6.544405 83.93623 10.3588
6.126917 78.46515 9.897903
-21.69864 66.69681 4.374508
21.70914 67.11959 1.965495
23.20312 67.00491 3.378898
-19.57297 86.10294 5.078827
-3.563993 69.37249 8.69662
-0.1295126 66.46627 5.642961
0.8505966 69.27148 6.115415
-21.408 79.09869 4.276609
-2.177767 88.41097 10.38999
21.20138 69.96371 -1.11482
21.83254 71.78446 3.829809
7.449148 90.67545 9.620819
8.820717 86.85277 10.10415
6.234064 88.30528 10.41555
7.880904 84.20569 10.324
5.213824 86.18263 10.05123
19.65941 89.06374 2.398285
20.17984 85.90916 2.710018
20.01807 84.21452 4.368549
20.68076 83.02351 2.715487
20.77731 80.51142 2.693812
-2.423723 84.87347 10.17191
-5.363286 85.24443 10.20968
-5.32736 85.97562 10.13171
-4.065895 88.98625 10.4321
5.242172 81.79879 10.45336
5.838356 80.73476 10.33204
22.80032 68.75097 3.858103
-24.71758 72.81514 2.670154
3.955139 69.59003 6.752347
-20.65013 77.94292 4.896638
-6.347566 88.38374 10.28329
20.50587 69.97274 -0.5378491
9.568318 87.14184 10.15618
19.99097 87.6553 1.811162
-5.68968 87.04474 10.11811
6.013026 82.54356 10.5064
23.81936 70.40501 5.307799
21.17854 70.07677 2.689759
3.12344 69.03181 6.305331
21.61563 75.67727 4.601167
-8.935505 87.18694 10.17332
1.326153 87.30796 10.21007
3.946742 69.8028 6.796704
1.431165 69.79459 6.194825
-0.7892644 82.99788 10.46263
-1.681276 81.53558 10.35448
0.802592 83.88955 10.33092
4.663114 67.35815 6.7971
2.854814 71.24144 6.850692
4.968885 71.58961 7.660903
3.125569 73.56285 7.648142
4.277699 81.19395 10.33586
-2.656682 79.78337 9.956403
1.59869 80.13015 9.948339
6.260875 76.29919 9.346295
2.821128 75.82638 8.36468
1.851861 78.09212 9.160413
-0.5783745 79.42561 9.700152
3.163451 74.79728 8.068656
6.077502 74.32412 8.764979
3.954572 75.714 8.508446
0.5106032 77.63142 8.962637
2.070857 79.63969 9.777591
-4.597361 78.89797 10.02793
0.8384134 78.07323 9.137636
-0.08172338 74.20223 7.704301
-0.05876328 75.59583 8.180254
-2.174102 78.41248 9.427483
-1.001855 74.83847 8.047891
-2.898653 76.34653 8.921988
-3.700331 75.83009 9.104928
-27.35657 64.56558 1.932411
-6.645077 75.73487 11.04936
-25.58914 68.44688 2.542366
10.75171 83.04005 10.53196
24.88539 68.70499 5.962224
-4.162908 70.72253 9.239665
-2.045337 68.94259 7.18498
-1.048182 73.81979 7.775105
-5.448686 71.17185 10.8106
20.30938 69.81087 1.450795
9.746122 84.00604 10.39104
20.68834 82.77493 3.572102
-8.392646 86.115 10.22565
21.59909 76.08298 4.741824
-21.35785 70.92007 4.396152
-20.64279 75.69382 4.901886
-19.4865 70.46405 7.640628
-21.17368 77.42937 4.436652
-19.53662 73.59538 6.392542
-19.08799 77.19345 6.845127
-19.27108 78.2618 6.467136
0.522193 88.14299 10.37518
-0.05813194 86.08519 10.05306
20.70859 83.4212 1.423579
-19.25751 63.55389 8.869071
-20.19101 65.41466 9.830349
-17.33104 68.19346 12.40032
-19.58082 66.03166 13.43602
-19.47607 64.89006 8.808352
-15.51039 68.59202 11.2717
-17.50521 76.73697 10.91576
-17.56237 73.76678 11.73628
-14.21638 82.93626 10.64842
-14.69318 76.31261 11.30596
-13.6721 83.55821 10.64652
-12.32895 87.04759 10.20283
-7.239727 64.86424 13.84932
-8.682719 63.27486 12.42246
-8.262565 67.6699 13.27215
-10.75254 75.3325 10.86748
-4.045714 65.33362 11.61338
-5.623323 66.26131 14.75942
-11.14581 80.98793 10.56587
-10.05714 84.25159 10.51878
-10.6754 84.00005 10.77572
-9.376144 75.71638 12.80206
-3.936929 64.04478 12.61006
-10.67772 81.68526 11.00944
-9.549275 66.73449 11.58298
-11.1424 63.8945 12.14009
-18.02001 75.54029 10.53416
-14.42353 82.47443 10.64518
-13.05621 83.82671 10.4056
-10.02085 69.45848 11.16095
-10.88553 83.40506 10.68496
-7.681095 77.19783 11.73154
-4.287117 65.29243 12.07994
-8.292898 64.79078 13.02317
-5.581784 68.17858 13.31156
-17.64647 63.44121 12.2717
-16.14847 65.38007 11.48612
-10.16825 64.70976 11.78668
-14.56685 72.83653 10.93157
-18.97586 73.19312 10.51544
-17.20715 76.34834 11.29039
-15.38682 77.1143 12.00118
-15.24554 77.28335 11.86495
-14.97508 79.99943 11.34657
-12.08853 74.66645 11.37264
-12.43966 79.0171 10.9307
-12.67875 82.68668 10.37384
-9.731298 73.32746 12.17746
-7.742079 74.18613 12.89833
-10.41546 76.37895 11.45152
-10.2979 75.22972 11.56024
-6.879326 74.70656 11.68815
-8.128079 75.65517 12.61227
-7.141947 67.5536 14.06501
-6.277699 68.53551 14.18504
-20.57128 64.44661 11.55106
-20.22047 69.21265 10.41845
-18.40527 64.49576 12.7426
-18.18547 70.16213 13.15717
-15.6459 66.81341 11.24454
-15.0107 68.32967 10.82597
-14.11447 68.10704 11.42505
-15.98194 71.51447 11.86698
-14.42309 70.91593 10.7511
-18.48545 74.69087 10.36722
-15.42868 74.54243 11.81003
-11.65095 79.59207 10.82546
-8.016778 72.5095 13.95144
-5.697681 70.27267 11.68191
-10.48458 75.69387 11.30112
-7.624397 75.10478 12.11042
-8.851249 67.12487 12.63393
-5.82661 66.71803 14.78357
-20.35688 65.91628 12.06658
-20.04974 66.03787 12.71189
-17.35936 66.43005 12.3139
-12.83892 65.07155 12.04425
-18.1117 70.19474 13.20039
-10.43088 69.40002 11.42063
-15.87692 70.84547 11.72563
-12.48898 72.32244 11.55035
-11.60758 65.0801 12.07954
-9.748005 70.41596 11.83146
-6.423943 70.16131 12.98447
-19.88207 69.33665 11.15964
-19.63381 70.50953 11.06735
-13.60947 69.69184 11.52978
-12.85494 67.34747 11.85889
-19.7441 70.01673 11.11036
12.50631 75.95896 12.24899
8.91501 64.84881 14.04661
11.618 65.16425 11.95349
12.26639 63.77936 10.3475
12.60365 66.12667 10.1214
14.24858 69.14363 10.46221
10.00983 74.40699 11.42998
12.12534 77.23855 12.23336
12.604 80.63681 11.18477
13.13084 75.8598 11.20329
14.67484 82.28838 10.15394
14.35981 84.00825 10.27614
16.92024 63.86818 10.08047
21.19684 63.99683 9.828831
15.67598 68.04041 10.3446
16.53496 74.52165 9.72169
27.21135 65.61576 6.945499
23.16219 67.79688 9.80904
22.43595 73.52338 8.47782
16.63462 77.90704 9.534067
16.85542 84.86552 9.096793
18.28316 78.99551 10.1759
17.90815 73.71706 9.699106
17.13056 83.29768 9.113816
8.808371 71.06528 11.17133
14.28674 80.67951 10.18722
15.66602 82.76978 9.869216
18.14511 64.45514 9.280728
23.38964 64.66848 10.62069
16.66118 81.23072 9.845667
19.23733 79.41008 8.726483
6.695273 65.49985 10.46808
8.545237 67.12315 12.46562
12.1811 63.8876 10.70492
12.10182 71.56477 12.28539
9.713749 71.04548 12.36836
16.79183 73.72716 9.536535
10.84166 73.98763 12.27532
11.47708 75.4012 12.30049
12.46812 74.97902 12.21388
12.80611 76.66949 11.74533
13.90323 80.48862 10.64296
14.62129 76.48553 10.44426
15.86483 81.26124 9.716728
18.96386 68.91887 9.711253
19.09355 74.05997 10.28049
17.77098 73.22057 9.57857
20.78584 74.77306 9.743073
20.05731 75.07632 10.1892
22.4028 66.48622 10.58341
25.7828 64.79807 8.83079
18.17165 76.08236 10.08297
16.63946 79.25372 9.665428
18.56308 78.83342 9.752386
9.408315 69.5267 12.22241
9.10143 68.73508 11.97085
13.61516 66.47059 10.41057
11.42295 70.10782 12.83766
9.951282 70.13285 12.85613
14.28319 69.49667 10.46384
15.75239 73.80181 10.15052
10.0091 75.63934 11.22196
13.29748 76.83358 11.08126
14.55507 78.69389 10.39679
17.69883 65.46159 9.619148
21.07854 70.29044 10.80234
19.3763 72.66019 10.26859
23.08185 71.35082 9.240407
19.40331 63.51792 9.313688
24.20598 64.62906 10.0108
24.58705 67.69856 8.767951
17.5778 75.92939 9.807526
8.735251 70.04236 11.09649
10.07791 67.10922 13.61367
16.05342 65.41454 10.30069
17.06908 66.25133 9.924807
12.1513 69.4429 11.85819
10.99074 65.81454 12.69002
11.99594 70.73848 12.28356
15.97378 71.60471 10.13575
14.42714 69.4677 10.47748
15.59177 72.73885 10.21623
19.92445 65.79806 9.729402
20.87174 64.24498 9.789781
21.66174 68.06052 10.58147
23.50539 69.09694 9.282952
22.66937 67.85532 10.30832
19.80624 63.74045 9.478662
15.73318 71.24509 10.21838
21.28021 64.16521 -3.348832
23.99652 63.71694 -4.062153
6.826646 80.07778 -9.17556
25.70112 64.255 -5.322453
-19.34233 77.52808 -6.113032
25.84936 63.88033 -7.425645
22.52066 71.1002 -2.347415
-8.175296 75.47407 -8.170801
-5.883893 77.50338 -8.374001
1.314287 62.88462 -11.13284
-2.336112 63.73201 -11.88785
20.0795 70.5763 -8.029552
-21.34215 75.91413 -3.878345
2.561531 68.57217 -9.089279
2.965627 70.04164 -9.438339
22.33155 76.70853 -1.862969
23.42765 68.27422 -8.113077
16.34898 77.69756 -8.240052
-7.313773 66.39678 -7.420492
-9.057195 75.42141 -8.72792
-17.42047 84.39695 -6.917437
-17.70572 83.55933 -6.810863
14.17805 84.5135 -8.559819
7.985171 83.32551 -9.326286
18.67407 76.25393 -7.308531
4.790197 76.45783 -9.36119
-19.03823 79.62143 -6.437934
5.438776 74.45344 -8.565622
9.601159 88.59261 -11.47552
9.676123 86.88831 -10.79804
7.974531 89.19279 -11.94843
13.01855 87.1458 -9.773149
-4.813883 63.03425 -8.738298
-8.751604 64.54092 -7.676657
19.28045 74.59054 -7.462533
-8.904909 68.06464 -8.664049
-9.914123 75.28103 -9.38901
-24.89966 75.61809 1.911222
-20.20205 73.89062 -4.561632
12.59589 85.72643 -9.456702
-24.62078 65.3431 -1.814393
-8.235746 70.80811 -7.835907
13.97758 83.45306 -8.45885
-27.48781 66.21731 -2.578636
-26.3566 73.44578 -0.6781713
-22.18657 66.28236 -1.990894
-7.309613 67.11032 -7.463928
-29.02102 67.16827 0.2519662
-10.30316 83.11976 -9.159276
-21.72364 82.39651 1.740846
-12.11891 82.99449 -9.18198
-13.12024 86.4551 -9.493464
-5.719799 88.25851 -11.66682
-11.26183 90.86277 -11.36804
-13.46862 88.84591 -9.866999
-13.35557 89.84646 -10.06994
-15.93559 86.5855 -7.876485
-20.96053 71.43217 -3.845885
7.54574 81.33578 -9.242478
-9.209519 76.91726 -8.831747
-16.85205 90.8993 -6.633718
-18.00773 91.11646 -4.636266
24.96297 65.39108 -7.985323
-26.40376 65.95956 -2.420097
16.47327 78.33086 -8.007696
6.212937 77.5743 -8.953332
-28.94699 66.31423 0.7057261
-25.48196 65.13226 -1.910496
22.3583 63.8226 -4.200089
21.73371 67.16579 -2.782411
18.99366 89.66522 -2.924499
18.35767 90.11921 -4.270035
-18.90581 91.23489 -2.046247
-4.143298 64.02035 -9.694788
23.27796 74.71381 -4.765047
16.20441 86.37788 -7.503228
-24.20577 77.98469 0.4527248
-18.80002 90.88564 -2.786187
24.42947 65.32137 -8.661777
-8.701999 65.07366 -7.757276
-22.78271 68.17608 -2.754876
5.309093 83.24947 -9.268106
8.739944 85.63464 -10.14246
-20.25841 75.68076 -4.399369
-17.37859 86.46012 -6.409241
-19.40159 79.40336 -4.800669
21.64671 67.72536 -8.731584
-10.28218 74.50258 -9.717174
-6.595255 84.17127 -9.414001
17.52406 77.96064 -7.498315
6.111351 80.0984 -9.199521
14.29923 82.3604 -8.324178
-5.616417 70.27168 -8.825938
-1.755076 76.88105 -10.21885
25.19396 67.827 -7.081893
-29.97078 65.66358 -0.2816014
21.67203 67.96869 -2.048899
15.48664 89.1838 -8.292428
-15.62364 90.25371 -8.189208
1.219842 64.54646 -12.11693
0.8487643 66.5192 -12.48949
21.63384 72.70345 -1.259373
21.61439 75.41463 -1.05701
0.6721957 85.2993 -9.945867
15.64601 87.20251 -8.009478
-5.339005 63.36558 -8.193216
-23.54313 73.98754 -3.532327
-10.30931 90.72562 -11.75983
-19.12556 91.17949 -0.9269824
-17.78309 90.45149 -5.27057
9.920413 87.23339 -10.90065
11.14304 87.43665 -10.63963
-19.73221 89.11194 1.345132
-5.279902 65.15685 -8.40168
-19.95626 77.24316 -4.488798
-19.44932 88.78381 -2.029759
-20.76573 81.89489 -3.686
-9.79612 76.05861 -9.2535
-8.112759 82.41145 -9.038935
-4.088996 78.9711 -8.958147
-5.546327 80.25636 -8.584704
-6.115821 80.77959 -8.689023
-2.500013 80.34549 -9.127439
-5.459033 81.56957 -8.8976
-4.105164 80.26988 -8.848135
-5.359344 75.77161 -8.655792
-6.998463 74.44824 -7.79986
-7.641317 75.11709 -7.956736
0.2742003 70.02934 -12.31218
-4.868461 73.93111 -9.115352
-4.093557 73.09806 -9.834856
-5.609106 71.16995 -8.828355
-6.232637 69.50032 -8.226091
18.27483 73.22265 -8.051995
7.93729 82.53369 -9.285389
-28.3502 68.44902 0.6288054
17.7677 83.02816 -6.127609
15.76806 86.67667 -7.849207
3.965073 76.29247 -9.930348
4.996486 80.48457 -9.447793
1.369572 82.65604 -9.173807
-2.698339 84.44862 -9.540514
-1.285096 79.50099 -9.555359
25.18133 68.89567 -6.632401
24.53482 70.63067 -6.219088
23.85601 66.6462 -5.514512
-28.86621 65.93041 0.8462025
-28.80253 68.53651 -0.7208645
21.79653 68.51367 -1.949732
19.29468 87.18387 -3.281066
-15.08661 89.40541 -8.696071
-0.6729937 64.73741 -12.90269
-3.448197 64.84376 -10.66298
-1.148995 65.46748 -12.6044
22.20132 70.90963 -1.973027
20.99211 79.02466 -4.56297
-0.6606975 89.72825 -12.20975
18.95356 87.44839 -3.916437
-3.851296 63.25988 -10.0091
-23.45281 79.40384 0.48125
-6.671903 88.54939 -11.78688
-18.16358 89.23285 -4.945647
-20.20905 85.74847 -0.5361934
19.49609 72.94827 -7.772724
-20.43977 76.79201 -4.224255
-21.95647 70.32404 -3.453287
-22.60839 74.39072 -3.697552
-18.83883 86.87687 -4.320585
-10.22695 79.51656 -9.259397
19.58837 78.5888 -5.821823
17.26674 80.73653 -6.87167
18.10436 74.58524 -7.952651
-27.59197 69.58075 -2.163971
18.9533 84.19535 -4.575876
16.56736 83.71208 -7.145675
-3.73499 83.04721 -9.155354
-0.6272835 85.34617 -9.97206
2.668142 83.22286 -9.231682
-0.8971721 80.35515 -9.416972
22.91712 72.83099 -6.337599
23.44207 67.93979 -5.174557
24.63321 69.48574 -6.075264
-28.26321 69.36447 -1.424523
21.36035 70.83332 -1.215245
19.43198 85.87123 -3.38359
-2.71068 67.28262 -11.43162
-3.629668 69.72923 -10.56231
-4.014191 67.7496 -10.24392
-5.236995 68.73045 -9.039272
23.41767 72.41183 -6.094926
22.75823 76.47152 -3.227519
18.99444 82.85818 -4.69489
20.53944 82.17647 -2.925316
21.9341 79.42826 -1.867033
2.166205 86.73109 -10.82598
17.43217 87.05836 -6.303022
-25.83543 74.55115 -0.184587
-23.93966 78.31897 1.312591
-8.279047 89.41872 -11.96348
-19.54735 89.87573 0.2622193
-18.28973 88.96097 -4.798483
-20.12666 85.81074 -1.025742
-22.39832 81.31694 1.276967
-27.6407 70.82851 -0.6138543
-19.71064 82.7496 -4.344413
22.15811 78.34843 -3.224811
6.087008 84.93192 -9.756753
-0.2108257 80.03038 -9.551874
23.49167 73.01588 -5.654961
-27.71886 69.30235 -2.125978
-26.72841 67.97649 -2.913341
-4.168671 66.67774 -9.961073
-4.555985 70.73475 -9.769128
-3.151777 71.02196 -10.7339
20.28094 83.00994 -2.586842
-2.567286 88.62769 -11.83177
-23.95666 78.40741 0.177348
-24.55982 77.1473 -0.3018876
-10.65316 86.40773 -10.33271
-18.52537 89.07134 -4.303734
-19.29058 86.05136 -3.633238
-18.82346 83.90213 -5.047697
3.587464 81.10811 -9.40162
0.8336918 80.78124 -9.449862
7.045144 88.1493 -11.61724
-25.82961 66.90237 -2.648494
-24.26975 72.5607 -3.456829
-1.356133 86.60135 -10.74714
-2.858331 88.21335 -11.65518
-23.62487 76.73938 -3.075537
-20.14531 86.85262 0.6901623
1.416668 86.46204 -10.6476
7.598442 84.89863 -9.723021
-23.68237 69.79626 -3.251391
-2.065606 87.56921 -11.3384
-6.362447 86.01693 -10.41142
-24.68432 75.70467 -2.181828
2.493456 87.44553 -11.28766
3.293779 86.20651 -10.47937
5.051196 88.679 -11.8318
-7.364213 85.93665 -10.36328
-13.99321 87.68629 -9.33172
-11.09956 83.67662 -9.140815
21.49446 64.03663 -3.331038
1.52048 65.63911 -10.0165
21.42215 65.7605 -2.949778
-17.97709 83.70756 -6.244651
6.612427 80.91929 -9.227891
3.045477 72.69105 -10.32168
1.54966 74.16326 -11.40444
1.663863 70.8008 -11.43539
-0.2728347 76.88545 -10.52142
-0.7150505 71.92831 -11.62188
-0.3468806 76.36208 -10.66267
1.779047 81.12025 -9.407881
1.425903 73.03382 -11.64609
1.58984 75.62374 -11.0579
3.293359 77.63404 -10.28189
-22.5687 68.90695 -3.01679
21.2102 73.91039 -6.832707
23.39282 74.53338 -3.764287
20.43605 75.47134 -6.632268
22.25219 75.26939 -5.542556
-21.48643 81.98643 -2.069235
-20.77507 82.98399 -2.132387
-22.00146 81.23252 -1.765754
-23.20741 78.68535 -1.993968
-0.7110713 87.49426 -11.30071
1.572325 86.82915 -10.89099
-23.63571 78.51356 -1.11107
-19.59116 86.0748 -2.874601
-4.907833 86.11366 -10.45861
-7.497223 81.82024 -8.943954
-7.71187 85.19052 -9.87769
-9.547451 81.52192 -9.053007
-3.38115 73.27005 -10.25379
-1.339565 70.18309 -11.75197
-2.981821 71.37576 -10.77045
2.2853 68.26835 -10.11782
0.1592965 66.75571 -12.7774
-26.53609 72.76875 -1.466198
2.303929 68.61566 -10.66972
-9.844868 64.04713 -11.19281
-9.697535 64.33219 -9.665451
-13.19055 63.95401 -10.06219
-14.93498 65.2287 -9.139881
-11.81816 65.80104 -11.74427
-12.43374 63.95194 -11.18051
-12.98894 74.53804 -10.9259
-12.08582 80.14622 -9.681547
-13.5191 77.77892 -10.07191
-14.35687 78.90919 -8.406579
-14.11385 85.44076 -9.17456
-13.30076 63.23532 -9.85753
-18.26977 69.57693 -7.559163
-16.95075 71.33237 -8.81109
-20.80306 73.43051 -8.107603
-23.06522 65.82462 -7.118947
-19.85144 72.28701 -5.176167
-20.51633 69.19727 -4.284487
-17.1497 81.91482 -8.689115
-10.23549 65.43816 -11.50491
-16.56308 77.08167 -8.30226
-12.54798 63.06821 -11.05968
-16.39373 83.06349 -8.457676
-19.58536 75.15753 -7.082826
-12.84576 81.58274 -9.453636
-16.31998 79.61926 -7.865979
-22.21356 68.37246 -7.692084
-21.18887 70.41432 -6.836926
-22.8726 64.89603 -5.312778
-16.40151 84.42443 -8.092991
-9.644293 64.49072 -9.298951
-9.882133 66.34624 -9.839132
-10.86599 63.56156 -12.23875
-13.79209 70.42225 -9.146554
-11.0962 74.16629 -10.37782
-14.15193 70.06638 -8.633588
-11.55149 76.28211 -10.3045
-11.92898 76.80717 -10.2646
-14.03281 74.51354 -8.836553
-13.17638 76.73664 -10.94903
-13.56588 79.22435 -10.19759
-15.1797 78.72926 -8.669474
-14.5007 78.8162 -8.499357
-20.74241 67.52328 -8.254764
-18.24294 73.63672 -8.069793
-20.92202 69.94342 -6.274293
-19.65099 73.33685 -5.680332
-21.08659 71.10842 -7.073885
-23.10923 64.81511 -7.232196
-21.94074 66.15643 -4.430773
-17.36881 77.18528 -8.043455
-18.61101 78.69495 -8.839581
-18.8894 78.37699 -8.706037
-9.259504 69.24365 -9.909331
-13.82141 67.66856 -8.908999
-15.25908 63.57147 -9.267122
-13.18084 70.16416 -10.18901
-11.03275 70.75165 -11.45241
-17.37245 70.09093 -8.535894
-17.52915 73.40809 -7.716766
-10.75196 75.1011 -10.19526
-13.72839 76.46701 -9.579962
-15.42712 76.32326 -8.824735
-16.63328 65.24091 -9.413493
-19.85424 70.15385 -8.397465
-20.08609 73.09888 -8.602952
-19.79745 73.33661 -6.623143
-20.28162 63.80754 -7.649278
-23.35443 64.70795 -5.690928
-21.51987 67.43011 -4.375357
-17.23183 79.7428 -8.385118
-9.229523 69.52645 -9.785203
-10.87794 66.29019 -12.51511
-17.3842 66.00165 -8.973495
-17.5499 68.00581 -8.63512
-12.92539 68.49821 -10.43042
-12.92683 66.58952 -10.41776
-11.97243 70.79501 -11.95934
-17.43596 72.99152 -8.034255
-16.23437 73.5182 -8.785255
-15.96177 73.81035 -8.824883
-21.20911 66.47693 -8.22324
-21.44724 64.8221 -8.184967
-20.91311 70.64121 -8.334383
-21.1344 68.80974 -5.835102
-22.5247 68.3485 -6.904989
-20.24878 70.56501 -5.488981
-13.28809 70.32778 -10.04259
-13.56827 63.17054 -9.260424
19.79152 61.95888 -10.33445
22.42164 63.62861 -10.22692
2.088155 62.86776 -7.620534
13.24438 66.60641 -9.120417
17.31849 68.82885 -10.25628
1.516459 62.41165 -7.70035
14.55146 75.95815 -9.825105
1.170259 64.24076 -9.232086
7.232035 63.76203 -8.252494
12.4614 81.53906 -8.844913
6.196034 64.52024 -8.60345
12.41463 61.73369 -9.341562
7.198647 61.82815 -7.86616
9.283809 70.89657 -8.640546
7.866303 72.20436 -9.599605
1.241787 62.43569 -10.1171
2.567821 62.09592 -7.717381
4.709409 62.10444 -8.256185
10.22581 74.89312 -8.74039
11.59809 85.0518 -9.492885
9.159105 72.56425 -9.056296
6.978482 76.40345 -8.830814
9.607483 80.82054 -9.706993
3.478986 63.08836 -8.781056
15.5807 61.61047 -8.938793
12.24678 71.80176 -9.467221
15.29809 78.23478 -8.665303
12.26414 74.8606 -9.327186
9.053062 64.26646 -7.47716
3.079279 67.13987 -8.484001
11.62781 83.53008 -9.110941
2.148558 66.78984 -8.974343
3.165267 65.93165 -7.870187
1.146509 64.06898 -8.88064
17.71993 63.83168 -10.00147
18.67797 69.38165 -8.316635
16.20645 65.84112 -9.658048
13.36565 72.85704 -9.007296
12.2192 70.123 -9.474354
17.75006 71.62782 -8.331623
15.85317 73.61904 -9.772858
14.10278 75.36587 -9.546391
13.8123 76.25785 -9.431253
13.30792 78.35096 -9.173842
10.48387 76.49475 -8.916142
12.17031 79.11048 -8.888184
6.918245 68.56973 -9.2778
6.365355 72.51804 -8.764431
9.592241 76.02795 -9.273545
9.753436 72.0201 -8.48312
6.786954 72.63428 -9.461954
6.084433 74.10493 -8.562584
2.025711 67.02921 -9.288168
3.359667 65.27888 -7.740154
22.52493 64.50623 -10.09011
16.79565 62.1918 -9.496799
20.0874 67.59822 -8.282139
17.95086 70.22342 -8.58127
12.64402 62.96557 -9.339139
13.41592 64.38535 -9.181611
15.27247 69.93622 -9.684074
10.21135 70.05959 -8.913764
15.80945 75.48592 -9.46312
12.72981 77.30431 -8.875609
9.977934 61.67811 -8.520335
7.795526 65.80578 -8.478975
5.401222 70.58671 -8.5566
9.276241 71.07194 -8.682621
8.417317 78.53413 -9.534874
5.40892 64.68056 -8.742336
20.20072 65.20834 -9.000028
16.52632 63.62317 -9.563655
16.55489 67.23201 -9.892174
19.5729 66.38188 -8.739503
22.53576 65.37272 -9.785137
12.03591 66.08286 -9.466999
10.73992 65.86266 -9.107168
10.48625 65.4622 -8.957129
11.75397 70.17065 -9.50828
10.07347 72.46337 -8.70478
11.18265 63.75608 -9.208507
8.267381 65.98191 -8.292831
6.420734 70.89987 -9.813375
7.883602 71.64406 -9.520255
15.86396 65.53982 -9.509097
16.68254 66.45064 -9.874344
11.26366 68.98234 -9.445452
11.22767 65.23248 -9.2821
11.5152 62.54337 -9.287628
-10.1783 107.7339 -6.414684
-6.732838 107.8465 -7.283451
-7.547069 109.0841 -6.446421
-3.378795 107.1837 -7.992511
-11.87522 108.1229 -5.10796
-13.19668 108.6274 -3.444465
-14.87435 109.0532 1.803833
-13.36871 109.3094 -2.703334
-9.89283 109.513 -5.629644
-14.69257 109.491 2.28062
-7.221691 106.3806 -8.159623
-2.91438 92.39029 -12.74291
-9.76926 93.17706 -12.12128
-13.15187 96.45888 -9.442411
-7.711406 91.27872 -12.4633
-0.9897093 102.5067 -10.57189
-3.022198 104.3861 -9.600936
-8.076695 101.8096 -10.58425
-11.74475 92.85118 -11.19878
-2.243714 101.9405 -10.85271
-8.367802 105.5652 -8.418564
-9.794583 103.9542 -8.728486
-8.994123 91.86174 -12.29317
-18.95162 92.22807 1.587382
-13.266 107.4255 -4.083489
-16.19752 105.0166 2.721941
-15.13706 107.6196 -0.1013042
-16.49884 101.8707 -1.162616
-17.99797 95.5004 -0.5760579
-15.9627 105.9584 1.925002
-16.01927 105.0427 0.4569157
-15.64032 107.0069 2.106871
-2.976808 92.72267 -12.76251
-1.948873 94.2327 -12.80034
-5.412197 95.14375 -12.77606
-5.4013 91.09196 -12.55213
-5.522296 106.5481 -8.271422
-7.319348 104.8427 -9.145157
-17.32444 99.49816 1.36228
-18.35342 92.67727 -2.809311
-15.11823 106.0407 -1.684902
-17.50703 98.24995 1.735515
-15.86385 103.4797 -1.797941
-15.82048 102.7954 -2.462976
-1.432638 97.18328 -12.42362
-5.059578 91.06758 -12.54479
-1.973564 95.98611 -12.63784
-12.8457 91.44849 -10.5252
-15.31542 92.24025 -8.329543
-11.22133 105.4046 -7.084414
-3.809298 104.253 -9.680503
-6.172111 105.2842 -9.051126
-3.95207 102.2835 -10.71619
-13.85051 92.56542 -9.717953
-17.87666 96.14455 -0.1969936
-17.83872 93.53068 -3.735809
-12.69588 107.4765 -4.706983
-13.13126 106.7611 -4.604091
-15.21042 103.2542 -3.504257
-17.11953 100.6711 1.134537
-4.279876 99.7801 -11.74807
-3.577264 100.6377 -11.42342
-4.531981 96.9354 -12.5063
-8.804564 95.11946 -12.299
-10.86952 95.12072 -11.43519
-13.24407 91.72344 -10.25614
-8.656809 104.5643 -8.89462
-8.256151 103.7225 -9.525463
-17.46635 95.30901 -3.463836
-17.46667 96.86288 -1.96003
-17.53614 94.31395 -4.008897
-15.74455 102.1526 -3.111061
-17.05348 100.6496 0.2029948
-2.32929 100.062 -11.6154
-7.234246 96.2066 -12.4958
-11.3033 96.08238 -10.95939
-14.08302 94.03931 -9.239752
-8.95772 101.7051 -10.30015
-9.401105 102.1765 -9.864668
-11.62662 100.1629 -9.356586
-7.015556 101.5506 -10.95762
-10.71846 105.5731 -7.31945
-16.75316 93.65665 -5.966813
-16.20761 96.54305 -5.551759
-17.53265 96.93642 -1.616159
-12.54258 103.1093 -7.197128
-10.23007 99.9313 -10.41346
-8.374572 94.62361 -12.47881
-8.013808 96.89895 -12.20954
-9.88718 99.90652 -10.60073
-13.89924 99.37784 -7.557611
-11.7549 97.60157 -10.23946
-12.63594 99.47047 -8.806248
-14.12106 98.74794 -7.570251
-16.93467 95.4975 -4.659826
-13.33293 97.61415 -8.83952
-14.51976 98.66787 -7.076076
-15.58252 95.48606 -7.066754
-12.54402 95.39656 -10.27935
-14.33148 103.5858 -4.840967
-8.854479 93.25025 -12.42088
-15.06885 99.36361 -5.975286
-13.17349 103.2051 -6.50229
-13.96461 102.4281 -5.976092
-13.8874 103.9768 -5.245858
-16.56715 99.00903 -3.185459
17.40295 99.03992 0.8674331
18.2373 94.78595 0.2078313
16.38215 103.3539 4.018156
7.471121 91.49529 9.427615
17.29458 98.08315 3.366103
3.24515 94.75184 9.481459
15.51731 99.37101 6.807813
3.422065 102.8889 11.6614
17.96104 95.60972 -0.5580348
18.53989 93.71113 0.9481279
7.117419 106.0519 11.03581
9.813411 106.2567 10.03185
13.66366 106.5652 7.816195
2.899661 106.5291 12.27675
4.091445 91.06133 9.219894
11.80046 92.86575 9.593461
5.143715 100.5683 10.5909
3.586389 93.63309 9.587117
3.898516 94.10491 9.532176
5.528172 93.26789 9.699735
5.354295 92.11435 9.524788
4.415939 105.5757 11.9554
4.09048 102.7952 11.47898
4.051081 104.6579 11.89315
16.54353 102.5502 3.931179
17.82574 91.45123 6.46907
18.13739 94.71001 -1.174355
16.21025 104.9296 1.603031
13.23157 107.2552 7.990488
3.620039 97.41541 9.983969
4.609499 91.34122 9.308336
12.96957 91.4739 9.73808
16.35093 92.86517 7.83974
3.494871 100.7624 11.02796
17.01144 100.5372 -0.2567934
17.30083 92.69405 6.754012
17.75814 94.98254 4.286033
17.86155 93.70469 5.071496
17.75171 95.56091 3.717053
18.03349 95.58782 0.4528343
16.02477 104.3782 4.66983
14.68967 103.2791 7.253577
13.93875 107.2697 7.139832
3.899434 97.61461 10.00282
7.517861 94.38888 9.443542
16.45912 91.89238 8.063567
8.39097 104.6827 10.4439
10.49961 105.2836 9.723023
17.22783 99.22868 2.84215
14.74499 105.5898 6.777638
13.16367 106.5548 8.237305
7.844151 95.56863 9.307606
3.894551 99.16626 10.44383
3.401786 98.8042 10.40881
8.368376 95.67396 9.307325
6.50877 100.4393 10.23499
16.36025 97.97058 5.960697
13.67189 103.7405 8.16029
12.92056 104.8437 8.695139
6.185678 94.99534 9.404527
8.752838 95.27235 9.313192
9.145782 98.16848 9.414387
10.56698 96.77993 9.249025
11.93669 96.45933 9.113913
11.3172 102.3828 9.239048
9.285046 101.8861 9.781219
14.3733 104.0495 7.546147
12.57404 103.3418 8.818624
15.9273 95.2392 7.522205
9.306887 104.4082 10.0957
16.71636 101.9755 3.622138
15.91334 100.3921 6.060012
10.08595 103.5597 9.751447
13.47406 101.5576 8.266845
8.311478 105.4955 10.54493
13.7417 102.3611 8.09655
17.87945 96.29996 0.2294617
15.1775 93.60463 8.58517
5.818263 94.6323 9.44328
16.12079 96.58008 6.849453
12.64006 95.3406 9.186301
11.63585 96.33667 9.160689
12.57545 97.34254 8.929638
15.04699 100.9823 7.083827
13.77727 99.24842 8.228936
11.15629 99.74405 9.143188
12.18506 109.7698 8.051818
9.677959 107.1915 10.06149
10.37846 107.7547 9.730939
6.557602 108.8335 11.21119
11.33302 108.3607 9.157379
12.16093 107.8227 8.713089
14.40704 109.4566 4.328474
14.60306 107.5948 5.720251
12.29192 108.845 8.320322
5.353289 107.8484 11.75187
11.59309 107.3884 9.184403
18.79317 91.83324 -1.92582
16.83469 90.66399 -6.726968
0.7388129 97.82352 -12.27259
16.40771 90.4295 -7.281647
17.384 97.35638 -1.748455
15.98437 104.9556 0.1403422
15.66853 106.0491 0.09139851
-0.4869155 105.8957 -8.762294
12.1156 91.13358 -10.9571
2.761141 90.13302 -12.3256
-1.266091 90.54632 -12.44017
0.8634881 94.02406 -12.78934
1.65953 91.41618 -12.59708
-0.6690634 104.535 -9.511065
7.548056 104.9334 -9.036469
-0.09736138 104.5541 -9.501055
12.7071 104.9315 -6.069148
-0.7131656 95.05641 -12.74119
17.55493 90.87347 -5.565651
17.30327 95.2226 -3.987268
15.46151 92.69181 -8.067824
17.59079 91.03874 -5.458836
15.226 106.6758 -0.6151831
16.76456 101.0614 -0.8769289
15.42848 105.2964 -1.491492
1.994495 93.90125 -12.79621
8.064335 102.3969 -10.29501
-1.437818 93.04454 -12.78395
3.932633 94.14886 -12.80296
2.332438 105.3437 -9.058562
16.73426 99.96442 -2.017776
18.28252 93.44379 -2.275115
13.50411 90.03852 -9.994379
17.97111 92.52094 -4.046228
14.88209 103.7968 -3.784625
16.1874 101.1627 -2.702031
8.806073 92.21482 -12.36803
1.723423 97.17707 -12.41576
6.829679 105.3031 -8.942953
5.456459 92.43215 -12.76062
12.72675 91.92561 -10.6097
13.12837 94.04761 -10.08241
10.59971 92.46406 -11.77417
11.2721 91.92332 -11.45148
9.105926 105.4199 -8.221402
13.91565 92.81647 -9.616612
13.58522 94.31153 -9.655
16.63091 99.30558 -2.835164
16.30714 101.2146 -2.328691
6.876233 92.15011 -12.6964
9.486218 91.77403 -12.13753
0.1474295 99.5666 -11.7708
0.7768444 96.52602 -12.53988
13.9211 100.4156 -7.049321
16.26144 94.22678 -6.5468
16.90229 98.62975 -2.54044
4.766323 94.87027 -12.78482
8.368312 96.83036 -12.1189
5.582273 93.42852 -12.82484
4.467884 96.74573 -12.53776
0.6749513 102.1481 -10.73852
10.474 102.2776 -9.236372
13.74751 96.43005 -8.901081
15.53647 98.31073 -5.796612
17.21708 96.282 -3.416428
16.5389 93.51883 -6.392204
15.89767 92.70591 -7.530385
15.00194 100.7098 -5.346707
3.583489 95.49179 -12.69818
5.101916 96.82388 -12.54277
2.074232 101.1983 -11.17177
5.136172 103.2981 -10.2311
4.934073 104.7053 -9.43429
14.78304 98.79025 -6.689152
13.56616 98.73342 -8.204444
9.750341 98.18784 -11.25234
12.7525 97.42434 -9.476007
8.984136 94.19584 -12.30266
5.187725 102.7082 -10.5408
11.27355 98.4172 -10.29861
13.17723 97.63834 -9.011127
7.356669 98.28296 -12.01749
8.525775 104.0012 -9.277884
9.522169 101.98 -9.909013
8.268137 100.157 -11.18774
8.598948 101.5673 -10.50058
7.470747 101.7697 -10.7724
8.648299 98.16659 -11.69986
5.736724 99.7175 -11.77156
6.423123 98.73225 -12.038
11.24778 102.8551 -8.414387
12.00003 101.8215 -8.327561
10.56703 93.68574 -11.74408
10.92252 104.2851 -7.902833
6.385201 104.0964 -9.744265
13.23778 107.2238 -4.111406
13.07035 108.3769 -3.695519
14.59984 108.6632 -0.4856203
14.11186 108.6397 -1.816299
8.980947 106.1246 -7.803323
1.706365 107.7446 -7.891773
9.967565 107.7898 -6.47674
0.4804999 106.9502 -8.186115
0.1026294 106.9166 -8.195571
11.61479 107.5373 -5.541889
2.792044 108.1296 -7.709883
14.61756 107.8648 -1.234005
-18.57058 92.46217 3.79152
-15.95295 105.3878 3.958824
-18.08247 94.69364 3.219311
-7.557104 92.12634 9.592671
-16.52428 103.1351 3.44143
-14.79844 107.2123 5.699824
-15.06819 106.7499 5.585612
-14.87645 107.4619 5.278307
-5.985284 91.72619 9.506949
-6.683171 98.55503 9.820546
-16.65005 100.1087 4.658813
