# .PCD v0.7 - Point Cloud Data file format
VERSION 0.7
FIELDS x y z
SIZE 4 4 4
TYPE F F F
COUNT 1 1 1
WIDTH 1670
HEIGHT 1
VIEWPOINT 0 0 0 1 0 0 0
POINTS 1670
DATA ascii
-4.756602 140.6747 8.65935
-6.319971 138.565 9.21828
-6.281713 140.1676 8.584172
-7.14447 140.0035 8.560253
1.21497 145.85 5.641649
-0.02366566 142.6165 7.948246
3.668631 146.6719 4.225636
-9.740761 132.8147 10.69781
5.942679 145.0148 5.065223
9.746234 135.9585 9.77982
-6.869682 126.3106 11.89216
-2.064499 140.045 9.209487
-1.438042 139.7748 9.358296
-2.379436 140.8971 8.795638
-1.465162 142.2865 8.156153
2.386294 145.8191 5.538702
4.152321 145.2221 5.589416
2.650325 134.8361 11.7051
4.723411 136.0752 10.91215
5.456558 137.154 10.20563
6.111356 139.7086 8.766823
1.73733 136.683 10.91096
1.987694 142.7231 7.976829
0.9204231 142.5262 8.014513
-0.3165963 143.0516 7.698514
2.441209 143.9967 7.119809
3.430541 144.3824 6.755439
7.334321 140.6002 7.867656
3.935503 141.2482 8.469969
5.55935 139.1112 9.196071
5.39481 143.4101 7.095393
5.455497 141.5104 8.058044
7.10142 140.0091 8.259303
4.140901 139.4127 9.336775
1.947112 139.9225 9.294854
2.275954 138.366 10.03576
0.3529452 135.9533 11.23466
-0.3656678 139.0546 9.725994
3.022587 139.1862 9.573858
-0.1087426 136.9244 10.78032
-3.226035 113.0391 12.58424
-7.496164 130.0853 12.51856
-6.205943 130.0195 12.91112
-6.013446 126.2598 12.38494
-2.369096 124.4152 13.481
-4.727058 124.1226 13.16389
-10.83207 111.0934 -0.4321557
-11.3275 112.5703 4.680252
-11.82786 128.5601 2.919096
-9.30818 117.7964 8.403048
-9.966042 118.9871 0.4445118
-10.89073 114.3301 3.806453
-11.13938 122.8211 1.508273
-10.07323 118.1056 1.277167
-11.27604 123.3002 2.72675
-10.68731 128.8612 7.36449
-11.75099 127.065 2.55851
-12.04975 130.0194 3.162009
-11.36975 131.9806 8.117871
-11.62373 126.296 2.967733
-11.4562 124.009 2.485548
-11.82608 110.8886 3.775013
-12.16743 133.2705 5.527845
-10.20906 117.8058 6.420326
-9.96522 117.9955 7.340876
-11.04798 129.8801 7.875747
-10.38373 121.8463 7.484546
-9.501254 119.0281 8.476748
-9.960937 125.8254 8.430334
-11.55585 131.5447 7.162838
-10.55573 115.4148 5.032859
-11.28699 126.4697 4.525711
-10.95262 128.7176 6.309258
-11.94209 131.2808 5.178875
-12.51063 132.4785 3.59707
-11.21923 130.948 8.270808
-9.694865 122.1754 8.858735
-11.25729 112.6928 4.84284
-9.835823 118.3233 7.673795
-10.45673 116.1379 4.766046
-9.881003 121.2001 8.285307
-9.988873 123.2985 8.458305
-10.44214 125.1403 7.380892
-11.71685 131.4919 6.354379
-10.39362 117.2188 4.906878
-10.54893 121.8095 6.9408
-9.778296 116.3932 0.7090602
-11.51313 124.7537 3.00246
-10.84619 120.3932 3.231207
-11.05536 121.6155 4.665331
-11.88746 129.3347 3.309529
-10.32364 127.4539 7.488728
-11.46645 128.3993 4.265426
-11.0674 126.7454 5.314674
-11.2515 110.4942 -0.09312323
-10.69952 114.3576 2.198018
-10.18851 117.1717 1.781159
-11.5828 112.435 2.93402
-11.10908 112.8661 0.5012144
-11.38473 112.0876 1.112516
-10.5717 119.2417 5.464938
-10.34087 117.3886 5.750139
-10.76016 120.5764 5.750356
-11.27464 123.7276 4.41287
-10.28833 124.1357 7.803493
-10.42898 116.6135 3.242223
-10.96424 124.7127 5.939582
4.538888 122.5789 13.11876
3.149899 119.8263 12.92553
9.535285 131.0002 11.38308
10.29061 131.3319 10.52264
8.30903 126.5913 10.85517
3.338223 112.2054 12.58991
6.815463 118.2946 11.0872
0.7215641 123.8748 13.48875
3.850668 128.4813 13.04232
5.362605 116.6026 11.65772
0.2857857 118.7607 13.09951
7.210748 111.8697 10.81008
10.52176 131.403 10.20707
9.800823 134.7867 10.09767
1.78259 120.6834 13.28784
3.855572 128.2406 13.0276
2.448355 126.7853 13.23991
4.818181 110.1915 12.36151
-1.264803 113.5981 12.82174
4.046677 120.8984 12.94619
7.943019 131.3059 12.2984
4.345535 130.6754 12.94442
4.711247 129.6806 13.01391
5.257173 114.1102 11.59669
2.374402 116.315 12.70789
3.929866 110.713 12.63
6.764434 115.9378 10.6755
9.056984 110.888 9.76897
6.01923 131.5582 12.68271
6.433762 121.2751 12.11088
7.529391 121.7224 11.42383
9.100423 114.2867 8.75243
9.639979 113.2544 8.297057
10.76109 110.5182 8.028392
5.790514 122.9416 12.67402
0.9973935 114.6927 12.76162
5.880439 116.0275 11.26022
7.013212 126.2285 11.91867
6.568509 111.6491 11.22815
0.541415 117.1105 12.96002
7.715819 115.9333 9.991717
9.272364 131.1807 11.5972
6.011087 112.3736 11.41909
9.61253 129.9567 11.16659
8.20702 127.6327 11.18417
10.027 128.6841 9.675401
10.92007 131.2493 9.291013
9.869412 134.9543 9.945864
10.41475 134.9556 9.30987
9.754437 132.6606 10.59537
9.868001 133.2013 10.23095
3.690849 114.8495 12.25537
7.516569 125.1653 11.57096
8.235124 129.6674 12.21758
7.727328 113.9789 10.00887
1.3434 121.2318 13.34367
1.357673 125.1817 13.44199
1.851988 118.946 13.0352
1.092189 117.7602 13.00815
3.773735 118.4738 12.57627
3.60062 120.8481 13.02002
2.792249 129.4821 13.02528
1.764541 128.3675 13.08459
3.071985 126.0805 13.26668
-2.020698 111.5656 12.84828
6.511613 117.301 11.03361
8.594049 110.4961 10.25978
1.225952 119.6191 13.16776
1.665542 118.5963 13.03261
6.682109 128.2731 12.61131
7.58901 130.4599 12.52166
1.151837 112.205 12.89701
-1.969591 112.7834 12.81731
0.1003205 110.7834 12.95792
0.7566378 109.7422 13.00168
2.458722 112.6689 12.76461
1.338234 112.9952 12.83292
2.84504 123.396 13.45242
5.921861 124.3285 12.56148
3.949801 122.1144 13.16489
4.466168 127.4966 12.92631
4.861659 126.8789 12.86573
5.535439 126.8091 12.62201
7.72484 112.6434 10.23621
8.296559 111.5609 10.15555
9.575989 126.2522 8.985983
9.897291 115.7509 7.182039
9.009905 121.7103 9.442554
9.574097 114.8009 7.90734
11.16534 111.8763 6.101969
10.79304 127.118 6.171654
11.43845 132.526 8.081136
9.929095 119.3765 7.757044
10.42167 128.7733 8.244477
11.24593 130.016 6.506206
11.5532 134.8708 7.464243
11.32476 133.6087 8.196743
10.80483 120.0255 2.707973
11.81064 110.9173 4.190755
11.18785 112.8552 2.982251
11.54822 111.1901 1.629449
10.14773 122.816 8.065443
10.44789 118.0479 5.291291
8.186997 118.8298 10.08823
10.56778 120.298 6.104967
11.74185 125.6022 2.378766
11.85431 131.5168 5.795738
11.49045 128.188 4.173371
9.985696 123.8698 8.592987
10.63903 119.4617 4.675059
11.42733 131.8146 7.844237
11.24012 130.6169 7.72473
12.94643 133.8842 3.798269
12.05142 131.6796 5.057414
11.65145 111.4113 4.264172
10.27408 126.864 7.578773
11.06203 129.6105 6.74518
10.62381 114.5231 2.434883
10.62368 116.9109 2.060904
11.62742 111.5149 3.302412
9.970337 114.0464 7.554003
11.26797 129.6765 6.000299
8.781609 119.3997 9.604321
7.956397 117.5957 9.979028
10.12352 124.0219 8.258457
10.85576 120.3693 4.05226
11.35278 123.9635 3.887703
10.86215 128.698 6.55515
11.64938 127.3686 2.878348
11.05042 113.3556 3.019432
10.51212 115.7063 4.50541
10.40854 115.8907 5.234975
10.84001 121.1007 5.298505
9.613155 120.4781 8.701162
10.25475 116.6572 6.031053
8.980202 118.1807 9.051103
10.93538 127.908 5.963194
11.16397 122.0164 4.021895
9.677086 118.6266 8.063495
9.540345 122.3439 8.906904
10.43369 123.0621 7.426811
10.83505 125.1774 6.380785
10.55749 118.9334 4.897368
9.880692 117.8151 7.459289
10.43496 116.9121 4.957688
11.40217 125.1784 4.130549
11.10026 124.0782 5.405669
13.79937 133.479 -2.547012
9.93232 116.3832 1.110314
12.53374 131.9363 1.561614
10.84837 112.9091 1.347997
8.589941 111.767 -2.330049
8.684771 128.6575 -6.893864
3.702533 110.2094 -4.493364
10.66432 123.9391 -1.767972
10.52889 110.7895 -1.146821
12.68734 130.0217 1.117046
13.12056 131.7913 -3.811733
12.16887 129.1466 1.798351
9.969874 114.2788 -0.06681494
6.672203 119.2458 -3.176241
8.224894 114.7619 -1.887547
10.33527 114.3943 0.7860016
4.95416 111.4352 -3.980778
2.849225 111.6833 -4.043839
2.111937 111.0432 -4.212402
3.316299 114.2091 -3.798756
7.270695 120.4299 -3.259523
1.076608 117.3581 -3.824301
3.170853 118.6691 -4.345146
9.166047 133.2704 -8.351558
7.889852 117.513 -3.34359
8.607551 131.4983 -8.251589
6.610516 125.3947 -5.962542
9.255984 125.8505 -4.964348
13.07122 131.158 -0.4301234
8.06426 127.2391 -6.372615
10.32077 116.1732 1.876128
5.575799 115.1961 -3.394529
3.841956 112.8773 -3.724421
11.95466 127.9541 0.6891524
9.156229 127.3489 -5.948357
10.54738 113.3811 0.8085927
9.691504 117.4165 -1.00088
4.338851 118.9707 -4.900628
5.927123 116.5944 -4.01771
10.7733 117.7883 1.414815
8.982885 118.3985 -1.520495
11.28626 123.8486 0.5907136
10.41051 119.3719 1.074867
6.975315 124.6259 -5.391826
5.37445 110.8204 -4.143778
4.600142 113.7174 -3.537464
2.25018 116.6193 -4.059075
9.108621 130.9711 -7.849038
7.428326 122.4639 -5.132152
4.558877 120.4435 -4.634017
2.393124 118.5838 -4.060852
7.541975 121.9361 -4.593632
2.477251 109.9253 -4.624003
1.851584 113.7601 -4.05126
10.19627 127.2717 -5.197304
7.058056 123.2078 -5.37751
7.772173 123.8913 -4.715536
9.329992 116.3276 -0.1446193
7.417144 116.1809 -2.286371
6.79886 114.6019 -3.095959
4.814937 111.9163 -3.862438
8.730662 124.5558 -4.462485
9.80969 125.1199 -3.999773
9.164225 122.0109 -3.014938
11.54457 126.6834 -2.424471
10.74239 125.0454 -2.778227
8.258983 116.4977 -1.516411
4.147447 114.8764 -3.972075
9.648757 120.9185 -2.628014
7.679149 119.8437 -2.781639
11.44319 125.1114 0.1625527
8.832318 112.4771 -1.913289
8.207065 113.7448 -2.384715
9.829172 119.7326 -0.9603844
6.338315 118.8041 -3.530957
10.07507 129.274 -6.564965
10.94046 132.437 -7.151507
13.03466 130.7249 -1.579276
12.57972 131.8504 1.110075
10.16864 112.098 -0.86644
12.73596 129.8788 -1.002573
13.06388 130.8411 -0.9185876
5.817922 113.0251 -3.469032
7.549951 112.5983 -3.01301
9.051744 128.6773 -6.772535
8.928924 129.885 -7.438034
9.62151 124.1735 -3.49696
3.674079 115.0592 -4.057809
4.941235 115.9255 -4.187888
9.268683 113.4864 -1.31488
7.047983 117.8866 -4.119765
5.820851 119.8333 -3.813361
11.15673 133.1584 -7.331711
12.27231 130.0736 -4.274602
13.72034 133.326 -1.708068
13.06685 131.2486 -2.96673
9.779854 128.5497 -6.349215
10.25501 131.2093 -7.070086
12.13021 127.7295 -2.037905
10.62633 122.2666 -0.515709
4.329622 117.5912 -3.81348
12.54553 132.9716 -6.013015
10.97933 130.3412 -6.055831
12.74893 130.7979 -3.961341
12.79365 130.2768 -2.304756
10.36606 128.6566 -5.956472
-9.496909 122.321 -2.599959
0.624893 114.809 -4.375991
-0.1540368 113.6109 -4.11448
-3.417993 110.525 -4.386025
0.8862005 114.496 -4.293843
-8.463519 112.1599 -2.56791
-9.284635 116.1845 -0.2034327
-11.19527 130.6691 -6.236333
-5.772295 119.7591 -3.81314
-10.70729 124.5412 -2.398774
-2.445576 118.4888 -4.115796
-8.1293 123.0812 -4.268726
-12.70776 131.9051 2.19847
-10.3738 133.3046 -7.803243
-10.85184 122.0994 0.1184938
-9.439963 110.6015 -2.609187
-9.804406 112.3884 -1.161506
-9.346725 115.0014 -1.089333
-6.968315 111.1439 -3.711799
-11.23298 124.124 -0.5390745
-11.92473 125.7272 1.095602
-4.250816 123.5617 -5.863179
-11.96671 126.8346 0.04158811
-11.055 122.4713 0.07475504
-2.307604 121.2665 -5.081411
-9.63612 118.4943 0.03793543
-9.590789 127.4463 -5.922323
-3.983359 121.939 -5.89806
-12.54588 130.9662 1.871026
-10.14849 111.8257 -1.024428
-12.44728 128.611 0.3467537
-3.375687 112.4646 -3.879178
-8.067733 112.4541 -2.654678
0.4095156 113.081 -3.960346
-0.1636233 111.7545 -4.058129
-3.652145 116.0928 -4.458539
-2.199347 112.36 -3.904258
-3.943299 111.2079 -4.12904
-3.250412 121.8269 -5.823345
-4.109339 118.2929 -4.665806
0.5626721 118.7195 -4.007394
-9.427888 119.213 -1.107064
-9.328673 119.2598 -1.341781
-10.36151 120.4856 0.0739134
-6.251439 119.595 -3.560466
-7.56751 126.1094 -6.372049
-10.82229 122.6791 -1.126205
-11.96343 125.6157 -1.881266
-12.25414 125.5775 -0.4130031
-9.241879 113.8426 -1.763392
-7.190334 113.2287 -2.857378
-1.155693 119.0472 -4.352861
-5.594663 116.6942 -3.560622
-12.57976 128.8835 -0.5358849
-8.128719 115.9504 -1.980629
-6.283521 117.4853 -3.633432
-2.913259 117.1506 -4.137163
-8.402753 115.2152 -2.256985
-12.68098 130.7214 -3.920115
-5.688436 113.2115 -3.409009
-7.941072 113.7542 -2.411697
-1.440515 115.0883 -4.345842
-8.448772 131.1021 -8.169607
-12.5781 131.5251 -5.00273
-12.93883 131.1534 -0.1025168
-12.95982 130.4293 -1.9197
-1.416676 111.0331 -4.268389
-1.56112 113.1206 -3.855599
-9.025894 124.1249 -4.151206
-11.13013 126.1365 -3.393238
-10.87198 123.7609 -1.470518
-7.290583 120.9677 -4.020696
-3.690359 119.663 -4.24535
-7.6728 118.0962 -2.805516
-6.880768 112.7338 -3.149251
-4.406388 116.2384 -4.35106
-2.717172 119.0911 -4.926479
-2.447011 115.261 -4.309457
-2.087758 115.6373 -4.472709
-7.743673 130.4876 -8.14326
-11.94455 129.1052 -3.972792
-13.27084 132.2008 -3.972309
-10.55357 131.2452 -7.035224
-5.306118 121.4024 -4.591536
-7.349536 122.3886 -4.943299
-7.376306 124.2554 -4.952605
-5.458264 124.0261 -5.819787
-9.468205 120.8282 -2.187252
-7.845941 120.5127 -3.557601
-8.797833 121.5297 -3.358642
-11.25802 131.3521 -6.529508
-9.821658 128.932 -6.705777
-9.058042 127.8703 -6.391601
-11.7932 126.7849 -3.043995
-8.578298 127.2804 -6.211978
-11.38151 127.1242 -4.464624
-12.02585 130.5076 -5.124179
-7.072073 128.0754 -6.992441
-11.93521 128.0549 -1.960493
-9.706944 125.2093 -4.60779
-10.37082 128.8264 -6.209948
-8.758506 126.6278 -5.944529
-12.35363 130.4958 -4.54651
-0.7803063 119.5014 -5.121594
-0.4145489 119.8977 -5.100183
6.187842 147.2298 -2.883583
8.205164 130.387 -8.031752
-3.374513 148.4754 -5.512327
-5.375436 137.9211 -9.292859
-2.366956 123.7744 -5.918031
4.246752 123.2885 -5.743134
-3.554727 123.8538 -5.935928
0.6773591 121.3273 -5.808397
7.629277 134.7594 -8.963971
2.891938 130.4145 -8.147169
1.276147 147.6164 -6.358348
6.168302 126.54 -6.457164
5.775407 147.5728 -2.9566
4.943897 147.7271 -4.695079
2.256845 121.6012 -5.316485
7.518976 133.1601 -8.847386
0.7272087 119.6061 -5.073903
-5.536594 131.0222 -8.389887
6.700519 126.0307 -6.028536
-4.112725 128.2304 -7.305058
-6.679269 127.6025 -6.764439
2.651942 124.395 -6.21389
-3.755127 133.7204 -8.973619
-5.241173 127.4938 -6.978553
-1.379356 130.1662 -8.078832
-2.521313 138.6971 -9.142717
-1.860429 147.8669 -6.222568
-3.463212 147.141 -6.409926
-5.784646 142.9876 -8.283487
0.7596864 148.8162 -5.934507
-5.805267 145.9646 -6.376738
-6.375433 146.9894 -3.937735
-6.141107 146.1285 -5.975975
0.09533712 124.4909 -6.206563
-6.40439 135.5181 -9.1313
2.628665 149.035 -5.427853
-2.663369 148.39 -5.826951
0.56098 147.7555 -6.300254
4.851182 124.0931 -6.052761
6.05191 133.889 -9.097856
-5.077699 128.7847 -7.511377
-4.90568 128.193 -7.24663
-6.389478 134.4106 -9.094017
-1.173488 125.1199 -6.414095
-4.314857 125.1125 -6.164235
4.790803 148.0888 -4.234481
6.379476 146.6845 -4.571623
-2.856611 145.0542 -7.4355
5.952685 128.643 -7.440969
6.123461 129.7197 -7.986096
3.436935 141.1561 -8.926393
1.518629 148.2595 -6.02148
2.77963 148.1735 -5.977491
-0.3792966 147.6407 -6.365463
3.567935 123.5728 -5.906765
-1.176637 128.2563 -7.391188
-0.7628034 124.2696 -6.025598
0.11384 124.9177 -6.391454
7.750035 131.8956 -8.539276
4.888716 131.7882 -8.609579
4.047268 135.2013 -9.112997
5.468934 146.9501 -5.515622
3.482912 127.3534 -7.080688
2.657268 129.5163 -7.83393
1.438408 136.1239 -9.120087
-5.617204 133.4858 -9.011753
-0.3577534 144.6296 -7.605725
-5.223126 146.2921 -6.402207
-5.996479 146.7349 -5.201666
-5.858168 138.2818 -9.277996
5.428167 129.9354 -8.015596
6.435514 128.9522 -7.563611
1.273524 128.3712 -7.434821
-0.1787398 130.7738 -8.260859
-3.603529 131.5951 -8.530711
-3.737996 129.9631 -8.026027
-3.7141 128.8862 -7.597606
-2.564233 129.9907 -8.028247
-3.1566 132.2218 -8.667083
-5.997447 126.4568 -6.630873
-0.6253636 144.2868 -7.731473
-6.761385 141.2083 -8.866918
2.702793 142.3477 -8.474485
-3.619287 144.9385 -7.455085
0.5934957 140.6241 -8.826354
-1.474201 142.7482 -8.287371
-3.67006 146.8241 -6.546735
0.01836768 141.1872 -8.712218
4.683008 140.2719 -9.169297
3.939454 134.4369 -9.033584
5.608464 141.0797 -9.032734
7.525596 139.2006 -9.040209
5.825256 144.3429 -7.530649
1.203082 144.4355 -7.683308
4.130856 145.1154 -7.493549
1.362286 144.8904 -7.526814
4.937888 130.6464 -8.268555
6.322699 137.9896 -9.281648
4.177817 138.6716 -9.245657
6.750983 137.8757 -9.22904
7.069441 143.0057 -8.111049
3.96264 143.9467 -7.959646
7.204632 131.1855 -8.474958
-5.783473 141.7923 -8.834389
-5.52814 139.8638 -9.20608
-4.299008 143.4213 -8.143775
-4.30729 142.2691 -8.644771
-4.462485 141.0908 -9.078993
2.816379 132.4716 -8.699529
-2.32811 134.0466 -8.976595
5.37518 131.1653 -8.446582
-0.4556371 135.6952 -9.093966
1.400263 129.034 -7.666513
-0.4337188 127.3607 -7.095602
-1.495912 129.6436 -7.890418
1.574939 139.7046 -8.972133
1.192445 138.5052 -9.113753
6.980229 140.5481 -9.117785
-6.644208 139.7011 -9.182293
-2.216038 139.4866 -9.082679
-6.231617 135.9955 -9.159023
-0.9424359 135.8132 -9.102406
-6.064981 137.5467 -9.242721
-3.768845 136.6411 -9.178867
-0.1041464 132.148 -8.624992
2.070887 134.5122 -9.012568
2.180937 136.956 -9.148896
2.740031 136.161 -9.138525
-2.238084 135.4097 -9.090052
3.917359 132.5439 -8.738576
-2.020966 133.2202 -8.855712
0.5221425 134.9999 -9.046741
-1.583346 137.6557 -9.142969
-0.4914391 137.0253 -9.14167
-3.763279 138.2319 -9.241899
-7.059833 137.7988 -9.17741
0.6154741 133.9989 -8.947518
-4.209676 140.1833 -9.165296
9.913386 140.632 -8.316966
14.06104 134.3234 0.3042713
8.27769 146.2264 -1.87845
9.28068 140.8187 -8.442168
13.909 133.8196 -1.956314
8.650238 137.3982 -8.737799
8.842028 139.099 -8.689232
16.67479 146.5713 -0.3170436
12.77266 140.9061 -7.597316
10.93544 145.8368 -1.370331
15.62777 145.9569 -0.5988867
11.26304 137.4683 -7.991698
15.71068 137.4458 -6.64004
12.33131 135.9992 -7.464356
9.414187 134.8818 -8.405175
10.12728 134.3731 -8.120167
8.031319 139.7781 -8.885863
8.706926 138.7849 -8.727171
7.717038 143.9068 -7.427311
8.127429 140.9436 -8.692815
9.299386 141.8467 -8.158738
9.258865 143.6807 -7.127725
8.601533 145.8853 -3.948457
10.00661 142.0211 -7.921673
8.175925 143.1124 -7.842937
12.40446 141.4356 -7.534791
7.646227 145.0865 -6.306985
12.13552 142.4735 -7.158972
15.02864 136.7417 -6.488081
13.79568 139.1805 -7.542172
13.95711 138.3901 -7.495419
11.10407 134.3113 -7.5769
15.6436 138.6034 -7.160783
10.18687 135.6798 -8.224982
12.10077 133.6043 -6.71187
15.0451 135.1504 -2.73675
12.72486 145.8833 -0.6027894
9.774888 144.3334 -6.29057
11.39383 145.3031 -4.013164
9.673146 145.9039 -1.733333
10.65319 145.6467 -3.416682
12.28648 143.2386 -6.716236
14.79799 135.8189 -5.688292
13.48679 134.4753 -5.979522
14.62247 135.4723 -5.648694
14.05025 146.1214 -0.1105639
15.23033 144.3428 -4.374701
13.58295 145.4067 -2.749223
15.07884 145.4742 -1.888492
14.92288 143.7788 -5.104543
14.22348 135.0628 -5.833794
12.76086 145.0269 -3.953493
11.57238 145.7246 -1.982925
13.38892 136.5656 -7.216239
-8.153531 142.301 -8.272696
-9.800918 134.8972 -8.317548
-9.840711 141.0239 -8.323131
-7.047573 143.5154 -7.796201
-8.222142 141.4412 -8.573834
-8.630581 144.435 -6.664735
-11.64329 133.2713 -7.003155
-7.210886 146.1471 -5.034552
-13.01097 137.9244 -7.655653
-10.59993 145.821 -2.025155
-7.234955 136.4915 -9.11992
-8.976927 136.6444 -8.634336
-10.42447 137.6696 -8.261642
-14.21769 134.0234 -3.174141
-13.78187 135.513 -6.452229
-12.9277 132.6638 1.958549
-13.47582 133.1038 -0.1631978
-13.71558 133.0815 -1.550382
-10.12238 143.3814 -7.172113
-16.33325 144.569 -4.151629
-8.079579 138.5205 -8.918076
-8.975184 145.8238 -3.985707
-16.76757 145.3867 -1.16714
-7.312489 146.5641 -3.339987
-7.687973 143.4906 -7.716831
-14.85068 138.347 -7.289699
-13.97867 133.5589 -2.359642
-12.22099 145.7607 -1.387239
-15.07364 145.5411 -1.343536
-12.66851 139.9045 -7.786231
-9.625199 145.5817 -4.212306
-10.80266 144.6235 -5.591224
-8.294587 146.3464 -2.162004
-9.420187 140.8836 -8.454713
-11.36587 139.6717 -8.053585
-8.889804 142.6524 -7.981859
-10.56944 142.7297 -7.59019
-14.54581 135.1907 -5.558729
-14.94593 136.0008 -6.054203
-16.60007 145.2312 -1.777466
-13.534 145.6543 -1.619966
-13.3204 144.7901 -4.364331
-13.7779 140.09 -7.504692
-12.40988 135.3885 -7.327005
-14.17 137.3847 -7.32142
-13.59196 135.0693 -6.282256
-9.492751 145.9362 -2.43816
-13.00955 142.8865 -6.727304
-9.537177 143.6395 -7.099156
-15.78358 144.3585 -4.561727
-11.97052 145.0974 -4.202871
-12.38419 143.8627 -5.979565
-12.52262 142.4852 -7.106787
-14.19648 141.8638 -6.935815
-11.43838 141.8634 -7.623282
-13.47765 145.6273 1.241335
-13.16051 140.7303 7.334775
-6.24753 147.5253 -0.9372001
-9.753114 139.5505 8.476262
-12.58071 145.03 2.940455
-3.487982 145.7757 5.080778
-10.74811 139.8912 8.485562
-18.05496 144.8371 1.742214
-15.69576 145.6116 0.1702509
-13.70664 140.7741 6.8009
-13.1708 142.9717 4.635701
-6.888722 146.6903 0.2161482
-10.62852 140.1912 8.437045
-5.411597 143.0245 7.311054
-2.497866 143.9152 7.29997
-0.6935304 146.8944 5.145435
0.8246323 148.3761 4.993152
-11.85608 140.4547 8.093777
-9.967125 141.3813 7.769081
-14.87172 145.7034 -0.3633353
-6.022617 147.7055 -1.369744
-6.744999 147.1108 -2.379418
-18.4264 144.9478 1.368678
5.438611 147.4394 1.247178
-3.971045 147.498 3.900052
-15.58393 141.9473 4.716016
-9.059946 142.5612 6.863315
-6.052365 147.4436 0.2133647
-7.610935 145.5692 3.42283
-10.39535 145.8938 -1.353108
-3.959587 142.7842 7.792346
-3.201178 145.1377 5.898056
-8.02871 143.3461 6.320138
-1.224496 145.2777 6.077867
-4.671031 146.8891 3.22796
-1.304128 148.5354 4.952394
-15.39152 145.43 1.268689
-10.1499 145.8951 0.4112608
-6.508551 144.9824 5.058134
-6.104402 146.6539 1.757383
-5.548907 145.5572 4.152256
-9.499352 145.9939 -1.297512
-12.30202 145.8677 -0.07150748
-8.744962 146.0872 0.1280453
-14.76221 145.1884 2.025416
-9.580921 145.2995 3.423178
-10.97554 145.6369 2.17144
-13.54774 145.7674 0.4873067
-12.05352 145.5973 1.834015
-9.210706 144.5694 4.670076
-13.75013 145.5529 1.417967
-12.28465 143.9228 4.187806
-14.13704 141.916 5.211483
-4.846499 144.7529 6.087323
-4.216516 145.4358 5.214924
-7.348689 144.42 5.558606
-5.458601 145.4155 4.524861
-12.96755 145.8485 -0.3801371
-8.867666 143.9325 5.440886
-10.76912 141.2636 7.706484
-9.883386 145.073 3.786242
-13.95541 144.0375 3.58997
-12.83528 141.6501 6.082904
-11.26594 142.5612 5.806641
-9.973448 142.181 6.941197
8.037976 146.1876 -0.1440137
13.42981 145.2706 3.81087
12.20346 139.0469 6.768095
13.61704 141.8312 5.545137
14.65131 147.1548 2.169733
7.585145 146.1143 0.8046739
8.675261 146.1058 0.9303894
8.728196 146.0717 -0.69015
8.063353 145.7162 2.734326
12.25882 138.6579 7.648434
12.93084 138.5355 7.547061
12.91734 139.6451 5.959754
10.92125 146.4264 1.035324
16.16643 146.7648 3.201905
9.59943 146.2882 1.524981
10.81657 144.551 4.571158
16.8338 147.5387 2.57934
14.10579 145.672 3.731416
12.00206 146.4597 0.8133555
12.16784 137.0625 8.279488
15.30439 146.8557 3.100288
14.841 147.1519 2.493515
9.498654 144.3464 5.008196
11.92037 143.8878 5.24965
12.69955 143.5815 5.363812
16.26634 147.4506 1.262995
9.352575 146.1623 2.640405
11.00309 146.2938 2.744637
11.65759 146.7405 2.170309
13.33795 146.687 2.725766
12.27757 145.0004 3.927967
-12.38845 72.56569 -1.243185
-13.5183 75.07757 -0.1275958
-14.56857 76.55655 2.204331
-12.93776 71.18987 -0.2947152
-14.35424 79.5158 0.423006
-14.05123 79.57503 -0.3996532
-13.98667 73.41865 1.12725
-13.61331 82.09116 -1.764689
-12.81187 94.49453 -2.842603
-14.98335 81.96162 1.445968
-13.15396 71.56838 -0.09035055
-13.87969 90.73472 -2.040029
-14.27434 72.9433 2.113809
-14.07855 96.09792 1.442621
-15.2003 84.03023 1.953369
-12.45453 99.53751 -2.128005
-12.3066 104.833 -1.965346
-14.85194 84.03197 0.4379723
-12.78342 100.822 -1.14171
-13.75424 87.79887 -2.537305
-13.66149 69.31189 1.402597
-14.41611 70.41242 3.322863
-14.37364 87.50851 -1.355992
-14.82264 76.8634 3.172325
-13.09782 78.95905 -1.739005
-13.50466 89.46465 -2.860269
-14.3677 75.98155 1.536025
-14.35787 74.55913 1.912506
-15.25335 87.07141 1.548925
-14.79955 87.00119 -0.2702673
-14.32258 79.13134 0.5014897
-14.95427 90.72633 0.7805821
-14.54411 92.97255 0.8370643
-14.7934 91.00509 0.4119465
-13.82077 95.33742 0.130079
-13.41913 97.09617 -0.08238766
-14.29612 85.59377 -1.360795
-13.20295 103.0057 1.520036
-13.07788 101.7978 0.02697456
-13.82942 71.71358 1.143582
-12.92187 105.0046 0.154121
-13.08577 99.28357 -0.2614333
-13.65998 79.38173 -1.027411
-13.85432 70.57484 1.497046
-14.38552 87.04589 -1.310598
-13.83826 90.57543 -2.176997
-12.89269 92.03929 -3.509181
-14.04533 92.12525 -1.198671
-14.64412 89.76945 -0.5439241
-12.89103 94.82716 -2.540429
-13.29668 92.86352 -2.553265
-13.58885 95.5741 -0.4185245
-12.35032 97.92516 -2.744308
-13.41127 97.84006 0.3606206
-13.02561 100.2673 -0.2120337
-12.15394 103.0551 -2.819629
-13.04818 103.5272 0.2822246
-12.65609 102.6798 -1.518744
-13.98806 74.94003 0.7959994
-14.11481 77.08154 0.5257562
-15.09506 83.24317 1.54714
-15.25819 86.43316 1.632544
-15.16573 89.76517 1.336984
-13.53202 91.87914 -2.443592
-14.47181 93.95084 1.234552
-12.52193 96.83746 -2.64131
-13.4976 99.65969 1.724597
-12.98451 103.5047 -0.2380465
-12.56766 106.0113 -0.590192
-11.66829 107.7587 -1.572814
-12.8235 106.6846 2.054617
-12.78301 105.7165 0.020227
-12.95721 106.1219 2.58088
-12.00145 109.9544 1.892825
-12.22698 107.0454 -0.71179
-12.40061 106.9817 -0.2666024
12.34958 107.1694 6.236427
12.32075 108.4074 5.415375
12.93563 106.1736 2.839093
12.51037 106.6435 5.754828
12.41589 108.4898 1.794936
11.9482 109.9481 1.500367
12.56179 107.1812 5.138276
12.68166 107.4718 2.430707
14.31081 72.03882 2.358475
14.24016 71.73048 7.445505
14.60194 71.15226 4.909371
14.49715 75.86685 1.937614
14.40008 69.94094 3.350892
15.08515 80.35711 5.613933
15.12722 84.44905 1.148845
15.17808 85.20701 5.794761
14.74845 79.67463 6.942909
15.38328 86.39533 3.447757
15.1025 85.22063 6.2269
15.2968 91.2654 3.668778
13.7566 96.42666 0.5879989
14.6136 94.78807 5.586035
15.2682 89.38503 5.137487
13.65513 99.25691 5.054214
13.30675 102.0017 4.290192
12.71619 105.2889 5.477029
14.58556 73.31012 3.181152
14.66302 72.82538 5.445251
13.30224 101.0792 1.11245
14.249 70.18504 2.603689
15.34615 86.79746 5.05794
14.45231 73.89941 2.407885
15.32867 83.83604 3.514545
15.41091 86.76376 4.005045
15.03772 79.96465 3.141556
15.21464 83.02087 5.626735
15.08028 82.27356 1.979401
15.22744 83.87638 2.183043
14.97256 86.21429 0.7615607
15.27083 82.11147 3.556865
14.82479 92.80437 1.713646
14.80215 77.73683 2.738647
15.11072 91.66103 2.373177
14.45823 95.70408 2.741801
14.0695 97.16113 2.270937
15.09142 89.34086 0.6980189
13.48129 100.5636 2.096005
14.69386 73.75587 4.074421
13.03058 105.4587 2.993756
14.593 73.32982 6.007895
14.80184 76.6385 3.292289
14.874 75.98774 4.435106
14.41214 71.38563 3.141787
14.59634 74.37813 6.33252
15.1439 92.29022 3.394919
15.31672 87.6981 2.169992
14.96561 91.21656 1.244417
14.25107 95.13893 1.351263
14.65086 95.43662 4.437803
14.94792 93.67496 4.458292
13.83897 96.97945 1.291343
13.27603 100.6352 0.8164584
13.34815 100.8176 5.245467
13.76478 99.15092 4.318257
13.53692 100.5937 2.989736
13.08443 105.0414 2.704427
12.91125 105.2754 4.552209
12.96878 102.8333 5.40618
14.6864 73.58133 4.112017
14.94929 77.21795 4.098808
14.95691 77.37457 3.917048
15.31315 83.10497 3.870328
15.34883 85.26892 3.205735
15.41651 88.89699 3.598456
15.0377 93.16991 3.819412
14.85149 93.42212 2.377267
13.88785 98.63464 3.301458
13.68115 98.99376 2.045668
11.31753 107.0814 -2.488347
5.504167 108.7138 -4.979746
7.878073 107.8713 -4.834321
6.007642 110.0792 -4.301295
8.669812 106.9184 -4.981032
11.27006 107.3511 -2.383847
4.554267 106.8278 -5.934821
7.774542 105.9707 -5.842531
1.946402 107.2226 -5.896387
6.909755 107.477 -5.297686
5.435901 107.1541 -5.682763
9.73122 107.2937 -4.079234
1.82672 109.6453 -4.74616
10.76412 109.8343 -1.510999
10.46405 108.8166 -2.547794
7.234975 109.3601 -4.367317
9.301515 106.628 -4.70326
10.41721 108.1962 -2.982179
12.01927 108.6077 0.03305957
3.025224 107.2146 -5.891475
4.614836 109.7151 -4.629013
12.84398 105.9033 0.5271516
2.76246 106.941 -6.042446
11.14 71.30061 -2.195165
12.8861 69.4051 -0.178534
12.62254 74.20904 -1.17033
14.0338 76.95493 0.4285446
13.93595 74.57896 0.8107839
12.75682 99.80703 -1.358026
7.796975 103.7797 -6.850509
9.123413 70.43375 -3.232477
10.50988 103.5159 -5.028473
14.48279 82.60403 -0.3193683
12.58248 89.16491 -4.276819
9.569488 102.9446 -6.006732
2.084648 103.2878 -7.90095
12.57078 94.46724 -3.413498
10.97011 69.36259 -2.140849
13.50477 71.49287 0.4865149
11.43778 70.64175 -1.862791
12.79625 70.9667 -0.4997642
12.14628 103.3902 -2.72194
14.33514 74.19086 1.87874
9.458609 70.49805 -3.089326
12.43833 103.6116 -2.055456
11.95303 73.16406 -1.702922
13.66711 70.59134 0.9945194
6.302916 70.2553 -3.562098
10.90203 72.67313 -2.550464
1.961951 70.21809 -3.554569
6.078108 104.7058 -6.938764
11.27003 72.57286 -2.222654
14.11514 76.09345 0.8804102
11.17984 103.3271 -4.300798
3.286061 84.12068 -6.754479
3.362879 88.64717 -9.417912
12.79278 105.5539 0.04793059
13.14814 100.8052 0.1800548
9.631507 102.579 -6.0833
5.947036 91.26521 -9.828309
8.892827 74.07585 -3.660182
4.745585 75.42421 -4.17113
7.942766 104.6022 -6.397226
2.523489 97.46236 -9.68637
4.347914 91.9942 -10.0887
4.599745 104.8823 -7.069561
3.74385 101.5444 -8.687215
10.12476 102.9367 -5.530098
12.85895 104.0448 -0.6850289
6.926414 104.7856 -6.732206
9.164662 72.20996 -3.402132
13.91198 72.92948 1.134878
4.94364 69.9561 -3.531365
6.019221 104.0796 -7.288697
5.024618 81.11869 -5.497864
15.05403 88.06445 0.3833085
3.213748 79.47807 -5.081202
7.507645 77.59689 -4.54163
12.87641 95.52547 -2.296952
10.30395 100.7812 -5.872103
5.02583 74.23208 -3.963639
4.242396 69.84724 -3.518371
2.737542 69.42297 -3.469428
3.749898 100.6302 -9.057463
5.100852 103.5995 -7.716017
13.40798 76.90439 -0.7513682
11.75288 102.9694 -3.514991
12.96773 102.2601 -0.3666573
13.10688 99.20334 -0.2677183
10.55322 99.87247 -5.718712
8.989807 97.33509 -7.980897
9.893641 99.36311 -6.705377
14.27937 81.27033 -0.409304
6.683564 81.33781 -5.510735
4.474896 87.50597 -8.825546
5.351541 93.27486 -10.04158
11.78338 93.23788 -5.174469
13.22268 92.20877 -2.921962
5.63303 84.25031 -6.704898
8.112274 74.00547 -3.868363
9.832421 75.2394 -3.480566
10.57196 75.02196 -3.081976
5.070352 77.59617 -4.632176
12.29207 96.84807 -3.168957
2.747505 99.99733 -9.21809
2.20699 101.3895 -8.71615
7.349918 99.33933 -8.590783
4.835353 99.13534 -9.323076
2.629898 73.12041 -3.864494
12.72563 101.9423 -1.349363
10.78654 99.36128 -5.517371
12.411 97.30286 -2.751421
11.07169 95.11677 -6.06999
8.616221 99.17591 -7.934488
10.45399 96.9889 -6.62437
8.095844 102.8467 -7.108658
7.432811 98.32704 -8.803802
5.211236 103.5507 -7.71949
10.72271 101.593 -5.249319
10.02522 101.0701 -6.127492
14.18224 83.08736 -1.025475
11.58133 76.57263 -2.66949
8.12208 84.11867 -6.306094
13.03723 80.29869 -2.240274
14.09287 83.94073 -1.57178
3.194679 81.2839 -5.596141
4.188258 76.76244 -4.453674
3.779254 81.56091 -5.676782
3.530437 85.57814 -7.66609
3.10013 87.22468 -8.63301
3.005122 83.08549 -6.263595
3.044368 84.4287 -6.936117
3.058764 94.06882 -10.02033
2.848384 96.28865 -9.831209
6.882873 97.08778 -9.213334
6.10834 89.49992 -9.542007
3.551012 92.62563 -10.07876
5.410068 90.10691 -9.801697
11.88678 94.71204 -4.682299
13.62089 91.11426 -2.418176
11.37217 92.34074 -6.014847
13.64951 93.48124 -1.445277
11.58008 90.21467 -5.754759
5.955322 87.61175 -8.824928
7.821924 88.95902 -8.91191
2.505073 86.39246 -8.15334
2.288305 85.46405 -7.588665
7.744814 72.90424 -3.785025
3.692423 74.23208 -4.000599
6.138111 72.88827 -3.865159
2.618425 73.30618 -3.883986
12.6396 98.10857 -1.963305
12.83216 98.35193 -1.362534
13.2656 95.75894 -1.22349
12.3371 93.52969 -4.174376
14.46963 79.38347 0.7358094
14.12654 77.75735 0.3905381
9.872256 76.00119 -3.636803
11.92939 78.46088 -2.845158
12.2509 78.8455 -2.647202
9.451968 80.29634 -4.760933
13.34463 78.7428 -1.283938
11.20179 79.29424 -3.616746
14.391 88.00557 -1.420679
14.21793 86.45721 -1.696852
11.3114 84.19813 -4.788978
7.407821 87.17883 -8.156722
9.026902 85.71468 -6.816308
13.62899 84.69347 -2.448927
10.23316 87.79509 -6.808812
6.743428 87.52395 -8.506726
7.527956 85.89174 -7.562201
11.32922 85.93148 -5.3732
12.67963 89.03733 -4.137009
10.3201 83.89031 -5.335671
8.956024 82.23336 -5.43859
5.594727 82.65275 -5.982755
9.940441 79.82246 -4.449214
11.33411 81.78012 -4.20015
7.25713 79.43262 -5.035038
6.152795 76.97079 -4.49631
4.074749 75.67211 -4.225473
2.481118 94.8374 -9.965429
3.916086 96.55648 -9.7861
5.355195 96.01588 -9.691097
9.429861 94.11642 -8.130156
9.423959 89.78912 -8.160008
7.491406 86.81142 -7.986757
7.96001 90.18984 -9.127366
11.82507 87.56882 -5.189488
8.544515 88.51439 -8.403597
10.87047 89.92922 -6.668621
11.19198 92.30159 -6.302458
9.521447 91.62939 -8.20915
8.483585 91.24184 -8.896544
7.06064 92.59596 -9.648895
7.543385 92.66701 -9.407956
6.374854 95.00774 -9.70729
9.528621 92.61021 -8.207441
7.821159 95.00198 -9.144795
9.096118 95.56871 -8.268584
13.35475 95.02268 -1.362239
13.89914 89.54995 -2.314747
12.61399 93.35477 -3.723634
11.61487 86.39964 -5.220304
13.21443 84.80137 -3.017613
13.09088 83.81903 -2.991974
13.12387 82.33565 -2.604911
12.0397 82.0643 -3.696374
5.861895 75.40475 -4.161497
2.855 76.82993 -4.471472
8.922032 78.11156 -4.432214
9.486708 78.31663 -4.318807
6.995085 75.98216 -4.280051
9.866607 86.02675 -6.478584
9.236132 88.65765 -8.064812
12.40334 90.75918 -4.52386
10.91814 94.71698 -6.381358
13.63086 81.23433 -1.694625
12.9517 81.96895 -2.732235
4.452973 78.13142 -4.747587
11.96198 97.19926 -3.891615
11.63675 95.8427 -4.896034
10.40452 97.22144 -6.642
-12.70504 106.5267 4.941953
-10.93786 109.851 8.123597
-10.33854 106.9631 9.707576
-12.42854 108.7857 3.605072
-12.75025 107.1813 3.61881
-11.92719 108.0062 6.887319
-11.39824 108.9765 7.755499
-7.344695 108.1357 11.4587
-11.60295 107.1671 7.980156
-7.589141 104.7189 11.56437
-4.960475 106.3524 12.56937
-9.573899 108.4479 10.05366
-13.02544 105.5443 2.923076
-11.05034 106.1478 8.923541
-8.110263 105.6569 11.31011
-12.45785 107.2226 5.745286
-10.36446 108.7388 9.229679
-7.951869 107.3419 11.25514
-8.418611 109.4956 10.57359
-5.164228 105.2013 12.47001
-7.40129 108.602 11.36083
-5.110861 105.9274 12.5132
-11.88575 106.3078 7.578161
-6.801463 105.6724 11.89588
-4.263062 108.6511 12.74609
-14.26131 69.83206 6.95194
-14.67892 73.83692 3.685996
-11.94762 71.7032 10.77073
-9.94134 69.99957 11.60788
-13.96048 74.09222 8.403285
-14.9349 79.95455 5.872751
-14.78542 77.51432 6.172117
-15.10581 80.94313 3.06935
-5.714073 87.17913 11.86385
-12.1314 103.9559 7.637765
-15.34663 85.47623 3.368139
-15.00089 78.87088 4.848778
-12.63184 104.1643 6.187588
-14.93783 92.70753 2.407277
-12.88865 99.71586 7.182994
-13.82742 99.06967 3.724975
-14.7199 94.68674 3.296355
-11.97143 72.16887 10.80764
-12.62566 101.4503 7.094211
-4.877829 84.31347 12.24667
-13.12746 104.011 3.626148
-12.1545 102.8959 7.779329
-10.76366 103.367 9.572646
-13.25543 102.8135 3.075108
-11.72738 103.5722 8.312203
-11.7855 80.41022 11.38469
-10.83216 71.98594 11.48057
-15.08312 79.83484 4.623755
-4.419332 71.13097 11.93595
-14.86179 76.59045 5.082334
-13.88105 69.97118 8.12334
-14.76381 74.97828 3.755223
-3.962931 76.26691 12.42818
-13.54193 100.6461 3.728498
-14.46873 72.37459 6.568333
-14.55964 76.42801 7.021677
-11.73361 89.00517 10.70248
-11.22934 70.43754 11.06615
-10.35891 104.9008 9.877069
-7.310129 102.9624 11.58628
-11.55441 70.88531 10.91048
-3.83345 98.78023 11.66095
-12.92718 103.9089 5.039012
-9.341511 104.5951 10.70774
-4.662314 103.6842 12.45823
-7.264141 104.5267 11.67508
-12.71393 102.6581 6.444119
-14.6927 75.16806 6.329228
-14.41273 75.79845 7.504107
-15.1997 82.19595 3.249548
-14.90643 77.41901 4.589974
-15.12149 80.95695 3.916594
-15.0501 83.00642 6.184505
-15.40168 87.66973 4.426897
-13.28981 77.32594 9.804458
-4.214674 83.00864 12.3626
-12.68688 78.34055 10.52854
-14.36348 77.23515 7.872365
-13.7966 75.94709 8.997631
-14.64272 95.20972 3.405692
-11.34352 99.87514 9.122668
-14.02474 72.55087 8.255516
-13.451 72.70295 9.21545
-8.49399 73.476 12.12238
-4.774379 70.21141 11.83996
-12.94378 101.7163 6.205153
-11.42882 102.58 8.798142
-7.300425 99.99915 11.24461
-9.368847 100.8385 10.57905
-5.946529 102.2255 11.94621
-13.30342 101.9664 4.088276
-13.86244 98.24868 2.416848
-14.73536 74.49667 3.940149
-15.30156 83.34216 4.424995
-14.46609 81.84494 8.083216
-14.8808 83.27108 7.107204
-13.74753 85.71256 9.269411
-15.34447 84.58012 4.375672
-4.80259 83.47806 12.33076
-15.21756 84.46637 5.044536
-13.12962 77.95891 10.02927
-13.48643 79.59322 9.703315
-4.168836 90.1162 11.31539
-7.471234 79.94222 12.50724
-14.59271 95.65179 5.235708
-6.215227 94.74033 10.96564
-7.762073 96.56863 10.80015
-10.52653 73.99013 11.82494
-12.93474 74.11826 10.00891
-10.17985 76.46331 12.06394
-13.27993 75.4916 9.735481
-13.22405 73.96943 9.629593
-8.400187 74.33115 12.23102
-14.86561 93.88656 5.453931
-10.5381 99.61597 9.815102
-5.934321 72.32213 12.12331
-12.68287 98.25594 8.150472
-13.978 98.12975 3.220405
-14.18153 97.47938 3.93562
-14.44435 96.36616 4.354115
-13.89828 98.8437 4.371356
-14.96281 87.28056 6.821639
-15.25246 85.62236 5.169021
-14.62924 84.80989 7.531872
-12.63242 86.39964 10.49992
-15.29664 88.40538 5.374276
-5.169269 81.19563 12.44719
-9.265244 85.79909 11.91818
-6.631491 88.06703 11.70458
-8.365252 87.08459 11.88053
-9.919668 88.57705 11.47622
-6.056567 85.52879 12.07405
-8.211442 88.7484 11.53982
-6.646911 83.57446 12.33611
-9.287829 85.63146 11.94838
-7.940441 79.44502 12.52583
-6.276634 80.83066 12.46633
-7.046366 82.63625 12.39489
-14.9213 94.21707 4.997395
-13.57576 87.43849 9.372878
-14.10153 93.53444 7.629723
-15.15665 92.43303 3.650453
-4.493694 92.05663 11.03892
-6.590148 92.99487 10.98025
-5.786967 91.04919 11.17664
-4.652855 95.3007 11.07445
-4.989742 97.15308 11.17918
-6.318775 92.62453 10.99187
-7.266961 95.62206 10.81907
-10.7455 72.657 11.6095
-6.614326 72.35148 12.14038
-5.512096 76.99097 12.4735
-5.004171 78.35028 12.49782
-4.567295 98.90433 11.56814
-8.22899 100.6861 11.03618
-13.20088 100.0105 6.397154
-14.34534 96.4349 5.541786
-11.75905 98.94167 8.867809
-10.57857 101.4755 9.814491
-7.115993 100.9938 11.4347
-8.580261 99.1453 10.82211
-8.850698 102.2826 10.93887
-15.0148 85.86293 6.78708
-13.71742 83.13613 9.486331
-5.552222 80.23631 12.48438
-5.008945 80.36568 12.47817
-7.134166 81.01807 12.45777
-10.11635 81.41117 12.15685
-9.869293 79.60689 12.26513
-8.695725 75.76173 12.37368
-4.417258 89.53844 11.42868
-13.54568 84.70444 9.660165
-14.04863 82.40859 9.003125
-10.06895 80.24348 12.21686
-12.60569 82.28822 10.69776
-11.79891 82.08944 11.33419
-14.41575 82.25471 8.136587
-12.33179 83.97125 10.85222
-15.39725 88.82903 4.086774
-9.786141 92.79319 10.83473
-14.64247 94.64748 2.729841
-8.910969 94.59037 10.74755
-6.444798 92.14835 11.01543
-6.035021 95.28168 10.95599
-8.809165 98.24895 10.69298
-4.67806 74.50795 12.27173
-7.530881 76.07597 12.47092
-5.273654 101.1773 11.89751
-11.11596 97.6249 9.686583
-12.54139 88.12534 10.21323
-12.22938 87.64358 10.6029
-10.42085 92.15686 10.72262
-9.867477 90.02056 11.22945
-10.01807 91.29097 11.04248
-11.41115 92.11674 10.33921
-14.27199 90.08395 8.020292
-6.326966 82.51949 12.39397
-6.699193 76.75323 12.47954
-7.411478 78.05699 12.49845
-10.41615 78.01719 12.04531
-11.84593 83.23528 11.27288
-14.61284 94.25241 6.127742
-9.619123 95.89637 10.51053
-14.35729 92.80637 7.31851
-14.77007 91.56757 6.809827
-14.63558 92.63601 6.793396
-14.79514 90.54104 6.982667
-14.90028 89.79067 6.850461
-15.10689 87.75768 6.401687
-13.19098 89.35775 9.378538
-6.347699 98.65746 11.22565
-9.776667 97.051 10.37507
-7.992315 94.22707 10.89322
-10.79393 90.52612 10.93725
-13.19306 96.05981 8.139505
-13.39866 94.48811 8.435126
-9.297297 93.90913 10.70517
-11.46207 94.89011 9.915637
-11.11947 94.13 10.20136
-1.722642 105.0926 13.17766
11.21496 105.5644 8.829309
11.86077 108.0827 7.256918
-3.01362 107.5219 13.09711
-1.84325 106.3622 13.24858
-1.933722 107.4317 13.21189
0.7481894 109.2283 13.04239
2.604861 109.3025 12.98848
12.00286 106.5465 7.226971
-1.093094 106.3656 13.23933
1.219882 106.4273 13.24078
0.0959812 105.5398 13.23978
-0.5760346 107.3874 13.20836
10.32605 108.8471 9.373904
0.8183605 107.7666 13.18722
0.9470679 105.437 13.22877
11.49704 106.0222 8.396134
11.57043 109.0889 7.241158
12.05336 105.8415 7.256557
10.2215 106.4255 9.88613
10.54133 108.7996 9.107479
9.46347 108.1086 10.20567
3.322809 109.1072 12.92702
3.458457 107.2204 12.97657
4.336563 108.924 12.65296
8.711644 107.9568 10.81718
6.132311 106.3136 12.1174
7.140344 105.3074 11.7197
5.629799 105.155 12.29038
7.06249 107.7409 11.65578
-0.9967268 70.03382 11.83743
-2.688821 71.92371 12.02724
-3.225673 72.48962 12.08909
-2.524619 76.94799 12.45002
14.82321 85.31177 7.206583
11.00978 70.021 11.21201
12.0048 94.91045 9.567574
-0.4555245 91.43919 11.0115
-3.13736 85.97163 12.03101
-2.151884 78.0561 12.47337
-2.185142 98.60934 11.86556
4.222297 104.5128 12.68983
13.86517 94.4138 7.67335
0.8760415 92.62997 11.11617
-3.625712 93.76413 11.10336
-0.8933365 104.2926 13.14933
1.609588 102.7387 12.81223
-2.320181 102.3952 12.69126
-1.508488 101.5275 12.5825
-3.473964 100.7037 12.14565
-2.53926 104.3508 12.99276
-0.6460766 103.2168 12.96322
10.68624 103.5075 9.56484
-2.879546 87.86547 11.75812
0.7273811 103.6106 13.03144
10.78815 91.42645 10.77968
13.49166 69.58863 8.648561
-1.801651 99.88322 12.18515
12.44078 71.34391 10.34847
5.972162 73.10768 12.14948
13.85939 86.46354 9.115132
13.35988 78.56191 9.758077
14.17307 89.25403 8.493389
-0.9166188 84.05849 12.27563
12.17331 82.66827 10.95123
14.58339 85.14262 7.673478
11.81404 91.36391 10.29679
8.294554 76.35741 12.34273
13.37203 99.49137 6.189007
12.204 104.9835 7.243365
13.49441 98.82362 6.340322
12.82593 100.1022 7.079305
3.714745 80.21861 12.44412
12.89556 101.5116 6.431648
12.7338 103.4632 6.11192
12.12893 101.9602 7.900896
12.74417 102.2005 6.505427
11.01666 105.1771 9.070288
11.83247 70.5258 10.7275
0.702087 103.1497 12.95171
13.81922 75.68427 8.735891
11.23227 72.77771 11.40765
9.217333 69.9798 11.75534
11.78679 94.20479 9.841937
5.726418 103.134 12.07266
-1.081616 77.16181 12.44238
-0.476905 73.13491 12.15394
3.742114 73.33873 12.17513
-3.069074 75.06998 12.33277
-3.254846 73.22149 12.16793
4.050395 70.97233 11.89299
-2.960356 77.74438 12.47142
2.1459 73.28445 12.17072
0.3888638 71.13595 11.92803
9.851915 72.78368 11.90442
4.996853 74.46542 12.29542
1.74487 71.87465 12.00661
7.478024 70.3655 11.85449
14.57872 78.99406 7.423445
-3.726511 78.67771 12.48865
-3.080848 83.70865 12.30489
0.01134126 93.25214 11.22831
13.1617 87.32677 9.908356
-0.8994688 91.90611 11.03047
2.39759 94.52147 11.21843
11.42673 86.08274 11.23452
3.170786 100.5709 12.15795
-2.191316 99.57016 12.08014
-1.406744 96.78349 11.46724
2.256353 99.28925 12.00004
5.582192 101.7642 11.92913
14.12779 74.49184 8.088216
13.88093 76.38641 8.844071
9.309298 98.34726 10.50351
9.808739 104.8057 10.35882
9.609296 104.0567 10.52143
-1.829469 80.25035 12.4662
1.969431 78.53869 12.44947
-2.77712 80.49689 12.46353
-3.071037 74.12904 12.2515
13.46636 75.5056 9.432386
13.44008 76.9349 9.597216
12.46143 78.90811 10.71962
-3.424383 86.79629 11.91664
0.8533447 87.18139 11.86908
13.54983 82.3997 9.674764
12.14816 89.65885 10.3005
14.21432 82.45811 8.651713
13.45971 84.10042 9.810334
1.98771 89.51836 11.44551
0.01583803 96.42619 11.55516
14.06662 90.22984 8.406258
13.98565 91.19891 8.29416
13.48789 92.31575 8.787624
10.47078 95.85719 10.19299
3.681559 99.34062 11.79865
0.1771726 100.3173 12.37338
0.7342839 98.79586 12.02439
1.403517 97.75405 11.77348
-0.1415886 97.36707 11.71788
3.012476 98.43409 11.72338
5.063803 97.39828 11.22813
6.908262 97.87556 11.03078
2.889209 97.82212 11.6168
4.841086 99.67683 11.67117
5.611542 100.8305 11.75084
5.270689 95.32374 11.04673
6.472552 99.66601 11.36983
8.818605 98.55713 10.6743
1.879797 104.2632 13.0565
10.99382 76.95142 11.83042
9.914587 76.11096 12.15679
2.062786 79.46553 12.45213
9.61582 74.94225 12.10642
10.43669 77.59353 12.05744
3.84498 76.62909 12.39232
3.028899 81.02043 12.43615
5.615527 77.85483 12.41169
0.934232 83.52329 12.31792
1.368303 81.9625 12.39723
10.74251 71.75225 11.55396
14.35832 80.12549 8.072177
12.58668 81.06487 10.67854
13.75688 80.39496 9.286989
-3.35221 81.85484 12.41494
-2.791219 85.20895 12.13548
-2.145264 87.17492 11.86373
-1.69216 87.91128 11.7508
-3.723217 87.40453 11.82451
14.33407 86.84132 8.383415
14.67234 88.31315 7.561063
14.87856 90.19442 6.82682
13.21098 84.56168 10.09627
10.7721 85.70357 11.48974
13.31643 83.39694 9.998156
14.78913 84.90104 7.264727
2.285871 91.56017 11.05146
-2.271327 91.10651 11.12145
-0.2984562 89.36521 11.46727
0.01123747 90.80235 11.13616
8.754848 92.23365 11.02773
-0.09295694 91.73584 11.03913
2.995905 91.92778 11.03049
2.337722 93.19823 11.1112
-0.3188445 94.64778 11.39132
-0.6730623 95.75365 11.4634
9.942884 94.18613 10.46325
13.18426 91.45296 9.207722
14.37498 92.7577 7.445501
14.18368 96.34447 6.203755
13.75162 98.15024 6.189259
7.741978 95.44797 10.83897
-2.81172 97.49952 11.55783
10.23772 102.3527 10.03685
7.07963 104.7763 11.73786
4.863875 102.7519 12.26676
3.911623 97.10496 11.3376
3.176647 94.35262 11.14798
3.615963 95.31912 11.19634
7.536937 94.06712 10.88063
6.879813 93.71948 10.92556
9.587254 93.23332 10.77189
10.75628 97.40461 9.863894
7.983369 90.77206 11.24574
11.7264 99.29986 8.946959
6.657937 76.74782 12.38298
3.364485 78.44138 12.43594
1.677123 76.01267 12.38337
7.190864 72.06306 12.03768
3.455862 72.16683 12.03534
1.875714 74.79212 12.30792
7.647295 72.69404 12.09177
3.446377 75.86743 12.36906
2.104546 77.67923 12.43513
7.77129 80.70231 12.43214
11.45623 78.07314 11.57034
12.23454 80.77785 11.03484
6.994417 78.03723 12.40582
10.0496 81.93079 12.07215
9.1294 82.16408 12.31957
14.48613 82.40927 8.227457
13.35026 80.76127 9.863594
-3.540735 84.07835 12.26807
-0.1341362 82.78581 12.36304
4.438571 81.84104 12.40051
1.04167 86.27302 11.99212
-2.228135 86.29606 11.98755
8.420939 83.53889 12.29148
7.358792 79.81748 12.44534
4.252873 82.12074 12.38553
2.699826 88.47919 11.64116
0.7302465 90.20407 11.27246
7.219026 86.07449 12.00708
4.17933 88.79312 11.57811
1.748086 89.01417 11.55589
10.36354 88.93969 11.21581
4.985767 91.35326 11.1036
5.660857 92.84286 11.01201
12.87649 97.02129 8.307855
11.1159 97.26353 9.73832
10.20151 102.1254 10.09958
8.407104 102.0816 11.06736
9.583622 100.951 10.46247
8.744621 100.6898 10.89704
12.19627 98.11578 8.736838
11.82773 100.3058 8.638998
4.93468 78.94373 12.42999
6.66923 82.47144 12.36178
5.549838 85.88641 12.02611
10.85864 88.79238 11.062
8.49068 84.54174 12.22203
9.927919 83.88274 12.0674
3.298178 82.24908 12.37916
2.41369 81.62088 12.41323
6.220479 82.55798 12.35626
7.217834 87.7488 11.78054
3.629686 87.09036 11.89945
10.11841 92.26947 10.83837
5.847508 90.1974 11.32389
5.875596 84.3548 12.28164
