# .PCD v0.7 - Point Cloud Data file format
VERSION 0.7
FIELDS x y z
SIZE 4 4 4
TYPE F F F
COUNT 1 1 1
WIDTH 1660
HEIGHT 1
VIEWPOINT 0 0 0 1 0 0 0
POINTS 1660
DATA ascii
-7.643816 145.6438 3.088777
7.567072 115.1028 10.12842
9.903214 110.3045 9.287428
6.365918 116.2981 11.01665
5.626243 125.9539 12.69141
4.861635 125.8761 12.90296
4.708709 119.2727 12.38133
7.45046 121.42 11.46221
-7.638789 128.1615 12.1475
-5.362514 120.0569 12.30155
-7.633708 122.2359 11.47151
4.372867 118.0723 12.30324
-8.011582 134.6445 10.7161
3.819867 134.2956 11.91636
3.08437 133.8221 12.12907
1.691316 133.1403 12.31862
7.236232 12.40382 10.51533
13.74696 17.78347 8.602927
13.29673 101.1005 5.268033
8.822496 105.1195 10.9335
12.73887 102.9835 6.257489
8.817739 126.5429 10.29871
10.69953 129.7624 9.153485
10.33935 123.7303 7.708216
10.07942 143.7948 4.798201
7.08817 141.39 7.571849
12.36237 131.9882 3.879313
14.92885 90.33388 6.695723
14.01946 82.8244 8.895103
13.63243 79.69088 9.512189
-12.40639 84.0135 10.79485
-12.79042 99.4054 7.702616
-13.58788 73.31465 9.079493
-13.63932 58.65928 7.464274
-11.87165 60.26519 9.102945
-13.30413 64.87456 8.227703
-13.02249 52.57895 7.873998
13.82441 46.43899 8.389147
13.60382 59.70107 8.376062
10.72637 57.56917 9.987845
12.90671 52.33209 8.812967
12.89905 63.80624 8.944962
-13.56225 37.44494 7.521417
-10.84612 41.40691 8.945056
-13.09999 44.23426 7.759248
-13.22929 44.4276 7.683871
13.91625 27.29653 8.489826
13.62778 24.5819 8.613599
11.0073 39.51619 9.605223
-9.403166 24.90504 9.342342
-13.01501 23.2486 7.84831
-10.94207 18.9474 8.689185
-6.561304 13.06226 10.04569
-12.2097 133.7011 5.559269
-11.48347 129.8204 5.63475
-3.799507 138.8917 9.592645
-1.506952 139.643 9.375295
6.108817 118.5604 11.57113
-1.957231 111.3415 12.93159
6.577532 120.1842 11.78194
-5.331567 127.1848 12.72022
-6.283595 130.1422 12.76339
-4.218523 129.4967 12.97548
-0.09623481 132.5559 12.45668
0.6405696 129.575 12.94443
-2.11856 129.3124 12.98276
-1.399051 125.2726 13.42857
-2.836064 122.4047 13.38222
-6.354337 119.7263 11.77016
-6.887079 134.6342 11.16859
14.31176 21.61191 8.382557
7.5444 13.51145 10.46235
3.545233 13.52415 11.05349
12.67312 100.9204 7.264887
13.56369 100.0192 4.815044
6.15225 106.3634 12.13396
10.10646 124.0395 8.299968
11.33186 127.6544 4.792505
9.597893 142.7755 5.665868
7.833902 141.1217 7.413025
3.875655 139.8856 9.105862
12.56085 133.1871 3.84263
11.31927 130.8977 7.535578
11.15033 129.1611 6.443534
9.839128 133.2583 10.29911
10.29506 131.4614 10.35471
13.08572 94.35888 8.79027
11.71831 88.69901 10.66956
12.67401 88.0033 10.17977
13.30927 87.61435 9.678494
9.231872 91.31281 11.09952
13.51368 86.33678 9.561404
10.34507 89.29396 11.22778
11.1047 89.19542 10.94639
8.09222 87.70361 11.83393
9.628803 90.04684 11.26386
9.283732 82.82717 12.2842
7.288603 86.91356 11.92026
14.76859 85.00474 7.532493
14.48903 78.67316 7.715046
-13.00617 93.77013 9.009699
-12.20789 87.47639 10.65619
-11.07644 87.95061 11.15322
-13.17062 70.98668 9.439074
-11.47294 52.84278 8.902631
-9.445285 59.60154 10.28869
-12.08708 62.37415 9.18609
-12.4732 65.71433 9.433004
-13.46424 66.04811 8.222472
-11.91638 49.63673 8.526644
-11.63935 54.72459 8.881436
13.50425 49.63398 8.521572
13.60672 45.48794 8.50103
11.27757 57.28117 9.718306
10.6715 52.88821 9.885468
11.0287 52.81145 9.728585
10.68461 64.23047 10.38809
12.21534 62.72189 9.402946
12.66033 70.46316 9.940831
13.57466 67.22241 8.383433
-11.48435 37.32473 8.579322
-9.708196 42.11929 9.486385
-7.677667 40.61792 10.20636
-11.5639 35.48136 8.520746
-10.00384 45.00648 9.420971
11.01815 23.09969 9.534733
10.09642 43.6657 9.982183
-11.71939 22.23486 8.390882
-7.670602 16.827 9.817485
-0.3683905 14.74549 11.09818
-4.734616 13.94622 10.50645
-8.868634 143.7751 5.407959
-5.782509 142.1993 7.613605
-6.857456 144.1284 6.094265
1.175979 119.9736 13.21462
-5.008361 126.5189 12.80597
2.448813 131.0145 12.81464
-5.353514 117.3716 11.74604
-2.910548 119.3224 12.9428
-3.172417 117.7094 12.70307
-0.1042382 120.3599 13.25499
3.792806 119.2214 12.65365
-0.2444026 118.9847 13.12559
2.653699 122.2849 13.36285
2.408568 118.1551 12.89964
1.747048 123.5317 13.49483
0.6194825 124.5834 13.46093
0.08759847 126.4781 13.33412
-0.623337 123.3622 13.43801
1.547095 118.272 13.03896
-4.027964 129.4704 12.97167
-0.884939 125.5475 13.41859
7.472153 14.6808 10.48484
3.583069 12.50035 11.03421
14.13643 96.79083 5.808662
12.14725 105.0416 7.386955
7.143304 142.6542 6.868142
4.309132 142.6571 7.798833
12.00103 130.3927 4.082365
10.44267 93.93733 10.50122
13.1322 84.1136 10.151
11.67436 82.98354 11.39413
6.937932 84.02991 12.2403
6.000824 86.23419 11.98248
6.182845 88.29729 11.7002
-13.37757 94.11205 8.544268
-8.455313 87.74101 11.79646
-6.368451 85.56312 12.09979
-5.542749 88.13828 11.70926
-11.7998 57.24564 8.925064
-10.766 55.65504 9.464702
9.336984 45.09242 10.26051
10.34972 56.77029 10.11454
12.24338 51.28186 9.14037
-11.24394 38.03388 8.706596
-8.343763 38.76202 9.946454
-9.28955 41.54823 9.643533
13.03058 29.70701 8.81267
10.0873 25.43512 9.850964
9.465981 39.77366 10.15556
-7.724533 13.86744 9.741973
-3.023716 15.11685 10.83446
-6.873374 142.1799 7.23561
-6.305698 110.4974 11.60873
2.394406 129.5695 12.93641
2.813744 121.4025 13.21917
-0.3699431 116.9176 12.95035
-0.954611 116.009 12.89253
-5.111554 112.7752 11.82768
-5.656492 113.0673 11.5136
-7.460934 111.6748 10.66444
3.215837 114.0971 12.52666
9.339524 101.8331 10.6336
9.926733 107.0797 10.08568
11.33014 104.4533 8.890633
12.49155 79.45805 10.82503
12.31996 78.721 10.90168
6.437236 82.91744 12.32708
12.53033 73.1647 10.3615
-10.39828 54.8659 9.608671
-9.148532 50.87357 9.973875
-8.458611 55.33264 10.38349
9.508302 49.53305 10.27563
8.259168 62.73468 10.96559
-8.494001 32.41332 9.784516
-10.85978 43.9387 8.981524
-5.69437 16.7582 10.35673
-8.424 19.76127 9.627542
2.502795 127.6439 13.11011
2.39029 113.1543 12.73093
4.077627 113.48 12.22941
8.402192 105.2152 11.1607
9.086773 78.88829 12.42085
-2.836481 86.02274 11.98404
-12.53636 92.73215 9.59936
-7.705379 55.60547 10.60686
-8.614696 58.40826 10.47386
-9.153167 60.89462 10.47011
-3.247378 19.25652 10.88002
-6.201094 141.4609 7.833448
0.7311793 113.0985 12.86694
2.1325 111.8242 12.85166
4.229954 109.0616 12.68687
5.56143 102.6978 12.07651
11.17725 79.26289 11.73006
-8.174914 90.05147 11.38184
-6.804171 95.75872 10.94314
-8.48154 42.06136 9.9689
-6.074165 19.51442 10.32201
-1.296665 111.7141 12.92877
10.27707 103.5686 10.04872
10.8319 77.54431 11.904
-8.016568 41.20306 10.1102
7.698449 105.817 11.49352
10.75497 99.26834 9.699618
9.243723 79.81647 12.39823
-4.214878 21.93915 10.76227
7.699282 111.4611 10.59082
6.837083 110.8297 11.24315
7.291986 110.3984 11.09279
7.894366 108.6506 11.12813
9.762346 100.7669 10.35706
10.14177 96.78953 10.2237
5.920568 103.6302 12.04963
8.970624 78.65469 12.44337
9.731676 74.10194 12.07155
6.848768 112.1902 10.94525
3.419378 108.7369 12.93258
4.616209 104.0305 12.51729
6.359232 81.70206 12.41068
2.424078 108.9843 13.07365
7.517186 145.4554 3.687542
-12.24576 106.5473 6.761228
-10.53915 108.5132 9.1725
-2.350289 109.1483 13.10097
-6.323613 107.0891 12.03811
5.322264 143.9865 6.70958
4.733349 139.3342 9.224203
1.066257 137.7864 10.36144
4.662283 138.521 9.646805
-1.117381 137.552 10.49128
-0.9512597 137.8723 10.31553
-1.335322 133.7785 12.11824
-2.857245 136.8654 10.74813
-1.414116 135.8389 11.3118
-5.003994 136.9953 10.36887
3.053989 137.4959 10.42362
2.806896 135.1706 11.57477
0.1329203 135.0137 11.64825
-9.406391 85.97746 11.93539
-7.581409 82.66352 12.41165
-10.18709 83.98263 12.03042
-9.304962 24.57216 9.375289
12.02516 18.73132 9.191046
11.15285 17.33862 9.48389
9.53938 20.30719 9.99135
11.56589 14.11881 9.342463
10.69649 20.76051 9.636763
8.970247 15.13529 10.11788
6.228956 14.34108 10.73238
8.155488 21.72509 10.3864
-12.47235 84.84747 10.71283
11.46388 67.16449 10.48314
8.993261 67.84941 11.50027
9.592595 65.34604 10.90798
7.586607 64.59371 11.21581
7.526852 69.28804 11.74643
6.23264 68.22955 11.67982
6.027266 67.15967 11.58586
5.091087 70.15237 11.8874
1.185396 66.59381 11.67113
8.731571 61.88916 10.81147
8.316786 62.84094 10.96023
4.846682 58.555 11.36356
8.52102 64.09973 11.00011
6.050267 58.83193 11.22531
2.677982 61.54234 11.53273
6.223394 62.0245 11.27721
1.439994 60.67966 11.5545
1.031965 61.41358 11.56157
2.604077 61.99863 11.54047
1.726257 59.54983 11.53994
1.104952 56.343 11.52719
3.358916 63.31662 11.53149
2.478205 69.29777 11.83199
-0.6552433 67.31609 11.70191
7.839316 55.63482 10.84559
-1.053097 61.03834 11.53325
0.6582497 57.62625 11.53774
8.628546 54.58041 10.62261
-0.09690019 54.98147 11.50886
-1.932856 64.04379 11.54975
-0.4413074 60.38867 11.54414
-2.607184 54.58372 11.38305
3.618663 55.81849 11.43364
-4.030262 62.17138 11.38052
-3.06801 59.64768 11.41201
-4.353508 57.55465 11.25259
0.07688411 54.58691 11.51028
3.915412 53.85875 11.39921
9.82038 58.19005 10.35518
-5.433421 60.52526 11.18899
-3.247617 53.10559 11.30605
1.036414 55.26661 11.5224
9.162696 55.15144 10.48533
-6.691582 62.27309 11.07084
-8.322432 60.37198 10.64875
-10.22801 62.73351 10.29301
-8.911964 60.32668 10.49641
-5.726656 55.39656 11.01421
-1.604813 54.13124 11.45095
-4.570383 52.82626 11.14448
-9.261612 53.04039 10.01526
-9.333361 52.51361 9.965097
-9.749745 49.40179 9.676814
4.280162 54.96919 11.37856
9.502495 54.12297 10.35906
-6.076163 59.20377 11.05533
-7.147331 50.63437 10.59183
6.555574 53.01527 11.06126
2.18772 53.14777 11.4928
7.528996 50.11272 10.82329
0.597405 52.62073 11.50088
-7.250006 48.49807 10.51134
-8.269204 49.20032 10.23981
8.225242 51.18805 10.67323
-6.65105 41.72171 10.52641
-2.742165 50.38641 11.31876
11.31162 72.46482 11.29814
9.616246 69.23829 11.5854
8.999023 69.25443 11.66214
9.870226 75.55729 12.11979
8.999784 73.00386 12.1007
11.38674 75.72791 11.50716
7.35644 71.95612 12.07368
4.860877 70.78014 11.95431
6.046718 71.00335 11.97893
5.511749 73.9436 12.2171
5.127353 71.15102 11.99093
4.046794 71.71342 12.04202
-7.262932 28.66908 10.13562
-7.696724 30.26842 10.02165
-4.816343 27.8082 10.74216
-7.629625 26.97561 9.984091
-6.480428 28.03662 10.35018
-4.211679 20.94518 10.74499
-7.090858 22.91984 10.10036
-3.973027 23.41178 10.8285
1.497188 24.95536 11.28761
1.747683 29.968 11.32854
-3.23341 29.90836 11.03868
-5.231669 28.5485 10.66572
-0.3220257 22.47522 11.22425
-3.31795 25.79184 10.97076
-0.7586975 23.62283 11.21636
0.9443069 23.17832 11.26768
-4.392023 39.50992 10.98683
-0.5635372 24.06731 11.23214
1.746312 26.94859 11.30491
4.479001 25.75891 11.11218
3.470525 25.35213 11.20442
4.730434 22.59475 11.04665
3.214214 23.31848 11.20173
4.992191 24.99018 11.03728
5.857003 25.7708 10.90786
-11.35976 26.5338 8.55841
9.92862 94.21551 10.62722
11.24128 96.43327 9.766418
11.65176 99.16858 9.083922
5.1053 91.43517 11.27148
7.121794 94.36464 10.92536
7.874994 94.99712 10.82678
-0.2363842 86.22457 11.94625
9.174916 100.465 10.63791
7.133713 97.03483 10.91388
4.822359 95.30912 11.11084
2.534115 91.72272 11.29032
6.206219 101.5858 11.77049
4.952491 96.132 11.1443
4.539151 90.29132 11.41945
4.874435 89.10989 11.57864
5.858113 96.77255 11.0861
5.752258 94.67581 11.02677
4.967313 87.82951 11.76369
5.94982 98.59383 11.30619
0.6814187 93.75946 11.27012
-0.6550844 94.01298 11.29981
0.5905365 92.01254 11.2833
2.65361 89.0396 11.59079
-6.039983 87.10149 11.8714
-3.934251 88.7245 11.62783
-0.5048483 87.80693 11.75149
-4.444585 88.91715 11.5998
-1.436992 91.39651 11.32803
-5.881331 90.3403 11.386
-0.6167172 92.51716 11.26218
-0.5496585 95.65035 11.50548
-4.764596 89.91873 11.45777
-7.02862 89.32726 11.51223
-4.83561 91.93771 11.22499
-6.928143 95.91747 10.9327
-9.600457 98.83794 10.40212
-5.277865 94.07403 11.08024
-8.137849 95.1319 10.81921
-6.28288 96.94806 11.0632
-5.958753 99.93285 11.52507
-5.188063 95.17137 11.09374
-2.890674 100.778 12.25315
-4.348665 101.1254 12.06825
-3.602795 99.62735 11.87052
-0.5440573 99.241 12.13803
-0.9408891 101.5592 12.63958
3.827367 103.4551 12.63126
1.605762 99.69865 12.14864
-2.920917 103.3839 12.78926
2.152524 104.0593 12.99601
-13.58814 67.74937 8.284896
12.44167 31.33398 9.032446
9.175447 34.40965 10.2055
3.11018 16.82114 11.12728
3.800624 14.37287 11.0464
2.301085 18.57732 11.19445
4.627035 15.90824 10.98363
5.727526 17.82589 10.85397
1.399851 17.33138 11.1907
8.395705 18.32514 10.29196
6.130512 16.62382 10.77788
-1.842891 17.28817 11.02307
-2.389227 20.0363 11.01208
-2.403039 14.54788 10.90914
-4.435226 18.12494 10.6575
-4.224833 13.28815 10.58528
7.954316 85.37353 12.11005
9.76492 47.16351 10.14322
9.21753 44.91934 10.29908
7.322888 45.29153 10.81323
10.84231 44.37626 9.695525
-10.58861 48.13666 9.227386
12.42555 28.09364 9.043074
-7.888897 21.26816 9.828183
-8.444762 20.33861 9.629917
-5.499311 110.117 12.06373
-1.201492 110.4261 13.01209
-5.49753 39.1274 10.75859
-8.268376 37.50655 9.944085
-5.308723 37.7947 10.78112
-3.441574 38.40511 11.11012
-8.489958 35.41076 9.827205
-6.83195 32.2805 10.32233
-5.462358 32.61838 10.67069
-4.96937 30.23137 10.74037
-3.644605 34.12785 11.03475
-2.411191 31.42125 11.15766
-2.322186 27.77417 11.12118
10.61753 80.85696 11.93002
4.369303 114.1583 12.05838
-2.038302 109.6948 13.04146
5.423463 83.08546 12.29155
2.546063 83.38251 12.22905
-0.02231818 83.61761 12.2046
-2.565769 79.91017 12.38735
-7.248835 86.56205 11.9744
-1.298752 83.48035 12.21954
-6.856608 84.07996 12.27138
-1.80329 82.28807 12.29789
-4.730599 83.93414 12.2309
-1.560715 80.81677 12.35693
-1.267713 77.90157 12.37861
-4.652139 80.37638 12.4022
-6.598678 80.02556 12.44565
-8.459258 75.50006 12.39313
-10.56754 78.45226 12.00286
-12.03295 77.49365 11.13594
-9.624696 77.94938 12.28972
-12.51062 75.78855 10.65648
-13.30019 72.85882 9.472758
-13.38229 73.85085 9.444189
-10.09186 70.60938 11.65237
-12.06967 109.4215 5.605868
-9.429834 107.0684 10.46861
-11.65127 104.1878 8.4436
-11.53553 108.4798 7.67015
-11.57882 107.9142 7.830836
-11.12482 102.6507 9.162125
-6.517592 104.8701 11.9597
-8.28598 102.1776 11.17873
-9.242229 102.6961 10.74011
-2.237205 137.4003 10.52884
10.57786 16.18718 9.659273
-1.478588 73.74692 12.20557
-2.633974 66.57451 11.63157
-5.047477 64.12035 11.37289
-9.720384 64.35453 10.69402
-11.11207 67.08932 10.70914
-10.57952 69.40837 11.3696
-8.116189 66.27058 11.32639
-6.094342 65.01292 11.3263
6.433475 54.72855 11.1123
0.646445 50.72962 11.48702
-5.58546 44.39402 10.82544
-4.776063 46.29806 11.01023
10.54894 71.64803 11.64724
3.559597 78.9383 12.4104
1.38871 76.00372 12.32451
1.222565 77.4466 12.37339
0.1795583 78.18563 12.38129
5.172565 77.40353 12.41537
1.978326 72.14231 12.077
4.862478 79.13466 12.42904
-0.9320554 75.57928 12.30578
-2.4074 74.20055 12.23772
-1.168232 74.72357 12.26192
-6.81793 75.67676 12.36946
-4.427628 71.58012 12.05248
3.590228 73.8106 12.20484
3.213731 75.96037 12.3365
5.789968 74.6875 12.27349
-5.68228 76.80537 12.38396
-4.092638 78.26061 12.40046
-0.7787089 73.33182 12.17366
4.371727 78.28447 12.41733
-4.237271 79.49973 12.40875
-1.766906 76.50315 12.34401
8.193353 77.47074 12.4355
-7.17845 71.30667 12.04999
-3.190247 71.8591 12.06984
4.154031 69.41893 11.82893
2.819821 69.98511 11.88857
-0.1317914 68.70513 11.79807
-10.41648 24.31364 8.934966
-8.7367 33.24441 9.707123
-1.744985 22.1193 11.11186
-0.6081503 20.60017 11.17813
2.343195 30.18363 11.32005
7.60245 28.6891 10.57823
8.184105 24.95319 10.40499
1.212962 95.62215 11.48524
6.628213 98.86489 11.21402
4.627568 99.28475 11.63588
0.1524446 91.17902 11.34601
-10.95361 96.47421 9.931296
-2.787576 97.85776 11.62781
-0.8244308 96.9007 11.64979
-1.503439 97.93021 11.81548
-3.135734 103.6702 12.79949
0.3370261 107.8092 13.19756
1.288549 104.4059 13.12005
-5.392728 109.7309 12.17017
-4.232183 106.2401 12.80249
-2.786951 108.1163 13.10217
0.5958924 106.5199 13.27454
-0.7022133 108.8024 13.12679
6.727456 29.62661 10.78052
4.943357 49.82964 11.26197
5.807138 49.20848 11.14018
3.017638 50.51637 11.43368
2.317466 50.15655 11.46833
4.269017 44.69614 11.29076
5.642833 46.98492 11.13212
6.447669 43.16997 10.96711
3.935916 43.31556 11.30792
2.347331 38.47195 11.37753
4.580011 46.80347 11.27914
7.253623 42.60824 10.80172
4.522982 41.3976 11.23572
2.386704 46.88282 11.43954
-10.4524 46.22666 9.235849
-5.01316 34.3392 10.79424
-1.179072 36.56001 11.3157
2.360924 30.81521 11.32212
-0.9953449 29.93581 11.26745
-0.1893325 85.73207 12.00049
-1.829701 68.78829 11.79863
-2.521883 70.48215 11.94224
-11.61545 68.71443 10.65096
-9.297841 69.66253 11.72878
-8.853183 73.03986 12.20958
-8.198356 70.41033 11.94172
-10.9867 72.06678 11.4721
-12.21413 71.12572 10.52323
-4.090643 67.40778 11.64494
-5.795633 70.81033 11.98238
-5.904164 68.6014 11.73547
9.38594 76.58469 12.31026
2.201693 21.45604 11.23439
3.106935 27.3932 11.25078
5.289129 30.07224 11.04211
8.055648 27.78779 10.45768
9.4899 31.43067 10.08622
5.304029 33.75856 11.07058
-0.1024527 32.06297 11.33392
4.847023 33.02919 11.12543
4.28082 96.37526 11.24752
1.976357 49.86266 11.47865
1.090743 49.38037 11.48381
0.58899 43.60253 11.43914
3.105099 44.14602 11.38507
-2.40548 42.73878 11.28039
2.524037 43.57939 11.4116
-1.29711 35.30309 11.29875
-3.186626 41.7009 11.18653
2.923069 36.36192 11.34206
-0.2373339 38.1184 11.37857
-2.927066 50.10841 11.29917
0.4371428 48.36332 11.47191
-3.212301 49.23222 11.26325
-3.757974 42.93879 11.12862
-3.506172 42.71115 11.1564
0.6884708 46.24736 11.46089
-2.824774 47.60561 11.28589
-0.1988213 46.6725 11.44182
2.356513 33.17351 11.34267
2.9557 34.55894 11.31974
-1.421702 37.36489 11.31005
9.920297 32.66081 9.952165
10.2686 33.04896 9.833938
6.494265 33.49282 10.86508
9.102867 36.19499 10.2405
8.100818 39.51377 10.56385
7.461756 36.62096 10.68739
6.181478 37.93988 10.96591
5.631363 35.03562 11.03122
4.669209 34.12286 11.15534
6.107466 34.21614 10.94757
1.39767 36.21363 11.39411
3.762953 36.06054 11.26802
1.80851 38.07735 11.40117
6.68489 83.16983 12.31649
-5.145096 107.4894 12.48519
10.15534 108.0305 -3.361375
2.643009 105.219 -6.907564
9.34571 119.8397 -1.095304
6.707598 129.6755 -7.801906
11.6322 95.68458 -4.977124
14.82352 83.93831 7.335248
14.91984 80.50503 6.649969
2.03379 142.1131 -8.382246
13.71181 133.0422 -1.144449
4.284185 52.78873 -3.378664
11.49195 23.88058 -6.42503
13.17337 95.43133 -1.607115
15.15751 88.95937 6.188238
14.54024 95.48528 2.922287
9.891517 114.4584 0.2894396
13.37137 51.56401 -1.601215
0.8718655 59.22522 -3.681337
14.9688 92.49072 6.056719
11.57851 101.985 -3.865786
13.25275 131.7866 -1.62698
13.89826 98.94384 4.615676
12.80443 106.3688 1.127624
12.46585 108.3913 3.041606
9.355239 117.6301 -0.153506
13.0572 105.1106 2.729881
12.89435 131.0502 0.2995986
8.946275 145.7045 -4.805195
10.29769 118.6461 1.679967
12.83408 130.6515 -0.5230083
12.74066 130.7759 1.00504
11.1185 122.8044 1.005854
10.36431 114.4064 1.525619
11.9644 105.6846 -2.35817
10.86879 143.0283 -7.358776
11.71616 102.519 -3.634523
10.3856 145.5923 -3.826678
11.50467 124.9251 2.496903
11.10843 138.233 -8.176235
9.639234 122.2011 -2.314844
11.23312 110.0825 -0.4804626
1.767609 17.51118 -1.187912
7.980123 23.85507 -5.125283
1.804851 147.0688 -7.826088
4.687969 21.34946 -2.461442
10.89787 121.5841 1.455345
2.954539 38.03201 -2.184345
12.86021 106.6307 2.500944
2.232995 53.62804 -3.014917
11.33432 123.2511 3.221723
14.29726 54.08073 0.6669587
11.776 126.9951 2.701502
-0.3978677 17.3858 -2.752407
11.42624 106.3996 -2.817972
10.46838 116.6953 3.249281
12.20243 128.8308 1.547185
1.674814 84.03593 -6.912205
2.504765 97.08772 -9.692834
12.31013 94.38022 -3.974594
3.751527 88.75095 -9.439052
8.773825 100.2431 -7.494535
8.576205 120.5319 -2.425627
0.6460394 121.1768 -4.626276
15.34318 87.17197 5.534775
11.01088 106.5438 -3.242826
2.500828 100.7969 -8.904857
6.852003 120.6333 -3.561319
8.816824 116.3678 -0.8412495
2.722222 147.4856 -7.257252
14.67817 89.43204 -0.5886015
0.9967518 108.9579 -5.0193
2.858051 115.0928 -3.573472
1.053769 110.9507 -4.234444
0.3078671 125.4197 -6.064641
11.39376 111.1566 1.108469
10.6479 145.1215 -5.987295
0.07658663 27.61357 -2.900119
10.73837 111.499 -0.2985799
0.6759875 148.1627 -6.129395
1.190405 138.4984 -9.240324
1.708697 41.29076 -2.329985
12.95408 104.2568 -0.1107445
12.49678 108.0438 1.605339
13.00979 104.9282 0.9784759
12.83156 105.3989 0.008966266
12.53981 108.0071 2.351449
11.76666 108.6892 -0.5441186
9.089839 137.9256 -8.629405
-0.3031238 22.53506 -3.67395
5.109219 91.88058 -10.02355
6.443511 86.12849 -7.852757
6.317575 102.1389 -8.159691
7.281976 107.5756 -5.176139
8.140819 110.5954 -3.426647
7.144096 118.3623 -2.633958
8.900679 115.7027 -0.8092382
4.903525 123.1702 -5.106674
4.92635 148.1467 -4.482447
12.87816 131.7588 -4.648001
10.04974 122.4102 -1.872871
10.70518 122.5274 -0.4646698
11.0476 141.0557 -8.232592
6.722599 146.5992 -4.13562
12.30935 64.82346 -1.095233
14.63086 72.11424 5.476708
14.8804 78.84923 6.361646
15.25512 90.48702 2.489218
8.720608 31.43935 -5.797413
11.64519 22.11335 -6.455972
9.542688 17.33057 -5.65022
1.924931 50.53518 -2.840995
0.8790259 33.76526 -2.392099
13.3624 93.50665 -2.094155
13.73161 96.46762 0.56144
12.58943 101.0056 -1.789003
12.52761 96.83711 -2.644592
14.51031 95.03152 2.232543
14.11091 93.17771 -0.5085656
13.8497 97.55055 1.824515
13.24485 103.0067 1.637752
12.51451 103.7609 -1.835719
13.062 136.5061 -7.277525
0.02812089 19.58957 -2.179968
11.61915 95.35966 -5.095059
11.36528 97.97123 -4.880885
1.232297 100.4906 -8.931067
2.931575 86.61423 -8.194282
3.621187 100.9851 -8.908802
10.64218 102.0613 -5.224066
9.913002 101.2944 -6.240673
5.015038 105.5516 -6.633975
11.24594 105.4383 -3.490086
9.131539 109.4941 -3.394643
4.847267 103.0095 -8.050247
8.723386 103.9927 -6.244906
9.168721 110.6578 -2.796786
2.130437 108.376 -5.298251
6.194888 119.1961 -3.444711
8.133443 118.4206 -1.849583
3.399563 123.7174 -5.348934
7.645712 117.7949 -2.127726
0.5073997 144.7693 -8.749429
1.051921 146.5272 -8.205619
9.56275 119.0295 -0.3036392
12.52103 134.1556 -6.673871
11.05502 123.1161 0.04563498
2.665111 141.6711 -8.662067
7.549473 145.4436 -5.896509
14.02896 68.26576 2.140442
13.06905 63.52831 -0.02183248
2.354189 68.16219 -3.964867
2.390473 70.20365 -4.033319
13.99126 69.32733 1.975029
13.77861 57.63726 0.4970248
0.0490361 59.39377 -4.252892
0.8244789 55.4276 -3.49628
15.17112 83.23338 5.586803
4.010529 77.81038 -4.794298
15.37772 89.47418 4.637056
-0.08855098 26.53544 -3.1119
9.434502 28.40696 -6.002322
3.616307 16.75421 -1.739012
11.26914 21.63796 -6.353819
7.989772 18.19362 -4.900725
0.4860122 45.60491 -3.374249
-0.07158569 51.32107 -4.237533
12.19876 47.63282 -4.098291
12.3993 43.70443 -4.741148
11.44314 36.16984 -6.338491
-0.3386061 34.31534 -4.501738
0.03799728 34.59707 -3.461353
0.05945223 38.32862 -3.635541
15.2574 91.36919 2.979101
14.79385 94.2565 2.811034
13.48185 93.05744 -2.063241
14.61857 92.55071 0.5075244
12.78588 92.97745 -3.485674
14.75956 92.73611 1.307413
12.92739 92.02877 -3.481125
14.63391 90.35521 -0.3030316
15.01744 89.23705 0.3210454
13.35067 100.9249 1.418887
12.78208 104.8289 -0.5565552
0.6496556 132.6801 -9.027151
0.1690774 136.7931 -9.30404
10.87956 131.5036 -6.910535
10.53757 136.3105 -8.160048
-0.3537106 23.30873 -4.181115
11.20769 97.58685 -5.249735
2.356128 98.35644 -9.49033
2.795792 95.00085 -9.919684
2.899425 85.70667 -7.71621
3.725295 82.52295 -6.17002
5.783515 100.474 -8.884445
8.090979 99.63702 -8.165381
4.562282 97.95503 -9.611876
9.490191 99.01153 -7.177943
8.345438 102.7264 -6.971766
7.002492 103.3023 -7.455615
2.097444 101.4571 -8.669845
10.10862 105.0173 -4.841093
3.905596 106.1522 -6.395512
7.855507 107.6702 -4.901337
1.82245 104.4493 -7.290509
3.911222 110.6603 -4.300217
2.86173 109.8857 -4.60986
6.49855 110.566 -4.028298
4.843975 112.2229 -3.767873
6.718919 118.2784 -2.922893
4.716488 122.0573 -4.762859
8.266942 116.0253 -1.470164
2.001893 125.5196 -6.074397
4.245336 124.6451 -5.633823
6.041494 146.5813 -6.314839
9.029822 144.5331 -6.545003
14.25057 56.38899 1.173607
1.888105 62.70744 -3.647851
1.070638 75.1888 -4.391402
14.50332 69.62125 5.13269
13.8991 59.18905 1.048842
14.49836 77.20139 7.378257
2.284212 78.80746 -5.079445
15.21228 85.18368 5.925103
15.09191 84.44067 6.455443
13.06217 28.75555 -6.408728
8.753414 26.79119 -5.665192
10.71171 20.02526 -6.194763
-0.1541095 41.17052 -4.192987
1.068674 52.3602 -3.196341
13.98982 43.27322 -3.222775
13.04801 32.14802 -6.218062
-0.1536218 28.74441 -3.526863
15.34944 89.25717 2.321048
14.98689 93.42073 5.262996
12.42154 88.01765 -4.438709
13.66015 97.47033 0.9904938
3.618152 132.8647 -9.021108
4.949525 133.9893 -9.132796
4.606326 129.7981 -7.93015
12.63033 130.0312 -2.067604
9.319916 130.4945 -7.577709
7.637773 130.8294 -8.220349
2.763771 138.2661 -9.280312
2.715481 140.1483 -8.926603
0.6850366 23.60233 -1.860782
3.813086 92.74097 -10.05615
2.519336 88.3018 -9.040651
6.783462 85.07619 -7.22473
7.212298 86.70631 -8.026263
7.349217 85.0993 -7.177087
6.285517 90.55737 -9.702911
5.135488 107.9302 -5.389624
8.954278 113.9547 -1.265717
1.234236 112.0542 -3.90526
4.677763 114.1458 -3.484042
3.511352 114.44 -3.578218
4.237938 116.8812 -3.593371
1.97462 117.1044 -3.684222
5.963884 120.174 -3.837301
2.996726 121.6012 -4.746002
2.470914 123.5556 -5.257225
6.306659 122.1643 -4.383794
6.05065 123.0896 -4.826598
9.619473 123.8412 -3.406947
3.565141 129.3819 -7.695316
3.658231 145.8346 -7.359809
6.810316 145.3788 -7.089681
13.96719 57.48529 0.8484209
3.539114 67.01311 -3.858607
2.820324 61.96968 -3.539568
1.040218 66.89139 -4.035103
2.799604 77.44656 -4.745799
14.39643 72.85545 7.095387
12.74013 49.20676 -3.071004
3.266064 58.19902 -3.300671
14.73475 75.26393 3.2995
5.472938 80.91495 -5.542197
6.381936 80.53425 -5.383754
5.969849 79.38577 -5.09937
5.659108 77.8759 -4.753654
2.831999 78.72359 -5.043359
15.429 87.16247 3.485882
-0.2899899 22.72607 -3.396096
9.195485 21.44987 -5.672946
5.167346 18.56432 -2.792793
3.18802 51.15907 -2.954499
4.009453 51.70691 -3.222296
2.897227 48.24287 -2.701683
13.88951 45.53227 -2.563851
10.95276 29.98136 -6.377008
-0.07971884 30.33497 -3.429088
15.0963 91.18917 1.894631
12.45432 93.47461 -3.960251
7.866911 95.79167 -9.097495
10.3145 94.66609 -7.231946
14.42489 96.28078 3.593843
12.56182 129.8314 -1.945863
12.13152 128.9552 -3.040134
3.484667 138.1507 -9.30361
1.797432 19.02894 -1.302696
-0.2193227 21.13065 -2.634805
6.75807 95.91566 -9.505545
6.107382 94.05012 -9.788361
11.83171 89.85001 -5.442812
14.06996 88.08257 -2.160825
9.236724 84.69325 -6.249062
10.91348 87.50994 -6.348156
14.79144 86.16631 -0.31295
1.101609 115.7417 -3.57461
3.902245 118.8024 -3.96432
6.198515 126.3498 -6.195086
10.64466 123.6942 -1.799733
3.918348 145.0579 -7.697231
5.820768 145.3097 -7.429787
4.327538 73.11751 -4.056038
13.97772 72.01705 1.363481
13.20374 50.94304 -2.016466
11.51486 58.72287 -3.037038
3.202271 52.59158 -2.995385
11.4929 51.71986 -4.159416
15.34589 83.49387 3.908322
-0.01004215 26.1835 -2.8435
6.036506 20.5065 -3.531048
6.808284 23.20987 -4.282839
8.97569 45.80359 -5.750867
11.74508 40.62239 -5.785189
12.20329 37.96666 -6.008517
11.22869 42.02617 -5.821444
14.09679 43.96721 -2.845968
12.21222 43.94695 -4.852925
11.81821 37.02028 -6.27694
8.917081 91.55314 -8.689761
11.85469 127.7538 -1.914567
8.148628 130.2561 -7.896214
12.89496 134.6935 -6.605066
2.749815 136.8604 -9.288042
5.789814 135.0561 -9.188313
5.054794 134.6582 -9.173869
3.539476 19.2756 -1.757865
6.220442 91.88211 -9.867987
6.773063 93.3019 -9.656564
5.246288 129.776 -7.907184
10.51251 125.8575 -3.803118
4.34004 128.4313 -7.178457
6.462147 144.6135 -7.897008
6.237206 146.4025 -6.223894
14.23315 76.41836 1.003706
12.99377 55.1279 -1.468671
12.68933 58.29508 -1.391326
2.457718 24.44829 -1.546873
13.38645 42.34679 -4.14472
7.721096 41.94351 -5.452308
11.26413 47.52874 -4.986575
12.67936 34.84639 -6.173984
10.49596 93.87454 -7.080115
11.20704 128.2107 -4.581545
9.128147 134.8732 -8.527539
9.99971 91.80289 -7.817609
11.42036 88.51038 -5.840277
7.38375 125.6945 -5.678754
5.247891 53.92731 -3.919577
1.250364 24.48344 -1.568974
7.431761 23.31688 -4.763757
8.909092 43.74689 -5.804952
10.2046 40.98685 -6.111113
10.93254 44.06351 -5.667796
0.3333058 31.74017 -2.786876
1.503419 33.47381 -2.033058
4.283346 30.03107 -2.465376
7.533199 135.4715 -9.011211
10.57846 126.9493 -4.550813
9.767943 128.1305 -6.098666
4.086337 21.1179 -2.064754
5.307689 25.65167 -3.108867
5.251478 27.21677 -3.132954
8.962583 42.95528 -5.863211
11.64316 48.69725 -4.483765
5.345261 22.38369 -3.016341
3.420842 26.79807 -1.881414
3.635695 27.81661 -2.000196
12.81457 49.43554 -2.921263
3.982974 20.75268 -2.010179
3.99206 22.91911 -2.008572
7.506653 41.67215 -5.344599
6.954697 25.79199 -4.498635
6.593386 40.52248 -4.667604
6.767587 36.90067 -4.672396
5.503278 43.37477 -3.856425
6.339061 44.65434 -4.551585
7.337298 45.65776 -5.182993
2.167105 43.45675 -2.403453
10.96178 25.76487 -6.343372
6.132653 40.91726 -4.308764
6.082878 35.37709 -4.092562
3.426228 38.96305 -2.394064
7.18663 30.90253 -4.840922
3.027685 32.89857 -1.939249
4.752027 35.28603 -3.015857
0.8828065 36.84333 -2.628211
6.940008 47.11332 -4.979232
11.1811 49.82195 -4.736283
9.42373 29.85958 -6.025696
1.384318 38.73161 -2.364694
2.962514 32.32408 -1.88868
3.712593 32.86858 -2.186443
8.228817 29.91395 -5.480309
4.413875 30.81544 -2.601881
7.201812 47.59302 -5.11109
6.021888 48.10468 -4.352735
7.617208 34.2953 -5.234748
7.519618 32.76133 -5.127204
10.30021 31.81283 -6.313096
7.885938 29.5836 -5.264861
7.351973 49.96218 -5.165329
4.387079 52.93899 -3.438959
6.068309 53.14463 -4.398523
7.098169 50.85541 -5.017277
4.059723 48.05372 -3.04538
5.472924 50.59367 -3.984093
4.173206 48.82465 -3.14821
7.498394 58.37743 -4.750558
12.01422 51.54614 -3.585633
13.37417 52.39563 -1.399647
10.53233 119.0323 2.573642
13.65576 61.58185 0.9156319
3.880696 70.99627 -3.982496
3.364172 71.83425 -4.0347
4.680661 71.53123 -3.953368
3.066339 45.29895 -2.557331
13.01055 98.23611 -0.8713086
8.617133 137.0416 -8.737186
8.185146 97.55585 -8.603622
5.009278 19.64137 -2.672408
3.381175 116.1797 -3.606986
12.77718 67.0838 -0.2000576
13.7803 69.49349 1.420462
13.77991 77.52444 -0.4089399
8.680533 84.53464 -6.401105
9.851821 82.63733 -5.316667
13.53425 88.27843 -2.939794
14.45154 84.07352 -0.8053526
15.0192 88.4099 0.3021494
12.34223 86.49415 -4.388823
15.12084 86.29615 0.9698198
13.81598 83.21008 -1.871889
15.36944 83.93799 3.650742
15.08091 82.47427 1.816487
14.0523 81.0347 -0.9052195
13.30434 81.53531 -2.209501
12.35975 79.30412 -2.797119
10.62319 85.59844 -5.801282
14.16375 78.03197 0.3207015
12.90788 86.95796 -3.687814
12.9121 84.85905 -3.438423
12.10769 82.16892 -3.726971
11.66213 84.13269 -4.50678
14.39179 79.16499 0.5554438
14.58552 77.14895 1.809085
15.02574 81.39037 2.089331
13.02479 79.09618 -1.929236
14.47228 73.16311 2.757908
12.50072 71.27461 -0.9390356
13.95196 76.34898 0.3628602
13.31902 70.34056 0.4223309
11.55511 92.39329 -5.742813
8.581108 138.9746 -8.775562
9.403822 137.9393 -8.553873
6.760889 138.6973 -9.241205
4.373235 145.4156 -7.524568
8.125481 93.33539 -9.215766
11.6757 54.82121 -3.420426
8.586669 94.04196 -8.839405
4.940765 59.48704 -3.888554
5.417296 31.78755 -3.422937
9.082768 54.14181 -5.180942
10.70057 63.03531 -3.171157
10.18483 67.95124 -2.793047
11.77622 66.47115 -1.589052
12.00281 67.5451 -1.250662
11.30449 63.30251 -2.562761
10.2882 68.29488 -2.686193
6.734194 68.8398 -3.818824
7.798818 70.63316 -3.667876
6.369514 69.76841 -3.830422
9.734199 72.73683 -3.224707
6.436481 67.79128 -3.902105
6.220574 74.19064 -4.041284
7.156605 77.0452 -4.523738
7.587101 76.32081 -4.284958
8.532535 78.73 -4.701908
9.372248 79.48677 -4.657649
9.844212 79.66171 -4.546067
3.428934 46.84792 -2.712486
5.630599 64.00264 -4.047462
8.590434 80.63296 -5.173547
8.366186 81.53611 -5.450787
10.25321 84.46243 -5.65863
13.95213 75.55153 0.5845978
11.69999 70.51881 -1.699905
11.15316 69.49515 -2.063242
5.395998 141.1437 -9.214136
4.407529 143.9821 -8.072177
4.28318 74.94366 -4.244567
10.19077 54.89883 -4.617984
10.24333 56.23209 -4.464633
10.15577 59.29962 -4.096636
12.12659 57.14506 -2.475335
9.590227 58.47009 -4.52449
12.11809 60.0838 -2.024895
10.90347 57.87195 -3.77372
11.54105 62.09104 -2.469101
7.797375 65.75434 -4.010273
6.743577 62.77971 -4.286475
7.630147 62.52631 -4.432583
7.457637 66.76973 -3.936657
5.543159 67.52725 -3.930079
10.49868 69.92258 -2.523623
11.65682 72.08427 -1.891073
12.76264 72.59501 -0.8054494
11.85573 76.65288 -2.533796
11.47035 74.68603 -2.408455
5.07362 65.1901 -3.938991
7.94185 61.39983 -4.55847
6.323728 58.21091 -4.424321
-0.1893193 64.38582 -4.383723
-0.2685551 74.25797 -4.282202
-15.02308 37.67865 -3.805143
-1.489927 52.25265 -5.309889
-4.747961 86.00278 -7.989001
0.7419389 94.10503 -9.900802
1.140453 90.95274 -9.727283
-0.8829334 91.05847 -9.778628
-2.682049 89.8748 -9.665195
-13.11565 104.082 0.9611819
-0.4300957 25.38713 -4.873759
-10.88595 107.2084 -2.79979
-5.335301 17.05404 -7.015799
-11.4804 106.3244 -2.41634
0.06119635 108.3518 -5.311178
-14.58179 25.1858 -5.578031
-7.216302 146.6644 -4.383753
-9.478069 95.44848 -7.979986
-10.72401 142.2714 -7.695806
-1.489931 119.3022 -4.011
-0.0865628 121.4267 -4.716906
0.470391 111.7401 -3.991971
0.3230229 112.2055 -3.862019
-0.5738504 112.4989 -3.79841
-2.277786 140.9994 -9.303976
-10.39997 108.6307 -2.787227
-3.122236 127.9812 -6.941906
-0.05741743 147.2945 -7.279525
-0.5357988 125.5434 -6.125346
0.4891017 98.88867 -9.342896
-8.86546 111.9901 -2.366582
-8.043135 99.27604 -8.296098
-8.557725 106.8671 -5.100399
-11.81278 127.0887 1.331891
-2.931834 147.3204 -6.648921
-15.41332 87.38908 4.186288
-6.286451 119.274 -3.417724
-10.24629 97.99469 -6.636745
1.0349 101.7072 -8.503971
-10.24711 114.6626 1.185116
-14.72183 17.2169 -5.610082
-8.673112 98.49965 -8.110776
-14.30744 68.18629 3.005569
-14.82718 37.49094 -4.131499
-11.15376 96.63249 -5.576998
-15.04448 44.19128 -1.561756
-14.90124 48.9838 -0.3359922
-14.22359 40.88585 -3.919828
-1.088698 110.7468 -4.310949
-0.1582686 95.08209 -9.858026
-13.43574 61.72651 -0.2675571
-8.20545 94.51229 -9.002247
-14.53018 65.92547 3.165064
-14.98038 78.44575 5.384762
-0.6745569 20.82613 -6.083473
-10.755 138.4789 -8.291465
-4.511004 111.0879 -4.007082
-10.93292 112.5698 1.266427
-7.461619 118.8962 -2.539883
-10.17981 104.2428 -5.005349
-10.29911 119.1753 1.27294
-4.786084 93.9618 -10.05287
-11.77007 104.2297 -3.239674
-9.04808 116.4685 -0.5645702
-0.7281803 95.13282 -9.867946
-8.325768 103.4336 -6.73676
-0.3373708 141.4092 -9.012833
-9.724169 114.7941 0.1844544
-11.75927 108.5095 -0.614496
-10.57353 114.3301 1.901293
-12.43072 106.8325 -0.6406285
-12.90014 98.94913 -0.9758459
-11.2378 122.6448 3.648579
-12.71056 102.5901 -1.407798
-0.9501234 17.49247 -6.683353
-10.53097 121.6078 -0.1209578
0.2552752 147.4423 -6.998588
-13.83776 95.89003 0.4701918
-10.52898 113.6624 1.175553
-10.73146 110.5843 -1.033791
-9.837461 111.9286 -1.416574
-10.73338 124.8668 -2.59662
-12.74081 130.2473 -1.301769
-7.870484 146.2131 -4.265433
-7.52915 145.6937 -6.044437
-12.70709 75.63548 -1.378789
-14.83222 75.85286 5.390059
-12.3332 54.70833 -3.183534
1.177299 92.61144 -9.886738
1.37051 95.57395 -9.807644
-0.8232113 100.0676 -9.093129
-8.682757 100.7302 -7.483128
-15.07581 79.3955 4.027793
-1.861516 31.08121 -6.404707
-1.050537 32.98687 -5.838295
-0.4032176 20.28156 -5.004337
-1.799243 47.27411 -5.646845
-0.5382646 34.46205 -5.056433
-1.693792 120.3527 -4.307492
-7.09475 118.6143 -2.746602
-8.057311 122.8989 -4.004512
-1.203101 112.0482 -3.920383
-9.069283 111.0998 -2.640896
-6.014144 107.1003 -5.6572
-7.534944 113.9135 -2.520089
0.6508733 104.3405 -7.333352
-6.953175 106.0739 -5.963859
-6.765428 103.7263 -7.31116
-7.15979 115.7511 -2.381593
-2.67165 147.9566 -6.614552
-1.903262 145.0707 -7.781001
-11.87423 132.6149 -6.575763
-5.155292 129.3398 -7.729261
-9.106579 103.4211 -6.225712
-7.011771 101.5119 -8.137603
-8.491302 100.0623 -7.773654
-3.475239 102.0866 -8.473768
-3.840797 101.4031 -8.792278
-11.28656 122.9422 3.022994
-11.2183 17.19557 -6.246695
-13.51329 19.58203 -5.872601
-14.78776 92.70303 1.414781
-13.40566 97.08902 -0.02534218
-11.52128 98.07028 -4.527561
-9.921959 99.05177 -6.787014
-13.26314 101.1809 0.9253855
-11.27815 101.3482 -4.452182
-11.32239 98.64559 -4.812524
-12.25741 105.3171 -1.866905
-12.70751 104.2631 -1.347511
-13.10646 101.1273 0.0936122
-11.51121 110.4876 0.824842
-10.88218 120.3614 3.468426
-12.00006 128.3407 2.083327
-13.9559 133.5545 -3.596607
-7.319091 147.3653 -4.211565
-8.539184 144.806 -7.018631
-7.811773 144.1245 -7.341502
-3.171441 67.61906 -4.163936
-4.162338 65.02673 -4.22404
-13.88616 59.74869 0.278247
-14.16683 69.03178 2.507009
-14.52511 72.6702 3.107183
-3.597491 56.34916 -5.061948
-0.868088 54.8794 -4.952274
-0.2933094 56.45218 -4.4785
0.3734211 87.91586 -8.84512
-1.560671 94.85291 -9.904497
-0.774709 98.85629 -9.371689
-3.243837 95.67099 -9.887254
0.6721574 79.64899 -5.317306
-0.9142426 81.5383 -5.872305
-14.77547 78.56702 2.07042
-15.35807 85.33495 4.422918
-2.240642 28.50136 -6.745985
-12.69089 23.04629 -6.086882
-1.093698 23.63214 -6.430054
-5.902768 20.6037 -6.854585
-4.209887 22.47831 -7.048368
-5.008203 27.40109 -6.71795
-0.7478328 45.28686 -5.048765
-0.4067993 43.94306 -4.625155
-1.300584 42.73616 -5.579231
-13.08539 40.04736 -5.255243
-0.4093939 34.64465 -4.708117
-13.42198 30.86519 -5.88407
-13.45447 31.32936 -5.875072
-14.32743 35.87965 -5.044765
-1.280004 118.8859 -3.915743
-7.618588 117.0433 -2.078026
-1.394219 128.0101 -6.944443
0.213024 112.3036 -3.837963
-8.41641 112.7279 -2.355873
-5.256768 112.7756 -3.560661
-4.723251 115.6012 -3.43111
-3.517752 105.4701 -6.749195
-2.913754 109.4153 -4.810759
-1.716294 104.7104 -7.16287
-5.073334 116.5866 -3.410364
-0.6989056 144.7428 -8.869181
-0.9504568 139.2561 -9.349977
-11.37243 136.8953 -7.932848
-1.531565 136.2338 -9.271092
-0.4386398 102.474 -8.21577
-6.187233 106.0415 -6.13976
-2.808944 100.9052 -8.908033
-11.34578 21.18156 -6.274484
-13.48746 19.25368 -5.87745
-14.54045 93.56612 1.1646
-15.1912 92.193 3.362841
-12.7281 100.1948 -1.307561
-13.64947 99.24375 2.006777
-9.936892 105.1416 -4.859029
-12.90061 100.5846 -0.762589
-12.08197 100.5849 -2.990823
-10.30672 118.4379 1.915806
-10.72455 121.6788 0.5154933
-12.16064 128.4873 0.1979858
-12.9045 130.648 -2.516564
-12.89625 131.0329 -3.855726
-1.273944 72.88914 -4.147891
-1.168692 73.65388 -4.197105
-14.21594 60.49369 1.133141
-14.32246 67.81668 3.03665
-14.59414 70.97 5.417185
-14.8883 76.58759 4.864851
-2.448536 53.16306 -5.44594
-13.61669 52.78864 -1.731536
-1.517578 61.68664 -4.913542
-1.802281 91.53345 -9.880895
-0.1011155 89.36581 -9.403628
-1.344615 98.03733 -9.53827
-7.154581 94.36278 -9.518374
-3.079515 91.19385 -9.905023
-6.3369 93.31441 -9.833373
-7.584729 91.56146 -9.398447
-0.595661 80.86044 -5.656388
-15.19193 81.39751 4.803024
-14.77789 76.02801 3.277595
-1.039459 28.12545 -6.142799
-7.274457 18.26414 -6.718615
-15.14551 28.79789 -5.240209
-1.432121 19.84357 -6.963144
-1.612174 25.45494 -6.67262
-6.979364 45.45668 -5.285085
-13.75877 43.71159 -3.74137
-13.95066 47.2103 -2.53519
-14.00989 29.58439 -5.718037
-6.851812 118.3179 -2.856087
-5.400735 115.9621 -3.291806
-1.114884 127.2092 -6.589084
-2.377699 127.3682 -6.660798
-2.869649 127.4656 -6.702215
-2.723835 108.4251 -5.256534
-4.06208 115.224 -3.531556
-2.025146 103.4103 -7.814802
-4.923659 117.7421 -3.633954
-2.840795 142.1995 -8.576986
-5.8779 143.3378 -8.525067
-9.229288 141.7437 -8.364792
-8.66485 139.0571 -8.823998
-1.177937 134.1404 -9.153246
-5.073876 105.0729 -6.914375
-11.48079 125.1085 0.6014563
-13.1282 24.10969 -6.003117
-15.3032 91.1538 3.261777
-15.2478 89.15369 1.609238
-10.4314 116.7463 3.041627
-11.75563 127.0645 2.455534
-12.65466 130.3128 -3.406578
-0.8781992 60.542 -4.819679
-1.265334 78.07214 -4.879893
-13.678 62.7884 0.4103635
-13.06975 60.05096 -1.239124
-14.29077 74.04926 1.852375
-14.62128 75.80271 2.547892
-14.75861 74.03408 4.74449
-14.22398 53.26284 -0.4934461
-13.72975 54.83993 -1.063486
-1.329144 59.45868 -4.978998
-0.220233 88.00621 -8.896122
-14.75353 79.25713 1.641207
-15.35417 84.43034 3.9223
-14.82858 27.89053 -5.424747
-2.286072 29.67299 -6.704142
-3.157172 44.51219 -5.965409
-13.89141 41.44492 -4.185659
-3.28136 31.0429 -6.729474
-3.820106 31.59083 -6.669605
-6.148203 26.53649 -6.570011
-2.948226 122.8236 -5.043795
-6.588452 109.4855 -4.485988
-1.860549 143.4826 -8.449769
-6.490232 143.2334 -8.682521
-3.425288 139.169 -9.41592
-11.05486 139.1156 -8.305918
-8.934401 138.3184 -8.74834
-6.85115 134.2759 -9.115273
-10.51776 123.9141 -2.189342
-10.20524 126.9274 -4.807577
-11.46557 127.4488 -3.198757
-14.61738 92.93757 0.8722658
-13.45381 94.83897 -1.207222
-12.48211 97.38494 -2.551061
-12.45731 95.50871 -3.264082
-14.71668 90.26355 -0.207668
-11.85398 127.2484 0.9076366
-1.191983 61.88243 -4.874333
-12.62954 63.25952 -1.343367
-14.19916 71.24221 2.122999
-14.06111 76.44274 0.6171405
-1.338348 78.24602 -4.922525
-15.24785 82.85882 2.922169
-14.80274 86.04266 -0.2777342
-5.292247 24.12534 -6.813712
-8.177781 25.10591 -6.434149
-11.74346 43.58286 -5.332513
-4.447852 32.57213 -6.545629
-6.375875 35.79567 -6.10071
-8.459206 37.41458 -5.987569
-1.959496 118.8567 -3.923599
-4.496253 146.8351 -6.447961
-3.614499 147.1564 -6.374157
-4.553297 140.4154 -9.240377
-6.133708 140.0619 -9.130853
-6.457161 136.0032 -9.222135
-4.204658 134.9054 -9.19975
-11.2549 23.88956 -6.314632
-2.420782 76.83222 -4.590265
-1.675104 78.03838 -4.862465
-12.13589 61.18141 -2.296782
-12.20025 59.42038 -2.535668
-10.86159 57.70767 -3.826819
-13.62672 75.23935 -0.06862708
-3.876425 77.18204 -4.617748
-12.80084 72.28398 -0.7094274
-14.54081 85.55875 -0.9020295
-11.86727 24.71156 -6.251156
-10.18645 27.56883 -6.392016
-6.545549 34.43818 -6.169596
-9.986109 123.8049 -2.899975
-3.952836 125.8324 -6.184295
-8.863126 137.3786 -8.713672
-5.289568 125.9849 -6.139203
-1.38592 71.13341 -4.093232
-3.370796 71.7572 -4.014474
-8.076795 68.90811 -3.484339
-11.79001 58.53746 -3.106581
-13.31687 79.40614 -1.536913
-10.83473 69.11021 -2.301989
-11.43272 24.93655 -6.302977
-8.698433 21.89314 -6.486877
-9.310345 26.30953 -6.388912
-1.480297 39.08573 -5.816685
-5.596145 136.4846 -9.255451
-7.703596 127.7445 -6.709154
-8.859821 27.52283 -6.361473
-9.887691 29.64451 -6.365059
-2.320427 68.70031 -4.14187
-12.60755 75.28857 -1.421848
-13.04815 74.66805 -0.7901345
-11.82987 73.35877 -1.917634
-10.14145 21.43972 -6.391318
-4.655016 37.73932 -6.194899
-11.94753 129.419 -4.318712
-9.819759 31.45905 -6.328604
-7.795288 28.36182 -6.348518
-5.800255 31.97546 -6.373889
-3.9853 28.23844 -6.821742
-8.936726 56.44599 -4.456952
-11.55666 89.87819 -5.732838
-12.96848 89.1448 -3.719338
-12.89924 88.83791 -3.812961
-10.4314 90.84398 -7.262176
-13.44121 88.35008 -3.058289
-8.498773 91.5737 -8.98454
-6.613395 21.84988 -6.69802
-11.73015 38.10706 -6.084326
-2.601258 39.72628 -6.165941
-2.787577 37.16903 -6.331813
-12.21371 131.2839 -5.410407
-10.24164 128.4477 -5.809932
-10.52017 31.49396 -6.367455
-4.563003 26.80113 -6.815365
-11.42426 75.34097 -2.547246
-6.543626 81.49323 -5.664218
-8.27445 56.15647 -4.510071
-10.80318 60.70314 -3.45582
-8.105457 54.54284 -4.635221
-10.82496 54.41514 -4.302125
-9.605945 54.95749 -4.552731
-13.68685 51.77085 -1.841467
-13.58491 54.51273 -1.4084
-10.60444 95.56558 -6.686777
-10.4453 92.56345 -7.236446
-6.254418 87.94671 -8.960743
-10.35096 23.91895 -6.381289
-8.948312 36.14087 -6.102188
-8.264272 132.7489 -8.638144
-12.28007 77.78941 -2.433097
-4.598118 53.1539 -5.08639
-6.113224 60.46214 -4.296107
-7.734143 54.02266 -4.671766
-7.330612 54.47867 -4.635714
-13.07047 49.21376 -3.371975
-13.62791 50.73076 -2.191629
-10.07678 50.41293 -4.960359
-10.34696 46.84222 -5.316803
-12.33992 48.99213 -4.143877
-12.47159 46.20199 -4.551538
-7.02895 84.20631 -6.544594
-12.33589 134.9675 -7.235416
-8.192622 55.86058 -4.535287
-3.152087 55.54154 -5.222943
-5.645359 55.97536 -4.640794
-12.27606 47.1511 -4.511624
-8.393983 43.55981 -5.511601
-4.357793 53.15092 -5.145409
-4.088108 61.20005 -4.527336
-6.399838 61.94037 -4.182317
-5.481871 45.72895 -5.480893
-5.027446 97.74861 -9.612226
-4.544157 100.272 -9.138522
-13.77211 65.8558 1.098732
-4.066588 48.89444 -5.541262
-6.882176 49.03776 -5.040521
-2.203244 48.61815 -5.664557
-7.621692 44.83905 -5.357456
-5.031285 46.85011 -5.48986
-5.20093 45.46569 -5.566148
-3.633096 95.07262 -9.958658
-2.689579 90.89999 -9.837371
-4.947339 91.66146 -10.05859
-2.600313 87.64303 -8.822326
-7.313304 84.98443 -7.07046
-0.4379253 86.02383 -7.907311
-3.533541 85.05882 -7.334761
-4.279324 88.43605 -9.286802
-1.98594 84.97443 -7.3086
-5.984202 83.28843 -6.197287
-8.51613 82.65112 -5.646581
-3.914207 80.7731 -5.551855
-8.212461 82.09992 -5.554329
-8.964671 84.12728 -6.060651
-7.498503 76.43831 -4.316177
-5.494969 77.61054 -4.656715
-9.393765 83.05264 -5.519788
-9.363796 80.17969 -4.751961
-9.864571 89.35763 -7.806372
-11.6118 85.89172 -5.072446
-4.771537 86.31478 -8.166875
-8.444496 79.05546 -4.802996
-8.767574 78.38762 -4.540522
-3.756923 81.8933 -5.89025
-2.882931 80.02263 -5.354366
-12.02279 78.48654 -2.825751
-12.16174 88.13103 -4.793088
-8.518574 87.1782 -7.750228
-6.425815 79.18235 -5.005603
-1.424506 96.24395 -9.785431
-2.855446 20.93442 -7.208152
-4.511098 43.72717 -5.848923
-4.561631 45.17907 -5.729924
-12.6517 36.33931 -6.010094
-12.89303 35.51278 -5.990172
-12.74074 39.71401 -5.484301
-10.16298 38.84221 -6.06135
-7.551484 39.53375 -5.787925
-9.543706 40.52859 -5.853907
-10.63488 40.94049 -5.88769
-3.664198 52.83564 -5.321711
-2.053184 61.39737 -4.963191
-13.71604 70.21881 1.154488
-11.47053 67.58118 -1.897102
-12.30204 66.36394 -1.276831
-12.0335 66.69935 -1.498607
-11.75796 65.68752 -1.902693
-11.78053 63.43697 -2.272555
-8.774208 66.0111 -3.529836
-9.640658 67.01369 -3.114807
-6.925383 66.42628 -3.845265
-11.22633 63.07421 -2.811344
-11.62646 63.9691 -2.312228
-5.860149 63.57567 -4.126053
-4.315102 64.19731 -4.254325
-3.899487 71.98787 -3.995543
-2.064106 67.32085 -4.284595
-9.942224 63.14075 -3.48491
-8.893795 62.05584 -3.923574
-4.630114 69.22492 -3.946262
-7.322574 63.95985 -3.974598
-7.797961 70.95168 -3.616123
-4.92232 70.34415 -3.896655
-8.046638 135.5989 -8.877823
-10.96567 122.8217 0.1194411
-15.39363 86.30106 2.895889
-7.50946 122.5608 -4.09244
-5.871711 122.4782 -4.669352
-7.391138 123.6792 -4.624488
-5.690179 123.8629 -5.241193
-7.699095 124.1039 -4.73408
-9.29207 128.2057 -6.357092
-9.348396 125.703 -4.84194
-3.30713 129.1265 -7.586596
-5.765401 130.017 -8.093535
-7.887352 131.7252 -8.558604
-4.519963 132.2108 -8.869123
-4.519311 130.2252 -8.201642
