# .PCD v0.7 - Point Cloud Data file format
VERSION 0.7
FIELDS x y z
SIZE 4 4 4
TYPE F F F
COUNT 1 1 1
WIDTH 1662
HEIGHT 1
VIEWPOINT 0 0 0 1 0 0 0
POINTS 1662
DATA ascii
14.08111 63.54462 7.617754
16.08558 74.13139 1.894044
16.39373 68.61363 0.08365221
15.87435 71.70341 0.982249
4.575157 130.0733 12.99808
9.304603 128.5643 11.09499
8.407134 127.6769 11.91529
7.380253 128.8482 12.50659
6.292694 120.5287 12.3977
-8.913331 134.8667 10.12426
8.170306 131.8592 12.0522
1.427257 129.797 12.99641
9.379973 125.7405 11.00582
5.52894 132.1321 12.59064
11.75395 116.6542 5.2611
10.98549 122.8018 5.71935
-14.39643 95.55253 2.21599
-6.134522 62.29989 10.42886
-7.585406 61.08828 10.15779
13.5547 106.7956 1.489712
13.66079 109.0409 4.871665
12.61421 107.5705 4.639487
12.45032 109.8799 1.393856
12.77956 110.4576 4.359904
12.47138 112.0068 3.749229
13.50574 109.607 5.48065
-13.76601 102.4772 4.265103
-10.63306 139.5905 6.972254
-7.484641 142.7874 6.6503
-4.13268 138.1164 9.954738
-12.09515 125.8171 5.450745
-11.57815 124.0379 5.449487
15.71747 63.64953 1.669385
16.35507 65.27126 0.8239227
14.43425 64.91655 4.197638
16.28398 74.21055 1.673351
16.47046 70.98956 2.851151
10.55115 123.8842 7.58781
10.37333 126.8413 8.142845
6.888211 131.8039 12.47266
0.01294745 133.321 12.30359
8.512091 123.5487 11.01745
7.672226 122.7473 11.71593
6.06193 121.5778 12.58502
6.137789 120.1619 12.66337
4.860359 126.6359 12.81164
12.68103 117.6717 3.856704
13.11893 116.9192 4.585895
12.23827 123.0786 4.181773
11.46782 124.4562 5.143237
10.77038 125.6041 6.662867
12.56897 122.1927 3.68881
11.41522 120.1601 4.194912
-14.22268 96.74377 0.2054619
11.75894 112.2601 3.460239
11.83994 113.7035 3.125352
10.89144 114.6412 5.565055
-9.219028 142.7444 5.890042
-5.271198 134.8851 11.43264
13.67065 65.29374 8.171023
9.639702 123.6341 10.71813
9.186629 123.0641 10.66537
10.83282 122.12 9.176376
4.084032 128.1833 12.93865
3.862015 126.11 13.17498
4.35433 126.5019 12.97039
5.016287 124.7593 13.08832
5.460073 120.9868 13.1042
10.79512 122.6846 6.482974
13.35917 125.9401 5.174009
12.01472 112.3474 3.868119
12.69957 115.3299 4.506928
11.90298 116.084 4.853712
12.87487 117.4989 4.484445
11.41867 114.0078 6.305581
10.47751 115.2428 6.443166
-5.556778 139.6296 8.87466
1.013005 140.3033 9.046585
-9.426577 130.7255 11.4819
14.18637 69.14977 7.080795
15.22431 75.49291 3.931026
15.52246 73.647 2.197507
13.68604 72.45322 8.82413
15.17205 72.98015 5.534207
14.54694 70.45837 6.10027
15.31908 74.62193 4.578758
14.38586 68.6391 6.537351
14.88606 71.38285 7.288742
11.44564 120.6968 5.631196
10.64541 133.529 9.235303
-2.499905 126.1289 13.48072
5.566595 121.7321 13.00676
9.759736 121.2176 9.316268
12.3582 111.6559 4.404859
-4.824197 137.4593 10.15679
-2.730438 139.2129 9.565129
1.712433 139.3046 9.53512
1.690155 139.8735 9.254339
4.520313 140.3074 8.808311
-9.39811 134.2771 10.1069
-11.22985 122.4191 5.684288
-10.7036 124.3095 8.029124
14.89146 65.80972 4.343028
14.28085 67.30682 7.221203
15.50664 80.38766 2.98138
15.75734 78.23353 3.649074
16.09952 68.60352 4.563666
13.93079 67.86243 8.229112
14.00195 68.71319 8.155545
9.502627 133.8725 10.25063
10.35395 138.7064 7.406316
12.4403 135.5292 6.808067
8.643412 138.9954 8.112591
1.766038 127.4254 13.19994
3.703039 123.1842 13.82895
11.5783 120.8681 7.447343
8.59106 121.2072 10.3864
8.399364 118.9037 10.05037
9.777415 119.8662 8.566348
-1.472856 138.4692 9.995159
6.518579 140.0884 8.397869
6.154973 142.7647 7.200776
-9.929975 131.4231 10.86148
-6.094834 123.2508 12.82299
11.15409 65.06079 10.28565
15.0247 76.25496 4.4776
10.89557 118.5296 6.845641
9.483359 137.0969 8.629304
7.865099 119.3414 10.77007
8.296139 118.2287 10.59709
10.05241 116.6065 7.561398
-11.15297 139.4013 6.81746
-3.492407 138.5364 9.822809
-0.6219219 136.5983 10.96214
1.52526 137.8163 10.33092
5.024879 137.961 9.872271
5.503382 137.7254 9.87846
9.96377 137.7371 8.031386
-10.05694 133.2604 10.03241
-9.485368 131.8518 11.23275
-6.293071 134.7793 11.23901
-6.748114 136.5139 10.16737
-9.878681 137.7371 8.170354
-7.127949 134.3221 11.25659
-8.015914 132.1634 11.91055
-5.830202 124.6764 12.75619
-4.241423 130.2613 12.98568
-4.788763 134.297 11.82735
-6.876611 127.8971 12.31124
-3.807813 136.0552 11.07762
-10.02328 127.5588 10.02146
12.57776 66.24214 9.204289
9.846877 62.35244 10.22984
11.67451 62.55855 9.43188
11.29842 136.712 7.551057
6.784288 134.2962 11.38349
6.411838 116.7879 11.03137
9.401175 115.1199 8.601834
-3.28551 135.978 11.16649
1.037919 134.1687 11.99508
9.148056 137.9862 8.36649
8.55935 142.9676 6.046873
9.100116 138.5485 8.119617
13.41418 138.9633 5.523436
13.13405 138.8375 5.730892
10.09506 64.66188 10.63804
8.934123 118.0724 9.165576
10.16516 117.1519 7.715351
7.70784 116.5376 10.35717
10.59364 113.9074 7.538526
10.93636 112.2811 6.46352
5.265368 116.6493 11.79066
8.299049 115.8943 9.886917
-0.4123747 133.9826 12.06593
6.112503 118.7224 12.42956
9.052091 114.5191 8.830704
10.52709 111.6821 7.744379
5.70486 117.1 11.66191
6.496664 115.6665 10.82181
5.395816 114.8593 12.92501
6.847928 112.6161 12.71362
6.319173 110.8736 11.65773
5.996348 112.2026 12.76838
13.62932 119.0953 1.854265
13.98028 119.3819 1.470047
12.83626 123.8693 4.524619
13.69779 125.9095 3.823406
-11.93771 115.7978 5.532897
-12.02132 120.767 6.627687
-11.6801 119.2383 4.643812
-12.0878 120.0945 7.801871
-14.17304 64.99989 0.8784737
-13.96358 68.62532 1.378922
-13.51725 62.91607 8.193669
-14.9722 65.94501 3.473724
-15.3286 64.34172 5.918651
-14.94956 64.11793 6.704835
-14.23918 112.5672 2.792414
-13.91681 113.7351 3.688283
-11.88015 112.7669 2.983185
-12.03387 114.2568 4.139993
-11.07466 113.1373 4.826391
-10.6469 113.977 6.434892
-13.09685 116.3547 5.830607
-12.80868 117.6305 4.699881
-13.77045 115.6644 4.203817
-11.71527 111.597 3.401698
-11.08595 109.7141 8.169847
-12.27086 111.43 5.016335
-12.59999 108.6728 3.778897
5.550711 113.3975 13.6127
-10.51815 114.3647 7.502078
15.29886 139.5402 4.487345
14.42819 138.7492 4.944783
13.64558 140.8382 4.979312
14.75395 142.2197 4.212456
8.748878 142.0389 6.500534
6.400024 144.7942 5.49319
12.21299 144.7853 3.355697
11.5117 143.4419 4.603708
11.39106 142.5506 5.144399
12.32855 140.5929 5.660162
10.60976 143.4412 4.867587
11.80392 144.2963 3.913151
-14.22862 135.4155 5.539048
-12.32902 140.4077 5.844503
-12.73205 140.6109 5.595353
-10.87673 137.6593 7.660479
-14.90719 76.3904 1.483781
-16.32612 84.65633 2.135359
-15.35139 84.85311 4.456175
-16.04411 83.88284 3.733981
-15.23342 82.64397 5.745913
-15.21303 81.00356 7.310125
-14.48708 81.66553 8.14496
-14.34692 83.19938 8.615699
15.16521 88.77268 1.014943
15.97235 84.66884 2.805755
-14.88745 75.71396 3.845548
-15.45696 76.6843 4.483283
14.39469 99.60625 4.207032
13.90388 98.92422 4.440614
15.11308 91.31305 2.035072
14.14486 103.4868 1.752498
14.01306 100.0399 2.962312
13.94808 99.97131 2.272463
13.58274 104.1173 4.128501
12.79104 106.7462 4.943114
11.84642 104.8357 8.035122
12.49185 109.3857 7.108179
13.00753 102.4213 5.567343
13.27859 100.6984 6.278903
12.45027 95.28912 9.207698
14.56303 96.30392 3.817683
12.59736 105.7532 7.084063
11.89775 107.605 7.63568
13.43382 95.14149 8.184362
13.24327 98.74897 8.251898
12.98101 95.45056 8.644976
13.10606 95.07774 8.603109
15.40231 88.97469 4.665481
12.23323 93.40045 9.753086
-14.03352 97.2094 5.835192
2.153302 60.44492 10.06539
-15.40202 66.37841 3.452219
-15.59153 66.65298 3.533099
-15.36981 87.6835 5.209636
-15.35773 87.25946 5.392935
-14.91895 84.19534 7.059978
-9.826039 83.42286 12.1457
-15.10124 88.75145 6.280038
-15.03929 90.15472 6.467165
-13.83867 89.55576 8.669574
-15.4831 80.25964 6.488639
2.365777 130.7823 12.92766
-13.68128 98.76981 5.860705
-14.71368 94.9999 3.539301
-14.54442 96.63609 4.715389
-14.94712 91.72498 6.354138
-14.03446 92.09458 8.187258
-15.11814 92.83034 3.542286
-13.9502 94.98171 7.598498
-14.70721 93.92462 6.157677
-13.14823 95.74105 8.393163
-13.0574 100.0833 6.781528
8.163854 120.6364 10.71908
2.7075 123.1837 14.07314
2.0214 123.2866 14.15864
-1.016451 126.3346 13.48352
-2.197006 123.2889 13.62829
0.9991896 125.1032 13.56585
4.037527 117.4225 12.41469
3.508306 116.5038 13.0731
-2.188596 119.6935 14.24333
-5.551219 110.4159 13.51009
0.03979894 119.1531 14.34508
-2.841032 124.6598 13.74319
0.977455 112.853 13.93573
3.344813 113.7743 13.33271
2.196315 118.8964 13.20241
-3.962885 121.7303 13.3565
-1.985351 130.7305 12.93137
2.324687 116.3745 13.86859
0.16431 118.5485 14.17271
2.37951 117.7987 13.78139
0.9295853 111.4108 13.84303
-0.4385867 118.7913 13.93436
-2.509753 120.9399 14.07126
-0.8913008 128.5554 13.05564
-3.6124 131.8549 12.73446
-2.357973 129.576 13.01527
-3.139697 129.5478 13.01783
1.355739 113.2058 13.61855
-1.014153 118.9718 13.97447
-0.6526 117.3025 13.11065
0.192019 117.8944 13.81812
-2.578661 116.8981 12.77523
-3.452613 107.1078 13.00807
1.202853 113.8378 12.8854
0.02164035 111.5365 14.14351
-1.390491 111.4629 14.054
-2.580499 110.5655 13.61517
-2.533638 124.4414 13.79412
-1.437682 132.4037 12.6082
2.940747 112.4161 13.90063
-3.455622 118.9618 13.05322
-0.7269939 114.9848 12.83443
-1.991245 124.6464 13.86565
-3.591263 123.2694 13.48371
-5.203568 124.7127 13.03892
-7.436624 121.138 11.59888
-6.125506 128.0694 12.66508
-6.602688 128.523 12.64646
2.529894 132.0919 12.66778
-0.7093968 131.6904 12.8084
-7.653576 120.6719 11.38989
-4.911777 120.2662 13.57919
-3.922604 126.4951 13.31853
-7.169604 125.8495 11.81189
-5.58181 126.397 12.79979
-8.337451 129.8991 12.18078
-8.820205 114.322 9.281097
-5.734354 120.6349 13.10047
-7.626344 123.7188 11.74202
-8.551131 124.3835 10.7481
-3.462576 114.2674 12.50671
-4.028462 114.5173 12.28998
-6.173745 110.8399 12.86004
-1.716066 111.9192 13.33205
-2.134726 111.8422 13.09534
-6.941567 110.9634 12.08046
-6.191583 110.2628 13.29901
-7.987727 111.0244 11.26942
-4.475338 109.8301 13.27671
-4.623741 112.3471 12.10263
-8.674747 111.1831 10.24182
-7.25761 113.4871 10.45671
-5.789579 116.078 11.34538
-10.07617 111.5663 8.494165
-8.693181 111.1101 10.7552
-8.581853 117.2241 10.26307
-9.405073 108.8762 11.23277
-9.547652 115.7244 9.666825
-8.655296 113.7834 9.72617
-6.811906 109.074 12.42118
-9.333819 109.1739 11.13385
5.79189 99.9753 12.21477
-3.050801 108.093 13.05311
16.27172 70.83588 3.861919
14.71554 74.06239 6.813609
15.28601 75.87157 6.438672
14.74379 75.3858 8.134803
15.09981 79.28499 6.659133
12.92162 76.29607 10.25469
14.52842 76.44299 7.943403
14.13443 73.73114 8.931493
-0.5562748 139.7408 9.329595
-11.22097 123.1409 8.021398
-10.19446 121.9893 9.393808
15.32069 80.02459 4.245816
15.23287 82.04759 1.484735
13.41647 67.66202 9.07467
12.35195 131.7992 7.082024
-4.126177 140.9233 8.59247
-8.589061 139.0483 8.124575
-7.867833 140.664 7.617731
7.581838 67.41608 11.42557
4.636407 64.23631 10.84275
3.313347 134.5158 11.83288
4.301844 117.8277 12.30737
-12.27892 118.8724 5.180784
-11.64446 64.1664 9.806086
-13.83509 65.58156 7.303115
-13.07772 118.2094 6.079245
-9.664611 108.752 10.69435
-10.93704 109.246 9.919411
-11.33872 108.8191 9.530587
-9.511011 111.8489 9.244581
-12.89872 108.1233 6.767172
-10.51743 112.6103 7.691228
-10.00213 112.3308 8.310987
-14.03423 106.9329 4.495226
-13.62209 107.4283 4.745564
-13.52621 98.7725 6.403408
-3.500787 97.97625 11.56714
-11.86744 97.77702 9.272161
-13.01883 105.5702 7.576397
-12.46349 101.6323 7.909279
-11.61705 100.0423 8.958912
-13.29397 99.52557 6.52973
-13.05736 101.6025 7.30813
-11.90581 102.3436 8.267859
-13.25663 104.1424 4.597889
-14.06888 100.7601 4.598066
-13.14029 103.7233 5.911463
-13.65875 104.8067 6.001245
-13.23847 107.6588 3.979158
-14.67357 70.60116 4.596211
-14.46669 69.32494 5.815246
-13.81978 68.92884 7.991282
-14.73521 69.24319 5.210596
-14.41993 78.39541 7.911276
15.4124 88.04073 4.333485
15.32102 88.11619 2.080326
15.41488 87.47623 3.814236
15.79781 85.58408 1.726658
15.31886 82.62602 4.346871
15.7557 81.8455 4.577473
14.667 86.63488 7.737152
14.84458 85.87211 7.217729
13.95602 83.85793 8.907306
15.32805 82.62704 5.657259
15.20537 80.4868 7.014553
14.59956 80.67503 7.584679
15.13807 83.10721 7.171255
14.88562 87.81966 7.05585
14.84529 78.00706 6.886534
14.26352 77.81351 8.247318
14.95192 78.36665 6.466693
13.84174 81.28848 9.202381
14.30702 83.09843 8.640151
12.68031 81.61826 10.55385
-10.22228 73.11811 11.89601
12.80057 85.92747 10.3564
10.6958 81.1348 12.01458
10.13285 82.61905 12.12106
14.91551 94.11044 4.332823
14.30772 97.62889 5.241064
15.14599 92.22901 5.510004
12.9834 106.3685 6.922601
12.49794 100.214 7.793783
10.25825 101.203 10.08148
13.23667 93.67509 8.78205
-14.8569 85.89376 7.274261
-13.36467 84.88915 9.836143
-14.04219 85.82664 8.920306
-15.44265 78.77531 5.178912
-14.00348 101.2039 4.329542
4.641308 112.131 13.17419
-2.352911 108.8284 13.07607
-6.963273 121.3946 12.26229
-10.1805 124.2675 9.961925
-8.167581 120.6474 10.97815
-10.89129 119.9192 8.8998
-11.04078 123.4681 9.608088
-8.796562 111.6171 9.747134
12.56459 68.35199 9.977368
11.97604 72.60996 10.94228
11.38601 67.07668 10.58319
8.357633 68.72367 11.61536
7.65938 68.27025 11.56089
7.832266 69.94099 11.76087
6.036437 67.92496 11.52037
8.013166 66.25795 11.20268
9.650661 65.64804 10.95056
12.59054 69.99746 10.0668
10.16689 71.35662 11.70032
-10.27338 69.88089 11.47611
12.02227 70.61709 10.6829
7.81105 69.39011 11.70481
7.513188 71.35522 12.05341
5.759954 70.93842 12.02192
2.414999 70.43342 11.95794
6.776333 75.4843 12.33792
5.36196 71.88416 12.15234
6.88924 72.92384 12.17159
8.23779 75.81081 12.38198
-0.3420436 81.02838 12.4219
3.853307 74.50103 12.24131
3.361156 73.47565 12.19581
7.951763 75.09879 12.28756
1.717231 70.11839 11.9154
-6.441589 141.3088 7.842428
-9.335425 139.6138 7.527823
4.415662 65.48229 11.0988
3.684215 135.9283 11.15817
4.832434 133.9901 11.95876
-13.07817 118.0073 6.518371
-10.61543 116.5047 6.570821
-10.85872 116.7231 6.602048
-6.410433 117.7162 11.41142
-8.861798 117.4634 9.15517
-11.05195 117.3358 7.172156
-9.414885 117.8204 8.463499
-10.60636 108.2589 9.349669
-11.58468 107.0138 8.357531
-13.37702 105.0467 6.662256
-14.97515 78.04464 6.00747
-14.34847 71.78198 8.13129
-12.98672 72.03892 9.815693
-14.56351 72.03799 8.65129
-13.97603 67.85419 7.329345
-13.02169 68.7706 9.359585
-13.07918 67.19264 8.92174
-12.96852 65.63747 8.835832
-11.28189 61.57191 9.52434
-10.30076 65.58908 10.77531
-8.439353 67.75143 11.51721
-6.63248 71.73246 12.07229
-8.029997 63.40935 10.68096
-10.05567 64.8615 10.71785
-9.886079 70.74104 11.67885
-13.12696 69.75319 9.88479
-10.11968 73.64757 11.95772
-12.26026 74.1009 10.76492
-9.108673 73.93446 12.14086
-14.22114 73.3374 8.676897
-8.255613 67.38029 11.49364
-12.82485 74.87057 10.27627
-13.91036 82.51805 9.196159
-11.08557 74.34322 11.60019
-9.962531 75.9518 12.14879
-11.48823 76.19506 11.48004
-12.36938 83.20055 10.93198
-7.550968 74.66572 12.27626
-5.280287 69.45153 11.82724
-11.97845 76.07037 11.10876
-8.786889 68.47889 11.59705
-9.02768 65.34227 11.0316
-5.536408 63.42879 10.69912
-7.221786 69.2672 11.76692
-6.466018 72.08347 12.10647
-7.039087 74.12109 12.25953
-5.257442 65.96579 11.23088
-4.071508 66.37286 11.32233
-5.341823 68.69276 11.69648
-3.587282 68.96707 11.75709
14.62554 93.06593 6.762413
15.05032 92.38073 5.846634
14.50461 92.11554 7.2744
14.71012 89.80698 7.3712
15.14772 87.80022 6.299569
13.62436 91.04685 8.850078
13.4274 85.95568 9.679224
13.34632 86.50725 9.744608
14.61324 88.37305 7.678154
14.997 90.42213 6.50736
7.634501 86.0784 12.09946
12.07063 86.48766 10.84456
15.11876 89.98361 6.233279
10.29849 104.7152 9.981858
10.89497 106.5699 9.384516
10.17836 106.6574 9.991195
11.81462 101.5591 8.487998
8.173355 105.7005 11.28835
7.931252 108.8974 11.40798
10.96732 102.2177 9.633387
8.278307 104.168 11.54465
10.17538 109.0835 9.718248
6.493751 109.7169 11.96804
6.722582 110.5665 11.51801
11.04002 109.1442 8.403004
8.956519 111.9113 10.9418
6.972117 112.3475 12.66386
7.749904 105.1007 11.53789
5.237637 107.0749 12.49328
4.320854 110.5332 12.50295
6.443312 105.9367 12.02715
5.435557 104.1104 12.42577
3.779956 105.2532 12.8748
2.670698 109.0402 13.08851
1.192581 105.7372 13.25333
2.383088 107.8547 13.1852
-1.677911 103.6414 12.98976
1.441474 103.7906 13.04355
8.27352 100.8472 11.31979
-1.100808 106.4268 13.29215
3.11479 101.952 12.49136
8.333652 104.0387 11.50159
6.397732 100.6366 12.14907
8.251814 103.2031 11.37881
1.152155 104.0814 13.09404
4.731135 102.4616 12.25886
0.9114435 102.7484 12.87756
2.188982 99.55319 12.17707
-0.5558639 99.28185 12.14865
4.0557 98.33655 11.54759
1.595877 100.1371 12.5494
3.179715 99.09338 11.89307
1.660027 97.94927 11.75778
1.543971 96.44865 11.62486
8.29557 98.92955 10.92342
5.632166 95.42141 11.70539
4.439386 96.52063 11.30175
5.358748 93.60891 11.18139
4.796132 93.30051 11.00144
6.46049 86.09062 12.11914
0.5878528 96.18523 11.79119
5.623395 93.26698 10.91106
-13.68787 79.83171 9.447823
-10.86529 82.66085 11.87452
-14.09098 78.2016 8.672742
-13.6702 81.35774 9.507725
-10.39585 81.71735 12.04453
-12.09085 81.8446 11.14643
-11.35079 80.44904 11.68989
-9.642906 77.4808 12.27524
-11.42785 81.84582 11.60215
-10.97907 82.37156 11.83316
-9.06172 84.99844 12.13175
-8.215059 88.33427 11.72171
-7.119129 78.54221 12.50849
-6.666378 76.26194 12.45376
-11.00426 83.70313 11.74418
-6.491441 81.50827 12.49481
-11.08204 84.30467 11.67133
-10.19226 85.83025 11.77439
-12.17663 85.95345 10.84212
-9.189873 83.39744 12.27158
-8.612667 89.55042 11.64304
-10.03769 88.95261 11.35338
-13.30465 94.67941 8.494689
-1.556333 109.5273 13.12221
-8.003665 108.1008 11.60437
10.63437 74.36382 11.77608
13.15075 74.92511 9.857745
12.5323 79.20978 10.7944
6.399817 78.53337 12.60664
11.99899 78.52478 11.17975
7.259002 79.04448 12.63079
8.852759 77.52999 12.44126
10.35964 78.3074 12.10495
9.196862 77.76146 12.37696
7.874438 81.97099 12.4666
6.529116 79.51235 12.60137
6.555367 81.11694 12.44102
12.39239 76.57806 10.91183
4.926185 66.23611 11.23762
6.264802 68.36655 11.58966
11.68713 107.8664 7.785391
-10.32504 106.6003 10.09657
14.15211 93.15012 7.811508
11.80531 94.63814 9.823805
11.65145 95.98206 9.637712
10.78992 90.85079 10.87188
10.25872 110.7218 10.34933
9.819209 101.5244 10.3895
0.05469965 105.5098 13.23037
-2.90447 104.5533 12.97089
-1.647485 108.9113 13.11715
-0.8561414 103.4541 13.00762
6.746676 97.74389 11.04578
6.580026 100.2075 12.20159
10.76305 99.81031 10.31077
8.853971 98.23113 10.64986
9.48286 94.42961 10.73422
8.882559 97.97324 10.6236
9.903566 100.5697 10.90233
-6.388267 95.36237 11.55871
-1.573344 96.41867 11.91382
-10.86107 97.74283 10.21516
-10.02719 99.84259 10.18894
-3.025631 99.76146 11.97807
-5.072677 98.0492 11.40388
-4.254989 100.7364 12.0046
-3.788311 101.6848 12.29718
-10.45491 103.2191 9.804675
-8.233326 100.3008 11.02896
-8.106415 103.0224 11.30879
-9.136827 103.9606 10.84871
-4.527369 102.4773 12.30244
-4.626749 104.584 12.57357
-5.042868 106.8756 12.55374
-4.435277 101.3405 12.09904
-3.842267 104.6203 12.80493
-3.470629 105.7707 12.98022
5.433039 95.55403 11.72029
3.587698 85.07653 12.39547
-4.372789 73.12885 12.20982
-6.113047 74.19434 12.23455
-1.572619 75.7944 12.38357
1.174235 73.4962 12.20242
-2.547988 71.28678 12.07227
-4.586452 74.35818 12.23184
-10.78488 87.93362 11.35529
-13.52671 88.32018 9.334191
-8.658545 85.52618 12.10865
-2.985463 88.50241 11.70198
-5.920049 89.03782 11.70622
-5.501094 86.98742 11.80627
-4.629045 89.28011 11.75616
10.87196 80.0798 11.86331
6.205379 81.09072 12.43229
9.232381 85.40959 12.04469
8.542349 87.66502 11.80275
5.566926 80.64709 12.42715
4.496596 81.8627 12.45733
6.507773 80.7113 12.46294
7.556946 86.83995 11.98085
10.28991 87.01095 11.66665
4.090953 88.38522 11.59398
3.598411 85.84441 12.16917
5.64 84.63634 12.34052
3.379109 86.53323 11.94896
-0.633269 86.07536 12.06407
8.032856 88.9773 11.57871
1.927817 89.95413 12.02173
2.46457 90.90601 11.27723
0.4906396 88.71548 11.79438
0.3878471 86.911 11.77581
4.333076 89.17789 11.75685
2.170934 92.01688 11.04759
-3.016232 95.49294 12.26265
2.303418 81.17935 12.4404
2.039065 77.38768 12.57475
2.954586 79.6214 12.57563
1.870395 78.72959 12.65242
2.407605 75.12166 12.29196
3.313618 81.46948 12.4492
1.081486 76.70926 12.50201
0.5565382 77.66617 12.61087
-2.020664 75.62453 12.36085
-4.777422 79.17788 12.5664
0.5278158 84.53489 12.5238
2.204332 79.60146 12.59014
0.3362383 80.63795 12.44486
1.572125 81.81151 12.43479
-1.846963 81.14729 12.43599
0.08934393 86.33924 11.98003
-4.685917 80.00233 12.53034
-5.976678 81.00808 12.49797
-4.206201 85.37926 12.266
-2.208432 86.77526 11.80935
-1.046907 83.14206 12.44691
4.380709 75.62989 12.34637
4.104933 62.96378 10.57797
-2.544934 63.93402 10.80947
-2.697675 63.16103 10.64495
0.8427437 64.81136 10.99109
-1.884555 66.08247 11.25306
1.476001 65.40712 11.10498
-0.8285294 63.59103 10.73841
1.510797 66.58018 11.32975
-3.468815 66.33889 11.31295
0.5900789 66.95839 11.4045
-3.731944 71.34238 12.07016
-3.796357 69.17036 11.78853
-1.846897 68.68048 11.70864
-1.301048 66.33562 11.29788
12.14612 90.92814 10.16971
8.858695 93.04416 10.9096
8.224234 91.94537 11.10045
8.226146 90.65622 11.53229
7.173782 87.84075 11.73374
6.120643 91.49782 11.07727
4.694418 91.97691 10.9254
5.63835 88.51031 11.61893
-6.785781 99.20491 11.22875
-9.214318 98.93744 10.57902
-6.418142 96.12419 11.8856
-6.562675 93.98496 10.8273
-10.25781 94.5004 10.49716
-8.492707 94.22829 10.85635
-4.858621 95.57834 12.00347
-7.89482 90.12878 11.80332
-7.469286 91.87117 11.0685
-8.168648 88.74373 11.64756
-12.60703 91.8409 9.798302
-12.94892 92.4921 9.328607
-11.34384 89.1477 10.8819
-2.885297 93.72836 11.11779
0.899026 92.35229 11.03966
-0.84534 90.78004 11.64862
-6.282727 94.73721 11.08477
-4.761915 95.91519 12.24106
-1.418796 95.58347 12.21925
-2.083244 92.20336 10.96167
-9.995713 104.1035 10.23892
0.06250781 88.19532 11.60709
-3.831968 88.61426 11.68913
-1.136819 87.5158 11.5998
-4.628343 80.35596 12.50646
-5.332478 81.86279 12.44244
-11.36394 91.30469 10.53566
-5.158363 91.86759 10.96303
-2.5033 90.73737 11.6751
-0.4265732 91.23042 11.24464
-1.933085 91.16859 11.28329
-2.37512 92.71934 10.96278
-15.54311 66.99018 -1.06171
15.40717 66.30541 4.976616
-14.06672 71.86179 9.101223
-6.595375 84.36025 12.40286
-15.3836 123.8442 -1.30703
10.23944 136.4157 -8.251708
15.83801 66.02865 -5.277491
13.68673 119.9421 0.2817578
15.03854 77.81161 -2.846094
15.47352 76.2096 -1.812102
14.47287 81.07868 -1.214606
-15.71056 135.325 -6.137248
-14.10883 126.3966 -3.662057
-9.865768 145.1543 -5.201519
-13.81778 130.2004 -5.270159
3.371302 62.57197 -5.704576
11.08224 65.07169 -4.324308
8.75807 107.7722 -4.816759
12.57681 64.53522 -5.191518
14.361 124.9906 -2.786167
13.61879 104.7557 -0.6802983
14.28424 123.609 -0.7469088
15.12224 122.846 0.2642097
14.64521 125.0641 -1.305806
10.7007 89.18824 -6.860287
13.41963 112.8683 -0.01049895
-14.80197 121.5096 -0.6367072
-14.06714 70.76701 -1.826915
-16.53022 75.72295 -2.365716
-20.96623 141.3888 -6.410037
-16.44266 126.9877 -2.041654
5.304257 144.5071 -7.664979
-17.81618 133.0777 -4.667022
-13.28035 65.04762 -3.094092
15.05993 144.8557 -4.052943
5.902652 145.0481 -7.154501
-17.79681 143.9242 -4.8327
15.53494 129.1972 -3.120044
12.5176 64.86059 -5.115507
16.28079 67.92031 -4.155715
15.1728 66.65543 -5.896105
-15.16505 64.4418 -3.717667
14.43484 68.00307 -5.256307
15.53532 123.3728 0.6531535
-12.92724 98.19868 -1.960173
15.95218 67.62277 -5.378463
-11.65057 66.59601 -2.101733
-13.38113 69.75208 -2.639802
14.47214 144.6465 -4.413154
-14.62972 90.05888 -0.5539661
14.57988 125.747 -3.819651
16.66434 69.45558 -3.806011
-14.97796 86.44484 -0.1792659
-16.84651 71.59931 -2.510004
-3.187291 143.744 -10.70279
-9.612939 142.5523 -7.896874
-13.90103 130.4816 -5.310598
-12.40676 107.8708 -0.4538322
-9.602627 145.5601 -4.556912
16.83073 71.62531 -2.737235
11.74211 76.36212 -3.16697
-15.93391 123.3701 -0.3126341
3.722847 64.68173 -6.146485
-12.2712 128.3783 -6.775513
-15.25696 121.2844 0.3792003
14.74721 69.16965 -4.729943
-20.60604 138.7997 -6.853807
-17.13323 144.5977 -4.006704
-22.04499 143.3372 -5.130701
-20.627 143.3764 -5.234311
15.5844 70.75345 -3.407861
14.29037 80.91243 -2.040322
14.43154 87.97974 -1.41038
6.880081 64.20947 -5.331064
13.60361 108.6905 -0.9450188
-7.738116 111.7572 -3.402601
-0.7033421 87.48485 -8.820952
15.10205 125.8345 -1.400682
14.92522 128.983 -3.707876
14.61578 122.4497 0.03352623
6.051637 112.2831 -4.940271
14.46599 124.6957 -3.832931
12.60292 125.0678 -5.053638
14.41951 126.9178 -4.128219
12.28027 123.9803 -4.903291
12.92655 126.7956 -5.321748
19.50521 142.3401 -6.081123
15.35056 143.8935 -5.184111
15.74804 143.1466 -5.870733
17.8454 141.9721 -6.323462
7.774429 143.6328 -7.529481
5.548517 144.2182 -7.782701
10.42498 143.7092 -6.710837
-16.25773 72.20446 -1.26564
-11.48387 63.57626 -4.921896
-14.16958 65.17978 -2.810258
-14.59767 71.89501 -1.969433
-9.442485 145.549 -4.67377
-6.242654 142.8127 -8.435439
-14.59114 115.8189 -1.74533
-15.37337 123.1566 -0.9218517
-14.92389 128.7388 -4.104163
-18.01368 135.1199 -5.574788
-16.84583 143.3661 -5.471174
16.71317 72.23729 -2.534911
15.48512 70.94637 -2.808358
11.9867 88.22941 -5.031056
14.82226 84.89424 -1.973665
0.1927575 65.24781 -6.528623
13.88634 110.5673 -0.7638851
11.61542 98.72956 -4.425174
-11.6304 98.96971 -4.160997
-12.08331 93.23965 -4.707891
11.92451 99.01131 -3.603457
14.87781 128.597 -3.585242
14.2954 116.7752 -1.1089
-0.7845976 143.125 -8.646152
16.47863 132.5413 -4.414938
17.67433 133.9411 -4.835434
16.32138 143.0127 -5.938875
20.28158 140.4911 -6.688838
8.084388 144.0429 -7.083407
8.659912 143.0199 -7.770212
-5.968041 65.74809 -5.171929
-15.10844 81.24067 -1.184022
-8.944558 64.12044 -5.600066
-15.19686 66.97472 -2.620212
-14.85102 66.07742 -2.637905
-15.59444 67.01469 -2.467976
-13.11527 69.48591 -2.578996
-2.499546 142.8591 -10.38472
-19.56525 136.0824 -5.735183
-10.94069 145.1264 -4.719116
-8.993773 144.3801 -6.591139
-8.786856 142.5673 -8.065517
-11.80161 143.3564 -6.667708
-13.55711 116.3169 -0.441924
-13.68569 118.6577 -0.401922
-16.39537 128.5577 -3.099176
-10.92894 141.8118 -7.809996
15.56785 74.03391 -1.786891
15.3184 70.30212 -3.79637
14.58124 84.62958 -2.779862
14.10185 83.36682 -2.13591
14.54121 78.31349 -2.310205
6.323765 65.50801 -5.958036
6.232329 63.73059 -5.469227
-4.783029 62.8326 -5.648522
12.64135 110.6054 -1.206249
13.49392 113.384 0.1542379
11.45563 107.2406 -2.409887
-14.43378 110.4771 -0.1352984
-13.96465 90.16649 -2.073842
-13.55373 85.88592 -2.963326
13.65479 92.80403 -1.981782
12.79565 95.43115 -2.857274
13.30236 121.8927 -4.146093
1.127221 143.4158 -8.064554
5.793906 143.3528 -8.138755
15.50873 138.3862 -7.171563
17.14618 139.5906 -7.047517
15.91207 140.8764 -6.923073
7.594963 142.2774 -8.43401
-16.12729 76.17747 -0.7877036
-15.61027 81.37786 -0.2391191
-15.59636 67.1974 -3.906617
-11.63411 63.9227 -5.00634
-16.77349 74.44928 -1.897696
-15.26606 66.07069 -3.98767
-16.87942 71.64161 -2.421246
-3.370521 140.2296 -9.667148
-6.058513 143.838 -7.959598
-3.664414 141.0577 -9.710621
-14.07049 114.5654 0.8888347
-14.57533 118.234 0.2304348
-14.48294 127.4427 -3.807168
-14.3109 129.8145 -4.846477
-13.30117 128.64 -5.51164
-13.15938 126.9339 -5.230189
-13.03608 131.5146 -6.269057
-16.46121 142.4293 -6.191379
-19.81804 141.6392 -6.33996
-20.04834 140.4917 -6.765784
-12.51505 133.7473 -6.984308
-18.15653 142.1117 -6.184853
14.36466 73.1842 -2.024007
15.43354 78.51627 -2.230875
13.65914 90.02323 -2.673585
13.37551 79.39932 -2.607185
12.78806 81.94974 -3.587274
12.79378 78.1169 -2.446385
13.90644 80.29187 -2.59896
11.44941 79.15491 -3.874149
11.06155 74.98466 -3.164143
6.677719 64.33855 -5.455617
7.320255 66.98683 -6.077779
4.639984 62.76867 -5.538106
2.65238 66.73396 -6.296205
-2.973788 63.3107 -5.998213
13.2097 107.4449 -1.184509
13.17041 115.6018 -1.187015
13.3957 102.0828 -0.8799326
12.30327 99.34214 -2.698633
-13.12692 106.8905 -1.338143
-13.02405 102.6907 -1.116565
-13.77929 98.0677 -0.4040442
-13.39672 95.61707 -2.029774
-14.25187 88.7086 -1.730463
-15.2996 84.40536 -1.19026
13.72613 92.13775 -2.013193
12.81933 117.2158 -2.402067
2.20823 140.9244 -8.703472
4.748969 143.2701 -8.330881
16.43317 140.4603 -6.944212
15.21117 141.0226 -6.951438
13.59814 130.6096 -5.669704
14.46041 141.6746 -6.861177
15.86089 140.0552 -7.13442
12.91206 142.441 -6.976139
11.92101 142.8955 -7.090209
11.28668 139.1761 -8.100058
-11.13814 63.0267 -4.738817
-5.441744 64.69505 -6.031109
-16.44543 76.33838 -1.163846
-14.81311 78.16606 -1.779172
-13.08953 76.4595 -1.622867
-15.96136 75.71417 -0.9559461
-14.98359 71.84323 -2.218663
-16.61422 70.76442 -3.079366
-14.65624 71.65369 -4.266207
-15.12125 73.16103 -3.872604
-2.479251 142.4019 -10.70351
-5.263076 141.8621 -8.838508
-14.77763 114.3668 -2.73817
-14.53628 111.7408 0.4981864
-12.29061 126.8994 -6.656805
-15.94773 133.3064 -5.337389
-15.02164 136.99 -6.872649
9.751859 64.87254 -4.213172
11.5847 67.2555 -3.644429
13.43912 86.39729 -3.014084
12.16629 80.387 -3.525915
13.44623 79.16721 -3.04681
12.22341 77.21728 -3.760191
13.22301 84.8225 -3.122706
4.785734 66.40278 -6.422505
1.083148 66.09968 -6.300836
-1.692162 65.79642 -5.63167
-4.585813 64.96607 -5.944008
11.40317 108.7109 -2.378069
13.81187 116.4199 -1.418446
13.51768 104.0425 -1.401816
11.88607 106.6243 -3.163175
13.25338 97.81202 -2.211321
-12.9309 104.6118 -1.807012
-13.6816 106.1422 -0.07515953
-13.55905 97.38496 -1.737351
-11.24442 88.35275 -6.06049
-14.07217 87.71432 -2.085391
-13.59111 81.78342 -2.840355
12.7414 96.82986 -2.594129
14.31804 120.4966 -3.021989
12.35201 137.5797 -7.771679
9.919296 141.2571 -8.216505
-16.23827 76.68614 -2.374683
-13.48246 79.21803 -1.589754
-16.81552 73.84723 -2.58158
-5.523166 138.1321 -9.359268
-8.853423 140.7959 -8.582302
-7.580595 140.7625 -8.916117
-14.12993 127.9775 -4.316488
-11.95402 125.9584 -6.763674
-13.24267 123.1057 -5.378025
-13.3374 123.5288 -4.285538
-13.50254 121.4659 -4.963453
-8.464999 119.3288 -6.51123
-10.42373 123.9914 -6.877873
-13.68036 121.5818 -1.98593
-14.10089 134.5089 -6.406524
-10.77038 129.1396 -7.474704
-17.88863 136.621 -6.183224
14.26958 75.3312 -2.768001
13.07875 89.244 -3.592898
12.49038 92.01058 -4.207975
12.21408 77.50497 -3.992916
13.69356 83.36404 -3.425637
0.8660884 67.69193 -4.311926
-0.5696909 68.02673 -3.739933
12.16886 114.295 -1.554554
11.4301 102.9919 -4.076025
12.39474 106.2795 -1.226546
12.09487 100.2975 -3.159631
12.26605 101.6611 -3.610948
-13.12293 108.2228 -0.1445767
-13.81622 94.46997 -1.084175
-12.56215 94.43005 -4.049795
-14.07062 87.20804 -2.164852
12.40577 93.48087 -4.373083
13.79402 120.5127 -3.514586
3.566608 139.7066 -9.374567
4.841904 140.5001 -9.228931
2.856848 138.4534 -9.440316
-0.6267985 139.8601 -10.16946
-2.984686 138.3684 -10.1118
12.88156 136.6754 -7.495803
11.33924 142.0088 -7.634105
-12.73725 73.93431 -4.125875
-12.97932 75.39649 -2.006078
-12.81646 76.77599 -1.775164
-14.46128 74.90138 -3.639488
-7.267148 75.36189 -4.74878
-16.72732 74.26012 -2.598379
-3.003242 139.7046 -10.20856
-6.840104 139.1935 -9.216362
-6.947568 139.8938 -9.156532
-13.54965 112.6462 -2.055978
-13.98359 134.6059 -6.479826
9.802716 86.18681 -6.595609
-1.881536 66.8037 -4.49643
11.67087 103.2519 -3.738776
12.09971 122.3477 -4.43812
5.640533 142.0285 -8.771641
9.922958 137.7079 -8.388983
-15.19576 75.38449 -3.366264
-12.19827 76.52738 -2.267942
-10.28299 74.33663 -3.202692
2.773764 137.8877 -9.613214
-7.211867 136.6826 -9.165623
-5.82314 137.4089 -9.356406
-16.13862 134.8357 -5.853656
-13.73688 136.4007 -7.059467
-13.52866 132.8659 -6.237787
-11.79239 128.3922 -7.088097
12.69444 85.29025 -3.812887
-2.193645 68.75523 -3.359616
10.53592 103.1889 -5.265016
-9.868398 75.14308 -3.478984
-5.461064 136.7274 -9.36172
-11.20415 137.7848 -8.063471
-13.26831 136.6969 -7.292124
-1.317603 67.76913 -3.777081
1.083702 70.50459 -3.288963
-0.6357829 72.44505 -3.957728
9.660207 103.2382 -6.028322
9.861715 104.074 -5.854001
-1.282368 135.7385 -10.7527
-12.32756 134.7543 -7.263657
-11.59258 134.4515 -7.559811
-4.594052 66.39342 -4.656513
-1.870901 66.24902 -5.076648
2.811115 69.64472 -3.46154
-2.132533 71.85036 -3.536562
-8.772745 78.91844 -4.679388
8.90655 101.1388 -7.107706
7.469689 104.917 -6.57896
-5.584024 65.32573 -5.631711
-8.204755 65.72511 -5.467231
-3.969804 70.4952 -3.536395
3.965845 68.23138 -5.189825
4.863777 68.7973 -4.523106
3.501835 68.87277 -3.755922
8.189207 103.3489 -7.00402
8.694368 103.0622 -6.828938
-8.015162 66.95458 -4.322308
-3.34673 69.11914 -3.70515
-4.086506 70.04258 -3.68056
-3.78452 71.69764 -3.547413
-2.8408 73.8731 -4.2188
-7.06458 72.97266 -4.856313
-6.597162 73.55199 -4.693605
-14.19683 67.57967 -4.515255
10.36483 72.32111 -4.098817
-2.136929 74.11261 -4.508645
-10.37444 66.3714 -5.251728
6.603139 69.4314 -5.492209
7.000284 69.2306 -5.999546
-12.38989 66.46048 -5.010605
-9.900465 70.1086 -4.688179
-12.59621 68.60809 -2.189373
14.00942 69.25016 -4.080252
15.48121 69.64079 -4.5855
-13.35956 120.9806 -3.287091
-14.02262 118.2408 -3.911191
9.154515 66.47439 -5.350577
12.37347 115.9879 -1.917209
13.46779 119.8304 -3.628773
12.06519 112.6567 -2.911186
11.6917 115.5968 -3.579675
-11.51179 99.73872 -4.347507
-11.51419 94.81802 -5.569209
12.86905 134.2703 -6.882753
14.20438 129.5271 -4.893396
14.10209 128.3737 -4.767182
10.99848 143.3645 -6.800889
-10.61078 70.01482 -4.345633
-10.86965 70.34644 -4.440933
-12.72245 71.63069 -4.591859
9.066334 68.43792 -5.951744
11.54658 110.2694 -1.459162
13.02833 111.2529 -2.102321
11.51343 109.2442 -2.194432
10.68325 109.1019 -3.014597
8.762007 110.9683 -3.156469
9.113418 107.7988 -4.646649
10.09297 116.9033 -3.782096
10.63412 111.9056 -3.899443
8.434847 108.6843 -4.660945
-10.76623 107.3452 -4.244973
-12.32472 104.8898 -2.716154
-13.30753 90.51869 -3.139264
-10.75209 82.48241 -4.802402
-13.22959 82.9941 -2.856323
-11.58402 79.56699 -4.699758
-10.77552 81.32242 -5.204109
-11.00378 78.42693 -4.338214
-12.34809 81.54353 -4.410049
-11.84675 82.59307 -4.036263
-12.35855 84.02103 -3.823676
-11.08946 83.55486 -4.796279
-9.880854 80.85796 -5.457036
-10.49394 76.73911 -3.818882
11.9323 94.78676 -4.720469
11.08479 94.40124 -6.217639
10.31547 96.47545 -6.929283
-8.896902 111.5057 -3.048109
-14.44854 112.2299 -1.568732
-8.331658 124.361 -7.497011
-7.629523 122.2926 -7.297204
14.15045 74.7216 -3.942969
12.69519 75.41749 -2.990529
10.28389 74.9342 -4.394493
1.582066 133.4516 -10.28992
12.49913 134.8699 -7.183965
11.60315 134.8372 -7.566164
12.33274 136.0894 -7.533245
-10.0471 73.54296 -3.512337
-7.567673 77.57301 -5.630214
-11.27114 138.6879 -8.092792
-11.10588 134.0049 -7.741177
-8.358679 129.9473 -8.286752
12.50043 81.46014 -4.320688
10.33506 82.44838 -5.100625
11.64509 84.93841 -4.742399
11.11367 83.75912 -4.835642
10.86434 89.94054 -6.756175
8.763589 88.19195 -8.140898
10.13938 86.96355 -6.740143
11.04084 93.11034 -6.44847
10.596 88.82839 -6.934203
9.458632 89.85728 -8.313684
8.19961 92.87577 -9.104946
9.323906 92.13605 -8.32595
-6.172013 132.9269 -9.371927
-6.432141 134.7543 -9.430783
-4.401396 132.3101 -9.746351
-7.054904 132.3988 -9.014868
-10.03492 136.0436 -8.290511
-11.89589 137.98 -7.923963
3.939088 70.65333 -3.635634
5.974874 70.18159 -3.631324
8.082409 105.2826 -6.105723
-7.624505 72.41317 -4.606481
-4.345572 74.69731 -4.74993
-1.766946 76.59438 -6.083724
-9.38954 68.66684 -3.741338
-14.02253 119.5557 -3.797354
-13.74639 116.2784 -0.9550667
-13.5993 66.62566 -4.639868
-13.71823 69.7268 -4.187406
-10.71292 68.66352 -3.883278
12.17792 119.5038 -3.887595
11.43791 119.0916 -3.685487
10.70004 121.2668 -4.58893
-11.08727 100.1451 -4.930466
-10.48732 98.41814 -6.385352
-11.9948 97.13403 -4.490593
-11.41929 93.328 -5.857521
-11.3183 97.54398 -5.680397
-9.419641 97.01154 -7.750851
-9.164164 97.46095 -7.901012
-7.5002 96.30685 -9.174698
-7.660851 73.01283 -4.991153
-14.49892 115.6825 -3.295684
11.60111 68.9149 -3.073942
11.24303 69.75637 -4.452067
12.11963 113.7628 -3.197662
9.025857 107.2505 -5.321273
6.780471 109.4593 -5.106988
5.877837 104.0485 -7.419531
7.089247 108.2866 -5.157732
6.022503 110.1673 -4.566268
9.167709 112.057 -4.251849
10.54433 114.2668 -4.915123
9.488101 110.4181 -3.15296
-12.66438 105.6501 -1.193462
-11.08064 106.4715 -4.530366
-10.84209 108.5033 -3.346159
-11.93613 104.2701 -3.478878
-11.54073 109.9 -2.995078
-11.03897 104.9504 -4.786383
-10.21324 109.2444 -3.223784
-12.14202 102.1004 -3.703978
-12.51219 110.9979 -2.637138
-11.84041 103.4787 -3.384395
-7.236501 103.0991 -7.41953
-8.023721 105.8336 -6.578977
-7.436963 98.49958 -8.798604
-9.17462 102.5456 -6.474967
-13.09423 111.5298 -2.424099
-10.47012 112.0341 -2.516367
-9.517484 114.4111 -5.627639
-10.21161 113.7968 -5.199586
-7.422847 115.6807 -5.880045
-10.11416 112.4878 -3.535234
-9.143074 104.3648 -6.069324
-7.955659 101.6725 -7.602233
-12.23177 119.477 -5.550962
-11.48695 122.7364 -6.396456
-13.89829 119.0102 -4.144801
-14.05637 118.5868 -3.768902
-10.43645 117.9044 -5.684032
-10.10835 121.316 -6.520682
-9.759848 124.8296 -7.183245
-9.262281 124.2214 -7.226425
-7.142002 114.9691 -6.559371
-0.4141434 94.68919 -10.00123
-11.60308 118.2147 -5.377667
-8.377706 117.6361 -5.741477
-6.512694 102.1332 -8.115118
-9.446137 118.7694 -6.182853
-8.256883 117.4729 -5.659171
-7.608346 119.5913 -6.677279
-6.370582 117.8711 -5.822265
-8.244461 114.6438 -6.146895
-6.608826 111.1373 -3.959714
-5.616209 114.6143 -7.131754
-7.284334 112.4347 -4.006754
-11.56148 91.57378 -5.778936
-10.67777 90.27058 -6.975677
-10.90095 87.34693 -6.271223
-11.88861 84.84271 -4.427676
-8.058769 80.12361 -5.318425
-7.330511 77.88722 -5.261333
10.30789 96.82657 -6.858762
10.92585 98.61402 -5.571841
8.747285 100.4813 -7.434533
9.434067 70.27196 -5.968362
8.262142 73.81921 -4.732064
0.7891035 74.79101 -5.344249
-8.380908 81.55214 -5.526314
5.582568 139.0398 -9.513841
12.79878 129.5909 -5.954779
12.06161 126.5648 -5.594398
11.04497 130.4154 -6.901743
11.30261 133.4413 -7.432153
9.705986 129.6492 -7.455569
10.1886 129.959 -7.221598
-12.56999 138.0702 -7.779991
-9.683819 130.9653 -7.999272
6.340422 82.27563 -5.840092
8.620521 84.62314 -6.478217
8.268956 79.73341 -5.437922
-2.878843 84.15667 -6.870022
8.766403 82.02339 -5.434333
11.08556 92.16299 -6.449255
11.63699 93.01649 -5.541221
10.78707 95.52532 -6.438026
10.47194 93.6459 -7.136964
4.078579 89.55786 -9.705357
9.609693 94.17706 -8.020597
7.567776 95.16716 -9.207292
8.689691 89.60616 -8.683186
5.971977 90.80659 -9.848873
7.22861 86.12382 -7.829746
1.841496 88.05299 -9.113289
6.256578 93.47167 -9.875497
1.297428 95.22105 -9.961338
5.945903 85.16284 -7.276551
5.246242 86.18362 -8.016947
6.845537 89.19444 -9.21832
4.39981 93.99655 -10.04617
2.344643 91.39374 -10.0425
-0.4992706 89.14896 -9.590456
-0.832753 88.31225 -9.255329
-3.862939 90.82061 -9.960332
-3.682379 86.68729 -8.353305
-2.995662 88.62802 -9.431368
4.352909 84.13783 -6.794266
0.9502136 83.42025 -6.597787
5.37206 82.86127 -6.147265
-0.04320408 87.24304 -8.680758
-3.943454 85.56806 -7.621035
-2.076092 85.4862 -7.612377
-3.866074 88.41668 -9.329588
-4.410072 84.47668 -6.919137
-4.714619 85.11623 -7.278897
-8.954254 78.36282 -5.080117
-3.681173 80.11346 -5.341988
-3.071736 82.99445 -6.493314
-8.172283 83.8295 -6.17264
-8.446088 82.60587 -5.632088
-10.07438 81.3064 -5.274801
-9.234282 79.42618 -4.682545
-6.112927 80.18119 -5.531176
-5.222335 79.48166 -5.096789
-4.208576 78.26881 -5.110873
-5.418392 77.77692 -5.332444
-4.508161 77.82601 -5.27124
-3.361333 76.86405 -6.012101
-6.556931 84.91096 -7.010047
-9.223825 84.68657 -6.219872
-8.172724 83.05719 -5.809223
-4.019668 74.99628 -5.079385
-4.383823 76.64906 -6.109479
-3.321736 133.7672 -10.1606
-0.4299025 137.1096 -10.41081
1.266602 136.7898 -9.396884
-1.360501 136.2732 -10.74422
-2.312724 133.511 -10.59968
4.756023 133.8023 -9.300714
-0.6586124 133.1682 -10.38109
-3.070977 132.2572 -10.24147
-4.690306 129.8825 -9.497296
-5.750096 129.1981 -9.03283
-12.4044 140.799 -7.729296
-13.71539 140.3772 -7.50196
-12.35494 140.3301 -7.798913
-13.36527 142.3181 -6.906419
5.420584 103.0985 -7.934
-2.989724 77.44611 -5.731874
-13.13996 120.6913 -2.603073
10.61759 117.9772 -3.782191
-11.6904 91.04939 -5.602019
-10.36524 92.26952 -7.370177
-8.782483 91.77179 -8.781271
-9.687101 89.42438 -8.027635
-6.662249 93.45238 -9.77277
-11.21856 95.20585 -5.900357
-14.33831 114.0764 -2.904208
11.92753 70.79424 -3.76
11.51926 71.91496 -5.385162
12.67464 72.28724 -4.045787
12.08677 69.23648 -2.948798
12.11216 114.5704 -1.623423
7.01951 106.8939 -6.708472
6.862412 109.8203 -4.769403
11.77162 115.2322 -4.031636
-4.654824 101.1757 -8.842654
4.792327 100.7917 -8.916457
-2.285028 100.771 -8.991333
-3.855056 100.7637 -9.012801
-6.130053 95.9779 -9.688793
-6.284986 100.3349 -8.802425
-5.322283 103.0032 -8.006439
-6.860407 92.05296 -9.716532
-8.694232 93.22712 -8.801967
-10.30214 93.50728 -7.353848
-6.968588 107.3626 -5.406372
-8.366121 109.6745 -4.030506
-6.162609 121.0142 -7.22514
-8.020849 120.5324 -6.860588
-6.308369 119.4435 -6.580799
-3.397459 120.3063 -6.842524
-3.164964 120.9778 -7.16346
-5.799761 115.0003 -7.017386
-6.140987 121.2035 -7.28625
-7.103671 110.785 -4.762403
-2.859794 119.3657 -6.280593
-3.040266 115.9056 -7.777678
-2.286469 115.8566 -7.826011
-0.3922895 114.2466 -6.518549
-7.205443 105.9848 -6.820079
-4.799901 107.3047 -6.268741
-10.91185 88.62828 -6.503888
-11.15071 86.3625 -5.721708
6.880641 70.09589 -3.851941
7.516821 73.11301 -4.599361
9.238505 71.24428 -4.031706
10.01767 70.53809 -5.871303
10.87496 72.82055 -4.017422
2.156522 73.98227 -4.660248
2.401621 73.3988 -3.758557
10.73595 72.68835 -4.219005
7.436447 73.93591 -4.449249
7.693954 74.48837 -4.284458
10.49394 73.86417 -3.133469
7.147309 75.13238 -4.111389
6.746215 76.81971 -5.688116
6.514287 81.74183 -5.627059
6.746625 81.24643 -5.385373
6.069873 80.39578 -5.391883
4.262441 80.23121 -5.388575
5.77855 136.993 -9.347167
-7.117684 131.3873 -8.86447
-6.099867 130.04 -9.044563
-8.287663 125.644 -7.714479
-6.362758 128.6081 -8.73796
9.564713 97.57777 -7.545162
6.108202 96.44952 -9.589517
7.919009 96.3475 -8.988477
3.996392 100.0531 -9.212159
7.396688 94.40807 -9.437239
7.729431 100.8821 -8.028935
4.825973 101.6097 -8.519197
0.4572568 98.26496 -9.591604
3.232329 101.6661 -8.657261
-2.703574 98.64253 -9.507926
-4.544448 102.5549 -8.275828
-2.548835 106.3726 -7.507929
-2.316831 106.5723 -7.522937
-4.419002 104.5381 -7.282251
-3.02172 101.6423 -8.697565
-2.024179 99.73692 -9.268506
-2.669262 100.9754 -8.931046
1.29136 101.1185 -8.836637
1.58792 100.6041 -9.032178
-2.734954 93.123 -10.08774
0.4894772 98.17633 -9.610215
0.03057005 104.5627 -7.193331
6.136089 105.1496 -6.788138
4.702503 104.304 -7.381019
-2.491859 104.0325 -7.507944
-1.134645 104.6494 -7.268753
1.954467 107.7459 -6.729249
2.967741 105.2985 -6.909364
2.024144 98.07728 -9.625611
4.994438 105.6903 -6.811115
4.615879 106.2817 -6.881204
6.473532 107.7042 -6.277261
5.855082 106.1871 -6.620707
3.28783 107.3988 -7.470786
4.636354 109.3526 -5.529444
1.85703 109.471 -6.825921
4.853843 108.8119 -5.731147
2.836439 109.6122 -6.413198
5.185848 110.1513 -4.871467
-3.992287 88.64846 -9.459323
-3.99535 90.68568 -9.944206
-4.891289 91.61362 -10.0334
-3.981753 91.80057 -10.05169
-4.395533 95.93106 -9.904152
-5.054782 94.93961 -9.985268
-1.879344 82.51989 -6.333191
-0.8318959 81.73836 -6.010084
3.403545 83.1877 -6.399598
-2.179675 78.95922 -5.134496
0.2389426 80.08008 -5.341298
-1.277143 79.37548 -5.183309
0.7510523 81.86658 -5.985355
-1.559101 77.505 -5.811253
1.282191 76.32008 -6.090878
4.220636 79.56134 -5.37468
5.031506 79.22905 -5.518476
7.087244 77.7666 -6.037076
1.221384 78.57476 -5.518867
6.604685 137.7835 -9.277615
-9.871201 140.3097 -8.398649
9.750167 118.7962 -4.869199
11.44738 121.9443 -4.397652
6.850009 111.8318 -4.846986
-7.692743 110.9444 -4.274538
-6.015799 111.8116 -4.753238
-6.875106 112.2792 -4.538923
-3.427775 112.7179 -6.226075
-3.988483 108.4071 -5.86173
-4.351364 109.3949 -5.597434
-1.63441 105.1859 -7.285914
-1.224027 107.8782 -6.783654
-2.345889 108.8872 -5.139138
-3.248145 104.3573 -7.386486
-4.248043 106.4286 -7.36931
-1.957006 109.9089 -4.562247
-4.377686 107.4526 -6.072882
-1.83259 109.4113 -4.84735
-3.345374 108.0112 -5.798653
0.07533291 110.544 -5.891997
-0.2687357 109.9119 -5.683721
-1.023136 117.1396 -8.117846
-0.1666848 116.0048 -7.712169
-2.138087 117.173 -7.584305
6.848623 113.1449 -5.279367
5.148204 111.7933 -5.252963
-2.774199 120.1776 -6.713355
-3.172803 121.7549 -7.530544
-1.293938 119.6564 -6.478814
-1.446157 119.0415 -6.597757
-9.051431 86.47662 -7.108732
-10.17321 88.29895 -7.247879
9.478433 69.98025 -6.032551
3.76926 76.47952 -6.002195
4.943759 74.02432 -3.94319
7.69462 81.81754 -5.534887
9.642416 136.3467 -8.420945
-9.844882 132.7962 -8.135161
-7.124578 128.1408 -8.427029
-1.105211 101.3026 -8.804458
-0.7866617 96.3625 -9.862361
1.504015 96.4758 -9.856228
1.327722 91.98936 -10.06505
2.888452 94.45196 -10.0117
-2.7255 95.09055 -9.97395
0.1717674 92.95628 -10.08096
-6.366559 88.97699 -9.373671
-6.392961 87.63882 -8.773384
-7.665843 88.45895 -8.777516
-8.215943 84.9513 -6.842008
-4.233172 96.81681 -9.802642
6.784721 130.4595 -8.833706
2.99492 136.9864 -9.964544
9.386727 123.1579 -6.344641
10.63504 121.6042 -4.719915
3.672723 111.5383 -5.702446
2.860571 111.8369 -6.240724
6.496439 114.3995 -6.211909
7.6881 113.9079 -5.686206
5.277576 114.2372 -7.042837
0.8450166 124.8388 -8.471652
-1.247738 122.7003 -7.817621
1.541643 124.5177 -8.278479
-2.36729 128.004 -9.533664
-2.012342 126.454 -9.107256
-0.00128507 125.7261 -8.81568
1.294533 125.7046 -8.642246
2.270463 123.2298 -7.46324
-2.993347 125.2152 -8.701115
-0.1636505 120.2165 -6.717027
2.161833 122.7676 -7.217856
5.809817 118.0704 -6.075734
2.542713 121.1018 -7.186077
5.882249 77.085 -5.988148
5.915101 77.59901 -6.16254
7.253023 137.3081 -9.122907
7.891596 139.8806 -8.91791
-6.028137 95.31374 -9.79192
10.69266 128.5718 -6.627543
7.54686 130.1676 -8.656324
3.622056 133.3484 -9.506643
4.884833 133.6011 -9.252231
7.752403 133.1902 -8.834094
8.125777 134.7872 -8.842206
1.756933 133.1774 -10.19969
3.007387 132.7836 -9.59921
1.177208 132.9595 -10.30188
8.168041 117.4057 -4.566542
7.591149 116.7055 -5.296236
10.23136 118.4066 -4.286058
7.056473 116.9617 -5.153097
4.919077 117.8287 -6.362909
3.242921 117.9948 -7.60883
3.604386 115.9734 -6.970667
0.9461824 114.4101 -6.484025
2.229315 114.7441 -6.681934
2.048299 113.4371 -6.078866
4.784547 113.1459 -6.661829
-3.264195 130.5537 -10.02219
-0.7508006 130.1799 -10.07418
1.669727 128.2477 -9.023109
-2.945409 129.5857 -9.858998
0.6039275 129.1295 -9.544796
-3.05919 127.1369 -9.214339
5.328543 131.2051 -8.960578
2.020763 128.4557 -8.96526
4.13483 125.0791 -7.938452
