# .PCD v0.7 - Point Cloud Data file format
VERSION 0.7
FIELDS x y z
SIZE 4 4 4
TYPE F F F
COUNT 1 1 1
WIDTH 1663
HEIGHT 1
VIEWPOINT 0 0 0 1 0 0 0
POINTS 1663
DATA ascii
-6.343494 103.3134 10.88628
-6.589945 101.0817 10.33588
-8.645421 97.17925 9.42159
-8.74867 102.4428 10.00107
-10.65316 109.144 9.471478
-11.78182 110.5309 8.212283
-7.443024 101.5391 10.2065
-10.56637 99.03101 9.224463
-11.66779 97.75157 9.070179
-13.21548 95.37105 9.077547
-14.49091 97.12236 8.20214
-16.34346 87.29464 9.167288
-7.194356 102.9757 10.55403
-5.147968 113.2151 11.47419
-12.44935 104.7095 8.892259
-5.285101 106.6813 11.81749
-9.056909 108.2582 10.32017
-8.533618 105.8783 10.49739
-10.66838 104.4624 9.59011
-8.447005 107.1074 10.58821
10.84274 93.26553 9.507309
6.836568 66.81004 10.11533
6.891101 87.23605 10.22013
6.326455 61.73243 9.675694
8.477212 61.58206 9.101978
7.66995 74.37917 9.813605
14.85408 87.02419 9.887382
10.40714 66.30843 8.939488
14.22566 67.29401 9.501164
7.069096 69.31596 10.06942
7.232394 76.42545 10.07744
6.109765 77.99781 10.25766
6.432221 81.26262 10.34973
4.718398 83.8419 10.19711
0.6176322 81.81274 10.19864
0.3021105 69.70678 11.21991
0.6842856 94.8726 9.420336
5.673307 84.04636 10.20121
16.74422 62.65645 6.830124
5.761025 71.34589 9.600576
4.138186 116.8936 11.67166
6.579928 87.10474 10.25485
4.160228 91.65342 9.710413
12.3137 93.5272 9.522782
10.62898 88.60965 10.09163
0.4164734 116.9921 11.84724
20.64514 67.9579 5.922843
2.475457 116.4129 11.84703
1.048267 115.1266 11.83637
3.765339 115.5105 11.7639
15.51327 62.46289 7.718904
17.57513 62.64543 6.375883
16.9181 63.91565 6.787264
13.90808 76.81507 10.18785
20.35449 73.0217 5.599582
20.04157 75.35283 4.794598
12.21215 65.87856 8.708786
20.6464 63.77618 4.562929
14.62864 68.03966 9.213073
14.54632 75.62593 9.819692
20.54314 69.85487 5.776468
20.25788 72.33487 5.1484
20.72359 76.36571 2.18627
21.36093 71.9623 1.278924
20.05534 78.57744 5.589096
18.19026 94.67265 2.48097
18.83684 82.04958 7.060504
19.4201 89.84213 2.937814
8.176303 116.8469 10.09154
12.42343 116.1561 3.508461
4.490812 102.0032 11.16237
19.94594 80.4817 5.420495
5.00856 84.53802 10.21815
20.48392 83.14613 2.457869
1.494946 83.12854 10.20809
5.019371 116.6132 11.40739
13.66559 111.9809 2.866658
17.48779 98.40271 1.800906
6.556519 62.59079 9.887433
19.24884 91.12202 1.431951
2.721279 117.0501 11.82288
21.74229 64.68097 1.615054
20.53525 83.23891 1.956272
9.129781 117.6701 9.768075
12.3229 117.3192 4.957292
8.325292 105.0327 10.47939
16.67941 65.99497 7.072845
20.70299 66.53369 5.934937
0.7864472 61.51893 12.04285
2.545841 62.20522 10.244
6.758935 66.61396 10.15902
6.631634 72.13598 10.20383
6.023396 78.69779 10.23687
2.52447 79.99503 10.15793
13.75469 68.85338 9.337122
6.874071 73.5013 10.14163
10.75456 79.1172 10.075
17.21057 82.7001 8.796614
10.306 65.04414 8.894087
4.173907 84.13327 10.20782
0.7923316 90.64278 9.842845
2.148643 94.83135 9.354851
4.828038 94.17347 9.307933
1.683606 93.91822 9.292996
4.500896 102.4915 11.29604
1.864986 109.83 12.13276
9.12113 87.82078 10.15334
10.41322 91.31749 9.770766
17.73296 94.25263 4.984563
8.856412 80.46587 10.1965
12.39887 91.39976 9.76767
15.16894 95.69012 8.066966
17.68199 71.49687 7.249068
16.1165 74.43149 8.928602
20.70038 72.72618 2.715255
20.3188 80.6497 3.732476
20.28485 75.30701 3.636833
21.23337 70.12656 1.998836
20.54237 64.97957 3.890969
18.98783 91.22733 3.471659
18.58025 92.56848 3.66536
17.87573 95.43723 3.270332
18.71091 92.57185 2.966787
18.84921 92.50187 1.877285
20.39112 84.22656 2.527905
20.32434 83.14862 3.423278
20.0672 86.80193 2.488952
20.20278 86.08399 2.280509
11.78967 115.6963 6.652695
12.88265 114.0989 3.227695
20.49709 79.60561 2.939171
16.94804 101.5978 1.195285
19.15038 69.27469 5.993731
15.44168 69.97128 8.496242
3.331331 61.55503 9.528564
0.674398 64.42934 11.74961
5.254661 67.42561 9.222617
1.270961 69.01463 10.65909
6.5108 65.27032 9.963151
5.79966 70.17991 9.463306
2.765518 76.18855 9.818623
5.756999 77.0939 10.00701
6.159124 80.38673 10.33426
5.205574 76.99963 9.937117
9.20803 62.29568 8.871122
10.66879 62.37309 8.638197
8.340691 69.72344 9.445748
14.05008 72.7849 10.01769
9.21986 75.90416 9.854076
12.59508 72.95889 9.376149
13.35464 80.37905 10.18621
7.390043 79.17496 10.11598
13.92357 80.84547 10.27348
18.83711 79.65173 7.007693
18.79321 83.16111 7.082346
0.706916 83.54652 10.21251
5.364255 83.38116 10.20026
1.203645 88.22104 10.0873
1.870918 88.87392 10.03051
1.214987 96.74946 10.01159
2.323286 103.1793 11.89522
14.33572 110.491 1.823514
7.955359 115.9025 10.10166
7.176118 86.74922 10.26162
11.40578 89.73203 9.961271
6.152665 92.7133 9.558269
19.13323 85.64111 6.213088
15.62604 89.10902 9.317733
17.88498 92.59957 5.749128
13.62768 90.21783 9.816845
13.69982 94.10175 9.171165
7.225076 84.17838 10.22457
9.765091 94.8595 9.312196
2.846899 110.9848 11.98463
5.807515 115.8666 11.13949
17.49996 94.03761 5.7154
18.99517 72.07651 6.167125
18.7251 74.725 6.770507
14.38403 75.09893 9.952489
20.02692 74.95087 4.771961
21.07785 75.02996 1.194669
21.46998 62.49414 1.971533
20.83565 66.42142 2.875355
20.50916 65.23929 4.007337
21.26386 63.89945 2.202671
20.37453 67.70179 4.573999
18.63723 92.54071 3.414709
19.65332 88.49483 3.307955
20.19734 85.37694 3.071981
9.592217 116.3784 9.255545
20.46775 79.04526 2.970896
16.48466 103.5966 1.110219
18.91038 67.20166 5.976147
14.40759 70.95366 9.767501
16.5345 67.05802 7.298687
3.314878 63.95724 9.383227
1.403768 64.99082 11.15354
5.004948 68.86535 9.221615
6.255817 70.5262 9.740048
3.518593 64.50838 9.213624
0.8852274 70.80853 10.77168
1.100561 75.64789 10.06598
4.308538 73.63662 9.644217
2.573489 73.42632 9.6712
1.647678 75.81056 9.911149
2.165897 77.05649 9.930195
5.482122 74.87469 9.764297
2.71848 83.52245 10.20548
12.95284 62.7338 8.485822
12.34743 63.88928 8.548635
10.79653 66.30961 8.887338
11.44829 69.09517 9.038433
10.42968 68.22089 9.016105
13.28838 67.06514 8.880795
7.936428 72.11691 9.573201
13.97247 76.32443 10.1822
13.04175 72.55653 9.431899
11.31711 77.10381 9.875005
12.01049 76.63564 9.796618
13.424 82.31739 10.29195
6.939546 79.13361 10.18263
11.22292 81.45364 10.20532
14.48092 80.83259 10.06319
15.15521 84.48635 9.903928
16.85081 80.94965 9.044007
17.84119 80.25459 8.223907
2.916909 84.79202 10.22729
5.051617 85.79116 10.27316
4.383471 91.11419 9.807529
3.655216 96.3848 9.692401
2.706909 100.0459 10.95151
2.638693 107.5948 12.32943
14.40841 109.8611 4.04192
6.125875 116.8893 11.0238
8.512975 87.767 10.15695
8.043547 89.35011 9.998652
9.995727 92.14369 9.658752
7.057956 86.24087 10.25367
8.694615 86.306 10.25273
12.42228 87.9809 10.15
6.344731 93.33981 9.419284
17.84789 83.62395 8.215096
17.38908 84.43858 8.589806
14.03753 85.6202 10.19069
17.69614 94.76463 4.710356
18.54756 91.69407 4.702407
13.37026 92.13971 9.594325
8.920952 93.02316 9.517305
5.389414 113.1938 11.36886
3.524827 111.363 11.87157
7.07199 112.3678 10.62789
14.95361 75.21908 9.519034
17.591 76.21336 8.140056
19.85814 74.32509 5.926402
19.36977 75.04582 6.10484
17.35149 78.4838 8.535575
21.49718 71.03308 1.101125
21.05893 65.7346 2.500142
21.05392 69.1965 2.348494
20.19402 71.20261 4.412693
16.62723 103.103 1.362632
17.79416 64.56896 6.360553
18.86814 70.15005 6.120772
19.75386 68.62604 5.843137
4.204221 68.50166 9.182675
5.279974 65.06992 9.048009
3.940583 82.9585 10.20568
12.87954 65.27793 8.667879
11.15146 70.68177 9.225652
8.22343 70.88458 9.561236
8.010968 76.00496 9.915718
11.64138 82.38686 10.2066
8.810282 82.34663 10.20533
16.79551 78.74236 8.991147
17.81182 77.98923 8.113991
4.271041 100.1628 10.65577
1.120982 98.11449 10.4851
5.049998 101.5177 10.865
4.882795 101.383 10.87144
6.731968 101.7156 10.43746
14.86518 108.9285 3.611067
2.922983 108.9814 12.24094
3.170572 108.4813 12.28254
10.01807 114.1515 8.801707
8.71024 113.4815 9.667847
8.580201 112.8468 9.776068
9.603598 93.4619 9.456895
17.94819 84.33282 8.081461
16.24966 96.0499 6.853284
17.35712 98.82024 2.237228
18.3013 90.19743 6.284694
16.35354 88.7902 8.952584
12.26995 95.44091 9.223763
15.27773 95.88171 7.938845
13.90785 95.98488 8.720541
13.28473 97.30161 8.731402
4.720255 111.4068 11.70411
4.959215 109.0652 11.92452
16.58781 73.78201 8.590439
17.63731 74.56901 7.895772
15.96261 105.3925 3.743732
15.73082 105.5304 4.697924
17.22799 71.31446 7.607784
4.726173 76.75552 9.885448
4.104999 95.97755 9.550957
2.988989 99.33492 10.65898
5.04865 104.9088 11.64317
2.328496 106.3305 12.33397
15.71871 106.0162 4.167729
14.54785 108.4269 5.266003
14.31874 109.3129 4.987908
10.52511 108.2473 9.695546
12.43143 114.7302 5.269237
7.274525 91.28971 9.764378
17.2805 97.96302 3.536194
17.07931 100.5612 2.763808
11.01851 97.46552 9.182409
15.98872 72.49671 8.64986
7.22227 95.62242 9.345607
3.605557 99.60911 10.62733
7.100882 102.7639 10.54216
13.54154 112.0197 3.928611
10.79489 107.4342 9.667281
12.45242 112.3283 6.538469
16.76346 99.4305 4.595036
10.29139 97.30949 9.243068
10.23102 97.17873 9.2458
6.523966 99.52518 9.988048
9.905645 111.9114 9.165534
15.80826 97.53532 6.933401
5.239739 94.96617 9.307573
6.82496 96.57355 9.454969
9.111085 71.62474 9.380237
4.297189 69.37827 9.236944
13.52308 110.6223 5.696798
13.7938 100.4027 8.089471
15.18107 98.9285 7.275202
16.35509 100.4616 5.253132
14.06634 101.7079 7.887407
13.68172 102.0399 8.155476
16.11804 102.9874 5.095263
14.50854 103.3293 7.43674
14.85677 105.1811 6.744489
12.98611 103.7909 8.606885
12.64656 106.1314 8.730623
15.32226 107.0086 4.597237
11.88486 108.4312 8.870751
14.02565 108.9389 6.031706
11.05036 108.9038 9.317886
12.59054 109.392 7.915405
10.79156 111.9462 8.567948
8.600764 109.3176 10.36526
9.600924 110.4075 9.682677
11.5369 109.4676 8.841567
7.468157 108.9043 10.8954
6.841182 108.7346 11.18588
4.297937 106.0392 12.04762
8.347672 105.4665 10.52081
6.537108 104.3446 11.01537
7.810184 107.6108 10.85168
5.648182 107.0736 11.68895
8.917836 103.6417 10.09982
9.072369 106.3528 10.33053
8.195333 102.9668 10.23706
10.34439 102.1858 9.491587
3.702272 105.0568 12.03895
9.59138 99.81078 9.429481
11.03668 102.1118 9.289604
14.36379 106.908 6.723598
11.7498 99.93093 9.008264
6.481061 98.04023 9.73423
-1.186796 61.68835 -11.59351
-0.4277023 98.71462 -12.06751
-5.331764 70.03932 -9.984978
-0.8817891 68.62525 -11.36029
-11.77802 65.39863 -9.07753
-0.9194267 76.2757 -10.3886
-18.34705 75.67165 -6.493983
-5.666121 65.9385 -10.57747
-12.65268 62.71168 -9.663655
-13.89465 63.47395 -8.458082
-5.42765 73.04889 -10.07246
-4.747956 73.14925 -9.684805
-9.12849 73.31779 -8.98972
-13.51257 62.6686 -8.959867
-0.4163963 82.62741 -9.973748
-0.07421244 87.1965 -11.16707
-1.275682 90.70709 -12.38738
-10.11155 92.81107 -11.98216
-0.457021 97.21472 -12.43398
-1.113636 99.98196 -11.67591
-1.731515 102.457 -10.64819
-6.387423 80.80795 -9.460623
-7.242245 86.44353 -10.73416
-16.33572 77.27425 -7.368114
-4.349305 89.09301 -11.95619
-3.02751 96.08183 -12.63467
-7.256771 105.2989 -8.870533
-18.37632 76.27695 -6.215171
-2.621286 102.1415 -10.81301
-13.50232 73.28029 -8.653519
-11.20977 94.42853 -11.35738
-18.53822 66.26569 -6.307885
-17.71408 64.42852 -6.637126
-17.12211 76.39091 -6.954427
-13.80276 81.93354 -8.365252
-18.46733 81.41769 -5.478157
-18.50988 69.97655 -5.710055
-11.5028 87.47717 -10.54974
-22.04845 63.01612 0.8044938
-12.493 84.68552 -9.157166
-4.836847 64.20631 -10.13296
-20.66309 76.21217 -0.569448
-20.61787 78.45276 -0.05412325
-0.6735395 92.79553 -12.72167
-8.705288 87.16055 -11.06768
-17.11644 90.9717 -6.274256
-16.47034 94.80566 -5.954286
-13.97167 111.2083 1.334256
-4.442654 117.0289 -5.609581
-12.3176 115.6068 1.372244
-18.3923 62.37099 -5.236012
-6.821318 83.55653 -9.634929
-5.869184 69.37435 -10.09713
-11.37268 87.23004 -10.52765
-1.737029 62.06992 -10.82992
-13.11088 112.9071 0.5142268
-21.89741 64.6894 0.722778
-2.903455 62.86856 -9.659223
-8.751698 116.8425 -3.787679
-17.873 87.1017 -5.757783
-16.8448 100.7339 -0.6538306
-11.6217 117.4323 -0.04684841
-6.729609 65.75415 -9.817933
-11.68743 67.00996 -9.189745
-4.573676 70.63327 -9.467068
0.01939976 75.45721 -10.75221
-13.72858 67.85805 -8.469133
-9.578315 67.95155 -8.700171
-11.59065 73.48749 -8.919912
-17.73219 67.45688 -6.619171
-18.17588 78.06796 -6.424456
-1.780575 81.93272 -9.867888
-5.13876 86.4206 -10.8285
-4.93234 89.4261 -12.1101
-2.954215 92.62498 -12.72165
-3.709446 90.89011 -12.44686
-2.453691 94.88916 -12.76073
-5.608438 96.53777 -12.56719
-2.110366 103.0042 -10.37714
-7.291574 81.55566 -9.387111
-10.32038 83.57977 -9.197186
-9.989468 91.71857 -11.95918
-7.1006 92.082 -12.64953
-8.755516 95.36655 -12.28489
-6.863419 94.9635 -12.694
-9.313358 110.2079 -5.612767
-4.234522 115.0268 -5.562087
-13.63527 65.20512 -8.500914
-20.11555 64.21127 -2.708176
-21.90712 64.27422 -0.1494457
-13.13656 78.10395 -8.58633
-14.69319 85.61923 -8.474077
-18.22698 80.94693 -5.989604
-19.91904 82.26221 -2.876799
-21.7752 66.16527 0.04440474
-11.67934 85.18799 -9.59454
-14.66374 92.10018 -9.010762
-17.8088 91.76803 -4.775073
-11.07735 91.94962 -11.53082
-17.36154 97.08431 -2.240664
-17.15613 97.49883 -2.597194
-11.27559 116.3624 -1.193502
-7.138597 65.71293 -9.520258
-9.104788 62.92339 -8.551761
-12.27824 68.6199 -9.566315
-11.25598 62.75926 -8.927846
-5.309533 69.7074 -9.974185
-0.8425276 66.71217 -11.53561
-3.438125 63.24995 -9.574219
-0.8308865 72.44631 -10.96008
-3.161533 79.71443 -9.69403
-13.13684 66.41096 -8.904039
-12.30766 70.09153 -9.554006
-6.533262 73.44954 -9.571276
-11.38146 69.75402 -8.769493
-6.741874 78.09341 -9.459167
-9.313378 78.36967 -9.065563
-12.58552 71.67729 -9.075809
-17.87481 71.46346 -6.758759
-13.13202 76.36477 -8.936114
-17.71533 79.30802 -6.499228
-2.026374 84.85468 -10.30782
-2.669098 84.22597 -10.10595
-3.559645 87.44525 -11.25618
-4.574198 94.10875 -12.81254
-3.159367 97.36068 -12.41416
-4.187472 97.47086 -12.39134
-7.622267 80.93088 -9.312318
-6.735922 83.50888 -9.642658
-10.83283 84.33222 -9.342615
-8.716678 89.17746 -11.81622
-8.935314 93.52779 -12.38734
-10.30399 91.45203 -11.82833
-15.93038 104.3538 -0.817998
-1.581723 117.144 -5.983788
-1.771829 115.524 -5.64441
-16.96692 66.90577 -6.950721
-14.95778 63.73067 -7.739668
-18.44447 66.34864 -5.282324
-18.38284 68.51343 -6.1093
-21.35537 67.36685 -0.7152337
-21.06136 71.43142 -0.6288932
-18.74356 72.80833 -5.112778
-19.97373 73.4242 -2.367044
-13.20437 79.39056 -8.506801
-17.56647 84.84405 -6.334835
-14.70176 84.40899 -8.336569
-20.54738 78.84701 -0.4217751
-19.36051 80.96279 -4.083433
-20.37637 85.28189 0.8137007
-20.59397 80.80458 -0.1470178
-19.54462 83.97315 -3.543253
-21.57819 64.44868 -1.046952
-19.86494 86.77211 -1.608431
-18.46141 88.96827 -4.47414
-16.8461 87.08154 -6.939034
-12.03259 90.8539 -10.97897
-16.0071 91.92453 -7.58102
-17.35421 89.66928 -6.163768
-19.38589 90.0077 -1.074796
-11.38548 95.67577 -11.03411
-15.4126 94.82962 -7.52017
-17.6827 97.0463 -0.2098513
-13.28782 112.6867 1.015246
-16.99146 99.93871 -0.9228526
-11.96604 117.1245 0.9280443
-2.282682 64.00307 -10.1086
-7.639128 66.58215 -9.05504
-9.217571 67.43873 -8.691545
-8.860791 65.35891 -8.646681
-10.54566 63.25807 -8.524854
-5.215096 68.38318 -9.969094
-2.247676 65.66244 -10.18115
-2.55726 68.51778 -9.952343
-0.724444 67.89169 -11.5
-3.016587 65.95983 -9.644875
-5.530481 76.87846 -9.837226
-1.280428 77.35626 -10.12481
-0.8635122 81.63647 -9.904262
-14.74249 68.76566 -8.207592
-7.670244 72.27057 -9.172837
-6.815567 75.95436 -9.335001
-8.453328 77.68922 -9.132309
-10.38331 80.16444 -8.903955
-11.53155 78.08427 -8.895046
-15.56032 72.17953 -7.976271
-16.24937 71.26574 -7.568061
-18.14681 75.436 -6.553809
-4.967047 81.6038 -9.638857
-4.65626 83.75919 -9.873725
-0.7088286 88.79029 -11.80562
-2.494165 104.2222 -9.719399
-15.39103 107.4658 0.889863
-8.127149 83.51012 -9.479401
-5.999045 86.70476 -10.95492
-10.44628 82.99959 -9.096102
-7.481791 89.10498 -11.96629
-10.54896 86.64704 -10.52667
-9.901073 89.6441 -11.67879
-1.775295 112.6897 -5.995859
-0.6286653 106.4653 -8.476255
-7.289937 117.1303 -4.598681
-1.056024 116.7548 -6.031974
-4.690986 114.4787 -5.495099
-16.4269 67.46028 -7.285796
-18.58442 70.96863 -5.459537
-21.00002 68.68367 -1.079389
-18.83662 73.23098 -4.984178
-20.27092 70.60751 -1.847161
-19.48506 73.70529 -3.635596
-12.7227 82.48383 -8.685575
-15.7979 84.5944 -7.704802
-15.72473 81.53651 -7.612876
-17.05472 84.55016 -6.759755
-15.23797 84.82102 -8.067375
-20.62586 80.54263 0.1206253
-19.95709 80.83082 -2.822668
-20.40151 84.561 -0.04295199
-20.32467 79.09859 -1.57229
-19.97835 83.35426 -2.570155
-18.36068 86.43255 -5.197994
-18.78656 66.69817 -4.377609
-19.53899 88.44978 -1.892228
-19.31564 86.92598 -3.280778
-15.08325 87.04753 -8.42215
-13.42251 88.2736 -9.809032
-13.79634 92.09763 -9.802614
-16.09117 94.4054 -6.80807
-14.19763 93.38547 -9.256217
-18.61182 91.06036 -3.215578
-17.94546 92.20975 -4.280887
-18.82347 90.58385 -2.901064
-10.97399 93.72472 -11.56703
-13.15928 113.3089 2.341474
-16.47948 99.00362 -3.413883
-16.03652 98.75165 -4.569904
-16.87514 95.28713 -4.916502
-15.96578 104.8963 -0.05977665
-2.479231 71.46277 -9.965001
-2.94551 69.47255 -9.773171
-1.583449 73.06781 -10.47737
-3.849123 74.54353 -9.355733
-1.628014 76.65105 -10.06583
-2.585302 79.54324 -9.723119
-15.91937 67.2243 -7.557479
-7.704341 69.50902 -9.127633
-9.731854 76.66451 -9.033113
-9.702743 74.39606 -8.990413
-11.82966 71.16725 -9.10369
-16.76249 74.60919 -7.239142
-16.7144 76.80562 -7.179044
-3.125993 85.91254 -10.61565
-1.788502 101.4957 -11.10128
-15.16274 108.2765 1.384794
-8.716209 95.78545 -12.22675
-5.752791 96.68197 -12.54103
-5.792712 97.4722 -12.39117
-3.737532 111.0691 -6.294428
-5.07572 110.7111 -6.269013
-7.773858 112.5775 -5.1555
-9.67048 112.6477 -4.319757
-6.149279 113.5101 -5.307488
-8.601615 113.497 -4.522425
-1.008596 105.7423 -8.855533
-8.417664 115.8305 -4.05833
-2.612383 112.1089 -6.08591
-19.39329 65.11047 -3.473413
-19.36816 71.00151 -3.670527
-20.02052 72.98215 -2.22785
-20.18358 74.83099 -1.892902
-20.40985 81.6539 -1.264812
-19.67418 88.33264 -1.320069
-18.68512 89.20123 -3.928572
-15.14292 89.74755 -8.668475
-12.61763 115.0145 2.497155
-13.71919 111.6438 0.9092146
-16.23314 103.2076 -0.8835449
-15.74263 102.8435 -2.619715
-16.24452 102.5776 -1.426997
-13.6431 71.01153 -8.623578
-15.86735 80.53375 -7.499647
-15.34241 105.7885 -1.219937
-15.11345 106.6216 -1.133666
-2.763639 101.1081 -11.26309
-7.648833 96.15823 -12.40992
-8.188873 112.4417 -5.071036
-8.570848 116.4833 -3.910373
-19.28638 71.91045 -3.95075
-14.72465 107.4547 -1.470736
-13.48242 104.019 -5.712427
-16.26353 99.85305 -3.380457
-13.80392 78.78466 -8.373872
-13.8536 109.3037 -2.027524
-6.184607 102.022 -10.83734
-7.340337 102.3659 -10.51035
-6.783915 100.7119 -11.32098
-5.844429 103.0678 -10.33989
-8.588487 104.2108 -9.145813
-8.608968 100.8966 -10.77944
-8.758837 103.7444 -9.345805
-7.701594 105.549 -8.602892
-10.10983 105.7099 -7.600243
-15.00491 105.6065 -2.269942
-14.20417 106.2822 -3.362445
-9.780087 104.5798 -8.411916
-13.59697 105.0866 -4.975237
-14.10952 109.4634 -1.316559
-14.2638 101.5856 -5.990845
-12.44233 94.53069 -10.53209
-9.703879 101.1384 -10.19509
-11.27137 100.9811 -9.280698
-7.528545 106.1539 -8.251093
-3.10732 105.7878 -8.826271
-3.879277 109.387 -6.869876
-12.85013 102.9215 -6.977785
-10.67142 97.30439 -11.03107
-9.129209 96.89185 -11.86985
-7.271267 98.08611 -12.09233
-9.257127 106.6902 -7.406565
-5.530053 106.57 -8.241242
-7.806892 109.3347 -6.396423
-13.26472 108.0396 -3.719506
-10.23653 103.1316 -8.92033
-11.42077 100.0002 -9.596539
-15.33952 96.56345 -6.950109
-12.87603 97.84161 -9.218778
-11.60617 97.38994 -10.41782
-12.37995 100.6781 -8.510685
-9.479187 107.9649 -6.605
-7.635429 107.5846 -7.296101
-2.297024 92.95412 -12.74586
-19.99465 75.79758 -2.448619
-20.21387 74.33138 -1.808544
-7.683051 69.81451 -9.155926
-19.07655 68.81232 -4.105556
-19.17916 85.05338 -4.081694
-18.05524 94.13197 -2.484413
-12.7449 113.3525 -0.1857494
-12.18725 113.8714 -1.050578
-12.96222 111.0678 -2.16786
-11.91696 113.9979 -1.457011
-9.185149 107.5793 -6.908762
-12.09273 111.3973 -3.109477
-12.91331 108.219 -4.085835
-10.66686 106.3184 -6.931243
-8.538948 109.059 -6.358109
-9.264009 110.65 -5.45066
-7.761342 110.8783 -5.794395
-10.96416 109.8078 -5.003536
-10.54199 111.9062 -4.194647
-4.498482 109.0918 -6.935253
-15.33171 100.6582 -4.825456
-14.06189 98.57275 -7.706708
-13.42388 101.0499 -7.302603
-14.06291 100.8877 -6.635207
-15.56888 98.93109 -5.382773
-13.71491 98.59953 -8.070048
-13.73695 88.80683 -9.697713
22.17563 63.74693 -0.2932201
22.10829 64.96535 -0.1185046
7.47114 110.2812 -6.078306
12.25666 115.8125 1.236278
2.263208 68.90849 -9.92512
2.662086 66.91176 -9.698719
20.15492 84.93642 -1.367666
18.91486 67.81995 -4.259957
4.944284 95.45731 -12.74357
17.42178 63.56844 -6.992798
18.41587 82.33298 -5.525816
17.28959 81.77349 -6.590178
12.31302 77.64627 -8.963821
19.35909 76.06303 -4.037758
8.262309 117.5056 -4.062368
18.99263 92.00391 -0.1729597
17.61073 96.59394 -1.626518
2.448107 64.48592 -10.16726
15.1055 108.1403 0.6024238
10.82752 116.9185 -1.735743
17.48756 67.11623 -6.878779
14.72442 106.3698 -2.317775
14.65727 93.58818 -8.751474
16.51068 94.66802 -5.94354
10.92173 91.1333 -11.55968
16.37664 92.29578 -7.026756
11.71947 116.5847 -0.0717945
9.67411 94.98106 -12.01718
16.48783 103.0311 0.05548555
19.33731 86.25793 -3.485389
12.93997 64.86939 -8.907084
11.7441 62.38153 -8.854625
11.64498 64.48357 -8.797493
12.10367 72.30707 -9.311873
12.60021 76.86207 -8.767105
5.628516 70.60509 -10.39047
5.7492 70.57699 -10.35052
3.786495 67.01662 -9.371162
3.11043 63.78584 -9.734406
1.849049 64.66195 -11.23858
0.233437 67.1903 -11.85453
1.704274 74.37952 -10.07991
7.771999 110.0192 -6.120048
18.59011 65.05824 -6.736002
1.713028 61.68288 -12.05186
7.549633 91.40334 -12.50977
7.303306 82.7681 -9.464087
5.280307 88.03533 -11.58464
2.265523 116.2869 -5.864125
9.923746 83.28164 -9.215056
18.91171 64.06101 -4.173395
18.83698 73.68522 -4.952577
8.669892 83.52688 -9.404678
2.670606 65.68639 -9.775566
21.81174 62.42072 -1.181576
3.311178 66.36318 -9.350721
1.181024 65.96961 -11.71551
1.541181 69.39761 -10.65577
0.2946655 69.70972 -11.50072
21.44009 71.16876 0.2900592
5.37502 79.00709 -9.824168
9.7704 89.12691 -11.59055
10.72629 64.64539 -8.467238
0.1134551 72.88213 -11.12414
0.3032075 91.67235 -12.58394
5.614132 83.62325 -9.892709
3.487392 117.4737 -5.860643
3.441251 117.0553 -5.813667
11.0405 99.26701 -10.14633
1.237704 63.25692 -12.0869
3.042077 67.66292 -9.509499
1.280279 68.30405 -11.18262
22.22889 63.87038 -0.08779479
18.44753 72.5872 -5.621519
19.64978 73.17015 -3.163008
20.6308 81.22179 0.4205184
18.67404 86.21737 -4.748405
12.64673 69.34725 -9.202938
13.09621 67.8126 -8.754569
17.05518 84.54176 -6.759214
13.46644 78.61491 -8.482649
16.59022 72.97247 -7.367171
14.2183 63.42122 -8.035474
15.0111 65.7016 -7.866798
16.7517 92.67482 -6.347538
15.89416 94.68623 -6.944531
17.05584 97.71298 -2.692059
12.63154 113.1049 -0.7802087
13.12022 111.5078 -1.46557
14.18095 87.6531 -9.177558
8.072836 84.81379 -9.852141
7.594059 92.23804 -12.60848
16.681 90.92152 -6.898389
11.34395 94.66459 -11.25721
8.381655 94.46439 -12.47625
4.734643 114.4306 -5.481323
5.97952 72.09746 -10.05888
8.850048 68.24574 -8.806531
9.102133 82.22657 -9.188054
4.050119 73.77462 -9.470063
1.189218 74.66472 -10.394
5.712997 65.49252 -10.67656
3.612009 90.91866 -12.45533
1.760942 90.50132 -12.34192
1.450052 90.87746 -12.41788
8.779987 82.92868 -9.300926
1.997655 83.08601 -9.97357
3.094683 87.82348 -11.42992
3.864712 115.8804 -5.662481
2.997513 94.65328 -12.76295
0.7666311 97.21164 -12.42785
0.8117099 101.4291 -11.11752
5.144035 68.08538 -10.2178
1.126181 69.93057 -11.04978
20.39734 69.09577 -1.709932
21.64586 66.06539 -0.7526092
18.47703 68.71556 -6.434308
18.43075 72.16681 -6.0707
20.98565 73.47118 -0.09484974
20.76664 74.4513 -0.3699914
18.59196 75.67306 -5.403956
18.91832 76.50893 -4.798126
20.58976 82.58005 0.5548702
20.41648 84.03223 -0.3526118
17.95346 83.7955 -6.066494
19.95631 86.96117 -1.067823
18.09995 67.05251 -6.827438
18.42888 70.94592 -6.710951
17.84295 71.76433 -6.660433
13.06232 70.38161 -8.807206
12.52792 82.8477 -8.771672
14.40755 85.32899 -8.596201
15.58859 83.46547 -7.763577
13.46748 76.83158 -8.583425
16.89459 78.80403 -6.952191
6.895034 84.52014 -9.836234
14.18445 63.00224 -8.030585
17.90067 64.8801 -6.75577
13.16733 65.35262 -8.675045
18.33564 87.10793 -5.123347
17.37501 93.69389 -4.760925
16.90847 93.66164 -5.69601
18.79579 92.5255 -0.8061978
17.44682 95.2823 -3.542095
1.889276 103.0294 -10.36184
14.26381 110.5772 1.414919
12.45757 113.7434 -0.5065112
11.30752 116.2864 -1.190755
16.6251 88.58541 -7.139014
15.8092 90.8051 -7.985347
13.70992 84.66246 -8.77707
6.402582 87.38959 -11.23686
5.626025 93.2879 -12.84221
14.82204 94.80028 -8.247312
11.32968 93.19446 -11.40904
8.893082 92.1938 -12.33952
4.9876 116.0697 -5.384241
10.14992 63.80269 -8.43477
7.860422 75.09418 -9.174556
11.46897 75.89108 -9.173193
8.094985 67.29097 -8.864077
10.43068 79.35285 -8.959906
11.00208 75.30094 -8.970973
4.723732 73.18208 -9.616798
3.096492 77.38518 -9.608749
0.8403483 77.98108 -10.1149
5.948373 66.56664 -10.3182
3.478957 90.20347 -12.27856
5.842001 80.14027 -9.931775
10.01075 79.41631 -9.011904
1.203064 79.63232 -9.897862
4.138497 78.3064 -9.538241
3.101352 80.40647 -9.695291
3.559776 83.15084 -9.883709
2.5889 89.24455 -11.97259
0.5838662 114.067 -5.688482
2.90434 104.393 -9.621346
1.03114 98.93535 -11.99955
1.69121 68.60194 -10.61169
2.235593 72.52605 -9.817384
2.152889 69.72436 -10.00711
20.51038 66.0239 -1.971461
21.30865 71.3481 -0.09210064
19.60411 77.1436 -3.567601
19.90674 78.5871 -2.941547
20.24858 80.92547 -1.937168
19.89697 84.70399 -2.456294
19.25364 88.11951 -2.964009
19.40685 81.78384 -3.98538
19.58477 87.31294 -2.420828
15.39305 71.17439 -8.038697
16.69083 73.74097 -7.29947
13.77066 71.27609 -8.577079
12.39073 83.98894 -9.025488
15.93474 82.56677 -7.538135
13.87888 80.53465 -8.288415
13.65362 81.65549 -8.387576
13.54062 86.44815 -9.280317
17.3985 82.77284 -6.489183
12.77822 78.31644 -8.644954
14.18973 74.31357 -8.499827
13.05732 75.95872 -8.726159
8.065623 86.72689 -10.86219
8.788027 82.32685 -9.236365
15.81173 64.99387 -7.408297
14.88039 66.44106 -8.003455
18.11616 90.32905 -4.690918
18.66508 91.19389 -2.93178
15.2065 95.56525 -7.522555
18.39088 93.76375 -1.215177
16.43345 97.07305 -4.794838
17.09451 94.84217 -4.718034
15.75963 97.39726 -5.877082
16.14299 99.43221 -3.927041
15.18446 99.09462 -5.920849
17.04657 100.3399 -0.2902767
16.39028 102.9375 -0.5725661
3.558125 112.0377 -6.03608
14.8652 108.8278 0.6019279
12.23096 112.5187 -2.090134
12.24833 112.9 -1.717018
11.03809 115.0386 -2.128017
14.92279 86.32793 -8.469209
15.14577 91.20111 -8.646708
14.70218 88.24976 -8.902061
11.22622 91.50941 -11.45131
13.69704 91.52164 -9.892864
8.829738 87.67648 -11.27941
7.665955 89.78294 -12.15102
14.45208 94.07776 -8.860347
15.29744 100.654 -4.872253
13.89325 96.89436 -8.560187
12.99087 94.9957 -10.00711
14.6119 99.11321 -6.753382
15.66038 98.20608 -5.620509
12.21139 96.9455 -10.08412
2.322616 112.8009 -5.900903
9.959058 69.09303 -8.78351
8.1526 69.38953 -8.965255
10.62542 68.31182 -8.712839
9.655597 67.96404 -8.720814
7.715017 65.09348 -9.028867
8.040418 64.84408 -8.910255
8.737235 76.64747 -9.057584
11.46902 76.37978 -9.171535
9.245249 74.95853 -9.03512
2.711165 73.33432 -9.557588
3.431525 79.922 -9.646655
1.751697 76.86717 -9.868165
7.093761 64.76772 -9.518884
10.27075 81.59921 -8.972352
2.24562 86.04243 -10.68506
1.995103 87.66067 -11.35714
3.033097 88.32938 -11.6374
9.370536 95.1984 -12.10141
4.925952 99.00195 -11.9943
1.816233 104.3879 -9.616163
3.787638 99.75141 -11.7482
8.236024 99.61912 -11.34919
8.628816 98.84275 -11.47628
6.405717 96.59027 -12.54447
8.243361 96.71877 -12.18328
9.187558 95.91606 -12.03842
10.00721 99.6195 -10.62066
8.39963 101.7722 -10.48709
18.88898 66.45535 -4.267164
19.05093 66.17925 -3.874809
18.78825 69.67439 -4.757891
18.86966 71.77063 -4.765158
20.38668 79.34262 -1.361061
19.58443 82.09893 -3.642665
19.04297 80.87218 -4.62385
18.87535 87.59956 -4.046944
19.3547 83.08496 -4.008799
13.73942 69.5489 -8.55353
13.9589 79.90405 -8.286871
16.38981 73.61712 -7.521768
10.97121 86.87615 -10.51553
19.01254 90.58194 -2.282028
17.07671 99.70612 -0.8697417
1.174397 108.4864 -7.361129
0.6275053 107.0059 -8.202533
0.1477939 109.7229 -6.727306
14.27994 109.9646 -0.1411022
12.85105 111.8584 -1.62868
8.475273 115.6823 -4.063713
8.087802 115.2638 -4.343074
5.983644 114.5383 -5.153546
9.82002 116.0455 -3.084161
14.52404 98.01028 -7.398476
14.00998 99.30886 -7.458181
11.97279 100.5786 -8.912895
8.999211 102.4854 -9.908841
7.23128 68.86403 -9.16095
7.565564 75.05847 -9.220029
1.691825 73.43777 -10.14381
8.678774 78.66285 -9.115911
6.467181 95.60038 -12.68844
10.42435 98.09827 -10.93407
18.96182 65.54238 -4.089041
21.1294 70.14771 -0.594973
19.09149 73.87918 -4.544914
19.88977 74.82726 -2.623276
19.7977 85.00659 -2.683839
14.75605 101.2085 -5.492104
11.73255 102.0676 -8.422979
12.93325 102.2642 -7.214792
1.867566 106.5166 -8.447877
14.25393 109.3718 -1.029043
9.936882 112.2992 -4.338927
7.081615 110.7196 -5.968995
4.90178 109.3601 -6.753505
7.365889 79.11398 -9.245819
19.94671 76.04506 -2.608248
15.83475 105.2995 -0.1189741
8.627328 111.6429 -5.256153
3.130827 113.8722 -5.76204
1.499278 111.6765 -6.064135
5.409276 111.0087 -6.133476
3.35033 114.7992 -5.686523
5.233486 101.6508 -11.04776
3.862186 102.2595 -10.74924
2.596838 101.0864 -11.26476
4.046321 100.5212 -11.49164
14.56728 105.5007 -3.199357
11.75816 108.3033 -5.089277
2.184143 108.6299 -7.282975
6.7124 103.358 -10.09541
5.647853 102.933 -10.42006
8.969766 103.0976 -9.597642
9.547702 109.7388 -5.760264
8.208484 109.1694 -6.385298
11.77802 104.3075 -7.249045
14.43652 106.0418 -3.069159
9.264466 105.5628 -8.046022
8.439391 108.1069 -6.857369
6.831803 107.8979 -7.227494
5.566301 109.6842 -6.551703
14.6415 104.1294 -4.01104
13.52167 109.8785 -2.213593
7.145214 106.3271 -8.193328
12.40107 106.4837 -5.526366
10.87171 109.2826 -5.279681
5.6203 105.1493 -9.170044
8.403992 105.4138 -8.470624
11.45957 107.6889 -5.670022
11.78397 104.3252 -7.235606
1.890603 70.52206 -10.17855
19.83638 70.57094 -2.572513
7.658196 72.85745 -9.158607
10.04497 102.7333 -9.261406
10.05883 103.127 -9.048142
7.8195 107.4984 -7.297245
9.731048 107.856 -6.57972
9.493624 104.8274 -8.397724
10.56153 101.5144 -9.535598
11.68473 106.9616 -5.891344
15.758 70.43105 -7.828993
-6.273554 154.0103 -6.226426
-4.895354 153.4339 -8.368449
4.035636 155.4237 -7.723171
-3.982031 154.556 0.1975705
-2.922701 153.5618 -9.108013
3.696622 156.7986 -7.377121
-2.856826 157.4713 -7.799426
-3.078796 158.7807 -7.337306
5.209505 157.5309 -4.287082
-0.7016222 155.3791 2.336644
-3.26659 155.7458 -8.080321
-2.89054 154.1322 -8.85419
4.337794 156.1027 -7.09752
3.540773 153.2721 -9.043258
6.229545 153.8973 -3.858144
-5.636266 153.7186 -7.470623
-3.602056 157.6891 -7.193735
-6.025107 154.3572 -5.930313
2.435918 155.6244 1.615312
-3.741805 155.91 0.615229
2.766123 155.7236 -8.304394
4.731309 155.7402 -6.806381
3.231491 158.8262 -7.240067
3.572624 157.413 -7.310348
5.06248 155.3994 -1.678637
-5.656425 155.0458 -4.358211
-5.329497 156.7151 -3.876002
-5.199233 154.4535 -1.880534
-1.629926 154.5399 1.72718
-3.301238 154.508 0.7811015
-1.992391 155.0238 1.734324
4.740868 155.2793 -0.8089638
3.08927 155.6255 1.161258
5.77884 153.8373 -2.906923
6.066501 154.4588 -5.194609
5.31704 156.5095 -4.399426
-4.970968 155.3054 -6.692362
-5.440217 155.613 -3.729581
3.427379 154.2527 0.7059972
5.487519 154.3701 -6.969061
4.814486 156.9071 -5.89836
-1.483207 138.8162 -12.5063
-11.01091 138.7218 -11.70483
-1.470188 128.3369 -9.32007
-3.712809 117.9471 -5.906287
-2.843266 151.584 -10.03092
-2.509274 123.3 -7.511285
-15.25136 136.2311 -6.142153
-4.80187 146.4969 -12.01946
-0.456333 148.749 -11.28859
-0.2416333 127.936 -9.178144
-0.8314145 149.5665 -10.95024
-2.756036 149.723 -10.90551
-2.779075 148.514 -11.3713
-1.562854 119.0492 -6.237253
-11.01602 118.0165 -1.196879
-1.879579 145.6442 -12.39331
-12.58481 120.8838 2.53093
-4.046932 145.8306 -12.2166
-14.11377 130.1691 0.5137604
-13.50912 133.5142 -7.521583
-5.781893 143.1075 -12.56375
-2.4374 120.6056 -6.598979
-1.662799 150.5847 -10.51101
-14.66202 135.3378 -7.155462
-2.948497 118.1623 -6.022136
-3.475158 142.8709 -12.44505
-13.66885 126.6815 2.353865
-13.66917 136.0858 -9.097658
-13.5956 134.7698 -8.340187
-1.939682 132.6473 -11.2559
-1.026698 134.5164 -11.66671
-1.873152 122.0772 -7.08063
-7.075036 118.0612 -4.756321
-12.13997 124.0569 -1.462302
-2.135044 143.4182 -12.35035
-2.663431 146.1779 -12.28407
-7.845413 140.7301 -13.32971
-0.2040889 140.2966 -13.41273
-4.711165 140.5974 -13.63392
-8.790549 139.4719 -12.50817
-11.977 118.1957 1.186862
-12.62728 120.4445 3.201689
-13.83933 127.8836 2.203985
-14.74001 133.8925 -1.590612
-12.302 134.2333 -9.217372
-14.96041 134.7247 -3.93143
-11.57972 126.1605 -4.401408
-2.013855 133.1818 -11.43752
-1.730948 130.9845 -10.56991
-2.430519 128.3786 -9.33934
-0.8990268 140.1349 -13.18774
-1.002865 121.8757 -6.988577
-6.592062 119.8495 -5.337631
-4.514564 121.3933 -6.60687
-4.167672 145.8995 -12.17151
-3.692081 143.4245 -12.36346
-1.075211 142.8552 -12.64466
-10.2729 139.0046 -12.02957
-12.10589 121.8288 0.181797
-13.71923 127.284 1.394682
-13.14933 128.8777 -3.4798
-13.97357 129.0134 1.384128
-7.817268 136.9079 -12.24316
-3.631544 134.497 -11.7055
-1.135107 129.8106 -9.998563
-3.686925 139.3123 -12.5797
-6.048897 138.3816 -12.68494
-7.105326 137.698 -12.57214
-2.14379 138.8893 -12.49921
-0.7620183 136.3413 -12.55604
-7.830527 119.9419 -4.695194
-5.066097 128.1862 -9.242925
-4.146137 142.5392 -12.91892
-13.17008 124.192 2.196277
-11.09632 129.786 -7.640836
-11.27463 137.3245 -11.22374
-5.392877 125.6788 -8.066758
-5.515066 126.4979 -8.382509
-3.87838 122.6279 -7.176568
-6.694268 123.0533 -6.518314
-12.90333 124.797 0.1227112
-4.468645 127.6421 -9.068001
-6.377774 121.9479 -6.187672
-5.817451 128.1617 -9.131045
-3.12443 128.7552 -9.539958
-8.411913 127.7761 -8.135359
-6.852944 128.55 -9.105655
-11.78107 127.0944 -4.816646
-8.321311 121.384 -4.860629
-8.571342 124.3318 -6.129714
-9.83131 124.4247 -5.252828
-10.66221 127.7877 -6.753129
-11.64199 123.7445 -2.232849
-10.20684 120.8415 -2.853199
-11.88292 120.8386 0.1338994
-11.70541 121.6697 -0.6985094
-9.789855 120.4621 -3.229539
-7.412075 122.3656 -5.846523
-8.156224 123.0315 -5.737741
-12.26922 135.7491 -9.999533
-10.88202 133.7074 -9.884663
-12.55965 131.8486 -7.475584
-12.25988 130.6232 -6.980207
-12.95261 131.6565 -6.84561
-11.41582 127.6068 -5.801606
-13.09571 130.6898 -5.703907
-13.96876 132.6662 -5.800176
-14.59425 133.7059 -4.863447
-3.535383 130.2942 -10.23835
-4.704242 131.5622 -10.77828
-5.569532 132.549 -11.12167
-9.320083 128.7995 -8.245046
-7.532516 130.8332 -10.02113
-10.16022 128.997 -7.867063
-10.24618 128.2393 -7.358169
-13.84246 129.0294 -0.3428529
-12.64126 126.7764 -2.678428
-13.67083 129.0904 -1.450901
-13.06333 130.0388 -5.153537
-12.87412 130.2964 -5.740623
-12.59101 126.6049 -2.644263
-4.020062 134.2192 -11.64597
-8.746272 139.3759 -12.51597
-10.45344 125.3253 -5.25389
-9.630191 123.8155 -5.051878
-10.15589 122.5742 -3.748926
-13.98271 131.7872 -4.601689
-12.09311 135.0295 -9.759049
-4.500223 134.6355 -11.77515
-6.857473 132.6973 -10.98549
-6.596518 136.5705 -12.26233
-8.582322 135.2684 -11.48431
-7.860104 133.5181 -11.03004
2.363537 140.5337 -13.57479
13.00808 123.0824 2.572446
12.42972 121.5878 1.321989
4.513054 127.6755 -9.063747
13.34357 125.1149 1.969283
13.7613 127.255 2.185234
4.736841 119.2976 -5.917276
14.50851 134.1482 -6.127844
12.01374 128.4007 -5.6126
10.93251 138.0007 -11.56992
6.863729 143.1059 -12.58558
12.18299 123.3031 -0.7091444
12.83227 125.8772 -1.252619
0.254626 120.3769 -6.50841
0.3850415 126.3925 -8.673357
11.82321 118.7467 0.6370918
4.885918 145.5478 -12.39039
1.219099 130.9744 -10.56826
1.721737 141.0244 -13.9195
6.174555 141.055 -13.54095
3.523488 139.5449 -12.7493
10.48338 136.1089 -11.12464
2.193508 148.2851 -11.45767
0.08029329 151.674 -10.0474
14.48711 136.2111 -8.199407
1.686086 147.7957 -11.68534
0.9626469 148.3577 -11.44889
13.31121 126.6494 -0.3550265
1.262758 127.3683 -8.997513
11.69409 118.1115 0.2349188
9.864219 119.7222 -2.972017
14.3832 134.9766 -7.354017
14.82393 134.3581 -2.494662
14.79569 135.1086 -6.563683
14.48353 132.2955 0.7725883
1.097283 135.7154 -12.11568
1.739242 140.2956 -13.29048
7.898317 142.2215 -12.64909
9.865993 140.0952 -12.27887
2.114545 137.319 -12.64781
4.649313 145.0594 -12.48418
2.890353 118.6576 -6.10388
3.506823 122.1182 -7.041016
2.730165 146.1053 -12.45667
13.52598 126.6105 0.8569559
0.01433643 127.89 -9.165558
5.199595 134.1196 -11.64275
9.911295 119.0188 -2.750369
13.23789 125.0688 1.237144
12.48543 122.2953 0.9753703
14.0651 130.5899 -1.002557
14.13294 131.6692 -3.359885
14.44364 132.3786 -0.5310473
0.8626004 136.7089 -12.66663
12.52 137.223 -10.49122
0.6659074 142.5517 -13.1801
0.1811328 140.3678 -13.48988
4.769534 144.0073 -12.33228
1.463788 144.0712 -12.22166
8.24276 137.8638 -12.40901
6.384128 120.8524 -5.773523
0.790199 122.3181 -7.137889
5.413424 122.3441 -6.705963
2.208793 146.5439 -12.19801
14.03973 129.3988 1.384548
2.398717 126.9698 -8.864309
9.111553 120.1703 -3.82236
13.23962 125.7899 0.3239429
13.70755 129.1338 -1.336675
4.499727 135.0534 -11.9018
3.71229 133.4965 -11.44003
3.281865 132.5847 -11.22044
9.004759 136.6633 -11.86923
12.93924 134.0399 -8.554872
4.914207 140.1783 -13.05737
5.80295 122.0368 -6.436005
6.77197 119.9514 -5.278002
8.162571 120.4755 -4.635192
0.7482625 124.6528 -8.014039
13.8593 128.2723 1.246905
3.605383 127.3804 -8.972084
2.987821 129.5417 -9.871379
0.8133526 130.6408 -10.39572
9.826297 127.2002 -6.992893
7.564259 128.8175 -9.025715
11.58858 127.6195 -5.611319
6.998316 130.0484 -9.829114
11.36865 120.7145 -0.9509231
2.081854 137.992 -12.52858
7.376997 122.7087 -6.026964
5.299732 122.7395 -6.906742
3.194279 124.3873 -7.90453
2.933478 132.0455 -11.04875
7.48504 135.6912 -11.88787
7.653413 130.7712 -9.960023
2.136427 129.8557 -10.01011
7.152679 134.8239 -11.66134
11.45965 122.0752 -1.442599
11.24566 123.9312 -3.12773
9.415208 121.784 -4.147272
4.916474 126.729 -8.617212
10.67927 125.4981 -5.085058
8.910756 124.2566 -5.896074
-0.1002753 130.7899 -10.48777
8.944293 128.0289 -8.018493
13.12832 134.0013 -8.329387
8.708113 126.7213 -7.419022
9.976653 128.3472 -7.59445
10.57704 132.2777 -9.345174
11.05383 129.4886 -7.464019
13.92258 131.7247 -4.717888
12.89778 130.2543 -5.625498
13.86565 130.3887 -2.428699
13.87795 129.8758 -1.358919
13.51129 127.8986 -0.7914094
12.84007 130.8994 -6.394584
12.84656 128.6299 -4.066846
10.00433 125.2435 -5.619504
8.316901 122.6991 -5.461672
11.5356 125.0031 -3.463963
13.9697 132.0607 -5.05373
9.286235 125.8873 -6.605675
5.382931 141.251 -13.8178
14.31442 135.7008 -8.087341
8.108123 138.0533 -12.46652
2.675886 123.1483 -7.452776
5.496108 134.7532 -11.81664
8.749131 131.8267 -10.02986
7.032806 134.1993 -11.47652
7.012072 133.9452 -11.40023
7.637924 137.298 -12.38372
4.792466 138.7579 -12.67105
7.100069 136.0254 -12.05405
-4.52735 150.0398 3.195495
-14.84359 134.0246 3.368567
-1.929814 150.0129 2.589898
-3.867668 118.2438 11.71885
-13.60741 126.3202 3.184206
-10.84647 119.5941 8.712622
-7.802742 119.638 10.78219
-15.00516 136.0352 -0.6416747
-15.03219 136.508 -0.5844171
0.6740916 151.4397 1.554355
2.281376 147.77 3.943001
-9.159348 144.619 4.11011
-12.60591 135.9086 10.39198
-4.081218 150.3566 1.983229
-2.107164 151.1884 1.463881
0.440098 119.9689 11.9265
14.604 132.6506 1.939501
7.178401 118.3185 10.7437
14.96338 137.4297 0.4037978
-14.2999 135.5617 7.471173
-14.79602 134.1105 1.209529
-9.751424 134.4909 13.35279
2.127682 148.5266 3.92723
6.965256 121.839 11.47202
4.485432 150.148 1.359948
-3.927223 147.517 3.872822
3.969889 150.905 0.9089667
-12.51214 140.0042 5.478046
14.91777 135.1662 0.2374215
15.18465 136.6365 -2.538267
7.079932 146.3478 4.421815
-2.263736 150.311 2.083559
12.02123 118.0542 6.424123
-5.522669 147.5643 3.334651
1.211422 150.2604 1.756249
-11.314 118.8774 7.965687
-12.30444 118.2182 5.40275
-12.6411 120.8202 5.60062
-14.95305 137.3325 0.5993877
-14.87321 134.6551 3.966159
9.73998 144.3478 3.975644
0.1560915 123.3462 12.14468
14.15685 129.9788 3.855373
7.393704 119.7147 10.94053
13.17931 123.8767 2.795105
12.49257 140.9076 4.685811
13.78704 138.0511 5.590985
-6.445663 147.4942 3.440775
4.735061 149.3639 3.575225
4.761252 149.0009 4.062431
-13.378 124.8562 2.872898
-13.97039 129.2691 4.128329
-6.927545 119.312 10.99657
-5.900654 119.3758 11.32227
-12.09278 119.7701 6.80272
-10.09141 117.9777 9.163719
-14.92948 137.7688 0.8476008
-14.71185 132.8832 3.242785
-14.89562 135.657 1.543752
8.026815 145.2675 4.415004
9.000051 117.8873 9.873149
-0.3370709 122.5571 12.08981
-0.9540765 121.4049 12.0105
12.34818 118.1302 5.050728
12.75626 122.4916 6.0588
10.35595 123.6435 9.609101
12.84238 121.335 3.903158
13.52572 139.6264 4.527622
13.81846 139.8128 4.017508
-2.93977 148.89 3.691694
-2.335779 145.7154 5.359973
-13.46201 125.421 3.909488
-13.72162 126.9911 2.836086
-7.775799 122.4422 11.2307
-8.588778 118.9313 10.27084
-12.39838 122.1053 6.874009
-11.90896 141.5702 4.649248
-14.38543 138.7939 3.564005
-14.91167 133.2268 5.848711
-14.46167 133.7131 8.570165
-14.58921 132.6117 1.578932
11.5725 142.4623 4.158916
1.855788 117.5589 11.83762
13.19347 127.3483 5.973233
12.20587 141.3083 4.615371
14.44565 136.2566 5.90796
-6.354611 146.135 4.780422
-4.889498 146.2428 4.95029
-13.18274 124.5205 5.208463
-13.35564 127.6938 5.590831
-12.39028 140.9874 4.738521
-13.57091 139.4165 4.644494
-14.75625 132.4949 7.611282
-14.17982 132.6464 9.578072
-14.52214 131.044 7.203331
-13.98906 134.6712 9.170956
-14.90428 134.2257 4.739181
6.398434 125.3844 11.61314
13.89383 128.6195 3.328063
14.45558 131.7438 2.212323
13.56782 126.0357 3.62889
13.21388 137.3316 7.691535
7.967109 145.5959 4.519589
-12.89949 126.576 6.555536
-10.38165 138.9769 8.901403
-7.803925 143.0556 5.612261
-14.34305 130.8394 8.075792
-14.08519 134.8313 8.835189
-14.70516 134.4347 7.209799
-14.86751 134.9851 4.280002
4.046137 118.958 11.71573
0.3712093 121.7558 12.03515
12.65402 126.3546 7.012058
4.015557 146.7887 4.502633
7.177604 145.3573 4.425113
-10.23804 124.7295 9.609795
-7.767482 121.3639 11.11418
-5.969061 121.6654 11.67482
-14.07746 131.237 9.404488
-13.42637 132.8713 10.80229
-13.97619 132.5331 10.01698
-13.00131 134.2839 11.04906
-9.89777 135.7292 12.67381
-10.70446 133.8804 13.05665
-12.28229 134.463 11.81345
-14.20004 136.7541 6.152206
-14.20761 137.6167 5.104941
12.93109 124.7968 6.226176
1.032814 146.1705 5.109644
8.287451 142.1754 6.176804
-11.62984 124.6757 8.381722
-1.731106 118.3245 11.86061
-2.467766 121.6261 12.01821
7.582436 131.4808 13.77467
2.312558 122.4325 12.08139
-13.46536 129.8477 9.634974
-9.204251 127.0753 10.76886
-9.364416 132.3627 13.62395
7.359433 141.3666 7.295218
8.78085 140.6675 7.510977
8.723723 138.847 9.923804
5.455002 141.6997 7.4132
9.295115 140.393 7.601079
6.838029 140.5612 8.305435
-11.00523 126.7945 9.330764
7.513907 123.0289 11.3646
-5.157007 120.4599 11.64173
-7.519404 124.3573 11.29019
-13.53619 131.5701 10.62969
-13.46374 130.0297 9.828556
4.22249 146.0379 4.714529
-1.039507 150.2053 3.121651
5.494213 143.8166 5.825155
2.163863 143.3364 6.607491
1.38817 143.9507 6.207342
2.21646 142.2152 7.292025
-3.549819 142.2613 7.230588
9.122326 139.1209 9.411223
7.65768 138.8723 10.13963
-10.33692 125.2877 9.47331
-11.65958 127.5126 9.246568
-12.6213 125.9969 7.043555
-11.29553 123.6658 8.7307
3.378088 120.3514 11.89084
4.083276 120.5853 11.84399
-10.56816 126.8327 9.708339
-11.18839 130.8301 12.60466
-10.92343 128.0515 10.79105
-10.14368 127.1523 10.33386
-8.93344 131.1579 13.49965
4.446868 147.7834 3.528918
1.913093 147.1732 4.224178
-5.372894 141.4717 7.636849
5.022087 139.7065 9.335192
7.672379 137.9604 11.20859
-7.867079 124.9488 11.03372
8.151978 122.1473 11.02006
-10.86751 127.6663 10.34126
-9.58477 127.6222 11.07696
1.719194 145.7498 5.19995
0.9869926 142.6995 7.001031
6.002194 138.1236 11.06457
6.152559 137.7949 11.38498
3.856228 135.7242 12.77669
7.311778 120.5342 11.12654
-8.162323 128.7623 12.4652
-1.550297 144.1904 6.048889
-6.028868 140.9132 8.04019
5.785631 135.666 12.93814
6.995034 135.9576 12.87474
7.875131 134.7742 13.49932
9.637722 131.1512 13.37579
9.317239 120.2329 10.11753
0.7143494 125.1524 12.23388
-2.818612 144.5153 5.859875
-1.350165 142.1441 7.341691
2.609248 137.1518 11.78489
5.409762 135.2586 13.08434
-6.047441 126.9559 11.84216
-0.6893328 145.9959 5.326652
-2.120186 146.6969 4.988745
-2.905092 150.0536 3.443365
-2.033364 149.4385 4.200722
-2.296198 148.1223 3.820005
-5.236329 145.0147 5.11186
3.213008 134.1302 13.3888
9.940484 134.9855 13.07825
6.593923 124.6222 11.60707
3.601208 127.1704 12.21966
0.0354085 148.8953 4.114996
-1.814086 149.75 4.046947
-6.931807 142.7531 6.181809
5.769455 136.4424 12.44763
5.375795 133.4989 13.64587
7.566957 132.7752 13.86943
7.250046 125.3728 11.26282
5.646991 124.8856 11.88232
12.67767 125.3579 6.879094
-6.989487 141.4326 7.342578
-9.121783 140.8197 7.182274
-8.892331 135.9958 12.76932
-2.439799 140.7703 8.345104
-9.895844 140.0943 7.661108
0.9559951 130.5038 13.19061
7.967215 127.4833 11.4672
5.322128 131.4076 13.5569
5.558318 128.9265 12.63362
4.6481 124.5508 12.13444
9.273758 124.3942 10.32321
12.46738 124.6984 7.217778
1.880731 134.138 13.33932
10.91808 127.0626 9.522305
5.944002 131.0293 13.54128
8.199558 126.2872 10.82144
10.02946 123.5126 9.884175
11.21053 124.0005 8.783085
0.3411683 132.87 13.51961
0.866065 134.0016 13.34048
0.3670553 129.6413 12.9482
-2.278397 131.7379 13.46999
10.08727 127.3332 10.53417
9.022926 128.7813 12.34608
4.733479 127.4144 12.12996
6.410118 126.4568 11.55402
0.8537189 126.3122 12.27288
11.43038 127.3602 9.459659
0.9684737 132.0536 13.51393
5.71949 127.1267 11.86464
1.467233 126.3511 12.26824
1.524156 130.5452 13.20606
2.81106 125.5155 12.24735
-0.3953639 126.5519 12.29799
-0.293981 136.6564 12.13504
3.165526 126.8267 12.21911
4.18372 138.9668 10.12915
14.87871 134.8667 0.002903586
14.79021 136.663 3.116407
14.4357 136.5381 5.318045
-14.31292 136.7567 5.837112
-13.29207 138.6705 5.826081
-13.35496 126.6701 5.34298
-12.83174 124.4277 6.370417
-1.814922 121.6983 12.02603
-4.08973 124.3196 12.18274
-1.220428 126.9258 12.3396
-4.072285 123.8825 12.17213
-1.039128 123.6466 12.1653
-2.291861 123.1362 12.13354
-2.398859 126.2409 12.24296
