# .PCD v0.7 - Point Cloud Data file format
VERSION 0.7
FIELDS x y z
SIZE 4 4 4
TYPE F F F
COUNT 1 1 1
WIDTH 1656
HEIGHT 1
VIEWPOINT 0 0 0 1 0 0 0
POINTS 1656
DATA ascii
-9.959058 135.3443 12.96704
-13.56664 125.8632 3.928786
-10.29504 136.5892 11.91554
-13.44267 128.0797 6.061418
-13.78926 127.2976 3.246945
-14.98037 133.6405 5.704599
-9.583649 128.3908 11.95196
-14.46355 135.5834 7.038188
-14.80326 141.8603 1.860489
-7.781896 149.8947 0.1457067
-7.087174 143.7292 5.424718
-8.395435 142.4508 5.978973
-10.40746 150.9293 -2.334189
-10.60071 148.2536 0.3493949
-8.53735 148.4248 1.07135
-9.559205 149.2415 -0.09741408
-8.986397 152.2868 -5.054419
-7.754503 131.0927 13.75196
-4.159863 131.5826 13.80399
-5.931739 129.1111 12.78077
-7.061248 133.3346 13.91856
-7.299453 136.4287 12.67347
-8.053741 140.5248 8.086426
-9.551072 137.3896 11.44752
-6.327472 137.5625 11.70071
-8.59585 136.9348 12.16291
-5.709237 139.2397 9.933661
9.073112 118.8282 10.08023
7.632178 118.6076 10.6906
7.739939 114.9518 10.22383
9.999426 116.3542 9.009228
10.3274 119.3349 9.243443
9.945664 79.12648 10.09461
20.33748 84.34187 -1.062339
8.831006 122.7845 10.74999
7.153203 123.9611 11.5267
8.405054 124.5557 10.88049
6.340582 120.6731 11.45995
7.469508 125.4717 11.18664
8.93117 127.4048 11.12556
9.718252 127.7705 11.25527
6.271622 127.4721 11.62368
9.262518 131.1179 13.52735
11.88002 138.2918 8.500079
8.219973 137.0954 12.07451
12.3664 144.6103 2.354159
9.39948 146.1809 2.478818
9.334621 149.256 -0.009939643
12.30017 151.2275 -2.675308
11.71422 149.1646 -0.3977747
10.53339 151.7068 -4.515286
11.10597 144.5715 2.922996
11.74522 145.1987 2.237662
8.664311 152.3784 -4.964983
14.04391 129.5305 5.503621
-11.64301 125.1086 8.432777
-10.70674 124.2335 9.359241
-8.265791 121.6608 11.00281
-15.08441 136.9317 -1.099886
14.0369 130.7111 9.185254
12.19002 132.5802 12.25653
8.884341 133.6584 13.75189
10.62716 140.9837 6.329409
15.29779 135.7816 -4.988592
10.66464 122.2731 9.34236
-13.03029 122.3687 3.506437
17.92583 95.48557 -1.645995
-12.93245 121.8308 3.530444
-12.71766 120.5118 5.202604
-13.25981 123.9844 2.889241
-13.01027 122.1417 4.245019
14.99354 138.7015 0.826337
12.21117 119.6441 1.581305
12.40994 118.4404 3.095112
17.18485 100.1789 2.736717
18.39962 94.39614 0.6807166
16.30787 104.5102 3.23889
16.55553 102.6778 4.024115
16.37497 104.5049 1.586142
14.81618 106.8257 6.117885
1.92332 79.76895 10.1557
-1.718362 77.63406 9.941061
-17.91477 95.92416 2.611151
-18.42292 94.19427 1.954245
-20.4692 81.45749 3.274989
-18.95126 83.32219 6.91708
-20.60127 81.38752 2.533298
-18.6616 90.59127 5.331984
-12.43907 76.54552 9.782272
-19.7629 79.75466 5.443838
-7.006291 77.08942 9.87471
-17.30274 99.90188 1.735374
-14.13401 110.2442 4.693769
-12.66589 115.7293 2.319719
-13.60393 111.7108 4.427538
-15.60812 107.2728 3.026217
-12.96308 115.891 3.269207
-12.30996 120.2088 1.595498
-9.400391 119.4039 9.992025
-9.816979 115.8307 9.111533
-5.45854 112.2135 11.5066
-4.013439 123.5469 12.23032
1.393511 120.9242 12.02561
-0.2815167 118.4817 11.92126
5.449412 115.0639 11.34966
-4.765412 120.3208 11.75677
-11.50624 131.3471 12.65068
-9.529095 133.9136 13.57147
-10.15728 137.5634 10.98404
-11.72439 138.8972 7.81397
-10.30812 130.0562 12.77783
-9.216646 125.7064 10.2265
-13.21763 135.795 9.752877
-14.19766 139.5244 3.63564
-14.23155 142.3713 2.336221
-11.61444 145.8707 1.849855
-10.50149 146.0712 2.066406
-12.73103 143.2892 2.937701
-8.745624 140.9322 7.335436
-8.268339 149.2033 0.6068357
-3.560962 130.877 13.67505
6.732986 117.6356 10.86168
3.608513 120.176 11.91846
10.69316 114.8184 8.285227
12.25653 115.9568 5.459625
11.68197 118.3841 7.400089
11.21441 77.9582 9.975282
8.777149 76.99042 9.863903
17.83517 77.25533 8.099507
20.07232 86.80747 -0.7496293
19.79786 87.52507 -1.675647
19.73982 88.16801 -1.429595
10.78126 127.7779 10.66987
8.910609 129.1439 12.69282
10.66807 138.1923 9.868151
10.83322 135.6029 12.37455
10.42916 136.3124 12.09237
12.42753 147.4855 0.8278633
11.50575 150.6041 -1.761912
12.26086 143.4181 3.122137
12.11878 126.2677 7.772631
-11.1067 122.9053 8.977473
-11.15974 121.7549 8.793073
-11.40648 120.6677 8.338782
-13.01284 125.4637 6.335779
-14.54934 138.8664 3.257382
14.72046 131.5038 7.002714
13.70318 128.6428 5.408653
13.09614 128.2679 7.608306
14.12482 129.5404 2.311184
11.56367 140.0986 6.455848
12.69979 124.9914 6.939856
11.30104 121.1132 8.536033
17.68214 97.18336 -0.424356
12.54861 113.5752 -0.6284726
11.87951 121.1368 7.736772
12.48707 122.6134 6.841261
12.43277 120.4291 6.435946
12.47291 114.7987 0.5485268
16.56001 103.2366 0.5123252
16.43905 101.547 4.892698
17.12471 97.82983 4.37944
18.19011 95.19958 0.9299506
18.28085 94.56589 2.414393
17.93045 94.45197 4.37384
18.56328 93.63087 2.114907
17.77985 95.33333 4.081974
18.73655 93.20102 0.8434247
19.32488 89.75218 3.827891
16.84559 101.1104 3.833819
14.86809 105.3307 6.759728
1.980991 79.43576 10.12796
4.273644 77.99261 9.981774
-16.97194 91.90231 7.604595
-17.53568 95.77514 4.513123
-18.99383 90.40586 4.488014
-19.41144 89.39179 3.80992
-10.63535 76.94161 9.849126
-17.16414 77.72057 8.717937
-16.80667 79.05675 9.058464
-16.84728 78.71844 9.006784
-6.864855 79.78687 10.1457
-9.162991 79.08539 10.08645
-16.55123 102.2782 4.331446
-13.90787 110.9699 4.453005
-12.1879 113.4397 6.556194
-14.56127 108.7643 5.073467
-8.65821 116.2623 9.837321
-11.25556 119.0459 8.188841
11.92193 106.3278 9.16605
3.244242 117.7616 11.84958
2.033096 118.3951 11.91141
-11.32131 126.1555 8.651996
-9.781528 128.1799 11.64478
-13.03809 131.4947 11.30634
-13.50426 129.311 8.922532
-13.9021 138.3413 5.107527
-13.98992 137.6355 5.727277
-8.597207 145.9434 3.014714
-12.59723 142.737 3.363772
-10.48025 144.5809 3.201701
-12.57348 144.1123 2.573345
-7.433891 140.6138 8.162131
-8.004767 141.9785 6.565757
6.857718 120.6076 11.33028
12.9618 107.9772 8.17959
10.73684 118.3892 8.707176
13.73825 79.86136 10.13561
15.9761 79.25391 9.524461
8.426306 78.45435 10.02899
7.774396 77.11718 9.879709
18.99527 77.95311 6.70489
18.80081 78.83876 7.10237
19.64592 89.60285 0.1194144
20.33821 85.61251 0.3201472
18.42535 92.36788 -2.9903
14.14577 139.3399 3.877828
12.71391 138.2551 7.361501
12.54175 136.275 10.2276
13.78237 140.6675 3.626121
12.74657 127.7424 7.467637
-14.80324 139.0081 2.427277
14.52638 131.3611 3.392196
14.05672 129.4593 0.4677615
13.34561 127.3131 5.625854
13.55972 125.9665 4.072621
11.79522 139.7202 6.617591
12.5011 120.2108 6.049591
18.39663 94.23555 -0.3185433
12.61101 114.0029 5.277724
12.31767 118.3638 5.744488
13.11714 123.0156 3.458926
12.53566 118.9521 4.085216
16.32413 98.88502 5.764952
19.36485 90.65619 2.300475
19.91886 88.39318 0.9998537
18.92655 92.161 2.59955
18.97415 91.77066 2.983094
19.52436 90.26656 0.7298626
12.97488 106.4342 8.535788
13.60543 105.7745 8.138873
13.31428 105.5885 8.403842
11.97532 103.9214 9.221528
12.19779 105.0996 9.091683
12.81006 110.3567 7.243772
13.67191 110.4122 5.50402
14.21103 107.8643 6.564635
-9.379736 81.04594 10.21843
-18.76485 91.8399 3.91024
-17.38533 98.17397 3.193025
-18.99352 87.19114 6.198708
-19.26832 90.97705 2.290514
-18.18073 90.25433 6.581865
-17.0645 77.09546 8.701788
-16.54856 98.44334 5.53361
-15.79856 104.8432 5.153494
-15.88031 106.223 3.349591
-10.90991 117.869 8.418602
-12.42927 116.9611 3.74931
-1.952144 110.9346 12.08613
1.886321 117.0183 11.90287
5.068284 117.943 11.47653
-11.0741 139.9644 7.030409
-12.1555 140.0968 5.849194
-12.35674 138.6071 7.431524
-11.85771 129.4575 11.50415
-13.12231 129.6071 10.03105
-8.704798 146.6409 2.411227
9.763214 114.7789 9.069173
12.50412 113.883 5.695344
16.67462 80.65678 9.227969
19.0376 79.75429 6.792995
20.25145 86.02674 -0.03266886
19.98602 86.71358 3.50456
20.02982 87.64039 0.4324723
13.78884 134.4367 9.853786
13.51823 133.4185 10.76596
-12.87713 123.2668 6.096912
-11.53873 141.5927 4.991822
14.09517 129.4626 3.841861
13.63193 126.3091 2.013117
13.34799 126.9009 -0.6663935
14.18143 130.3102 0.4255939
13.51248 125.4582 2.354697
12.67568 114.9623 2.470023
12.8074 123.1928 1.135278
12.44787 116.4207 3.174227
18.62249 91.89338 4.462977
18.68398 90.35905 5.439355
10.85563 105.3799 9.59936
13.6594 111.0717 5.089731
14.98738 108.6629 3.792615
-6.203786 78.00521 9.98345
-5.003419 80.42622 10.18728
7.599635 78.701 10.05576
7.160982 80.30437 10.18793
3.110213 80.88734 10.20482
-18.3531 91.63849 5.408125
-17.36639 96.46452 4.516834
-15.78451 98.62531 6.683763
-16.93514 94.6937 6.489355
-18.80534 89.88235 5.43175
-14.53202 79.34353 10.00473
-15.80291 81.36919 9.714757
-14.43918 82.38719 10.14745
-10.92153 80.74235 10.20724
-17.07366 99.73905 3.64058
-15.96118 100.5077 6.029388
-11.71556 118.7359 7.448148
-12.55072 119.6896 5.528944
-2.62377 111.971 11.97148
4.399473 116.6034 11.66027
4.330078 113.5968 11.735
5.159618 112.6514 11.57076
4.151759 111.7702 11.88321
-13.49426 128.5077 6.686776
16.4358 80.19448 9.323214
14.10729 81.36246 10.17124
14.94254 82.36781 9.991447
19.32528 80.97068 6.34936
-13.20317 139.6863 5.047791
-11.31389 143.2484 3.786248
-10.64941 142.9585 4.403847
-13.44847 142.7424 2.794694
13.11336 127.0193 -1.658483
13.03918 124.3339 0.9209971
14.36561 110.2408 0.5332622
-2.846792 77.77888 9.957234
-1.494293 78.74917 10.06388
-4.185431 79.93282 10.16012
-6.752901 81.52229 10.22643
-6.243628 83.08247 10.33936
-17.28559 91.16999 7.493239
-15.81033 95.2394 7.688447
-16.77074 93.80064 7.10466
-15.58903 87.35985 9.619368
-8.247173 81.66695 10.24056
-12.82387 79.92839 10.15956
-12.82497 82.18863 10.27834
-13.05386 84.93345 10.31468
-9.362341 83.56069 10.36418
-8.440351 82.77645 10.30527
-12.85829 110.3945 7.306128
-5.419252 114.9293 11.36921
-6.463071 110.3865 11.42064
-13.10032 127.7431 6.647728
-11.80311 125.9298 8.178858
19.27508 81.79647 6.41198
17.2872 84.17289 8.761569
17.81582 83.54446 8.325736
20.33535 81.67508 3.79758
19.71653 79.70438 5.538875
20.53697 84.20427 1.280745
20.44035 80.03619 3.44923
19.17935 85.2516 6.328837
20.38298 84.80252 2.559567
20.55885 78.67562 2.612581
-1.548996 83.72549 10.42672
18.59132 92.05285 4.431217
17.89312 89.73579 7.197559
13.64104 111.5558 -0.02348548
-3.180246 79.92192 10.16091
-3.383112 83.03094 10.32812
-3.692051 82.13976 10.24193
-17.6073 90.12754 7.480546
-18.52462 88.97343 6.481822
-14.04209 83.35718 10.24154
-17.36021 83.9678 8.686717
-9.676587 83.03184 10.31932
-5.189752 111.859 11.64942
16.36987 84.36495 9.386059
17.04967 86.07385 8.838305
20.66826 79.1752 0.2902941
20.67793 82.03109 0.7248297
20.60375 81.34315 2.511016
18.36625 92.62685 4.633282
16.16114 96.68317 6.820586
-17.85292 91.81692 6.393674
-15.9727 88.03923 9.349384
-13.73191 84.07248 10.28387
-16.48169 82.33459 9.377701
-17.46028 82.67462 8.679547
-17.53413 80.86352 8.574529
-18.15263 83.4332 7.919711
-18.99411 83.86887 6.805696
-17.83309 79.77088 8.212774
-18.97004 82.2948 6.944785
-18.91877 85.65362 6.72037
-20.10935 80.73751 4.62756
-6.060974 82.25263 10.25828
-3.922983 110.6432 12.04445
17.85317 85.75324 8.135148
20.32995 82.95522 3.635625
-18.21523 87.33862 7.458971
-13.92998 86.16985 10.20624
-13.44763 85.91285 10.28046
-14.25244 86.45013 10.14565
-13.32884 88.93874 10.07957
-15.54433 88.9737 9.45204
-11.03751 87.18019 10.17666
-13.02384 84.16264 10.32468
-11.98096 88.9154 10.15038
-12.61879 86.98972 10.25307
-14.92293 91.6381 9.237309
-16.49263 90.31837 8.576761
-19.80508 81.49312 5.377633
-6.169607 108.8925 11.52489
17.73002 94.52161 4.910667
-12.18846 90.63206 9.992032
-9.087272 84.79884 10.39171
-9.018896 88.38812 10.09219
-13.61788 91.05215 9.761927
17.48631 94.23573 5.738116
-14.63985 91.8599 9.314947
-11.38983 93.81245 9.475569
-12.89314 89.62257 10.07424
-10.96964 89.40494 10.21258
-6.015373 108.1621 11.65629
-15.84359 92.62241 8.472197
-1.13459 85.40992 10.47497
-8.253979 90.79278 10.26727
-7.530723 108.2376 11.1093
-10.50747 109.7065 9.75418
-15.60823 95.69107 7.732689
-8.192457 89.00401 10.23108
-11.69018 89.38295 10.15892
-14.06167 96.8011 8.582847
-15.2722 96.57114 7.802813
-4.785296 84.94385 10.47798
-4.592572 87.39622 9.958716
-5.055878 90.14549 10.53022
-11.04165 95.50263 9.405346
-7.792236 86.06467 10.30748
-2.816249 89.78098 10.48951
13.09676 84.33748 10.29165
-14.4561 98.67731 7.979565
-9.272824 91.78554 9.639968
-12.23323 94.95515 9.323745
-9.357426 91.52657 9.789308
-14.51204 132.2073 1.043179
14.95387 136.23 -0.6028267
12.50412 122.9767 0.2919743
14.21315 131.9526 9.570735
8.88201 125.3305 10.47694
14.85606 143.4563 1.562473
14.53401 141.8642 2.155257
12.89605 142.7333 3.204197
16.47525 104.1232 1.832777
1.297327 110.5936 12.12216
1.530578 116.4292 11.90281
-1.885194 110.0492 12.1762
-3.596336 110.3724 12.10522
-5.738753 105.7223 11.57879
-0.6429988 108.6092 12.32303
-3.381578 109.5116 12.21961
1.435909 113.9764 11.90898
-0.9659842 107.3834 12.37985
-0.3524401 116.2792 11.90074
1.135279 111.9189 12.00848
-2.105276 111.2339 12.05234
-1.448082 110.6147 12.12116
1.18528 108.2234 12.35164
0.02013561 108.6731 12.31557
-0.5465578 107.4624 12.37552
1.771551 105.684 12.34552
2.494444 105.492 12.30747
2.660104 106.4065 12.36943
0.889111 104.4514 12.23249
1.136248 105.4644 12.32869
-1.901274 107.2824 12.3809
1.096804 100.7498 11.40306
2.756013 103.4383 11.95789
4.627428 104.0428 11.68802
-8.335696 143.6887 4.95156
-10.96023 114.4691 8.042746
-12.92771 113.5507 4.595162
-11.91531 114.6034 6.68646
-12.46502 113.1974 6.138809
-12.14927 113.153 6.752111
-7.736046 114.6544 10.21707
-6.6401 111.6908 11.08277
-7.853918 110.0433 10.8738
-10.61767 110.8819 9.099911
-9.946551 109.6702 9.962462
-12.54616 109.5701 8.085706
-12.43697 110.3539 7.887362
-8.893018 112.8096 9.6649
-13.08135 107.6823 8.11302
-10.95625 117.5253 8.290743
-11.94212 108.7784 8.860001
-12.7143 105.6059 8.773111
-11.6535 117.0937 7.140637
-11.75817 117.4962 7.028889
-11.98121 108.7478 8.834841
13.17855 82.78426 10.28321
13.58952 139.8714 4.366524
6.860035 81.60334 10.22821
6.739559 80.81642 10.20735
6.895387 80.69209 10.20491
14.34764 84.52196 10.1953
8.063952 82.67286 10.27219
-14.29665 105.3634 7.531793
-15.77907 103.6074 5.736078
-12.46811 102.5427 8.879764
-10.93265 104.3347 9.703384
-13.81064 104.0716 8.109557
-13.5502 100.0336 8.334801
-13.70615 103.6296 8.201133
-11.91885 103.5638 9.284448
-13.75378 101.5733 8.129491
-15.40113 104.0666 6.272286
-12.48621 101.3547 8.83006
-11.97128 102.5042 9.076826
-13.46071 101.044 8.359809
-13.78935 99.05121 8.325631
-13.61412 96.59135 8.786233
-12.63314 100.1549 8.773603
-10.89838 96.27634 9.314835
-9.990619 141.2894 6.309871
13.79688 111.4001 4.052383
12.87302 112.9416 5.380756
13.42922 112.6952 3.066943
12.51211 115.2574 1.623322
6.47636 104.2902 11.18067
10.1932 107.7686 10.01281
10.10188 108.2139 9.952868
8.972375 103.5894 10.48045
9.584473 106.6969 10.27884
9.729374 105.8917 10.07093
7.355221 103.5266 10.91578
3.661214 102.6659 11.60672
8.274983 104.4099 10.59659
5.764354 105.2511 11.48614
6.946361 108.1882 11.36427
7.296575 101.417 10.1946
6.49822 101.5051 10.45859
10.44557 102.6583 9.591251
16.71847 99.9618 4.679226
15.71475 100.4638 6.417229
14.4574 103.4762 7.507127
5.471611 103.4395 11.38507
4.379955 98.9603 10.35937
7.869408 106.3337 10.87042
8.040912 102.6535 10.31176
16.35344 99.42245 5.503646
11.358 101.655 9.215841
12.59575 101.7603 8.776935
12.60686 100.1092 8.780941
11.02709 99.07491 9.215081
10.80416 99.27744 9.263108
-4.806436 97.35008 9.740259
8.045895 109.268 10.63639
5.020959 110.8737 11.77182
3.076837 109.19 12.26495
5.332667 107.8784 11.91162
15.28743 97.87351 7.472312
13.98402 97.4607 8.470578
13.94016 98.83381 8.257087
16.77422 94.4087 6.881635
9.599129 99.44083 9.52864
8.720053 112.1246 9.826759
12.17529 110.0374 8.188148
8.38801 113.6815 9.876822
7.142093 114.6879 10.53578
7.87717 111.714 10.6915
3.720185 110.6783 12.06776
4.70962 109.1216 12.0486
16.0326 100.1004 6.026321
13.10313 96.41566 8.945029
14.10497 95.97824 8.707718
16.96282 95.25939 6.054908
-0.5294386 103.4997 12.10906
-2.488256 103.5321 12.00273
0.2567519 101.9769 11.77352
10.02711 100.0854 9.43275
7.945087 110.8159 10.76521
9.679832 110.7069 10.1097
9.106509 112.3349 9.597509
4.397666 110.0825 12.03315
19.40595 88.06087 4.821764
19.61348 86.51196 4.93546
17.29817 87.13721 8.480116
10.93013 110.2991 9.258749
12.1868 109.3328 8.408888
3.232963 81.67102 10.22397
3.402623 80.29311 10.18786
0.9231035 83.55691 10.39292
4.078905 82.31377 10.24559
4.21328 81.76213 10.22918
7.827441 83.79489 10.34418
1.717949 84.17608 10.47352
0.108437 85.33504 10.47855
-2.0464 85.94238 10.35316
14.81897 87.78769 9.876036
-8.500108 107.3714 10.74817
-10.25412 105.5321 9.83493
-7.792559 105.8856 10.78129
-2.624847 85.08619 10.50523
-1.45725 86.70092 10.12473
-3.989353 86.52937 10.1951
-4.574131 87.90768 9.939774
-12.57617 92.12728 9.691223
-12.43168 93.08152 9.603936
-12.26868 94.42362 9.394178
-9.087807 95.48924 9.533772
-7.044252 93.88091 9.185786
-11.08331 91.06632 9.958998
-11.91538 90.93518 9.960977
-7.767085 91.88546 9.546824
-2.689691 117.2094 11.88695
-3.783599 108.8821 12.25301
-7.464227 105.0706 10.98305
-5.214447 106.3009 11.85016
-5.699073 105.3868 11.56281
-2.238636 105.9796 12.35572
-5.060934 113.1542 11.53571
-9.263455 113.8283 9.398938
-11.69002 111.6343 7.934525
9.522525 80.91231 10.21694
11.35406 79.93995 10.16395
-2.116529 99.65923 10.96951
5.61124 104.8727 11.48494
7.370012 99.8443 10.00797
8.529591 92.48428 9.50683
16.55594 95.88075 6.514978
3.851126 98.78831 10.38542
7.261138 95.50758 9.493924
4.735831 96.43584 9.710628
-3.104937 101.01 11.2475
-2.758753 104.9671 12.19167
-1.075094 99.86012 11.13093
-1.964505 101.6675 11.60701
-3.901923 105.14 12.045
-0.1788262 101.9288 11.75915
-4.341331 100.2787 10.79058
17.96844 87.70711 7.685569
17.38381 89.49057 7.942677
15.96618 89.08046 9.215834
15.44412 86.81838 9.731159
11.4179 88.3098 10.1299
11.14829 85.91441 10.35733
11.94172 83.06558 10.28966
10.45868 84.03582 10.3397
8.661889 85.33143 10.42856
12.07622 110.3278 8.196409
-1.419069 80.67489 10.19724
7.800938 86.7027 10.24836
8.962088 86.05395 10.37921
8.607491 84.51928 10.40562
6.92311 84.87034 10.45963
8.380067 87.72955 9.996194
16.16053 93.38998 7.955769
16.35912 88.59766 9.025914
15.47221 89.87215 9.342135
10.95473 92.81512 9.541492
12.47737 89.73478 10.039
13.60837 88.75555 10.05484
13.49569 90.26418 9.885894
-4.804296 85.78423 10.37608
-3.817948 91.31789 10.07225
-5.489441 91.98895 9.506891
-4.121932 91.54974 9.870157
-4.393044 97.59125 9.886291
-3.66517 97.02731 9.85838
-1.390119 97.44705 10.2918
-2.769983 94.72069 9.450071
5.157463 93.74527 8.99558
-1.566253 96.01985 9.79398
-1.664584 94.55476 9.373923
1.816497 94.16299 9.169436
-2.314102 114.703 11.8851
-4.146148 113.2029 11.7814
-3.195363 112.2572 11.92095
-8.119022 102.0511 10.1146
-7.967568 102.5129 10.26651
-4.297301 99.75437 10.68196
-6.670384 100.113 10.25324
-5.921831 99.47518 10.34624
-6.883707 99.14295 10.21178
-9.15415 98.50221 9.509074
-4.667724 98.7379 10.31822
-6.378749 96.13615 9.597728
-6.808212 97.19935 9.518974
-4.769082 96.47612 9.695541
-11.46618 97.50212 9.168099
8.198221 99.30975 9.778029
9.259867 96.76095 9.348538
9.734314 98.62698 9.360688
12.72066 95.64956 9.200152
5.663648 96.37885 9.638433
8.964603 95.47745 9.475513
9.216009 98.78063 9.466964
8.293236 93.20572 9.272933
5.380273 94.78789 9.295755
8.545132 94.34782 9.191769
8.957625 93.73127 9.240838
0.4430099 99.60419 11.08024
9.525249 90.78635 10.26177
-10.65507 100.6089 9.323284
-9.966516 99.82747 9.612242
-3.227736 100.9757 11.21041
-3.980549 102.6729 11.5442
12.96536 95.05139 9.24273
13.29907 92.64942 9.591467
4.722949 92.24935 9.496627
4.984441 91.51203 10.06605
3.785599 92.73177 9.240061
8.029948 92.17568 9.612905
-0.7989114 86.61288 10.16191
11.44666 88.84688 10.10201
12.32884 85.18987 10.33651
10.5035 88.27303 10.08785
12.20034 87.45197 10.23437
9.023295 92.74328 9.434635
3.061511 91.27931 10.29392
0.04640713 93.68314 9.106602
-2.457401 96.09093 9.771493
-0.1371313 93.94747 9.184193
-2.246409 91.81181 9.617894
-2.281452 90.58995 10.5516
-4.788079 94.28481 9.29702
3.31481 90.54035 10.54811
0.2632587 89.96149 10.47724
4.099154 90.50388 10.54391
7.017854 89.2951 10.19683
0.2971345 89.43913 10.31441
-0.3443342 87.21651 9.972529
5.149418 87.49466 9.990224
3.667689 86.50117 10.24074
0.6668047 88.77061 10.03122
3.236763 87.86006 9.914643
1.653306 85.18282 10.53037
7.536009 86.39686 10.31802
10.44701 90.89843 10.19014
12.42513 93.15278 9.58777
9.381854 89.65679 10.2168
10.30825 88.10286 10.0793
4.564309 90.96788 10.43134
7.213844 90.66457 10.47261
6.50993 88.31767 9.959627
6.764512 87.44119 10.00893
8.196361 89.44922 10.23323
4.674438 88.42609 9.959183
-9.603082 96.33575 9.386133
14.49539 92.39505 9.273877
-6.86458 142.3972 -12.70808
-10.01523 137.6709 -11.92447
-10.94977 134.0173 -10.04113
-8.206381 141.5615 -12.63673
-8.062927 152.076 -7.955707
-14.97749 138.1564 -8.724873
-5.597736 147.0753 -11.95017
-6.081025 152.408 -8.693615
-13.11466 132.5229 -7.375677
-14.69667 134.089 -5.588601
-15.16376 135.2374 -4.963521
-15.44068 136.5839 -5.620852
-14.86269 134.2591 -3.006496
-14.45742 132.6904 -3.716815
-8.12919 151.1522 -9.071555
-14.5194 133.556 -5.445926
-15.38478 137.5815 -7.436855
-15.19083 135.6037 -5.659527
-14.0063 135.9176 -8.67504
-8.972513 140.4207 -12.53755
-10.84116 150.5486 -9.011446
-9.719683 143.9302 -12.17338
-13.63979 133.3078 -7.237467
-15.31963 137.5192 -7.644838
-15.55656 137.3891 -5.631231
-7.465202 143.6953 -12.53477
-11.86966 142.7549 -11.69742
-9.240261 143.8561 -12.27399
-11.27997 137.5386 -11.34247
-14.18211 138.6253 -9.867346
-11.30536 138.1391 -11.49701
-7.184349 147.5392 -11.67713
-9.290644 151.2678 -8.52516
-8.741931 151.9291 -7.757135
-10.93527 146.6323 -11.34679
-13.43785 134.429 -8.298149
-9.637419 145.3726 -11.91572
-11.97244 135.7941 -10.2864
-13.65001 137.3438 -9.792371
-13.57934 138.4594 -10.31523
-5.718619 147.5272 -11.81588
-7.716313 151.8808 -8.468823
-10.02315 148.7824 -10.55127
-9.365242 141.0614 -12.44598
-10.95914 141.5353 -12.01458
-10.72246 143.6261 -11.96385
-8.393097 144.1246 -12.36641
-9.461381 138.7366 -12.31087
-9.002193 149.0551 -10.60151
-9.414645 147.7744 -11.1662
-8.853875 147.0315 -11.57711
-2.636722 120.0053 -6.504757
-4.414335 80.45538 -8.734084
-7.773798 115.4095 -4.499337
-3.346967 87.97227 -11.51476
-2.533802 81.61392 -8.846262
-8.161654 76.34294 -8.821278
-4.937754 88.91347 -11.94736
-11.55299 124.5511 -3.188293
-11.97045 116.9147 0.6524668
-4.08711 107.4117 -8.324746
-12.39044 126.3368 -2.965058
-10.38113 91.15276 -11.82491
-8.636241 77.91922 -8.757518
-12.87622 127.1793 -2.593363
-10.19922 132.8888 -9.919933
-4.95342 113.6005 -5.601207
-7.659544 118.0366 -4.529791
-3.223892 77.44496 -8.767846
-12.2929 83.71686 -8.998836
-2.970376 123.9658 -7.804247
-11.19508 126.0042 -4.942881
-10.70219 133.9294 -10.13469
-5.312571 151.4471 -9.79064
-1.943622 140.6971 -12.44003
-11.02726 117.9715 -1.325828
-12.15233 126.5855 -3.81569
-5.067508 80.87405 -8.749541
-8.624876 123.9426 -5.987373
-8.824755 127.8027 -8.020668
-12.56668 127.5827 -3.84939
-2.881749 133.1409 -11.36466
-1.343772 147.921 -11.36296
-7.351466 111.9869 -5.536178
-19.81911 77.13975 -3.190466
-13.04789 126.1329 -0.9869222
-5.107097 152.6261 -8.96992
-2.876082 152.1004 -9.852176
-19.25355 77.78642 -4.333225
-7.782627 95.8899 -12.4948
-20.42696 80.29623 -1.426432
-20.49467 76.8833 -0.4310247
-5.34745 108.5962 -7.80596
-20.51528 77.76228 -0.7339988
-13.65137 109.5175 -2.543426
-13.37499 111.093 -1.517529
-20.07027 87.50352 0.3364559
-20.68844 79.42955 0.6326355
-20.66448 80.3271 2.066278
-2.081377 130.8175 -10.49905
-7.876151 124.7491 -6.820344
-3.728609 131.524 -10.79283
-2.292072 122.8803 -7.408811
-8.402897 109.2346 -7.375762
-8.012597 125.282 -7.014518
-5.833935 123.146 -6.943899
-5.49942 127.3073 -8.835048
-5.131884 144.4694 -12.37546
-7.678188 116.8623 -4.449625
-2.926323 152.7054 -9.546001
-7.706034 113.444 -4.946785
-9.550449 134.6755 -10.98618
-11.20417 124.0818 -3.399572
-7.696679 108.7418 -7.717784
-10.47214 132.5204 -9.603142
-2.990892 111.924 -6.323127
-11.54731 123.6532 -2.472012
-12.82647 126.7005 -2.219298
-12.37645 122.3005 0.4385576
-9.987725 99.52276 -10.74799
-13.69803 128.1019 -0.3805606
-9.34615 123.3123 -5.014416
-12.441 125.1687 -1.807323
-13.98436 130.5759 -2.103069
-4.644835 109.3904 -7.083294
-10.52236 124.301 -4.496288
-2.904417 144.0847 -12.204
-3.76502 144.4923 -12.22469
-3.019248 149.0904 -11.15788
-4.876875 148.5301 -11.44271
-4.084149 149.383 -11.11163
-13.21881 112.5633 0.06095675
-15.4964 106.2637 -0.5200289
-12.05623 120.9381 0.3852426
-11.22585 132.5315 -9.148736
-13.2 129.3372 -4.064948
-8.513456 137.6652 -12.35924
-13.51704 129.764 -3.574622
-12.89817 130.1004 -5.698731
-18.71688 76.69301 -5.160312
-8.44592 121.4841 -4.888948
-9.704154 123.2963 -4.695184
-10.3221 125.3878 -5.507292
-13.70129 128.98 -1.46175
-4.282196 81.4533 -8.822178
-4.453099 84.07282 -9.462783
-6.954595 78.63974 -8.731977
-14.79279 78.00071 -8.166039
-19.99994 87.86343 1.877656
-18.17055 95.25976 0.5852864
-16.83248 101.9692 0.308249
-2.963143 101.4878 -11.13737
-7.317665 114.0292 -4.924078
-3.631457 113.9651 -5.756104
-2.455478 105.3705 -9.203146
-7.015458 116.3453 -4.758714
-2.830669 116.9791 -5.9153
-4.552995 118.9311 -5.93346
-2.573551 117.0278 -5.934988
-2.367294 121.6848 -6.983464
-8.40823 125.9049 -7.165929
-2.375645 126.7806 -8.851054
-3.745729 129.3141 -9.849951
-9.15861 129.5079 -8.785532
-3.167697 132.2398 -11.05432
-3.337157 133.9968 -11.61984
-7.319888 132.7901 -10.96954
-6.863971 137.4781 -12.55416
-5.531621 135.799 -12.15741
-6.208215 141.3963 -12.80048
-4.002427 145.2148 -12.13915
-4.235598 140.9276 -12.62822
-15.80674 106.5725 1.443928
-12.20438 115.46 0.3316897
-14.46353 110.2341 1.296061
-11.16253 117.1182 -1.235119
-7.656788 115.7387 -4.512707
-11.91971 119.0217 0.7015909
-8.864838 118.5704 -3.769676
-10.86095 127.3025 -6.311439
-10.48997 128.3764 -7.312889
-11.95485 132.5905 -8.633917
-3.97323 135.115 -11.93605
-7.210975 136.5926 -12.28178
-8.004609 132.8192 -10.78923
-12.24251 128.3009 -5.234999
-19.98934 77.11393 -2.705904
-10.79931 123.0233 -3.267605
-11.53411 122.0003 -1.376881
-2.949368 79.3163 -8.720371
-4.548851 80.13499 -8.727639
-4.089509 82.10065 -8.905196
-12.31572 77.12646 -8.74676
-2.788565 84.28197 -9.579589
-17.37056 81.22529 -6.567657
-17.85745 96.62566 0.3749662
-2.723162 94.84819 -12.81847
-17.17092 99.3576 -1.009103
-3.122626 102.3907 -10.72046
-7.622148 109.803 -6.952019
-4.809346 110.1344 -6.682531
-5.936694 113.5273 -5.405032
-4.564705 109.0617 -7.291133
-3.097609 108.2585 -7.703469
-5.918832 104.4244 -9.655988
-3.489023 112.1033 -6.187756
-5.68011 112.2092 -5.794093
-7.328192 118.3973 -4.74495
-5.31752 117.083 -5.415271
-7.948864 120.8143 -4.961126
-5.028738 119.9137 -6.042162
-5.649421 122.6491 -6.806511
-3.61899 125.891 -8.491723
-5.39904 127.7441 -9.049783
-2.918999 129.4543 -9.911146
-3.591985 129.876 -10.10044
-5.974362 138.1348 -12.68184
-3.996511 136.0092 -12.15017
-5.237136 141.702 -12.72837
-5.431064 138.3681 -12.67234
-5.758465 144.1206 -12.47773
-4.661387 145.1676 -12.22349
-15.89261 105.5898 0.2540805
-17.15512 100.0233 -0.3155842
-14.80074 109.3055 0.8370269
-8.264354 112.8206 -4.9936
-8.808394 108.2672 -7.30244
-15.25771 107.8237 0.4873781
-11.9445 120.9518 0.090338
-8.181499 118.7612 -4.29481
-10.31375 129.5724 -8.099376
-5.999685 135.3854 -12.02786
-9.711673 120.7256 -3.490363
-11.56371 122.6076 -1.691087
-8.946524 78.37337 -8.739186
-5.293468 87.44387 -11.28557
-3.753625 87.20618 -11.13482
-19.48532 89.71476 -1.195779
-18.94862 92.47652 0.5171819
-19.94065 88.01069 -0.2527972
-18.42703 94.31644 0.5960187
-3.455231 90.61192 -12.45623
-5.146194 95.50462 -12.78527
-17.54642 98.36116 0.3447927
-5.270102 101.2732 -11.24244
-5.203638 111.7503 -6.026693
-6.081409 106.5236 -8.540706
-5.483021 103.4098 -10.23058
-3.587964 115.1393 -5.733243
-5.971234 120.208 -5.795328
-5.08031 121.8183 -6.673669
-5.109911 124.9247 -7.870141
-4.58897 131.0715 -10.63551
-6.31307 131.1921 -10.55452
-15.05245 108.1012 0.01576115
-16.79089 101.7212 -0.3493904
-13.20746 113.9233 -0.491687
-11.99988 113.1356 -2.676617
-13.01761 109.4964 -3.548026
-12.81672 110.7004 -2.810508
-11.64102 111.867 -3.352442
-15.3315 106.7266 -0.5875632
-13.86261 108.5779 -2.646058
-10.00544 112.9829 -4.429805
-9.301147 109.606 -6.902274
-8.747628 116.5028 -3.865923
-9.653003 117.8446 -3.071401
-14.591 78.81151 -8.19136
-5.349018 82.92948 -9.069048
-4.909053 84.92245 -9.842152
-13.45468 78.32182 -8.472693
-7.632886 87.70864 -11.45728
-7.58234 89.19814 -12.03021
-6.038499 89.62036 -12.21243
-4.251121 84.88857 -9.84165
-10.3466 85.59782 -10.03363
-20.34816 85.62844 1.80789
-18.71094 92.01404 -2.308221
-18.53398 93.71056 -0.4383031
-17.39139 96.56112 -2.75458
-17.30187 96.62174 -3.063469
-18.10288 94.28249 -2.315667
-17.40247 97.71497 -1.637459
-5.388332 92.85198 -12.8523
-6.499052 91.59752 -12.69981
-5.635554 95.03094 -12.83348
-5.176812 98.43546 -12.22351
-3.820096 104.1106 -9.848769
-4.764604 134.4892 -11.79426
-17.12949 100.3581 -0.07129113
-12.54069 112.6684 -1.659865
-14.11428 108.6622 -2.120799
-10.13669 119.517 -2.665666
-11.46972 117.5313 -0.5395727
-17.55832 78.83022 -6.47724
-15.49743 78.58204 -7.819471
-7.353952 81.03306 -8.742388
-7.312276 81.48335 -8.784181
-11.19847 80.44196 -8.684394
-12.76716 77.75134 -8.689599
-9.580029 90.21136 -11.94275
-12.40964 89.7821 -10.71233
-20.11892 86.43101 -0.8772982
-20.34804 85.28529 -0.3326816
-18.90598 80.90137 -4.911074
-19.24929 89.86657 -2.147454
-19.62245 89.03474 -1.181559
-17.7006 93.88608 -3.996175
-18.39406 90.56785 -4.145077
-7.842206 94.48096 -12.61225
-3.731602 94.59519 -12.83252
-4.774398 100.7143 -11.46808
-16.52327 101.1203 -1.947881
-16.2482 101.9144 -2.163845
-12.67239 113.6412 -1.738135
-14.04359 107.8199 -2.785253
-15.7338 102.3836 -3.11171
-9.549868 116.3043 -3.336549
-8.099718 83.02197 -9.022916
-7.026283 81.65925 -8.809102
-15.1601 81.55311 -7.915306
-12.77611 90.98701 -10.60509
-19.97045 86.81676 -1.356119
-19.98339 82.71355 -2.774329
-17.9658 90.55823 -5.023098
-4.532129 95.13855 -12.81013
-10.18073 94.51014 -11.92461
-7.03473 97.76454 -12.27239
-8.633923 95.00428 -12.4209
-8.478428 96.85823 -12.15247
-9.490481 95.99963 -11.98254
-16.2119 99.24599 -4.003539
-11.44007 113.975 -2.345701
-10.85747 111.6525 -4.174464
-12.71829 114.4685 -0.08589388
-15.00463 101.9299 -4.788355
-15.56051 103.2827 -2.878958
-14.94796 103.9329 -3.700646
-10.02509 115.11 -3.242902
-10.25299 80.45319 -8.690918
-10.20268 90.56806 -11.81226
-20.56804 81.1395 -0.694293
-20.05638 81.0216 -2.706259
-17.18915 92.52796 -5.759447
-6.963495 98.59301 -12.06603
-10.84018 94.8643 -11.5634
-12.51782 95.91797 -10.21267
-16.83934 99.81942 -1.960699
-11.07145 115.7315 -1.845193
-16.72258 81.8345 -7.063148
-13.34047 81.00504 -8.464326
-14.21048 82.65826 -8.349743
-20.00022 87.20339 -0.9013202
-17.17085 88.49878 -6.585117
-18.66506 89.35358 -4.02643
-19.72841 81.91138 -3.460495
-18.92688 82.20914 -4.865412
-15.88537 81.44451 -7.584389
-18.15111 81.46452 -5.836601
-18.77484 82.30844 -5.050488
-19.44952 85.1064 -3.624192
-17.19164 82.88271 -6.709873
-19.26691 86.36454 -3.684306
-19.0005 88.67153 -3.550907
-17.58377 90.26104 -5.743365
-16.05666 92.28678 -7.486736
-15.90859 91.58772 -7.847288
-15.9708 88.51679 -7.889375
-18.54983 86.98103 -4.833719
-8.752038 96.99451 -12.02542
-4.759511 99.56966 -11.88038
-7.755873 100.8277 -11.14245
-11.43948 92.82278 -11.41961
-10.44262 92.22923 -11.89684
-14.76436 100.5251 -5.928016
-14.27307 101.5734 -6.088032
-15.39488 99.34801 -5.548244
-10.37274 116.1159 -2.597488
-19.12044 79.01294 -4.605931
-15.21703 79.86652 -7.860016
-17.51968 85.11658 -6.351256
-12.22493 93.31612 -10.93167
-7.397609 97.44093 -12.28739
-10.94788 91.19624 -11.60393
-13.2243 93.17121 -10.21046
-12.82134 91.21381 -10.57052
-14.90185 96.75674 -7.555334
-11.26665 98.71059 -10.26427
-16.05426 98.49001 -4.833318
-13.9688 80.41521 -8.274874
-18.26807 78.45602 -5.744782
-18.86942 86.41132 -4.43487
-11.96216 88.46056 -10.68001
-8.947817 86.2634 -10.58588
-12.70074 96.9738 -9.738787
-14.65048 89.04617 -9.099689
-13.97326 99.15496 -7.635414
-12.09409 130.3841 -7.117864
-4.639902 124.5118 -7.817173
-4.227648 126.1697 -8.531659
-13.39455 105.4448 -5.096975
-6.9018 104.2009 -9.670866
-7.522038 106.3736 -8.168621
-6.377525 104.1985 -9.734101
-7.055933 105.3514 -8.944669
-6.866533 105.9052 -8.60899
-8.067101 105.3878 -8.673863
-9.376177 107.7311 -6.98763
-12.59133 106.3724 -5.461902
-11.40809 107.8804 -5.692689
-12.87291 105.6244 -5.591457
-9.821623 110.4379 -5.397254
-8.032138 87.66769 -11.41058
-9.859298 84.19488 -9.321146
-9.064988 83.6562 -9.162203
-12.1706 81.98494 -8.730725
-11.23722 85.25737 -9.696141
-10.94993 87.01762 -10.60646
-13.19866 86.78102 -9.62262
-11.92855 83.63788 -9.022938
-17.7898 88.61504 -5.749697
-13.68271 88.54036 -9.741455
-12.93752 87.66019 -10.01413
-14.51715 86.1548 -8.716379
-17.80092 86.77193 -5.987016
-11.63795 99.35361 -9.758704
-12.72257 97.91449 -9.386362
-16.86004 93.40393 -5.920455
-13.13955 98.3092 -8.877317
-14.4156 95.57838 -8.53159
-15.96801 92.83648 -7.492765
-16.00942 95.93499 -6.296183
-15.64587 93.21568 -7.806423
-15.53145 94.88469 -7.431762
-13.79978 97.84232 -8.385206
-16.16593 96.40856 -5.807486
-15.65915 94.86706 -7.258255
-10.20731 89.26551 -11.54836
-13.84626 100.6347 -7.110245
-8.720327 100.6072 -10.92368
-8.941699 105.6125 -8.241364
-11.41686 103.5106 -8.012268
-12.38645 103.3328 -7.298914
-9.216557 104.2141 -8.941241
-11.04473 103.2348 -8.439851
-12.43543 108.9807 -4.355935
-15.40682 84.04565 -7.957011
-13.21282 84.30114 -8.932205
-12.62064 99.49105 -8.892848
-12.35699 99.7039 -9.029057
-9.278971 100.0834 -10.89366
-10.87983 100.279 -9.904204
-15.28377 92.80206 -8.324273
-10.2083 102.8144 -9.18155
-15.66632 83.52425 -7.758867
19.13323 77.6339 -4.536767
19.46721 81.06243 -3.993797
18.16587 78.80501 -5.848136
19.27049 86.98821 -3.516418
15.38962 79.3008 -7.823678
15.24465 103.9455 -3.085692
6.096381 125.8859 -8.034063
15.08357 100.0124 -5.649626
7.89563 123.3118 -6.067349
16.62553 76.74431 -7.253642
14.74702 104.3246 -3.792186
14.44607 77.68974 -8.290545
19.60556 82.26984 -3.68226
8.240541 130.7374 -9.773028
4.448107 114.0656 -5.637414
6.784679 114.3087 -5.036653
14.67915 102.5054 -4.993732
3.752982 109.5205 -7.869539
10.80607 130.2276 -8.190327
16.15306 100.0674 -3.617678
10.32103 119.9459 -2.515351
10.41623 107.9875 -6.758652
10.25012 124.4917 -4.958926
11.91464 127.5505 -5.131762
7.415572 127.9198 -8.674143
11.62206 108.3723 -5.389951
6.831986 117.376 -4.876945
16.41729 86.97084 -7.396742
9.780655 127.2049 -7.124572
5.528067 118.1742 -5.483864
11.57354 129.9172 -7.307769
7.427464 132.1559 -10.67914
8.741403 129.1503 -8.777009
10.24468 122.8881 -3.917665
9.084539 132.3486 -10.20163
6.198681 109.7839 -6.521112
10.33192 129.7161 -8.207867
19.25313 81.45089 -4.349445
5.424735 131.1395 -10.63704
2.147631 152.8678 -9.544168
3.923885 116.0522 -5.696858
3.977446 113.623 -5.766937
4.449052 118.9728 -5.992423
0.8159463 84.99034 -9.926682
2.812082 76.98952 -8.781621
-2.129834 100.0366 -11.70526
-1.66408 116.1094 -5.810502
-0.463653 118.5938 -6.148211
8.083342 124.7433 -6.723866
6.146473 127.1953 -8.647517
-0.8183526 148.931 -11.06208
0.126169 77.88071 -8.750023
-1.59882 119.0383 -6.289172
4.449542 120.1602 -6.283966
3.641011 136.569 -12.24742
16.60423 99.02022 -3.233807
4.92652 138.5849 -12.66134
4.272112 123.0172 -7.294517
1.326905 141.3682 -12.3866
3.230599 150.1179 -10.75616
2.506135 149.4957 -10.96655
4.968582 153.4405 -8.364039
5.01935 95.99898 -12.72745
12.75983 129.2561 -5.159369
-1.220675 127.0117 -8.935089
10.08406 126.6483 -6.552671
4.77593 133.1767 -11.40782
-1.471721 127.8963 -9.260498
-1.158793 137.3166 -12.26803
9.691962 128.4236 -7.899502
-0.4693266 151.6046 -10.07507
0.7684009 151.4471 -10.12337
-0.3221195 138.6346 -12.37061
12.8487 108.9204 -3.848703
8.926249 128.6024 -8.406825
9.325942 126.5339 -7.019118
9.082467 81.25191 -8.744312
2.058437 108.779 -8.101652
1.213462 110.3775 -7.3631
5.682172 116.9719 -5.280745
6.412293 113.7194 -5.245826
8.253233 131.9184 -10.31554
1.971978 131.4845 -10.76837
3.289923 136.6984 -12.25149
1.774491 79.41573 -8.720959
3.447928 116.962 -5.845109
-0.3402691 121.166 -6.795982
5.990019 127.6604 -8.912971
-0.04595776 127.9078 -9.269441
6.842717 134.4686 -11.65355
4.809618 121.3316 -6.576028
-0.8999372 147.0472 -11.56134
2.427086 142.6633 -12.33609
2.560628 152.0612 -9.853124
0.3497482 148.715 -11.10169
1.185484 150.9851 -10.30984
17.30248 77.11898 -6.743747
17.61681 77.90701 -6.412672
16.64257 90.03475 -7.133187
-0.6702438 95.38919 -12.7659
5.073676 109.5943 -7.119018
19.70687 79.74773 -3.486659
19.62756 80.90476 -3.701718
18.9628 82.40879 -4.777302
17.38048 84.22114 -6.526783
17.46973 84.78308 -6.442131
10.53562 122.9687 -3.609311
7.770038 109.3166 -6.456786
10.4845 108.597 -6.042986
11.37688 111.4808 -3.848292
15.78516 99.18359 -4.950371
9.188596 125.8534 -6.696891
6.383407 120.8074 -5.810247
7.383374 124.4689 -6.917029
14.84797 78.64385 -8.101769
4.457047 108.3062 -8.462476
-0.8661421 108.5583 -7.633562
3.020003 111.076 -6.42259
0.5397458 112.7755 -5.844237
1.013795 113.5918 -5.769475
10.99464 114.8647 -2.364337
5.438806 115.8495 -5.30065
9.876873 118.0496 -2.871433
6.257517 129.6989 -9.875438
-0.2083881 129.8941 -10.1003
-0.2368687 129.1087 -9.760324
4.527275 133.3596 -11.47048
-1.699553 79.98231 -8.734264
5.411435 78.88873 -8.719
4.971295 77.58736 -8.759955
-0.4832367 115.9238 -5.717358
-0.6669642 117.9442 -6.048311
2.164222 121.9978 -7.102914
-0.4101173 103.8321 -9.985473
4.441262 128.8214 -9.632622
0.06582272 128.0989 -9.342248
-1.338668 140.6628 -12.41606
3.565849 138.8849 -12.54094
3.476258 141.0138 -12.55751
-0.7436925 142.554 -12.26974
2.928151 123.5601 -7.669697
0.2429643 124.3359 -7.948567
4.284383 126.276 -8.572454
0.7210552 147.9681 -11.32708
1.849702 145.6087 -11.8957
0.7825788 151.1163 -10.25555
17.65972 80.35442 -6.361384
17.72606 80.61122 -6.282346
16.30811 81.48376 -7.301349
11.37534 78.50701 -8.730411
18.69926 85.86069 -4.848747
-1.582419 96.37499 -12.64612
0.7294783 93.72796 -12.83683
5.388317 108.6491 -8.312201
7.841849 127.399 -8.244517
17.09557 86.50982 -6.755181
12.83234 111.0585 -2.468804
13.28423 107.8883 -4.642408
8.111741 113.2086 -4.890978
16.18 99.64368 -3.832081
14.572 102.3591 -5.234156
11.27699 105.1002 -7.202643
13.97925 102.4293 -6.023102
15.16478 97.50357 -6.850155
8.415214 119.4963 -4.267179
17.52018 91.72491 -5.473397
0.2350014 107.3866 -8.125594
1.700938 112.5101 -5.92001
-0.285005 114.3351 -5.674817
0.3463368 115.2554 -5.622125
3.742862 113.7246 -5.785705
5.121314 114.5955 -5.429289
6.225916 117.8672 -5.178124
9.144573 120.6649 -4.014401
3.469372 132.1307 -11.03018
0.6836528 134.5033 -11.72334
1.108465 131.4244 -10.74215
3.322359 131.544 -10.80424
2.999676 129.9496 -10.12715
0.1574127 129.5214 -9.937535
3.995329 133.3602 -11.46059
5.629308 78.01083 -8.745378
-0.4891511 79.38468 -8.72039
0.7914358 81.39848 -8.829424
1.957749 78.76733 -8.727141
7.762409 80.05714 -8.716486
3.443544 78.90849 -8.720003
1.280523 117.5521 -6.064784
-0.03965872 118.4283 -6.09316
-1.607378 122.7913 -7.380758
0.2370716 102.4359 -10.68917
-1.986909 101.5131 -11.11886
-0.2515668 127.2046 -9.005821
-1.317919 139.6995 -12.42946
0.1048714 139.8511 -12.40806
-1.063467 135.8792 -12.03495
2.696995 139.7384 -12.50272
-1.15844 143.3793 -12.19403
1.792456 143.4137 -12.21361
0.9944943 142.6261 -12.27267
1.125295 123.8134 -7.755984
3.970663 125.9241 -8.47209
19.31858 84.70878 -3.97196
17.43645 95.90765 -3.261954
17.93753 93.64413 -3.52453
-1.087429 94.49371 -12.82371
0.5838565 94.5205 -12.82773
3.311386 86.87879 -10.95718
5.722099 110.596 -6.274839
11.27815 113.3371 -2.819927
8.613895 109.8977 -6.037287
9.892554 109.1393 -5.942318
7.55512 118.4661 -4.624468
12.26904 78.60143 -8.682096
18.25802 90.65909 -4.405502
2.042064 108.0013 -8.063334
1.181916 106.6425 -8.476614
1.694338 107.4338 -8.115946
2.099792 109.976 -7.678529
0.09189667 114.522 -5.674223
9.078706 117.0843 -3.589369
8.208787 115.4347 -4.294673
9.469972 117.3788 -3.278226
1.586277 135.0799 -11.87522
-0.5560415 81.723 -8.868938
1.093637 117.2578 -6.063209
-0.1678473 102.8249 -10.49722
2.711011 128.9033 -9.668782
1.721576 128.4546 -9.482508
1.694707 134.7425 -11.79679
0.3438552 143.9607 -12.09953
0.2503319 120.7699 -6.688467
3.458965 126.4241 -8.716256
16.36086 96.02878 -5.646238
17.14215 95.4262 -4.386015
15.65542 95.86349 -6.887359
17.50738 90.83205 -5.755233
1.469933 94.9498 -12.80439
4.406157 110.7471 -6.423207
12.29062 106.046 -5.932251
12.88914 105.6189 -5.57996
12.86885 104.5689 -6.17105
8.721951 111.7983 -5.205361
8.565923 113.6047 -4.54849
6.222906 111.4267 -5.943173
7.046678 115.8526 -4.771825
11.67118 77.65805 -8.764932
-2.299523 87.30499 -11.18003
0.389442 110.3295 -7.401249
7.534466 116.7027 -4.518332
11.06114 115.35 -2.062753
5.002445 82.50095 -8.977873
2.321744 80.15792 -8.731688
1.156968 103.5283 -10.14236
1.394992 99.58622 -11.84947
0.4547298 98.3749 -12.21942
-0.9384028 97.52048 -12.43075
2.269768 126.0364 -8.576233
18.50762 87.73421 -4.807563
15.9912 94.69215 -6.853528
17.06874 91.0335 -6.38712
16.4323 93.42796 -6.650517
2.061036 96.28686 -12.65928
0.225881 92.26398 -12.73955
-0.7688285 88.42021 -11.69692
8.398028 107.6323 -7.809879
8.911372 113.9583 -4.286281
6.356873 78.4667 -8.730036
6.870335 107.1039 -7.782092
17.59253 89.36328 -5.897275
15.42946 95.44222 -7.370631
14.59431 97.34253 -7.678119
17.32808 92.56819 -5.505325
14.74761 94.97237 -8.369571
3.678988 89.07649 -11.98688
2.737608 96.42538 -12.63923
2.421286 95.35322 -12.77886
-1.358325 92.43394 -12.76901
0.2881768 89.90139 -12.25467
0.9322885 88.60434 -11.77983
5.75805 102.5615 -10.66514
8.095439 107.9608 -8.057398
8.24507 107.2364 -7.633442
7.745762 107.0168 -7.681316
4.237472 107.1337 -8.148044
6.627604 106.2946 -8.385143
5.767984 103.9725 -9.903661
8.324203 78.34504 -8.735415
4.222843 104.8313 -9.436899
13.48199 98.10696 -8.608036
15.82247 87.9446 -7.963559
15.27147 91.59608 -8.536057
4.220069 100.3127 -11.61394
2.944266 98.92556 -12.06254
2.381502 91.83984 -12.69295
1.701751 90.54861 -12.42569
10.85614 103.2626 -8.547772
3.448436 102.4358 -10.7135
3.576363 101.852 -10.98613
5.148379 97.6828 -12.39834
1.890227 94.64706 -12.82589
6.333117 96.43349 -12.61899
1.290159 90.3116 -12.36397
9.643599 94.13068 -12.16807
2.260718 89.25594 -12.05045
7.104102 104.6454 -9.36748
6.702331 104.4764 -9.538426
7.006191 81.78185 -8.823419
15.0386 84.56247 -8.223757
10.9026 80.16089 -8.692211
5.603435 101.5694 -11.14051
5.635518 101.9831 -10.95383
4.127099 98.60626 -12.1613
8.614973 90.06243 -12.12764
11.07198 102.3544 -8.844489
6.457428 82.24421 -8.893831
12.32187 80.52651 -8.616311
15.72059 82.866 -7.6872
8.430779 100.9883 -10.84273
6.38796 100.2488 -11.60679
7.486076 97.91384 -12.14658
5.517764 91.28501 -12.64231
5.940132 81.88198 -8.850331
3.977501 81.03359 -8.783822
2.266826 81.08897 -8.793282
7.574712 83.56972 -9.178545
11.68852 79.67669 -8.674161
16.05331 81.80948 -7.475113
11.3602 80.86879 -8.69867
14.19032 78.89427 -8.305244
6.846267 91.4828 -12.65824
9.322498 103.8867 -9.045281
9.327503 101.3668 -10.34048
8.649815 82.77037 -8.947881
10.05164 85.66273 -10.13001
12.78542 86.02556 -9.502221
7.455708 87.26856 -11.22647
15.46523 84.48631 -7.977593
12.32747 84.85122 -9.310861
13.41149 85.34431 -9.085714
12.37762 85.6882 -9.55272
12.93088 93.39774 -10.41335
11.18989 103.7733 -8.047668
13.00244 98.96519 -8.724495
6.181636 100.9798 -11.34773
12.92076 82.56572 -8.670868
12.47453 86.82958 -9.988646
14.62044 89.11465 -9.078732
9.767819 88.02277 -11.28745
7.463024 88.13387 -11.655
6.102104 88.04199 -11.61075
7.237095 88.71023 -11.89969
10.78717 101.9245 -9.26065
11.61253 85.40449 -9.648681
12.49584 87.12094 -10.07466
9.551893 87.61381 -11.19043
7.691329 84.26553 -9.429348
7.876377 93.40345 -12.67903
10.06814 92.5922 -12.055
11.12682 90.06429 -11.37791
11.81116 90.20824 -11.09281
14.05872 92.20137 -9.631214
11.02581 100.888 -9.569447
9.24803 97.33443 -11.77878
12.86054 96.67146 -9.704473
6.52288 83.82838 -9.303198
14.9081 88.78314 -8.813127
7.358114 95.55637 -12.62898
7.681763 93.7384 -12.71313
12.92918 91.21174 -10.5271
11.8126 91.87484 -11.21575
11.68073 96.78858 -10.60475
11.84287 94.34842 -11.04096
14.55443 92.13647 -9.200923
13.39321 96.99727 -9.102324
14.78534 90.97095 -9.038637
9.291018 98.62927 -11.39408
7.776463 94.51994 -12.65098
13.45529 89.82243 -10.07346
2.722569 87.09084 -11.06765
0.4021021 88.01317 -11.51264
3.379569 86.4768 -10.73198
2.36833 83.25727 -9.201543
-0.2551292 86.79182 -10.90038
7.852746 84.29553 -9.440925
4.120586 84.54594 -9.661361
6.09796 83.48212 -9.200053
6.778668 86.20609 -10.58194
4.541098 95.12908 -12.82189
14.08626 95.19754 -9.008713
10.20084 94.98624 -11.84117
5.656086 94.5934 -12.86358
3.892362 86.87392 -10.95754
10.58027 100.4796 -10.04066
7.572776 97.94028 -12.11997
10.96705 97.92791 -10.72384
11.27769 98.2005 -10.44384
19.34407 77.28952 -4.174962
3.01112 136.3754 -12.18062
1.229482 136.7621 -12.19211
0.1963464 135.2354 -11.89555
1.247215 104.9856 -9.372412
0.7427722 99.02518 -12.02895
2.790944 104.3669 -9.703447
6.585187 103.3937 -10.15516
12.77178 99.76671 -8.620503
13.40315 101.6726 -7.089734
8.038671 101.3323 -10.84523
9.307193 100.6684 -10.64512
4.555856 151.6147 -9.870183
11.78673 132.3991 -8.653258
11.74336 131.1259 -7.93725
11.06967 131.9441 -8.928339
8.169353 134.4409 -11.3448
10.82637 136.8657 -11.32033
4.246624 140.7787 -12.64399
7.974041 145.2201 -12.50396
10.25373 138.6573 -12.0404
10.4351 135.7083 -11.05102
10.61333 136.6325 -11.34347
4.265519 145.203 -12.17941
3.559965 145.5775 -12.04842
5.54109 144.9734 -12.33994
8.483275 142.9574 -12.5526
14.1754 133.9157 -6.82865
5.04937 153.2183 -8.501602
14.47584 136.1913 -8.215228
10.04849 133.2748 -10.17784
6.082697 145.6272 -12.25574
7.577601 150.774 -9.636469
5.596921 152.787 -8.571548
7.625455 150.1998 -10.09943
13.31255 134.6122 -8.640752
7.091726 136.3074 -12.20865
9.685217 138.3897 -12.18245
7.96091 136.4904 -12.11191
8.856156 135.7384 -11.63457
9.975886 134.5671 -10.77526
5.553408 140.0583 -12.80969
6.553966 143.1741 -12.63534
5.237668 142.8334 -12.60955
10.21233 138.3697 -12.00137
4.26968 147.2991 -11.78877
4.204844 144.0706 -12.33141
8.704407 149.7198 -10.17619
4.708952 148.807 -11.32569
5.214366 149.6343 -10.92753
10.40591 134.0038 -10.32272
11.71725 134.6343 -9.884306
10.67804 134.8321 -10.54598
8.817561 143.0552 -12.60326
8.984536 140.0883 -12.53588
7.36214 147.0343 -11.84017
5.80689 147.279 -11.89012
6.134238 150.2148 -10.43098
5.818609 143.537 -12.56577
