# .PCD v0.7 - Point Cloud Data file format
VERSION 0.7
FIELDS x y z
SIZE 4 4 4
TYPE F F F
COUNT 1 1 1
WIDTH 1667
HEIGHT 1
VIEWPOINT 0 0 0 1 0 0 0
POINTS 1667
DATA ascii
0.5527661 47.61853 -11.11258
1.722617 55.05654 -14.07493
0.5500363 52.15203 -9.121852
-7.84085 41.05909 -18.91324
-4.832274 40.26067 -17.7239
-6.026778 49.2288 -18.45858
-5.850763 44.52669 -18.38103
-5.669468 43.47566 -18.28535
-8.696404 41.67584 -19.02369
-6.179294 46.74677 -13.26996
-5.208909 51.45685 -15.80511
-5.969968 44.98977 -13.65904
-13.89463 46.41134 -13.78813
-12.90998 46.7953 -13.40188
-14.12965 50.26369 -13.77962
-12.88076 49.43465 -13.2684
-10.89947 50.83662 -15.27899
-12.54774 45.33662 -13.57654
-15.07512 41.09495 -18.46576
-22.81714 38.92857 -13.53268
-20.66625 47.7074 -13.37614
-24.46499 50.42175 -10.67987
-22.73574 44.95839 -13.27241
-20.73169 42.88982 -15.73073
-21.86365 46.90586 -6.814576
-23.0006 43.59291 -7.903255
-22.90807 42.75675 -7.55338
-23.89586 46.49569 -9.321345
-22.76838 42.71355 -4.738073
-22.237 51.53492 -8.51221
-23.11497 47.68404 -8.74899
-21.4869 48.40205 -6.069453
-26.55184 43.2336 -4.161788
-24.1086 52.17403 -11.50651
-22.34454 49.19932 -8.20594
-22.7824 39.9589 -6.048745
-26.93161 46.41349 -4.196584
-25.79129 46.25613 -4.045234
30.52837 38.24202 0.4128037
23.46249 37.98487 -11.82841
21.30007 50.30344 -4.00848
22.55295 39.56086 -10.91542
22.79572 39.27885 -6.335345
21.86263 43.55472 -6.626574
23.80419 40.84864 -2.74573
21.02119 50.03474 -4.861926
-23.65085 53.00846 -4.740265
-28.99508 50.4017 -2.763186
-27.85881 46.49316 -4.024998
22.0308 49.02226 -19.96616
21.49891 49.91859 -20.20989
15.23073 41.31141 -21.89858
12.42192 41.47032 -13.25825
10.97788 35.31394 -12.2955
8.034484 35.30012 -11.32346
5.036744 38.52235 -13.79162
0.7383575 48.26772 -11.94694
24.48509 42.17963 -14.67448
23.10564 48.16012 -19.10778
25.6923 53.00135 -1.44798
23.7794 53.28491 -15.35676
13.69468 42.67394 -20.79453
21.1863 52.58255 -19.85564
15.24354 53.46787 -21.09775
22.00496 52.19763 -19.31983
22.66321 52.52848 -13.66736
11.6124 53.34633 -13.34375
-0.09318181 39.19779 -9.441417
-3.548018 46.58765 -7.259428
-0.5992995 46.07436 -7.645444
0.4299377 42.94936 -11.32139
0.2812318 42.25322 -10.8682
0.8375292 46.54536 -12.32247
5.24094 48.32964 -14.61431
0.5810896 38.74036 -11.46389
3.917017 55.86548 -14.76495
2.45838 53.69181 -14.55518
9.377478 51.09815 -12.15546
5.432628 50.66333 -14.68846
2.17106 50.23372 -14.23596
-6.31378 42.22617 -18.55733
-9.087046 48.52767 -18.92214
-15.96197 43.49904 -19.2441
-23.86583 45.17091 -13.21634
-14.96986 48.34219 -17.04596
-14.81619 45.85181 -15.67696
-29.44141 47.19047 -2.815602
26.42484 40.42769 -2.335208
28.13539 41.76886 -1.851429
29.92692 45.67509 1.398998
20.8925 48.62184 -6.56642
20.82649 47.94156 -9.571876
20.80563 49.58641 -10.72452
22.54817 49.27812 -13.90776
23.5655 47.2253 -15.06971
14.55415 48.25851 -21.40746
13.06279 50.0805 -20.44588
13.58217 53.62558 -20.56295
10.80619 55.42588 -15.60543
13.12097 54.10682 -20.31863
7.456552 46.45918 -13.33284
11.7554 43.4482 -17.66948
12.30731 46.62148 -19.59517
11.48606 49.53621 -18.16471
23.18009 50.04459 -14.72629
21.49524 47.74134 -11.96507
18.02631 50.94403 -21.49056
-4.585441 40.99443 -8.181542
-1.980354 41.98204 -6.975057
1.034883 48.6133 -12.69086
10.2445 49.25922 -11.38855
7.162722 41.1707 -12.53496
25.02343 43.1044 -2.289058
28.35109 43.94491 -1.538089
25.55762 49.551 -1.893594
28.85403 50.6491 0.4705559
23.82609 48.4932 -1.932456
23.11121 44.4962 -2.692434
28.72001 50.60662 0.209743
21.66269 51.1543 -3.044996
23.35071 43.26838 -2.664421
29.62766 47.17291 1.130286
11.72703 46.36398 -14.73306
10.99111 53.14429 -15.67212
11.87263 48.37271 -13.13595
12.01104 45.84796 -13.37936
11.39011 48.63803 -17.84505
26.44765 52.73945 -1.561931
8.800638 39.5489 -11.39882
4.127889 44.35232 -14.44147
7.105966 37.96584 -12.1966
8.607584 42.52426 -11.63338
11.06237 44.23215 -11.41317
-20.66537 53.14464 -13.2044
25.68886 61.33002 4.73773
26.08002 63.0918 3.434034
21.12282 62.68633 -9.78174
20.42923 62.40572 -7.374911
16.68063 66.34166 -18.40514
-22.64869 61.31138 -10.08026
-16.72985 61.11049 -17.28685
22.31369 69.72012 5.844278
-5.510107 62.21957 -14.20715
19.81455 80.58493 -4.380975
21.88681 61.73378 -11.79257
11.55693 80.72927 -15.44084
0.6164742 79.04652 -10.62377
-7.93677 61.51789 -17.82265
-1.906815 66.26627 -8.775634
-17.23813 63.45898 -16.6792
-21.77051 61.54395 -7.97533
20.48159 61.93096 -6.142799
-27.04773 61.2755 2.166589
13.18005 61.74723 -18.45481
-18.02491 71.91405 -13.44986
-8.480719 80.27532 -16.33289
26.51402 62.15162 2.594363
-16.88828 64.07669 -16.84896
-19.30328 79.07616 -5.846179
-13.05758 62.03687 -13.29175
0.8046152 62.69007 -10.89501
-7.600999 60.97482 -17.82386
-13.84357 61.79553 -13.83299
-22.42061 61.74903 -4.130292
11.05675 65.6014 -16.45335
2.615346 62.02281 -13.99169
-14.11344 61.48846 -14.1495
22.52608 63.25543 -1.977775
8.568516 63.84997 -11.83385
-10.82271 61.57816 -13.69582
21.36238 63.14373 -14.10173
25.44728 66.86169 0.3024366
-3.968575 71.8394 -10.1421
20.4561 63.00116 -7.671782
22.68561 76.10873 4.070699
-2.249519 78.20885 -11.02162
17.45666 79.77744 -12.03316
-20.91009 71.93634 -4.049387
16.7652 63.59012 -18.78387
-15.72002 61.77967 -16.46537
-9.839695 63.87521 -17.03605
-1.341801 70.28737 -8.955896
1.638194 64.90328 -13.37592
-24.33908 74.82682 3.198239
3.956267 77.40937 -14.58002
-21.37593 78.21069 -8.052238
-3.166882 63.77891 -8.97142
19.27431 63.71655 -16.5489
-0.659828 71.20159 -8.843828
-16.8151 62.9732 -16.99281
23.58405 68.45139 4.79305
-3.700579 69.7747 -9.645869
4.483645 80.14864 -14.26641
-2.253164 79.31669 -10.94301
-21.76197 80.75089 -2.576872
17.21053 80.91028 -13.08111
1.233143 66.36404 -12.91251
-21.21623 78.33054 -8.729534
16.86557 68.38288 -18.00054
-20.42081 64.63198 -5.719622
-5.415248 63.77997 -14.79827
10.66456 65.54916 -13.81025
23.07273 79.02571 2.852733
0.7366037 77.19221 -11.11788
-3.751805 66.78602 -9.316818
-22.777 80.28508 1.079959
20.36781 79.43714 -7.540883
17.50342 80.68592 -11.91592
-11.05272 77.00368 -12.56281
-18.98823 80.21259 -9.630592
-25.42407 70.48705 3.698336
-18.26394 71.27868 -12.26829
11.06697 67.13153 -16.68045
20.61419 80.08723 -2.925538
-1.231673 74.32348 -9.406077
-22.84236 79.28248 0.3516951
20.85118 78.32259 -8.324363
20.50526 79.7215 -9.185652
19.16681 78.79309 -11.3214
9.795747 79.05848 -14.9274
8.903107 76.37449 -11.74704
10.37126 76.6067 -15.77235
-6.069564 76.30184 -16.3305
-12.05033 76.66808 -11.95074
-9.928867 77.01907 -14.96293
-17.54179 75.61867 -14.2451
-20.81435 78.81633 -9.262327
-20.67943 80.45236 -6.96483
-26.31703 67.42139 5.466425
-21.99341 67.98192 -10.49679
10.62414 67.52274 -14.65429
-2.403632 69.33089 -9.194251
-22.89616 78.27534 1.192183
7.848053 77.18901 -11.85138
7.676891 72.26647 -12.06387
8.459132 65.34415 -11.80976
-11.93732 75.77055 -11.92181
-23.13865 74.96682 -2.63508
12.53621 67.82182 -17.88884
-20.94565 66.34107 -11.61532
19.27591 76.44405 -4.493638
9.53948 75.42183 -13.79863
-12.23922 75.43719 -11.99703
-14.35598 76.39133 -14.28528
21.48096 66.49238 -9.821373
21.58247 74.03981 -0.8033489
10.03728 72.60476 -14.62915
8.106696 67.38052 -11.83466
-9.544835 75.57813 -16.4743
-20.85418 68.23515 -11.18967
-18.71637 63.78522 -13.60354
10.41876 69.99821 -14.67521
6.629741 67.26317 -13.43204
-14.64847 75.72926 -14.61236
21.29394 66.11053 -9.465158
-19.62658 73.02924 -10.79674
-15.95233 66.19997 -16.2244
10.58212 72.47222 -16.28364
8.162334 69.56424 -11.84154
4.284152 74.76092 -14.86546
13.93461 70.2886 -17.81114
21.71137 67.53268 -10.34472
19.6137 69.1809 -4.647533
4.517908 76.55637 -14.83678
14.59608 69.92587 -17.97154
17.9308 69.0685 -16.47807
1.191172 75.32836 -13.46607
0.7849988 71.05217 -12.31317
21.31232 67.58157 -9.166856
0.4403962 76.61954 -9.892414
4.671253 69.16249 -14.7336
-17.91561 72.76736 -13.49685
21.97925 72.50694 -0.6421841
17.98094 70.76437 -14.87599
-17.3361 74.1542 -15.10035
3.269068 66.33253 -14.51481
-16.23625 68.2771 -16.00012
-15.23147 70.80627 -14.90862
-2.352765 60.55996 -8.624456
-21.36676 61.86384 -4.346385
-13.64083 66.20531 -13.39284
23.5939 66.11281 -0.8988603
20.54894 66.6965 -3.36295
25.33205 65.80269 0.1540941
19.62011 69.52176 -4.347018
19.96741 66.91482 -6.299094
25.54955 66.9887 0.4099888
7.378323 63.95627 -12.78075
-5.40776 65.49374 -14.647
-2.899244 72.55255 -10.12747
22.90413 78.521 -0.1937831
-23.24991 75.3947 1.236503
-22.12219 75.53836 -3.695969
-24.26502 71.03764 2.077665
20.6079 78.40505 -6.808615
21.26112 72.15594 -7.92191
21.53924 74.18427 -8.974546
21.51292 72.53951 -10.69174
18.40064 75.07373 -12.75817
-21.43413 76.29156 -9.074237
22.6872 77.89855 -0.5027645
-20.42572 76.48656 -3.862345
-12.9814 69.22913 -12.69181
-9.888137 73.59306 -15.78806
-21.91552 67.16376 -8.241192
-20.35015 65.35583 -4.814369
-20.42203 68.18761 -6.163207
25.2042 71.26242 1.927988
19.55375 70.63006 -13.23415
13.28545 73.69659 -16.53318
17.713 73.17748 -15.60597
23.20196 69.94753 -0.3616255
1.479366 66.44763 -13.39418
-11.94418 69.71849 -12.50337
-26.38559 63.12173 1.734538
-24.2081 65.13715 -3.486582
-9.666676 66.75149 -16.84739
-10.42737 63.19962 -15.03156
-10.31767 69.52372 -13.73835
25.09735 71.00942 2.622175
22.69016 77.25621 -0.4595776
24.39826 76.01826 2.046608
-5.772656 66.69599 -11.43995
23.23256 75.18694 4.04749
16.61806 77.64435 -15.00693
-21.24379 74.52988 -7.311979
-21.42486 73.27888 -7.463224
-6.312077 75.26225 -12.46601
-22.26106 72.00519 -3.964149
-24.47033 71.56004 -0.314852
17.72648 72.84644 -15.66548
-7.038122 75.65434 -17.31688
-21.21609 75.86556 -3.952003
-8.575123 70.65923 -17.62702
-19.66773 71.24036 -11.01997
-25.55139 66.46722 2.394376
-5.85262 66.38324 -12.05055
-5.915139 68.11415 -11.60277
-5.588794 68.88039 -15.90097
-21.27189 75.54196 -7.436499
-21.94086 71.40141 -9.372833
-19.81935 71.83804 -5.704116
-23.68177 72.88544 -3.122804
-24.99154 68.23129 -2.225251
-18.25282 72.33965 -11.73537
-5.615224 75.13633 -15.18217
-8.142889 71.71973 -17.63717
-5.518548 71.87158 -14.21295
-22.76222 68.66792 -3.84879
-26.23643 62.41515 -1.587525
19.94138 82.68158 -3.919787
-14.636 82.54664 -13.16485
22.1117 82.34932 2.175865
16.8257 88.91064 -8.668886
11.82452 83.80443 -14.91301
-8.444443 80.99982 -16.29914
22.31527 81.24059 2.417814
8.570644 94.88084 -13.32693
-20.89545 82.75969 -3.018963
-12.00959 82.33019 -12.32898
-6.080522 83.08065 -13.5893
0.9350463 81.80804 -12.15987
-21.54537 83.86134 -0.4634449
-22.68684 82.35728 1.101917
-0.4502532 98.31561 -11.42566
20.52788 84.36134 5.792548
-16.08248 91.66227 -8.931292
-17.44869 99.38488 -1.787562
-22.8309 85.30336 4.606005
-22.20012 82.07623 -0.1603304
-4.755849 81.04356 -12.14521
-17.60533 82.38569 -11.18555
-2.926564 81.15466 -11.09366
18.41004 81.80257 -10.43325
-20.37027 84.39224 -3.28733
-21.07875 84.24242 -1.044909
19.57366 90.45867 4.621964
-19.37039 98.81277 3.018997
-14.13154 100.8474 -8.332662
19.38326 83.28252 -8.794905
-14.5897 82.00641 -13.21585
-7.688271 84.2435 -16.51952
-18.95074 84.15818 -4.951613
-19.76579 97.32378 0.8936362
-0.417896 99.99968 -11.43811
-22.71122 84.92532 2.27622
-21.83765 82.89423 -0.3664383
3.736062 85.43445 -14.2621
1.438628 85.5796 -13.36174
-3.100546 83.02044 -11.68678
-18.88559 84.84092 -8.82875
-20.43973 85.71715 -2.884522
-20.22611 97.49355 3.912495
19.40927 89.35187 3.830716
-8.691222 97.86127 -13.41371
-22.61666 86.08692 2.588531
2.815105 86.12464 -14.06993
0.2670154 85.38373 -12.25114
1.792602 89.46414 -13.82259
4.291795 89.24046 -14.41761
-19.57599 89.40323 -1.288804
18.97432 93.75061 2.516077
19.54089 89.75862 2.950789
-5.691694 97.34709 -14.34822
-17.00932 99.04482 -6.367432
-20.64902 94.7196 2.874862
20.68085 85.53778 3.116548
17.21893 99.14661 -2.113256
17.50611 98.63122 3.439073
-17.42313 99.86649 -0.2722264
17.44549 98.22187 -3.408017
0.6932464 94.72697 -11.65539
8.615391 100.305 -11.8351
-5.422647 95.80473 -14.30027
-0.4075933 94.48523 -11.0566
-9.099273 98.46752 -12.03269
-9.64757 97.61613 -11.61137
-13.14534 99.56535 -10.83997
-15.03855 99.31842 -7.114073
-19.11836 91.38586 -3.208205
11.23127 95.98369 -12.26031
9.121894 97.44129 -12.8112
-17.34104 97.88208 -2.706635
8.679836 98.57929 -12.03018
-0.486554 93.09475 -11.3253
-9.075657 100.0849 -12.03772
12.05962 100.2251 -10.49186
-19.81721 97.68668 1.088479
15.83977 96.02769 -6.815642
-2.667206 99.63442 -11.57739
-14.02968 98.72727 -9.969123
-17.48749 96.75375 -3.123709
-2.510779 93.25745 -12.98744
-4.626298 90.64245 -12.81919
15.84664 93.55473 -9.048558
2.468955 93.55673 -13.9378
7.8064 91.64246 -13.36089
7.020421 91.39827 -13.95426
5.554032 86.79164 -14.32036
15.4206 93.39231 -10.50225
6.196683 95.05185 -14.01374
13.46656 95.75209 -11.55168
6.355213 94.10107 -14.17962
12.68196 86.44926 -14.2217
19.64853 86.35941 -6.918939
17.08865 85.58225 -10.4631
12.04135 85.39851 -14.57711
12.44071 88.65906 -13.83401
11.15655 89.09938 -14.08961
10.39806 92.18787 -13.8286
19.31565 87.7782 -7.118639
19.32317 87.80659 -3.537748
21.58423 83.22136 -0.6659466
21.74179 84.58462 1.975947
19.7808 88.24514 -2.527108
17.07342 94.28698 -6.677595
17.8765 90.92561 -7.359628
17.84854 88.60921 -8.023001
19.98723 92.02354 -1.417464
20.15533 94.50821 -0.25293
19.53743 91.71947 2.305068
19.81479 95.98161 0.8705181
-2.253044 88.05969 -11.89466
0.3906471 91.52784 -11.83706
-5.103068 85.71671 -12.62242
-5.071603 86.68931 -12.79786
-6.755868 85.9687 -15.49211
-15.25859 96.2363 -8.654103
-17.00724 97.03383 -7.000293
-15.93613 94.04567 -8.060047
-17.68708 90.59892 -8.136504
-21.64156 90.51678 1.719115
13.41594 93.50658 -12.49796
-18.66014 96.6888 -0.08373468
15.95364 92.34377 -9.689211
2.148971 91.44727 -13.95227
4.76178 92.2243 -14.35448
16.45332 89.97514 -9.189387
14.63155 88.67983 -13.17076
20.55486 90.50349 1.500169
-18.56286 87.99892 -5.406875
-18.62465 87.61942 -4.675984
-13.52724 94.1032 -11.98453
-18.8414 92.37759 -5.931663
-14.69309 88.40749 -12.8361
-10.91599 90.19231 -11.83988
-13.16768 94.39824 -11.97764
-13.005 92.05197 -12.2828
-16.2805 89.42408 -11.05104
-17.54825 91.72136 -7.95347
-9.012556 88.78474 -15.19954
-9.433893 87.16416 -14.50938
-15.62009 88.35906 -12.41816
-16.32689 88.91088 -11.25558
-8.522864 92.88621 -15.31185
11.57159 92.72373 -12.99246
-18.33073 94.69909 -1.414349
-19.16774 91.79691 -2.454334
-18.47328 89.68083 -5.08286
-19.37686 89.32462 -7.27967
-10.40298 88.64067 -12.22899
-19.42283 89.56463 -6.886349
10.00267 89.62279 -14.30443
16.37433 102.7309 -3.391367
-15.41309 102.2473 -6.539799
2.147059 100.8889 -12.38177
-15.9863 104.1996 -5.338126
12.37039 119.1539 2.851303
17.6234 101.9676 -0.3538964
4.685833 101.9424 -11.37933
-10.48664 107.1048 -9.324905
-16.35481 101.4649 -6.24357
15.87609 103.672 -4.485215
-15.71774 113.2333 2.950589
-1.697863 101.5832 -11.35933
-4.707473 100.8239 -11.95262
-11.33549 117.6151 -2.403136
-15.9027 103.7556 -3.371123
-17.07298 102.611 -0.1863889
16.49477 107.1284 2.652359
9.139737 104.2992 -11.12541
-11.40156 117.9134 -0.8274534
-1.060226 104.264 -10.56197
-0.6472206 101.4814 -11.94006
13.33356 117.1641 2.489053
-13.33099 116.334 2.471613
15.05317 112.5548 2.967094
-17.14555 106.7821 1.911407
12.2991 116.0743 -1.159924
2.173206 112.2307 -8.441951
-0.06743161 113.0844 -7.830618
-13.28659 117.0903 0.2257184
15.74161 109.4145 3.504173
2.28707 106.6684 -9.78218
-0.6313955 110.5302 -8.464074
14.47544 114.225 3.164345
-0.2622666 110.2035 -8.659267
-3.311552 112.7215 -9.482801
-10.6809 116.7871 -3.106984
9.547531 118.1194 -3.187927
1.431054 104.0165 -11.48038
-4.482497 103.5236 -11.63288
-2.728526 108.3405 -9.159166
-3.442714 113.1257 -9.268981
14.52176 114.2197 2.338213
10.15648 108.4048 -6.786238
-0.9481683 108.0898 -9.150685
-5.760615 106.7281 -10.65863
-12.02459 116.1469 -0.5202101
-2.075141 104.6932 -10.0285
17.19575 105.4452 1.09802
14.63974 114.2077 1.094677
16.26068 103.7325 -2.290206
9.980745 114.4562 -4.224311
15.59998 103.5513 -5.032559
14.5453 108.0095 -4.626316
14.72618 109.2509 -3.554959
14.11555 107.8146 -4.976977
11.67688 113.675 -3.861854
14.03367 102.4982 -6.47418
-16.85503 107.5751 1.600757
-15.49683 106.8495 -0.6530093
15.93029 105.7945 4.078101
-14.08545 115.387 0.4773589
-15.64529 110.9309 0.4773982
2.98662 103.2403 -10.76381
-12.62592 115.317 -2.62167
-12.6986 114.1576 -1.559165
-14.36552 112.6884 -0.4329266
-14.7711 106.9522 -2.407326
-15.57639 105.8814 -5.034149
-14.52261 104.6381 -6.362324
-3.642581 107.0275 -10.44197
8.654798 116.0056 -5.412586
11.46295 103.7818 -9.219643
9.525698 109.5884 -8.391668
7.822402 105.358 -10.68808
10.75261 108.0114 -6.201119
10.11875 108.0125 -7.903202
12.73817 109.5189 -4.761168
12.61647 110.0785 -4.62058
8.650826 115.0697 -5.572496
11.10755 108.3928 -5.537189
-5.8969 115.6377 -6.860594
-4.299092 113.3805 -8.575815
-4.324273 113.9878 -8.296254
-7.098138 106.3121 -9.700166
-8.632728 103.7211 -10.61203
-9.655999 107.5867 -9.713847
-11.82433 103.6866 -9.744637
-11.97701 104.9116 -7.627863
-13.57528 110.074 -5.033715
-6.272052 115.4094 -6.883841
-8.801197 113.9446 -7.06774
-9.492761 111.4156 -7.819901
-11.41667 109.3489 -5.847191
-9.426845 114.8118 -4.707026
4.743461 107.4641 -8.716954
5.598743 109.0963 -8.428124
3.990245 109.2941 -8.52981
-9.77393 110.5715 -7.988963
6.827676 113.6916 -8.457147
7.698367 112.8491 -8.702952
-16.13263 102.7645 6.429816
-10.31366 102.5987 15.28767
10.13331 104.7603 10.15895
-1.440144 120.3222 12.26012
-14.01689 117.9999 3.22285
3.115066 102.5318 14.68266
-10.30586 119.5985 9.340891
5.65625 102.2458 15.58652
13.08074 103.1297 10.68851
17.15687 101.18 6.419553
-1.070583 119.2307 12.4746
8.509748 119.5087 11.81245
10.23406 120.3017 9.567577
8.457753 104.1393 10.87932
-15.92713 103.5136 7.017516
12.54149 119.6697 4.157913
10.26661 112.1249 9.762678
16.54297 103.1391 8.199932
-6.028084 102.8937 12.37185
-6.795497 105.5276 11.5483
8.392012 102.7424 11.58037
-8.000686 105.4681 13.56536
-13.56851 102.9214 9.860158
13.27177 115.3073 7.180583
6.105609 118.5974 12.92084
16.62028 104.6523 7.05117
2.558917 104.5151 14.71737
9.145391 106.1085 12.82566
-9.990558 105.6078 14.92827
-14.64672 111.6071 5.13351
-16.16203 109.8624 3.660308
-4.959414 117.5618 12.07002
16.25673 105.2445 7.918325
8.025541 107.5599 15.20641
-13.30925 105.809 11.85048
11.84069 119.7309 7.28215
-15.83907 109.709 3.83853
-15.2994 108.3646 6.726958
-5.160689 118.961 12.37956
8.200984 119.8827 11.66925
0.553854 107.6949 13.6622
8.104321 106.5778 15.29643
13.93014 115.6338 5.491895
13.59119 116.5119 6.486344
-13.77343 109.7775 8.200972
-2.718117 117.3652 12.36655
3.662251 117.9315 11.92727
0.6664906 115.417 13.02443
4.394011 115.5645 12.95281
8.784095 116.5193 10.97326
8.649822 118.2833 11.72604
2.530526 105.6191 14.60316
5.967121 104.3924 15.57251
-12.6445 109.2873 11.79215
-12.69001 115.8312 7.457544
-15.52983 106.8496 6.661523
-14.30345 113.9752 5.69633
-1.488811 115.8307 13.42472
1.156866 107.8941 14.18567
-11.49882 107.2786 12.61051
-9.433005 110.5617 14.21982
-12.27631 116.9661 7.52609
4.587495 107.6222 14.2911
7.900797 113.8787 14.03035
-8.534957 107.6342 15.3058
7.497822 108.1333 15.38704
-1.769436 111.1471 13.26432
-12.18295 113.5383 9.196425
1.229542 112.155 12.82678
-11.27133 112.4856 11.76207
-9.425337 117.6882 10.81826
-2.114984 115.4591 13.33444
5.391506 108.5398 14.71861
-13.00983 101.155 12.53362
-9.179702 104.9239 15.66056
15.25262 107.7325 8.206834
14.8346 112.9869 6.862903
-5.349051 117.5004 12.19853
-4.00078 110.532 13.79372
-9.156827 114.8036 12.85448
-3.056832 110.5816 14.00079
-7.312248 107.2209 12.51623
-3.903944 111.7109 13.89074
-5.197725 113.9599 11.42334
12.73085 114.4456 7.867287
11.39359 113.0787 10.44618
8.751124 117.5201 11.2036
7.787276 113.1293 14.29432
8.935346 115.2494 10.23269
-12.20461 113.7344 9.437607
10.98998 106.1858 10.37735
8.958599 111.4119 13.76581
8.87281 108.2901 10.62303
9.508922 109.2819 10.07127
-5.76705 106.2659 12.25402
-7.075007 110.6074 14.30449
-6.775418 115.3996 13.28956
-22.42655 81.30255 5.604062
-5.018959 84.62216 10.24609
6.834033 82.01467 11.13956
-15.27037 83.14424 10.37915
6.831104 81.65687 11.76187
-18.52063 95.5701 4.764639
-17.65003 99.95555 4.714078
-21.7814 90.69926 4.646197
-7.27698 101.3839 11.70264
0.2854123 82.89049 18.1145
-2.185304 84.99928 12.97519
-3.323415 81.74602 10.48724
7.975594 85.9785 13.22629
-15.54038 81.44771 10.28893
17.05512 85.89894 10.28162
-8.732073 84.22838 16.55229
16.41669 83.15464 10.24831
-2.141859 84.24229 11.4756
-1.467177 84.82472 17.63093
10.48822 81.79494 16.40235
-3.027605 82.77892 10.68364
-3.108244 82.05835 15.6636
-15.75043 84.04041 10.37448
-14.05622 84.24455 10.79937
-9.086556 85.24612 14.25875
15.98306 100.121 9.497231
-9.466214 94.81597 13.07062
-21.16462 82.574 5.886638
-8.433131 82.56761 10.10911
9.972125 82.07239 10.36367
17.16513 100.3351 8.399533
-8.8439 101.4981 14.02337
7.857453 101.2525 15.79169
20.08531 83.58365 8.998469
-4.822558 86.75407 10.5734
7.747762 82.67376 17.20101
12.00908 83.68327 11.21516
17.6024 99.62164 8.402311
-8.066202 99.36817 16.02238
1.326705 101.5117 15.89927
19.82763 87.72306 7.788928
-2.013492 83.88831 12.38691
-2.28768 88.37795 11.09489
10.13936 85.21855 15.44046
7.406436 86.14453 17.23863
-21.10424 92.42384 4.585755
19.21122 94.85181 5.413263
-9.649188 100.7399 15.96795
0.2774561 101.206 16.08306
10.71628 101.271 10.7866
18.49569 89.51553 9.987096
17.65293 92.70824 10.29102
-2.583329 86.64678 16.41128
7.996237 85.00327 10.25916
7.290598 91.84357 17.30167
14.56859 98.60989 10.05325
-9.602924 100.2634 16.00004
-9.289665 96.21121 17.1909
-6.594112 98.00203 12.03893
0.5702536 100.5822 16.38625
3.59178 98.59306 14.41091
9.728364 99.313 15.4019
-21.0742 86.44453 5.009361
-14.67213 99.22709 9.750766
-11.44631 94.4157 17.44712
-1.779391 99.58092 14.67866
11.92736 99.49814 11.45951
14.0508 96.21455 10.43122
16.34913 92.05964 10.45254
-12.07271 99.93424 14.56968
7.804834 98.71069 16.32159
-8.1206 95.93333 16.0807
-11.28897 87.56455 18.00029
-4.145285 97.2499 11.85272
-12.95325 94.06585 15.19191
16.28242 88.81289 10.34284
13.5752 86.99926 11.08274
12.82544 87.7972 11.41183
11.66613 86.01212 11.08617
10.71529 84.81991 10.38114
-14.5262 82.5872 13.11546
-11.27766 85.3096 18.10572
19.6266 84.52112 9.740847
-9.155994 88.04639 10.6644
-5.966136 87.10188 11.1118
-5.603402 90.03457 11.62543
-5.989845 91.50169 11.91594
-6.128991 92.38728 11.98194
-2.183769 92.18327 12.00936
-3.936697 88.46011 10.35562
-2.210405 90.04923 16.34164
-3.330065 93.36958 10.64631
2.399914 90.97279 16.04289
-0.5386177 90.74203 17.41819
1.888244 89.5294 16.72348
4.014188 87.50613 15.64021
8.053931 88.38013 17.52187
7.220058 96.96254 17.04339
1.540653 91.00549 16.95093
9.94508 90.02233 16.42619
10.22711 91.1651 15.54736
6.80128 93.65488 17.11112
7.267144 90.58735 11.7173
6.550984 97.44639 16.92258
7.395841 88.6461 12.52169
7.8859 88.63653 10.08047
6.915357 87.35019 11.59708
8.671038 88.1154 9.971899
-7.020676 98.20547 11.5394
4.990551 99.0318 15.35664
1.416309 99.15695 16.36402
-17.21583 87.68999 10.06347
-13.99986 96.58618 12.20415
-14.87781 96.62586 9.892094
-14.44581 87.67226 13.78715
-17.30649 94.40619 9.814116
-13.65642 88.3618 11.29511
-14.11937 90.09145 10.89597
-14.26302 84.90806 16.64895
-13.65903 94.06451 14.50206
-15.25688 87.79517 10.61795
-16.1159 88.99892 10.60528
-18.55901 84.62972 7.941419
-18.32574 88.97955 7.816681
7.85575 99.23187 10.14148
8.892404 95.31888 12.9069
8.65624 96.69084 9.764932
17.35516 99.59825 7.936137
-12.7049 91.63168 17.28725
7.336335 93.13579 10.46199
10.46938 95.16705 10.84513
-9.669636 86.79188 12.28099
-8.361752 90.79574 15.72033
-8.35356 89.48768 16.27411
-8.732729 93.07673 10.92162
-9.14185 88.03674 17.52381
-9.515733 95.89867 13.31209
-2.174926 96.21087 11.104
-2.60634 96.59836 13.47305
-1.60149 98.16978 15.76525
-2.476621 88.49203 16.30104
1.209663 88.57903 17.29555
6.410212 95.78007 16.97669
9.988372 95.81771 15.4018
-17.27777 96.59111 5.352211
-18.07335 91.56096 7.165078
-17.33125 90.49589 9.872526
-12.5471 97.6318 14.81911
-13.24898 89.54224 17.24022
-16.68337 97.38107 9.887515
-10.0309 88.80456 17.83433
-7.410388 93.8043 11.27455
2.747384 92.91484 15.54586
-12.53426 89.85706 17.6093
1.693751 97.35514 16.28009
18.07961 94.28355 8.816735
-24.74419 62.44032 5.768135
-13.85675 61.24743 11.36057
-13.33853 62.1971 11.87247
-16.85361 62.18863 8.69258
-9.615549 61.91279 14.38337
-3.92962 63.51104 8.594277
-1.831494 61.46011 12.05206
-13.28653 62.55306 20.25344
-20.50772 80.43683 7.120779
23.40474 63.8223 9.323189
-3.533045 63.21554 16.11712
-7.307337 64.9421 7.797973
-3.834686 62.60852 16.76236
0.8950008 61.68118 18.95328
9.695323 62.78999 19.35883
-15.33582 64.83433 13.68728
-16.02324 61.13072 9.300413
18.74791 62.37877 12.97641
7.448892 62.54551 8.420255
-3.833951 70.7015 15.80176
-3.572381 80.77109 16.82498
21.50651 62.30885 11.10261
10.04553 81.46545 15.24507
20.7875 76.12447 7.020048
14.25751 80.81369 11.07469
-1.832945 61.18066 12.27011
-17.13543 63.25598 17.74915
-1.340508 61.89565 21.13724
10.15584 65.23966 19.12677
5.162169 62.91605 11.04784
-7.14681 63.43972 7.771769
9.64901 64.25726 19.26835
-15.15982 63.27864 13.71293
9.75872 61.91459 19.38583
-11.1277 66.12925 19.99231
-3.921264 74.08968 18.38512
-23.33656 80.9609 4.833533
-2.398598 79.43475 13.38995
-7.658309 81.17602 9.86614
14.87612 71.779 10.42801
-25.47309 61.47141 5.897626
10.75467 61.16137 9.508243
9.85301 62.41965 15.38463
-1.78683 65.17847 11.42046
-9.059099 65.6757 18.19064
-10.17969 66.99602 19.5055
-1.620049 74.3774 13.31664
21.62765 73.90229 8.886056
-15.76877 77.80936 17.10211
9.021178 77.32832 17.81664
23.41349 64.47144 8.498541
-9.147661 64.2315 15.23857
-17.27817 64.13287 17.38568
-1.74121 67.22335 13.30365
16.84128 65.62652 12.78425
-10.81514 64.90356 19.82274
-22.56882 79.60518 6.313475
-4.236236 71.64348 17.67792
20.9502 79.81542 8.793245
-22.86448 68.94727 5.954391
-10.84229 79.28551 18.58149
-3.306117 75.12081 14.53343
8.718001 79.63913 10.85538
-14.65673 67.05425 19.52295
10.57456 65.15608 10.24982
-0.350512 66.3334 20.2625
-25.08684 72.19112 6.050566
-0.2399286 79.01951 18.87744
2.561152 80.55735 18.28225
18.30155 80.04971 11.46161
-13.44561 79.19395 12.23468
-10.47497 76.34914 10.72037
-1.439887 69.48576 12.7335
11.01514 80.5432 16.31086
6.656725 81.17289 11.4402
-14.72161 64.97044 19.57751
6.094563 63.55249 9.3605
-20.36662 75.63863 7.769543
-20.89266 76.85579 7.217291
-4.175918 75.39281 16.53975
21.13949 78.79498 9.946401
-15.50671 79.55038 13.92383
-8.354551 74.24115 15.90593
-10.06883 78.83412 13.3539
-8.550535 78.13527 14.40348
-5.320767 76.99776 8.625956
3.775381 79.49545 16.73759
11.24493 78.73747 16.66803
9.25729 79.07365 17.49488
9.956014 79.15935 14.69065
8.906655 79.02847 10.66646
11.74451 80.3999 10.62748
22.96822 66.09204 8.107909
-19.67002 77.04478 8.21252
-20.19266 76.25338 7.885345
-23.82617 71.04949 6.152081
21.236 74.37746 8.339652
-10.56407 76.54881 12.36444
-8.557083 65.51688 8.121901
6.680963 79.32838 12.21896
-17.07201 67.67623 15.2272
-15.24186 78.83119 10.39576
-13.30484 78.92117 10.85391
-8.779675 80.62502 15.12814
11.40105 75.3111 16.57508
6.663107 73.16174 14.31928
-13.19052 63.33785 12.27325
-10.26088 74.12137 12.70633
-8.478656 75.10645 17.54225
9.636942 71.88871 18.78901
-14.46214 68.10522 13.16041
5.085334 63.07587 12.23568
7.367046 63.7822 14.39065
-20.03499 67.2945 6.414215
-20.07434 73.27421 7.707283
-1.796974 69.38687 10.752
-7.971771 66.06264 7.958844
9.44152 75.97335 14.75764
-13.20426 66.85507 11.61239
-13.83992 70.48307 12.68262
5.891571 68.16375 13.63966
5.324351 70.87209 12.15734
-18.82983 67.48804 6.966254
-8.195473 70.12505 8.025106
8.282516 75.35002 14.74298
6.440745 68.09341 14.19396
-7.206767 72.44456 7.931105
-9.570395 69.43228 8.895962
-13.36735 69.44069 11.30002
-10.37703 72.40466 9.786853
-5.640673 65.13501 7.896928
-13.12168 74.52155 11.46069
-14.98386 67.93023 10.38916
6.767599 77.52211 13.36452
-10.77454 71.67786 10.74379
-7.292446 65.17118 7.795694
7.20939 77.43035 10.81134
6.429682 68.6165 14.15485
-10.34961 64.65029 12.868
-18.60087 66.05486 7.095119
-15.54069 75.09377 10.62515
-15.95869 64.31651 9.939209
7.345665 68.79827 14.63665
10.52393 66.36538 15.5478
-18.1141 67.0811 7.529852
10.0305 69.26727 15.12145
-8.420319 71.32734 16.98619
-8.548389 71.65287 17.51502
11.56269 71.25581 17.06062
-4.319831 62.89436 18.0064
16.54561 63.48881 12.77421
-14.35302 67.89581 19.61928
-16.34028 69.68214 17.81181
-10.12963 68.41254 19.44312
-15.22232 69.67155 19.00374
-16.4183 71.25506 17.56947
-16.42427 73.12293 17.06906
-16.19785 75.31918 13.8361
-15.85252 77.72252 14.04438
-12.411 73.28044 19.90128
-15.15949 74.54692 18.62414
-8.919173 73.53031 18.40335
-10.98369 71.94064 19.85303
-1.336772 71.22846 12.29829
-4.018001 75.38124 17.86997
1.066468 79.49304 19.00068
20.30301 75.82883 11.63492
21.0528 72.89059 11.29352
10.38392 68.68188 10.28688
-2.186889 69.43584 10.06766
-4.5102 71.70468 8.277242
2.861016 79.37981 18.03761
11.37598 70.7687 17.79619
8.167868 72.91379 18.93501
9.633021 69.79483 9.099727
9.701779 72.77251 8.888074
9.442552 70.3848 8.886518
-8.607091 73.73499 17.78014
-9.829112 76.04924 9.292788
9.067368 67.3303 14.86983
7.547239 70.24944 18.87872
19.85787 66.10779 12.36576
15.62365 65.97816 11.8405
7.521108 65.11172 19.00461
8.638824 66.33823 19.27634
8.312219 69.92859 19.14645
1.732578 70.11226 18.18874
-1.241058 74.60242 12.17522
-2.536238 75.06518 9.713407
-1.922599 73.73478 10.16494
-4.04771 76.44573 17.3971
7.814548 76.81347 10.60144
13.29349 75.22995 11.46369
-1.220907 76.55859 19.89473
16.28718 71.96455 10.87773
19.48788 71.98143 12.35307
-1.887312 70.81144 10.44742
2.997244 78.31737 17.2631
14.4106 72.66096 10.64871
4.29565 74.88039 16.69878
12.80902 70.97359 10.91082
-17.43542 74.25739 8.550936
20.47221 68.10211 11.96952
-2.307548 67.28321 20.83616
-2.876928 69.50923 20.38015
1.499169 70.5173 18.57741
9.774762 74.7089 8.918049
8.405076 74.35725 9.210489
11.13341 70.09529 10.85966
14.15993 70.87444 10.5454
17.6934 67.27259 12.81214
5.778583 72.15451 10.35199
2.145806 76.91019 18.69777
3.338817 74.89936 16.72667
0.3765101 75.12778 19.84455
17.80363 69.57549 12.55355
8.516731 72.56539 8.7799
-20.83382 32.54159 1.975675
-25.96299 33.20169 2.000283
-16.2981 32.79214 13.69875
-15.17512 55.67525 21.06797
-26.7388 33.50919 1.212195
-4.394124 32.17345 12.13317
-0.791893 53.31604 20.9359
24.71033 60.29232 8.619429
6.826997 54.50553 18.3298
-21.45489 60.61618 5.717538
25.82324 40.67531 8.630715
-10.45102 58.95204 9.678004
-7.816626 33.21324 4.828842
-8.81824 60.25626 15.79636
-7.397924 58.6026 7.235911
-27.37228 35.25122 2.878014
-16.13281 56.53432 14.28796
-4.48208 33.92221 24.02671
8.189189 32.72255 22.69187
-26.71367 58.90582 6.285361
24.78537 60.63224 8.186268
5.11092 33.18752 15.90653
-18.95263 33.16185 4.405118
-14.60046 32.35852 12.8279
-18.59891 59.39085 16.95759
-23.43354 60.70866 5.358763
-25.78859 57.67041 5.299829
25.52259 32.18233 11.36608
-3.154453 36.83818 12.79833
-7.770001 57.60891 7.046493
24.32449 51.7744 9.426802
-26.54051 57.13466 6.014983
5.993839 59.26518 9.072506
27.20563 44.02076 8.489665
27.21883 38.53861 8.151044
25.62298 57.18396 8.614328
-19.37692 33.8198 4.310698
-15.4874 58.28917 14.07362
-10.82143 59.53788 20.12263
-25.68233 55.34406 5.213123
-20.73071 59.31368 5.276897
-7.650574 33.02977 5.235366
-3.520567 33.29354 12.69075
-2.101568 59.13465 22.00743
8.916649 59.69444 19.83182
4.702543 58.1294 13.83389
23.7878 33.26978 13.01157
25.17587 32.86139 11.81588
23.29833 56.3535 9.671651
-27.43414 42.58776 4.582686
-13.87646 32.36922 10.94178
-19.04944 33.15521 21.84006
-14.67526 60.53481 10.53939
-11.77329 60.84244 20.15807
-22.23283 60.13521 5.335167
-6.382904 59.50161 7.464555
-11.97561 32.01373 13.65739
-6.380184 32.05087 5.27245
-5.129992 60.57894 7.911086
-2.266637 32.9924 15.60308
3.233755 33.0546 18.53725
-1.901675 60.39754 21.91127
3.217136 33.99414 18.84182
3.878581 32.78627 14.36973
7.590415 58.0013 7.392439
12.01171 32.40174 10.41018
19.65021 33.57379 14.21673
26.60448 41.35039 8.466446
23.81336 35.74862 11.5932
26.37617 47.62522 8.975548
-27.1536 37.7845 3.570271
-15.10018 34.93948 10.023
-18.98607 33.4429 20.95871
-13.15728 58.10302 12.81189
-11.28253 34.02063 20.38144
-12.05106 60.60989 20.3215
-16.43734 58.77068 8.045462
-23.66224 48.3345 3.591889
-11.12056 58.13516 10.80137
-11.1943 32.48577 14.17302
-9.662156 36.53216 6.911958
-3.103988 59.99958 16.49491
-4.917624 33.1842 6.632558
-2.636343 33.00624 17.11523
-4.638585 34.67195 23.21496
6.391862 59.37666 18.14185
-4.784444 61.0367 20.20138
5.374614 33.36746 19.65493
6.813497 60.79305 18.65439
4.717063 35.29969 15.06027
4.540763 33.74454 10.15701
5.091197 60.05464 10.58337
12.66319 31.97153 8.709883
22.73389 34.59746 12.59774
24.89648 40.13216 9.051449
25.2018 37.57704 9.072021
24.02027 49.91539 9.678805
-16.85812 34.84518 5.507366
-16.75377 34.93626 21.31645
-18.81282 57.61896 16.19737
-13.18563 37.60227 21.09392
-9.454607 58.7398 19.89838
-19.45605 49.81698 3.812979
-9.565894 58.49825 7.545331
-1.623354 59.14034 12.76636
-3.319793 35.70555 13.10172
-4.536094 37.64478 23.1861
2.282027 59.04593 17.77391
8.263167 34.14546 21.99496
11.5478 36.21685 19.69264
6.136061 57.48011 18.04105
4.214831 57.37098 17.19779
5.411946 38.1638 15.65034
7.09197 55.57259 7.386203
13.23268 33.07374 11.7817
14.90884 56.35911 13.08293
13.27622 36.5298 11.73915
23.18247 36.64017 12.21594
-16.86335 38.87025 13.96717
-13.0502 57.19195 12.72406
-23.26017 44.12458 3.094192
-10.3922 56.77353 8.499187
-8.451105 52.68749 6.574888
4.879216 34.84248 19.17392
6.44659 36.33792 20.15215
6.412315 55.30633 18.02558
4.697548 36.09231 15.00178
8.581394 58.06504 7.376672
11.34639 35.76902 7.759743
22.89015 43.54337 10.18688
23.00999 41.31835 10.52906
20.48911 43.59502 13.69933
-13.4884 52.31158 9.332392
-13.36175 54.59584 9.808724
-23.12459 40.91928 2.790298
-9.234077 33.75845 15.7696
-6.378233 35.28951 5.944301
0.578889 36.99074 19.88585
11.75376 35.99415 18.62144
7.052915 52.02206 18.91561
6.386469 33.56864 16.18257
6.48947 56.13274 7.871613
-23.95415 38.63688 2.751631
-19.6701 48.66135 3.660946
-3.678642 57.16651 8.462563
3.917197 54.94632 17.14129
-13.32425 39.11879 21.3087
7.176511 36.57944 20.8855
23.49306 49.1614 9.794548
6.853945 38.25738 20.45028
4.596497 56.50415 10.42664
-4.782636 36.37985 18.14327
-6.364366 39.64933 20.45414
5.428327 56.21295 9.314219
4.41366 52.9248 10.39072
4.164488 54.09903 13.17009
-18.79588 57.11234 5.744697
21.29086 58.76735 10.65759
19.90568 56.54377 12.87017
-23.20743 35.69724 2.304456
-16.28613 56.85381 20.45749
-8.860834 56.6257 14.44117
-25.7991 58.45013 5.396657
6.708039 57.40132 15.12459
9.858384 55.55434 14.90201
9.320778 44.604 15.45655
4.972102 57.42422 14.31003
15.53023 55.55435 13.74329
12.72763 55.41418 9.778938
15.50859 54.17271 13.7539
-21.56282 38.22929 2.590973
-15.34036 37.03248 7.521037
-15.1257 37.97887 7.73511
-13.67277 56.76511 13.51222
-15.26827 53.38824 14.28307
-19.30195 53.31275 16.16215
-17.74038 58.03479 14.45672
-15.1056 56.57444 20.84721
-12.27091 55.66888 21.24315
-14.33711 53.83849 21.45015
-9.397782 54.47488 20.10914
-19.67528 59.05392 6.096168
-11.54681 56.13603 11.83512
-8.420919 55.16719 15.77171
-8.303429 51.00295 15.91277
-9.25151 52.81322 19.83005
-11.35219 52.48811 21.18761
-9.015874 57.51089 17.52668
-8.151731 38.40124 6.245415
-10.09383 36.56567 7.26713
-11.29412 42.31233 11.98079
-11.13595 37.92908 12.42908
-10.69016 36.53547 13.6422
-2.558138 35.49923 14.70787
-1.641799 49.65326 11.07231
-2.301334 41.2464 11.65224
-3.2065 40.33263 9.01639
-3.70784 36.83875 9.580864
-3.220333 57.50169 22.09238
-2.952579 54.23789 22.58975
-1.267999 51.33121 22.02467
-0.2134251 57.22882 20.00758
2.963473 50.49066 17.43636
2.006378 51.66713 17.57195
-0.8898215 50.78252 21.03272
2.088073 49.72907 17.70966
6.952614 52.45882 18.73127
-1.914071 50.29065 23.00107
4.21253 48.64516 17.59963
8.108662 53.96062 20.19595
7.658259 49.49626 19.96435
10.77471 50.8474 20.67045
10.60331 48.26942 20.95429
-4.013515 52.84055 22.33388
12.12531 51.06794 17.90291
23.09681 39.09391 11.46156
-18.20037 36.44712 4.545391
-18.89046 37.83462 4.022176
-19.74518 39.53674 19.26632
-18.70908 58.35392 16.9842
5.897124 38.08816 19.51838
4.373874 38.4505 18.5871
0.5970545 58.65586 19.04474
8.16924 36.51794 7.352653
8.388426 39.56008 7.164816
14.92097 36.75946 13.03903
-14.91049 34.51084 12.64244
-5.473456 55.09076 18.83766
5.198483 38.20023 15.46998
19.47251 37.32918 13.00786
-19.45853 37.86471 14.93733
-17.13081 54.82373 6.776916
-15.62301 52.51916 6.932134
-12.91811 51.89146 12.20278
-15.30868 48.15955 6.487967
-22.5629 38.73227 2.497614
-19.21673 39.40393 3.63711
-16.4251 41.09391 5.546675
-19.78374 47.45716 3.573871
-8.10737 53.80986 6.555379
-7.255417 50.56741 6.186123
-3.279732 51.80153 7.985528
-8.736602 33.98132 16.91815
-9.243485 41.26457 15.11964
-10.15412 41.80483 13.97913
-9.339337 42.49689 19.52216
-11.47877 43.20191 11.18788
-10.48007 41.82507 20.50771
-11.34696 45.1322 9.407178
-10.64471 49.23849 8.139721
-10.59023 41.20578 7.918148
-4.016305 37.14111 7.591249
-2.78743 44.13029 9.156565
-3.109843 42.62088 8.648666
-9.387815 44.37689 6.864644
-4.06149 44.9649 7.216635
-2.898994 55.91246 16.8774
-3.450907 52.17165 17.4545
-1.59034 52.20841 10.58178
-4.306188 49.22292 18.23371
-1.131907 52.75174 12.0217
-3.025662 49.76791 8.261147
-2.462208 48.53035 9.224463
-4.468435 50.79601 18.17027
-3.321867 47.24991 8.010428
-9.756235 51.05606 7.284986
-1.200382 53.49158 14.91105
-2.487015 48.96851 16.80272
-5.470899 50.2443 21.3979
-5.501211 47.52081 21.78998
-5.014545 47.54477 22.22075
-4.149547 46.70126 18.13897
8.794289 54.91715 7.060868
6.072754 49.77873 8.280125
7.549896 52.27668 7.24261
4.939398 49.6637 9.572099
-15.54317 41.4622 13.93581
-1.13757 54.69922 13.67119
5.383526 40.61562 18.87723
4.020908 44.30859 17.9524
8.250674 40.94472 21.47445
4.737474 41.037 18.50686
2.788269 44.13376 17.95933
9.406823 42.94511 21.81991
-0.6008108 43.63458 21.73355
2.346138 44.54235 18.05085
0.6760966 45.69959 19.02604
10.03674 41.26096 15.60739
11.61526 37.9927 17.04159
8.059824 39.47054 15.62395
6.199354 41.44068 15.83035
9.825962 36.49209 15.68815
9.87139 41.77199 15.5534
6.958781 44.71804 15.66539
4.335427 39.34944 12.45644
4.092072 43.63165 13.26945
4.126977 44.42544 12.13082
4.402034 43.31374 11.15334
5.395432 38.67796 9.330399
4.527981 42.10359 11.04303
4.750944 44.55681 10.06572
5.984591 43.11539 8.329713
6.094071 42.46559 8.246514
8.16124 48.05284 7.112528
11.26056 54.46597 8.235243
12.70876 52.08984 10.40128
13.01938 50.06643 11.43597
16.5019 51.48322 14.14608
14.0126 48.81231 12.83537
13.49047 45.35616 11.64855
13.87294 44.14103 12.45613
11.73308 39.165 8.061355
8.26438 41.6979 7.193246
13.54137 41.11172 11.93792
10.43933 45.36552 7.267375
18.06253 41.09687 13.93504
10.94102 45.54184 7.49357
20.63653 45.44724 12.97108
11.51599 54.03405 15.88359
-0.1183318 44.76378 20.43378
-0.4936932 40.1097 21.3235
-1.241201 37.30982 22.79155
18.67465 54.80183 14.23316
18.38351 53.3403 14.39813
21.78378 51.51305 10.1194
19.26471 55.915 13.80355
6.882236 52.79222 15.37043
-14.18945 39.47873 10.51164
-14.09835 42.27419 9.468195
-14.73128 45.24414 13.82096
-16.88921 47.59108 13.9854
-13.59242 47.79933 21.5188
-17.85246 51.58895 20.08023
-15.7423 53.63745 21.09521
-19.52416 48.88397 15.89698
-17.86311 46.6755 14.18147
-19.73179 44.64488 18.05132
-17.62532 47.36795 14.06266
-19.24808 45.50058 14.91596
-13.41227 47.37597 21.49784
-11.6411 48.24959 21.2075
-10.30531 48.11805 20.64017
-12.09377 47.98875 21.31928
-19.50166 43.90955 15.24781
-9.554855 50.72445 20.13442
-19.84914 42.02098 18.14986
-19.95725 42.53082 17.22499
-15.12697 55.48955 7.784695
-20.92056 56.82282 4.323754
-10.20912 48.71593 7.601222
-11.63764 49.38425 11.01933
-10.93178 50.73147 8.449448
-8.426447 49.23797 18.20886
-8.246317 49.81258 16.68677
-8.942896 45.44244 15.04762
-9.932751 52.23251 13.63592
-1.56524 44.19587 13.65956
-2.384847 44.49415 10.1025
5.98099 54.92552 17.75307
8.184118 50.53193 15.52041
9.811403 49.09804 15.32539
12.02424 50.72822 17.14956
23.88804 48.37796 9.72099
12.04381 56.80873 8.981819
-13.35144 48.91938 12.25341
-5.87071 55.77148 6.787363
-8.216938 43.24474 6.281842
-6.143796 50.20494 6.163642
-3.657674 46.81549 7.59255
-6.087491 46.23354 20.75848
4.057661 50.20558 12.71716
4.181125 48.7682 13.40177
11.84953 47.57767 19.00211
-0.6731951 44.93044 21.84978
11.7353 38.26183 17.17172
13.92996 47.28756 12.65341
15.80603 47.03523 13.89826
19.32634 51.78722 13.85122
16.74445 46.25245 14.20902
12.93761 39.16819 10.56711
8.464513 53.10301 15.47787
-6.049239 41.73207 21.33887
-3.621282 43.12394 23.26941
-15.26136 41.1784 6.871094
-15.56756 44.07115 6.32159
-14.67902 41.99767 7.872157
-13.62886 47.02512 9.638737
-11.48512 44.30556 21.08385
-20.1048 38.46032 17.67525
-23.00148 53.52702 3.76697
-11.30674 51.13184 12.08183
-9.953351 47.10404 13.78888
-15.8319 48.10925 13.95652
16.04998 44.27416 13.97011
17.59856 45.33402 14.37699
-2.001736 40.7742 15.83407
-4.717635 39.37297 18.23935
-6.207945 44.46113 19.97573
-2.732203 40.22463 16.89953
-13.49903 45.49564 11.74323
-17.41717 51.12225 5.487414
-20.24081 49.20226 3.521522
-8.741808 47.6998 18.87092
-15.17271 48.68742 13.90543
-10.13271 47.50071 20.50411
4.526886 44.72773 18.04381
-18.90893 55.70781 5.10807
-18.29307 55.85167 6.24357
13.12529 121.4961 0.8179661
10.69053 120.5166 -2.598576
13.15332 122.2728 2.235014
-13.80495 123.6421 1.509809
-7.59401 118.9483 -4.768581
-12.57943 122.5211 1.084101
-8.957337 123.8539 -5.61399
-10.1136 119.1073 -2.427591
-8.571416 121.2992 -5.964514
-12.39236 121.3251 -1.323594
6.238603 119.1961 -5.7685
3.127284 123.2309 -8.181519
-3.82872 122.0787 -7.59915
-7.666812 120.088 -5.93891
-11.41973 122.137 -3.161598
10.04589 121.6097 -4.0814
3.362976 122.994 -7.920974
0.2434265 120.9422 -7.096911
-3.982769 118.9642 -6.564373
-8.682968 122.2904 -6.228786
-11.84428 122.5104 -3.10005
12.48572 122.9727 -1.480742
2.642269 119.3812 -7.211002
-5.283064 122.6605 -7.373189
-12.56445 121.8794 -1.368819
-2.157292 122.9451 12.12837
-9.377028 123.7804 11.1735
-5.163793 122.0525 12.13203
-14.01976 122.1121 2.967619
-13.47454 121.6694 3.139392
-9.561434 123.8938 10.58456
-12.391 120.2688 7.768276
12.41365 120.1303 5.825378
4.280836 126.2687 12.09582
0.9710301 121.5693 13.07168
14.42543 123.1191 3.162666
10.53205 124.3016 9.522793
12.82767 120.3695 4.756794
-10.0178 120.1727 9.705235
-10.94544 121.2555 10.21047
-4.419855 123.8286 12.60522
-0.9908475 121.7792 12.55688
4.314622 122.0099 12.8208
10.18688 124.7317 9.517113
12.66124 123.1677 7.985473
-12.67936 120.1318 6.393367
-10.23906 121.3682 10.71941
-9.231147 123.1153 11.69943
-2.764987 123.8985 12.37164
4.18013 121.3073 12.47927
11.89977 123.5524 9.038094
13.14063 122.6538 5.084954
-10.69527 123.9578 9.645337
0.9859962 122.8236 13.05779
6.966651 123.0265 12.12354
7.987824 125.0877 10.94477
12.21162 120.6907 7.04401
1.210749 124.9822 12.11172
6.715497 123.8946 11.77174
-14.48057 151.3433 -6.388263
-11.41995 151.8322 -5.42353
-16.71825 134.6332 -5.701471
13.14406 125.5996 -0.008701752
15.49529 151.3696 -5.411912
13.21506 125.3196 0.6546085
15.77609 150.2711 -7.983773
-9.092479 151.7963 -8.068871
-15.83359 151.1421 -5.977968
-13.61157 151.643 -4.985099
-11.73554 151.7885 -5.302763
-16.64453 132.6344 -3.792978
-15.18821 151.487 -4.603976
-14.12021 131.2216 -3.625673
16.61834 150.1444 -7.625742
13.3001 125.6087 -1.15224
16.52304 134.3103 -5.955941
-13.43667 150.3356 -8.615285
13.03938 151.5204 -6.756763
-11.29355 151.8796 -5.836929
14.01005 129.982 -4.461908
-12.64801 127.5381 -4.233301
14.58702 130.5287 -4.223143
15.21226 135.4215 -6.858185
7.647999 152.1734 -8.111549
4.996753 128.1671 -10.50095
12.4242 125.8968 -4.307112
-8.001847 124.4511 -6.542199
-14.74243 130.0363 -2.221815
14.82898 130.5831 -3.891094
7.559133 151.3622 -9.38579
1.175905 124.688 -8.21307
14.16979 147.7868 -10.13547
-13.98155 131.5642 -4.603389
-0.243833 151.5902 -10.43995
-15.35025 146.3646 -10.29126
2.99258 124.7045 -8.092257
-15.68817 138.0434 -9.187997
12.56528 130.4073 -7.509866
0.7261304 152.1896 -10.00727
1.354253 141.8635 -11.98556
9.641755 126.5104 -8.485003
2.26186 125.687 -8.951991
-6.543287 125.3033 -8.141961
14.01328 138.1953 -9.916714
-10.67891 127.6593 -7.50853
12.9128 136.7323 -10.40037
4.707855 127.7995 -10.24476
-5.069059 149.0672 -11.1198
15.06383 143.9838 -11.15982
-1.397061 150.344 -11.10696
1.998867 127.3979 -9.58806
-9.492075 151.5833 -8.228531
-7.209989 126.5462 -8.176149
-2.359181 126.5978 -10.07812
-14.18668 147.3977 -10.29274
-8.541845 130.3261 -9.922354
6.612013 131.2079 -11.55015
13.47541 133.5782 -8.074463
-11.08155 129.3793 -7.964573
8.477776 126.8311 -8.202305
12.26353 132.3181 -8.778531
-3.287612 145.7548 -11.77179
-7.579138 131.7507 -11.74176
11.27785 131.6885 -10.02796
-6.858451 129.6062 -10.65567
-5.378059 139.9235 -12.94739
0.7222154 145.1524 -11.82707
-4.88489 133.1342 -11.57032
-1.959553 135.2606 -12.79988
-2.309784 139.8613 -12.41314
-3.170767 135.0214 -12.81951
-3.454116 133.7641 -12.44058
-6.550798 136.7279 -12.31322
-2.62587 137.0971 -12.69624
-13.41967 129.3216 -5.211625
-16.21626 135.2717 -6.453559
-13.69304 149.078 -9.578353
-15.10945 139.5162 -9.792303
-16.10389 136.2333 -7.517756
-15.0884 133.5609 -8.258853
-13.609 137.9784 -10.09326
-11.30712 134.012 -10.64235
-10.28595 130.5068 -9.522527
-9.033667 134.4919 -11.37396
-8.120257 134.1885 -12.18891
0.8398347 127.6198 -9.791454
-1.184226 126.0778 -8.758485
10.35898 149.9899 -9.586075
14.53153 150.7346 -7.820217
0.4864531 150.1067 -11.26355
3.861605 145.3886 -11.92184
1.029818 147.2912 -11.98333
3.803545 127.7952 -10.20038
6.391109 130.2709 -11.29938
5.983624 127.3681 -9.888605
8.305402 145.9649 -11.78442
10.49229 145.6108 -11.47211
-6.717563 147.7733 -11.45813
-6.956789 146.2326 -11.89797
-6.162728 144.0599 -12.37145
-9.090068 132.5314 -10.74802
13.16119 137.8891 -10.6843
3.159502 142.8341 -12.20224
2.024579 145.3881 -11.62185
4.898314 148.9376 -11.31121
-0.4462141 133.9948 -12.24335
0.1438424 133.5762 -11.68091
-9.11326 136.3862 -12.45748
-12.79918 127.1418 -5.260594
-9.914108 147.2708 -11.10632
-11.96444 141.4429 -11.65545
11.07924 142.1984 -11.77723
10.45215 133.0492 -11.08588
11.63383 139.0345 -11.7234
6.009637 142.8777 -12.46857
2.184943 129.4359 -11.17834
-0.2191416 137.0863 -11.57647
3.969687 134.8473 -12.04501
5.28324 135.8382 -12.0503
1.461629 140.479 -12.06065
4.876315 135.3318 -11.91033
6.925831 142.1721 -12.53551
7.512786 139.3371 -12.63202
7.897077 143.4769 -12.31141
-10.78209 138.0797 -11.68565
-9.253244 141.8335 -12.35867
