# .PCD v0.7 - Point Cloud Data file format
VERSION 0.7
FIELDS x y z
SIZE 4 4 4
TYPE F F F
COUNT 1 1 1
WIDTH 1660
HEIGHT 1
VIEWPOINT 0 0 0 1 0 0 0
POINTS 1660
DATA ascii
-19.7302 71.0666 4.957153
-10.7069 72.57675 9.446572
-13.08195 94.09039 9.323951
-6.989967 100.4601 10.01467
-19.87272 60.41665 2.045137
-10.78205 77.41646 9.875009
-8.338332 67.36729 9.476581
-10.45351 94.72565 9.29318
-14.28163 30.85568 9.372101
-19.70934 72.91681 4.752877
-12.47623 76.90885 9.815331
-13.00266 66.15264 9.17836
-10.42582 65.76704 9.403945
-13.61302 31.29547 9.418856
-9.998191 54.93097 9.47321
-13.70685 77.86677 9.901207
-14.09744 73.27612 9.252405
-18.09826 68.16989 7.157959
-15.16824 93.48032 8.64883
-10.96189 52.71762 9.438532
-14.45192 68.12267 8.91503
-14.89714 65.67045 8.808641
-14.90125 93.40765 8.836875
-10.71781 51.42488 9.456176
-14.28188 54.70678 9.048265
-14.17838 49.74659 9.129257
-18.71109 93.13825 1.122774
-18.60745 92.06013 4.160366
-16.61394 92.96181 7.556965
-20.46736 47.75824 -0.02866104
-21.50287 53.19099 -1.054836
-19.8075 52.89111 1.302204
-19.82495 48.59441 3.536419
-19.70211 50.44471 1.812958
-19.79764 50.75866 3.000099
-19.89638 51.61538 5.070429
-19.64014 48.18055 6.030007
-19.75493 48.7523 1.507432
-24.93936 26.25006 -3.501937
-22.76224 29.55464 -1.197196
-22.82528 24.63248 -1.149308
-3.710066 70.68237 9.563861
-6.384197 82.84585 10.24555
-19.58011 16.02871 3.69755
-18.6577 18.0139 7.568632
-19.41063 17.44283 5.03902
-19.43856 15.34852 4.567326
-19.95451 19.36366 2.337564
-22.06022 16.61899 -0.2180196
-19.93812 20.25887 2.322006
-19.63147 20.65418 3.45638
-5.784982 92.59605 9.977375
-10.97542 11.78845 9.650162
-12.6183 12.11178 9.691295
-15.58894 14.54464 9.473986
-19.02039 82.06042 6.785108
-5.744786 62.64076 9.538238
-8.578598 91.6785 10.08496
-10.41435 90.30836 9.869709
-6.163069 90.4194 9.946404
-10.47367 89.46665 9.93836
-16.99802 84.86313 8.913525
-19.97934 85.51605 4.032929
-18.43876 83.88428 7.550879
-17.8372 83.19299 8.251328
-17.02556 81.48314 8.948864
-18.20662 88.8212 7.003387
-14.44496 88.95605 9.836349
-12.6747 91.02679 9.813828
-17.6725 92.02 6.486807
-15.1929 88.31437 9.656834
-17.48863 91.28355 7.141878
-14.96099 81.29401 9.973131
-11.19338 86.05807 10.27958
-12.46697 84.95592 10.2655
-13.61811 83.28815 10.24139
-12.99251 83.6713 10.26666
-7.671745 84.04252 10.26642
-11.50962 18.31723 9.584072
-12.34656 33.89166 9.45542
-10.39053 35.80172 9.497609
-11.17449 34.47187 9.48504
-10.71801 37.87758 9.488864
-12.63223 37.74907 9.416858
-5.610236 39.35133 9.558544
-10.45315 38.3954 9.494246
-8.132343 41.4776 9.535525
-9.697206 41.05678 9.510513
-10.11996 42.89322 9.497681
-9.805784 45.54351 9.501816
-18.35159 34.8645 7.935647
-18.36288 34.31026 7.947494
-20.11564 30.07436 1.292752
-21.16467 25.27397 0.140144
-20.35579 23.25566 1.267236
-20.41205 27.72367 0.934543
-19.8082 26.50407 2.293972
-19.54479 25.42636 4.433436
-19.52312 23.69193 4.534756
-18.87447 24.54534 7.336618
-18.21979 22.18828 8.132315
-17.70645 25.31405 8.540643
-16.55111 28.8531 9.023116
-16.48463 25.03049 9.126176
-18.43651 29.62422 7.935451
-19.64475 33.47688 2.823374
-19.64493 33.75703 5.385813
-19.53795 42.25904 6.282317
-19.1293 39.12973 6.989166
-17.69997 38.51163 8.32476
-18.56925 40.65537 7.631011
-16.18084 26.60359 9.172923
-19.63676 35.80978 5.670057
-17.35331 64.0014 7.797003
-17.23469 64.67732 7.849628
-19.93721 61.24941 5.177788
-16.11315 64.08765 8.417034
-19.96215 60.84665 5.035316
-13.62596 59.26156 9.122763
-16.10429 61.35389 8.458625
-16.61753 61.39008 8.242355
-18.78618 61.56775 6.794511
-18.19408 57.06592 7.477042
-13.84735 55.0998 9.126877
-14.53256 53.72423 9.017
-14.89277 96.21169 8.158394
-15.05174 49.05571 8.977192
-19.49913 46.21814 6.294146
-17.92568 51.63192 7.859444
-17.76041 49.60955 7.999656
-19.88716 53.67943 3.262646
-19.69589 46.35346 5.919271
-25.28089 22.59882 -4.202576
-23.16808 23.32769 -1.405204
-20.22093 21.04086 1.64232
-23.72312 21.25258 -1.825584
-24.87124 20.66054 -3.245663
-10.46602 43.93441 9.485397
-12.98233 42.22677 9.359521
-12.47871 40.94212 9.407828
-14.04137 45.25223 9.207279
-16.15775 44.99164 8.801807
-18.86059 45.11238 7.285137
-19.39531 43.65618 6.539995
-15.32799 90.9327 9.161071
-19.35451 33.57824 6.48677
-12.44532 16.98137 9.624759
-14.36265 20.54731 9.54018
-19.98191 58.46986 4.982532
-18.79228 52.71505 7.145344
-19.58073 46.54527 6.153254
-11.13907 87.00118 10.24957
-19.00156 54.7761 6.861276
14.24542 12.9505 8.097928
13.44404 13.34323 8.331766
0.5166588 33.26924 9.584932
13.25154 8.690415 8.18825
0.03134448 46.4313 9.592991
1.409049 107.9688 12.31895
5.465209 9.403957 9.279951
2.639826 89.23753 9.846769
15.96262 106.009 1.934151
1.470908 111.8971 11.95496
24.48396 9.093156 -8.043271
20.4017 73.88987 2.172492
22.58452 51.3632 -2.708276
0.1841504 61.61119 9.579218
4.101325 106.4084 12.13816
21.57306 30.10466 4.186348
18.22616 94.84206 0.5566721
1.417086 95.36275 9.573009
25.0004 10.74277 -10.38727
22.87864 53.8176 -0.001099552
2.957416 45.43199 9.592022
25.12028 11.67543 -11.56511
3.401927 9.340834 9.372646
11.3932 13.12735 8.774451
22.34752 59.24198 -0.7280363
20.64901 80.12588 0.4823569
17.4816 98.11244 -0.3213302
6.523277 111.7614 11.19898
10.78794 112.6437 8.606733
23.69743 10.97023 -5.922852
24.80018 11.2895 -9.256288
13.88638 112.5021 3.8095
-0.2714744 23.1968 9.552601
23.16438 32.55272 -6.940589
1.270687 57.49871 9.583081
21.50002 67.31085 0.7897938
20.66823 80.65195 0.8720656
0.5770736 76.9814 9.850406
17.63012 97.58983 0.4132688
16.06853 105.4914 1.498332
8.018106 111.8125 10.23981
9.878091 112.2956 9.771307
11.57123 111.6976 7.956712
22.80121 9.58059 3.635626
23.80187 11.00666 -3.099635
23.919 10.36525 -2.620597
23.53687 11.63926 -5.392271
13.83118 110.9215 4.596401
-0.1694762 27.22987 9.567438
0.1568315 19.86035 9.53879
10.28577 9.504432 8.825588
23.37173 31.97401 -6.489713
22.67444 50.84034 -2.559347
21.75432 61.46374 -1.988962
2.870763 49.54418 9.58876
21.31654 63.91537 2.255323
20.46995 75.9072 -0.0682009
1.402872 63.85125 9.574712
20.29671 85.8933 1.096329
0.2204589 85.14561 10.33741
2.547631 75.62585 9.740258
19.0661 91.86568 1.174296
0.8623263 97.50223 10.30483
16.47481 103.3564 3.607997
2.200342 102.2439 11.69215
13.03937 109.7528 7.165103
6.29458 108.9309 11.38023
2.966702 103.8484 11.96227
10.11356 107.5886 9.945344
14.36541 108.6262 5.566936
14.74515 108.524 4.655712
10.52259 104.0041 9.620982
15.21312 108.3383 2.267893
21.19831 9.544057 5.060429
23.24482 33.33265 -6.972404
23.87481 13.71373 1.56712
23.00317 19.85761 -7.565953
23.85423 16.51289 -8.355054
1.652286 26.03553 9.565163
1.839959 32.84055 9.585772
-0.02276121 25.24041 9.560606
13.34704 10.21563 8.234231
22.96291 38.90082 -6.104546
22.99544 42.0044 -2.915577
0.6457385 38.63439 9.595889
22.71321 53.75754 -1.412869
21.80278 60.23215 -2.259407
1.893717 57.61278 9.581383
1.035617 50.60286 9.590818
1.570185 45.80184 9.594131
20.9037 69.83855 1.86506
20.25037 72.27045 3.094669
3.984404 70.72495 9.563255
20.51849 79.55348 2.795901
19.72197 89.09801 1.674293
6.560374 87.5139 10.2009
3.175502 77.65633 9.909323
19.09632 90.71704 3.580273
17.29614 99.65331 1.921391
17.73279 95.7356 3.618243
2.399706 95.99342 9.709385
1.122613 90.20717 9.968439
11.26275 110.311 8.756883
6.100762 107.7244 11.55428
14.46005 110.2434 2.203421
23.12017 11.26301 3.15958
17.47119 12.59096 6.936756
23.5965 33.64445 -6.275828
8.294207 9.964145 9.084647
6.585296 26.63556 9.524747
3.714716 24.45268 9.551264
14.09732 11.33684 8.087429
23.29931 43.06562 -1.758233
1.917194 39.29441 9.592959
22.99684 51.27218 -0.9238435
22.62981 54.65317 1.169319
22.46377 56.86551 -1.297387
0.8872104 58.89848 9.581861
20.82312 71.4324 1.527508
22.28361 60.39374 -0.3956661
6.395021 69.50911 9.524336
3.035724 72.89427 9.605524
3.423546 66.81546 9.560459
20.56257 82.5977 2.118033
20.5376 80.91821 2.721505
20.44739 78.97526 3.11005
5.759566 92.08709 10.2185
8.192827 74.59144 9.630628
17.81482 93.97958 4.969987
3.29141 101.6608 11.35972
15.98344 105.5979 3.570656
15.21381 105.2329 6.152372
22.23636 14.06078 4.069553
22.93955 24.83352 -6.177541
0.5287551 34.42297 9.587011
14.90161 14.00365 7.925338
23.05359 47.65938 -1.994122
1.23936 37.43753 9.592973
3.139514 62.72943 9.567883
20.15529 61.89819 4.052742
20.44615 74.4015 1.572535
18.87705 85.75455 6.69342
4.654976 88.41133 9.978272
3.808813 82.40655 10.2287
3.022605 75.85649 9.756122
17.42169 97.22639 3.54364
5.431341 93.28638 9.264582
5.066407 97.72543 9.759631
3.739147 101.1222 11.0968
7.946326 106.0075 10.776
13.66875 104.6758 8.159552
19.04757 12.31631 6.235005
22.96741 24.08064 -6.000656
5.045915 29.51343 9.56594
23.7396 33.80866 -4.225491
23.28313 38.14503 -2.675676
23.76599 36.11693 -0.7520704
22.91185 45.86169 -2.694378
2.608076 54.52104 9.583128
20.97099 64.51355 2.784641
19.24671 90.42587 3.174837
15.51694 94.66807 8.088171
18.78633 90.73065 4.764954
6.327916 101.6191 10.50456
20.77048 13.83147 5.258334
16.62049 13.4352 7.29224
7.094449 12.25018 9.269938
8.288233 20.2466 9.365946
23.65193 38.99755 -0.01756305
4.329158 62.72173 9.55865
6.963789 67.81646 9.512218
8.952115 82.20215 10.22058
7.143651 79.90617 10.10194
13.24836 84.49942 10.26844
17.63083 86.31756 8.244287
18.50986 82.34555 7.495616
5.364181 101.9437 10.8634
24.17326 28.88263 -2.293803
5.296236 24.32 9.533259
23.42891 43.08108 0.6234308
17.90454 66.94882 7.226162
6.512144 62.98222 9.532545
15.88689 93.82993 8.007311
18.79117 86.97424 6.569607
17.26136 93.23519 6.570811
7.333982 101.4083 10.19151
15.24557 15.27344 7.838498
5.590556 13.57873 9.38899
24.19938 27.68692 -2.341028
15.43792 65.50856 8.589433
18.40895 84.26189 7.562408
23.2528 47.46568 -1.042154
21.43814 46.5499 3.584143
23.32384 33.35516 1.812286
23.95786 30.95528 0.01903442
16.77701 65.08215 8.013351
16.90529 90.32838 8.143639
22.79488 45.41032 1.94387
22.82155 32.73869 2.713173
20.7641 31.16562 4.799443
23.05587 36.3878 2.157779
21.79262 35.13692 3.794449
24.04826 30.70484 -3.031953
15.79712 91.08553 8.857927
21.24337 36.39032 4.227784
12.12437 98.40451 8.953522
22.97421 29.65267 2.589069
15.37565 83.23892 9.807671
16.46792 86.69834 9.148798
23.01393 41.51328 1.880957
18.86602 79.20844 6.946993
22.26936 44.70243 2.777715
22.19353 25.91131 3.744704
9.630649 80.40823 10.13488
20.68937 41.88105 4.475725
21.70491 40.07268 3.651759
14.38448 82.84794 10.14613
18.41573 42.42649 6.363057
20.41695 47.83811 4.442396
21.77339 38.76883 3.645535
19.60196 41.41838 5.373489
19.82645 38.57453 5.276533
18.978 32.38597 6.040078
18.02373 33.15564 6.686935
21.95658 23.26578 4.050113
22.75507 23.20012 3.149047
20.11763 33.28068 5.205085
17.8342 15.89241 6.801047
24.21702 25.86212 -1.561868
18.21126 39.19868 6.539287
14.84401 85.67609 9.981046
17.83138 33.26448 6.815865
15.96849 104.4905 4.752945
23.59646 11.44077 -5.766511
23.78854 15.92557 -2.885182
23.22549 15.04227 -5.568864
23.37296 13.69019 -4.8341
22.80419 23.53122 -6.586213
3.241137 48.97573 9.588458
16.77409 101.2085 3.868571
14.66372 102.3244 7.355853
13.97986 98.31374 8.253396
13.05307 98.43618 8.676456
23.26575 15.00146 -4.961616
23.65429 18.71123 -3.559736
11.81799 10.57443 8.595076
23.43917 39.88333 1.05632
2.577592 59.41079 9.576213
14.78014 71.82111 8.930059
7.108728 73.66357 9.591883
7.014849 75.93745 9.746593
6.650029 73.49287 9.589775
23.67251 16.04853 1.993643
23.98357 18.23361 1.052786
24.04873 18.93261 -2.171397
24.19022 22.48119 -1.915212
22.91335 22.73703 -6.092733
23.61562 22.99368 1.706746
24.18437 22.02095 -1.899688
23.64146 21.4949 1.72725
6.410862 14.82339 9.375825
7.07903 13.77753 9.31077
4.62833 51.85629 9.578959
9.377764 91.24398 9.916131
6.587097 96.79029 9.466013
7.785264 99.10462 9.803795
8.535213 100.2598 9.657468
4.034751 37.67355 9.590161
5.410875 103.1777 11.20767
10.36049 103.0992 9.599583
21.10176 15.09242 4.998328
8.396273 24.47379 9.428029
3.519771 44.80656 9.591422
14.1024 14.19948 8.180228
11.91464 16.82399 8.804154
11.98451 15.31698 8.737745
11.03127 66.08703 9.362634
18.45275 85.41999 7.37782
23.15232 45.87654 1.16423
16.2316 63.01538 8.319485
17.36715 62.04278 7.601545
19.97667 62.40979 4.269575
11.33845 59.81343 9.375443
17.75077 66.57487 7.36245
12.73088 65.74816 9.191242
12.00694 67.10311 9.275658
13.47576 68.73426 9.076293
10.32994 64.71439 9.413099
7.661996 69.53941 9.497634
12.70109 73.54623 9.405771
15.79977 73.45084 8.86977
17.53662 71.50792 7.511189
18.7509 71.31923 6.265399
12.47577 77.95231 9.92885
20.26496 75.75909 3.1705
9.973422 74.41268 9.585913
17.97141 78.58036 8.01685
14.76679 74.05731 9.273625
16.55011 75.59162 8.805618
18.92027 76.94416 6.644016
18.59713 76.56231 7.060503
18.97121 76.20281 6.461071
13.19708 97.12643 8.814975
16.2245 89.64813 8.883596
15.63508 87.2985 9.572665
16.7349 87.11939 8.928658
12.86068 89.68965 9.986176
12.27476 82.87528 10.24446
9.766903 89.85495 9.910347
7.152064 86.65457 10.30749
9.551742 86.76701 10.27185
10.70508 91.2665 9.861139
8.888105 92.79704 9.799608
4.567012 85.47042 10.34192
12.43929 96.43963 9.0932
9.712535 93.08797 9.558762
11.7853 95.35239 9.287435
9.430488 94.62368 9.211209
18.58812 43.18927 6.209341
19.05046 25.47468 6.097735
9.420055 34.61427 9.489211
4.298968 36.28151 9.588009
3.305961 34.42059 9.587379
6.754038 38.97604 9.578005
10.19907 35.31148 9.444518
10.1655 38.11282 9.465552
9.608783 29.90793 9.429058
9.888398 33.03938 9.441875
14.0387 29.60412 8.646928
23.0708 19.01118 2.863601
19.49374 21.71813 5.891764
18.80149 23.19729 6.277748
18.11039 25.14516 6.656424
19.83094 17.8334 5.756141
16.17933 24.93342 7.662241
11.16819 27.30668 9.219773
16.21818 24.37366 7.631549
15.98639 20.25374 7.665246
13.90299 16.91941 8.323454
15.14303 21.35427 8.0304
12.99167 21.64582 8.717991
13.15217 20.43411 8.641682
11.33097 24.15476 9.124368
18.96408 35.13655 6.006769
16.68341 29.74921 7.489555
16.06848 34.62578 7.904777
16.859 31.13029 7.408513
12.57119 34.6988 9.154983
15.63763 38.19162 8.212621
12.55899 39.1254 9.236306
10.9616 35.85437 9.387224
14.15463 35.37503 8.766202
16.76259 39.98197 7.602936
15.18228 43.6872 8.553354
17.10044 99.5866 3.406789
16.30133 99.52321 5.607086
5.329507 62.49187 9.549554
9.956079 60.61755 9.454706
4.831233 52.75513 9.576371
20.07872 59.98457 4.232519
20.46929 58.88092 3.838528
18.10782 56.19189 6.773704
20.28855 52.56642 4.339128
19.75041 54.26807 4.831393
18.20973 53.84626 6.616075
16.34034 56.52056 8.218959
18.87941 52.8012 5.835031
17.60695 59.12651 7.356297
20.14958 50.68617 4.562016
14.12429 58.77054 8.999781
12.70408 60.06684 9.22289
10.48721 59.0587 9.434939
16.02752 49.35759 8.27364
15.53243 46.11811 8.453038
14.86468 52.17543 8.809036
14.79155 54.92856 8.844402
14.57682 52.397 8.896004
17.20662 47.74556 7.4387
14.95867 45.67186 8.688029
11.48874 46.08922 9.406035
12.42501 45.12117 9.308454
11.86139 44.83009 9.372106
17.20544 42.21312 7.341849
9.430374 42.36412 9.524296
10.47801 50.48475 9.467411
8.416607 47.343 9.550824
10.3226 49.47619 9.477834
5.491462 47.0662 9.583586
5.540281 49.77216 9.578554
5.380369 44.01133 9.586808
9.007794 40.00974 9.53405
10.19627 41.07569 9.481869
11.41135 43.78404 9.406276
7.919343 71.53589 9.508883
23.01619 17.9077 2.999431
23.97591 20.54748 0.956935
8.652421 16.81807 9.26175
7.053 21.02087 9.449432
11.85003 18.20423 8.862319
9.547023 23.63437 9.324443
10.1466 25.65428 9.308565
10.40222 26.11394 9.290334
6.888099 27.22366 9.52235
8.674658 29.53744 9.476844
5.025394 54.20081 9.572077
20.08317 64.37526 4.035964
11.16677 73.38184 9.473212
17.54421 18.47614 6.948041
12.96005 33.51821 9.045075
9.308326 51.88724 9.515807
11.03964 57.04955 9.410398
10.43723 52.60432 9.464221
9.002313 52.81242 9.523096
9.234297 52.98011 9.514665
12.57376 53.02271 9.287951
23.01369 20.25108 2.910773
11.28595 72.92034 9.435537
7.604287 71.45746 9.515489
8.635533 57.60886 9.516229
5.972356 56.81148 9.558802
6.891032 52.71954 9.561707
-0.5147721 59.03575 -11.8056
-1.151538 23.43007 -12.38548
-0.5267299 94.1396 -12.71995
-15.12198 10.00195 -12.86665
-1.158609 110.8129 -6.447784
-19.76363 88.48918 -0.646049
-0.07230881 10.16907 -12.82295
-0.2111574 110.7121 -6.473812
-20.71425 55.91595 -6.553059
-1.136314 100.9153 -11.27395
-0.1186605 112.2889 -6.691494
-21.6849 10.24965 -9.752219
-13.97901 110.725 -0.0354116
-23.53883 37.32718 -6.557237
-9.455186 101.8291 -10.01574
-23.59459 38.02515 -5.999209
-20.39262 78.2606 -1.195743
-19.8258 75.64034 -2.960684
-22.03259 10.2071 -9.972122
-19.99672 87.41262 -0.3403276
-13.36834 112.2626 0.430377
-11.68067 113.5695 -2.112093
-0.8369277 7.824122 -9.764084
-0.4670628 17.08897 -12.88978
-1.408377 30.03137 -11.12681
-21.35387 66.74355 -1.271487
-0.8169657 73.66817 -9.823247
-15.51366 103.5506 -2.67252
-5.720307 112.4548 -6.022711
-15.70785 13.53364 -13.15864
-23.87712 17.67553 -9.639606
-14.5721 107.9591 -1.49887
-0.7998124 9.312892 -8.365136
-1.423589 33.20158 -11.42517
-0.9806746 14.07545 -9.163314
-0.8645526 13.90358 -8.26861
-2.224651 9.629769 -3.673535
-1.354913 42.17659 -11.61364
-22.17026 33.9895 -9.628517
-21.12909 68.30252 -2.11334
-20.59096 78.5597 0.1023373
-1.07598 75.1378 -9.417552
-1.259726 96.68166 -12.47384
-0.9146341 89.7177 -12.07203
-2.141805 104.3385 -9.63176
-5.803907 107.304 -7.737285
-22.41895 19.13735 -9.566149
-21.85875 13.53186 -9.676983
-21.68785 16.81517 -9.626156
-19.43283 11.33675 -11.20067
-14.74575 109.1038 0.4544551
-1.35848 25.60509 -11.34765
-4.892352 10.73298 -3.883248
-23.91159 30.05314 -8.250494
-1.304829 45.88785 -10.42243
-23.42193 38.96383 -6.155203
-1.101312 54.95672 -11.08314
-19.28197 58.94776 -7.524842
-21.44663 65.35345 -2.372017
-0.457974 63.7015 -11.4195
-19.79847 74.56247 -3.243483
-2.395702 74.79592 -8.902822
-19.86041 87.1806 -1.407696
-0.7943599 93.83102 -12.72066
-3.899122 97.01059 -12.461
-0.5550952 87.28735 -11.13525
-17.30978 96.23316 -3.203784
-17.62024 96.306 -1.921446
-0.8860521 100.0526 -11.58795
-2.723347 108.3828 -7.409484
-4.396929 111.2592 -6.204842
-22.92926 20.46348 -9.525307
-17.95099 13.92767 -14.30081
-14.64991 108.8532 -0.4068651
-12.19585 106.109 -5.921143
-1.125542 21.71831 -12.1978
-1.179566 21.79328 -11.96802
-0.7680282 10.67615 -6.371748
-24.29709 27.55827 -8.189025
-1.317024 38.72102 -10.28763
-0.8314659 40.3555 -12.98431
-21.82319 47.35144 -7.121215
-22.99328 35.8966 -8.324891
-1.209657 51.12178 -10.84696
-20.44861 62.18765 -5.437187
-22.39307 55.91003 -3.299943
-20.41023 64.45746 -4.936514
-1.193281 64.67115 -10.08864
-1.598551 71.01978 -9.204552
-0.3568136 61.37534 -11.76933
-0.7151976 58.17265 -11.71534
-2.379494 58.54163 -7.780021
-20.0647 79.68658 -2.529644
-2.186889 81.38792 -9.343667
-19.37015 89.09872 -2.112214
-19.34265 87.55833 -3.004161
-18.13053 87.78567 -5.322016
-4.61929 97.31654 -12.42083
-3.350965 101.5057 -11.05853
-4.186473 100.4017 -11.51201
-15.51445 10.91638 -13.18891
-14.4847 12.77894 -12.004
-19.3999 14.31746 -13.57214
-1.410882 30.00628 -11.33586
-7.258786 11.12686 -5.744295
-23.69975 29.85845 -8.642326
-22.91516 34.04987 -8.873148
-1.4188 34.5341 -11.54711
-1.371094 40.04511 -10.74425
-1.269367 50.1882 -9.473488
-19.64373 45.77696 -9.944054
-22.66339 40.65493 -7.525873
-17.8502 59.33004 -8.563715
-20.18936 62.37231 -5.754292
-0.8011967 62.80733 -11.12907
-20.27833 76.02086 -1.355227
-19.67509 74.17617 -3.634715
-20.81561 71.50381 -1.498489
-17.61719 93.90943 -4.073098
-18.11632 91.16891 -4.403859
-3.453175 104.0688 -9.78976
-14.53529 105.5282 -3.27915
-12.17222 12.51963 -10.02961
-1.275908 28.75129 -10.19966
-1.211844 18.59254 -10.86108
-22.39133 34.6623 -9.357608
-1.425175 34.00779 -11.27727
-1.263059 42.36316 -9.542254
-20.88233 48.48977 -8.20717
-19.80163 59.52369 -6.882842
-20.75797 68.76752 -2.933521
-1.258667 61.99731 -10.05901
-1.254878 59.78563 -9.984103
-1.262834 54.89754 -9.70117
-17.79589 82.9702 -6.104542
-19.66003 84.3752 -3.208561
-2.902313 85.96839 -10.55236
-7.450495 95.81721 -12.52858
-6.929518 101.6024 -10.95325
-7.377658 101.4578 -10.93125
-11.16185 12.66471 -9.288102
-0.8863414 19.55403 -7.227687
-19.93385 27.38018 -12.70057
-1.331054 42.21273 -10.25348
-1.709235 50.4326 -7.913687
-20.82285 48.19385 -8.361884
-22.78947 36.902 -8.408166
-19.86651 50.63879 -8.717454
-20.57544 69.38425 -3.157796
-2.452305 60.61901 -7.862215
-19.00818 75.18526 -4.680759
-3.085809 82.58215 -9.496086
-5.868742 80.49272 -9.103023
-16.65552 86.49419 -7.107276
-17.29199 83.98302 -6.552899
-19.4809 80.03483 -3.892177
-5.803624 103.5619 -10.07858
-9.582575 100.9121 -10.35345
-7.053973 97.62689 -12.24937
-5.913954 103.3196 -10.20048
-10.96735 103.2079 -8.438523
-11.24435 13.35408 -9.34999
-16.29219 13.3797 -13.71146
-18.21499 12.37198 -14.42235
-4.247786 13.67738 -3.832653
-5.807618 14.03577 -4.620552
-1.273441 41.23509 -9.65756
-20.73055 39.21572 -10.68313
-15.95187 61.15558 -9.264861
-19.46297 64.63996 -6.210148
-17.78735 74.84212 -6.318965
-16.76443 80.83591 -6.994349
-11.86657 104.3523 -7.154112
-11.0309 104.9128 -7.480746
-12.33164 13.92146 -10.09826
-1.159834 21.77773 -9.778792
-21.92659 39.35282 -9.353447
-21.84448 34.34933 -9.95546
-20.033 62.95943 -5.830339
-4.009889 67.37909 -7.927918
-5.516786 83.42205 -9.553815
-16.42477 79.95465 -7.22253
-13.31412 103.7112 -6.095549
-14.5389 101.2785 -5.786573
-13.31103 100.7745 -7.556699
-9.544365 97.63436 -11.51643
-1.238914 21.84887 -10.31744
-0.9135062 22.1728 -7.382265
-1.693715 49.70296 -7.815544
-17.78736 65.99065 -7.574368
-18.77913 71.57478 -5.703834
-15.07775 83.42669 -8.040092
-12.66196 83.28355 -8.815668
-8.459295 89.08331 -11.85592
-4.849206 92.17057 -12.70288
-11.61445 98.9053 -9.882636
-13.113 14.28563 -10.65866
-0.9014883 20.4427 -7.03377
-16.34396 58.55085 -9.445925
-14.61993 56.37625 -10.33716
-14.08238 68.71178 -9.07682
-10.11213 84.65105 -9.529964
-9.061045 85.11475 -9.86203
-16.70493 76.52592 -7.190837
-5.55704 92.99416 -12.81328
-14.76529 98.6972 -6.755875
-5.372419 65.19494 -8.059071
-7.287941 82.48311 -9.236442
-8.354445 78.54002 -8.912944
-8.423162 107.6351 -7.09831
-5.944648 70.66946 -8.692262
-12.35448 78.3445 -8.650269
-5.876328 91.9609 -12.71622
-11.50416 96.82494 -10.65614
-5.320649 62.33242 -7.802536
-8.74484 85.05471 -9.856004
-17.02682 75.27536 -7.010996
-16.32986 71.51424 -7.848948
-13.07525 75.90204 -8.696891
-17.52466 76.78334 -6.517326
-15.39809 67.82923 -8.727957
-15.50236 77.10321 -7.86378
-10.77351 76.76649 -8.838834
-13.52215 70.5504 -9.03378
-11.17654 72.11459 -9.239934
-8.78897 87.3423 -11.14863
-4.784308 87.52078 -11.26448
-14.4102 69.63441 -8.896976
-11.12142 74.87187 -8.954922
-9.072237 78.44211 -8.871398
-6.085737 79.17155 -9.033054
-8.474042 67.25399 -9.384878
-5.495721 65.92101 -8.174892
-8.262455 74.21715 -9.093794
-6.639264 79.22771 -9.008824
-9.636877 67.58228 -9.614871
-6.779296 76.00178 -8.985414
-7.478561 64.31461 -9.002089
-0.8205513 11.94099 -6.336252
-2.219825 13.53931 -4.047134
-1.045385 13.70623 -5.544966
-5.496067 15.04778 -4.471201
-6.107676 16.75443 -4.967429
-7.902124 17.3513 -6.677408
-9.894713 16.11679 -8.456075
-7.063414 20.42355 -5.968537
-8.065836 19.54186 -6.935869
-6.776531 21.30831 -5.745518
-1.677688 15.90644 -4.735088
-0.8941568 15.02177 -6.219071
-1.86042 18.66332 -4.832517
-3.836524 17.80248 -4.055262
-4.259806 18.32363 -4.177224
-5.408648 22.45656 -4.869411
-1.327717 23.0709 -5.951176
-6.201034 109.7593 -6.432916
-10.43801 108.4032 -5.972839
-10.22725 107.6553 -6.457626
-7.718821 106.7691 -7.794926
-20.2189 18.03116 -10.8357
-12.47454 111.7116 -2.382785
-17.57718 95.4807 -2.97996
-20.49371 21.99611 -11.09876
-20.66782 22.91866 -10.80842
-20.57739 27.0263 -11.66078
-16.86526 27.35051 -12.80919
-15.47082 25.9526 -11.9731
-12.20341 16.56741 -9.946751
-15.39365 22.31246 -12.09889
-18.87528 18.10696 -13.87604
-19.91847 18.46272 -12.66985
-18.83422 16.92518 -13.93657
-16.68424 15.57923 -13.77196
-16.61652 17.75109 -13.51693
-15.99913 27.176 -12.28059
-12.89121 24.28023 -10.50807
-15.07778 27.62321 -11.6713
-14.60359 25.19701 -11.41598
-14.34307 30.60954 -11.49157
-12.828 21.09265 -10.35865
-12.18488 29.08204 -10.46178
-12.95718 31.08946 -10.95624
-21.94085 30.46027 -9.796967
-21.73862 32.43881 -10.04387
-20.58113 32.49511 -11.64956
-18.2935 56.23468 -8.771075
-1.192964 25.17216 -9.745734
-1.147913 26.24232 -9.39955
-1.595473 24.66517 -5.661455
-3.357341 24.18061 -4.588352
-1.527743 49.93791 -8.308973
-4.882691 58.19173 -7.329948
-17.76056 50.76293 -10.01116
-19.75606 55.8388 -7.700252
-16.83202 84.47736 -6.951137
-15.57044 85.97619 -7.968949
-11.84613 87.30165 -10.36219
-17.11015 89.38828 -6.515028
-16.2134 93.21883 -6.978081
-15.39208 87.98162 -8.30863
-5.177047 70.60531 -8.466719
-4.036232 69.28115 -8.110179
-20.5486 33.91595 -11.56707
-2.692606 40.62054 -6.078817
-3.870649 37.53358 -5.682258
-9.094614 42.30875 -8.821103
-9.597537 43.19837 -9.214196
-7.550375 39.90379 -7.560994
-7.15401 38.2113 -7.160331
-7.736237 37.15135 -7.488136
-10.57133 29.69596 -9.404893
-9.307761 35.83256 -8.542729
-12.99355 32.56305 -11.02476
-11.54421 38.70205 -10.15464
-19.41161 68.60289 -5.455234
-8.873806 91.85543 -12.3299
-11.96463 90.11987 -10.95468
-9.33558 90.08789 -11.93139
-12.72688 94.66867 -10.30056
-14.36299 94.69951 -8.795287
-11.414 93.2344 -11.36647
-16.38256 95.07356 -5.948472
-12.5722 92.53825 -10.70147
-16.17796 96.50879 -5.626066
-15.71552 64.16187 -9.002505
-8.332432 70.36009 -9.283803
-9.610125 73.29948 -9.190157
-8.715109 19.71491 -7.582335
-5.426586 23.59408 -4.936671
-6.206593 27.19707 -5.632045
-4.463327 27.28351 -4.89416
-6.03393 93.87114 -12.8416
-11.51198 20.6972 -9.65638
-9.158598 18.84962 -7.958918
-11.18705 24.19335 -9.664266
-9.099353 23.74093 -8.066833
-14.22575 20.75466 -11.23386
-15.76431 31.75748 -12.09401
-16.09251 33.77944 -12.23246
-16.36534 36.27298 -12.19558
-12.8434 33.68709 -10.94305
-13.24505 37.09375 -11.12902
-14.54876 39.27304 -11.62332
-12.26944 38.87759 -10.58266
-10.36293 33.66341 -9.258302
-10.18155 41.85125 -9.506913
-11.17145 41.96173 -10.11103
-13.31005 43.62407 -11.15333
-7.359178 45.88012 -7.853714
-8.037354 48.24659 -8.491145
-8.565723 47.34099 -8.791772
-5.30108 44.95147 -6.528221
-9.278131 48.55497 -9.324882
-18.96454 44.36464 -10.61513
-3.35623 27.14735 -4.839291
-3.920585 29.8486 -5.058786
-6.556995 29.839 -6.060175
-8.580907 25.64541 -7.619922
-1.696813 30.92472 -6.080471
-5.162692 33.79108 -5.644445
-1.267911 35.12636 -7.441305
-7.139016 28.40242 -6.416566
-1.272655 33.57476 -7.204269
-5.222618 31.81596 -5.475335
-7.944894 33.53911 -7.374371
-2.005311 33.20708 -5.923061
-1.921453 54.63813 -7.958904
-2.779917 48.90436 -6.703278
-4.903214 52.27169 -6.909387
-5.10077 47.95513 -6.692285
-5.084082 50.24223 -6.831199
-3.198745 50.83797 -6.705014
-5.52786 54.34896 -7.319324
-8.946814 56.42437 -9.459076
-13.55919 54.4354 -10.68161
-9.803509 54.75915 -9.818032
-11.22175 50.92361 -10.37639
-12.76578 46.68977 -10.93404
-11.55635 45.71018 -10.44619
-13.55593 45.32658 -11.18178
-16.86161 42.80223 -11.53049
-14.28039 40.35101 -11.49758
-16.30407 45.02472 -11.36175
-16.64938 46.81173 -11.06088
-13.91798 46.54423 -11.19123
-13.99894 49.53727 -11.05571
-15.75122 50.07968 -10.84759
-16.64926 55.11718 -9.828084
-16.51217 51.06693 -10.49517
-15.26903 53.68652 -10.49958
-5.760839 57.81689 -7.666859
-12.63756 54.96115 -10.61517
-17.88854 37.9822 -12.00722
-4.794607 51.46264 -6.829997
-12.58676 55.75354 -10.56466
-18.06642 36.89624 -12.1033
-17.41466 40.60349 -11.74071
-7.271482 62.18204 -8.809985
-8.447762 61.15923 -9.347778
-13.73799 58.06417 -10.31841
-12.85473 60.15711 -10.22467
-19.8851 36.48934 -11.63194
-18.35618 40.62132 -11.55054
-20.48424 40.38092 -10.58708
-10.29657 63.47155 -9.892738
-12.60762 64.38839 -9.852923
-11.50659 61.63825 -10.13849
-4.937891 72.16408 -8.561057
0.9870121 63.14178 -11.30075
9.648748 109.5805 -5.763732
22.5115 10.73671 -14.26485
22.92735 29.89188 -10.38722
23.72689 22.36019 -10.54519
17.61569 93.24216 -4.48101
6.210521 94.91692 -12.78181
16.79777 91.47517 -6.620046
1.882735 8.926359 -13.28928
18.55862 91.85899 -2.80247
0.4747142 13.54249 -13.40211
6.766221 8.969336 -4.55758
-0.6026096 41.61568 -13.11205
1.674996 40.91447 -12.57183
3.596347 7.885252 -12.14321
22.0935 24.73924 -12.46373
0.9037598 91.70856 -12.53969
23.53542 23.99212 -10.0631
19.19715 90.49288 -1.585148
1.153766 85.90262 -10.54806
19.87542 82.99203 -2.91266
16.80235 67.71664 -7.982403
19.70029 9.621607 -13.87784
2.527029 95.45486 -12.67013
7.733611 112.6743 -5.890606
15.6209 104.8925 -1.273242
19.64537 77.59073 -3.493625
6.72181 9.70911 -4.563038
3.545822 9.572246 -4.685414
2.96458 11.53959 -12.74921
0.7094941 46.68798 -12.93878
1.143756 59.90776 -11.47836
24.02615 17.27386 -12.19315
21.42888 38.51035 -10.20759
17.47029 10.40862 -13.18325
1.461815 91.49886 -12.51278
19.57121 89.56577 -0.4264733
12.65213 112.6658 -2.219235
12.76704 111.0299 -2.532009
2.344191 76.89692 -9.096417
20.39088 74.15679 -1.10129
3.218124 112.2339 -6.695476
5.652755 111.8767 -6.383188
9.071893 10.86935 -6.773818
3.492635 10.22513 -10.01108
1.049478 11.50334 -13.37494
0.02355737 47.84182 -12.91329
-0.1421884 34.67039 -13.50074
23.14412 34.55648 -7.202347
-0.1757324 66.58961 -11.28331
21.46221 60.33385 -3.16181
24.11182 14.42494 -12.95716
19.96645 9.62065 -13.94822
23.9733 20.70837 -10.59308
1.575849 99.35508 -11.82158
1.144747 91.72219 -12.54549
17.94716 93.40402 -3.52354
18.78092 92.20937 -1.522395
18.12458 89.98338 -4.805873
1.811032 87.09293 -11.05238
6.422415 111.1511 -5.969625
0.5548334 104.197 -9.707278
0.2572743 74.12144 -10.03173
20.51185 83.06361 -0.2149893
19.80845 86.13361 -2.217547
20.15117 74.35143 -2.025172
20.20003 69.79083 -3.368402
3.120279 106.112 -8.651995
1.586375 18.53461 -13.48835
0.2390964 24.00465 -13.60764
2.264564 15.83715 -13.1828
1.949776 45.53316 -11.62827
0.06496903 50.21325 -12.72351
21.40792 48.2855 -7.516447
18.00929 50.0717 -10.02932
22.21353 43.87341 -7.10534
0.8520615 59.582 -11.7885
-0.1177799 60.89144 -11.85645
21.60139 61.98463 -2.22508
19.69804 60.47117 -6.670794
21.54844 53.43882 -5.415109
17.3615 10.89217 -13.13922
23.01933 28.22257 -8.940277
24.30634 17.44897 -11.44988
10.81592 10.25424 -8.991304
2.334748 94.18776 -12.73887
1.014598 89.18285 -11.89511
17.4785 93.16795 -4.825327
0.09647234 86.05624 -10.61628
15.77595 105.769 0.1736734
-0.08825552 73.53977 -10.2796
2.774667 85.23283 -10.2612
20.55666 79.89908 -0.5064713
6.501556 10.24476 -4.488985
1.371893 19.87294 -13.50261
2.535964 10.48979 -6.45979
2.272908 46.32119 -9.368812
1.942596 46.61937 -11.47629
0.9702705 35.53468 -13.34625
-0.1247552 32.33083 -13.57213
1.294201 29.47495 -13.40594
22.55854 35.73024 -9.298392
21.44988 37.6541 -10.38034
19.94778 35.11537 -11.75136
1.342365 65.94159 -10.47316
20.76699 63.74755 -3.852251
22.93558 30.88833 -9.623216
16.29186 12.63759 -12.73808
4.152833 96.37702 -12.58571
14.95533 101.798 -4.867609
16.65123 100.539 -1.81831
0.7912233 85.72836 -10.48282
10.31652 109.8388 -5.365887
4.216799 79.55032 -9.119921
9.077991 82.67406 -9.104527
5.166523 105.9171 -8.705573
2.110713 26.88849 -12.98359
2.560456 14.80706 -6.816236
5.36077 11.26978 -4.296143
1.907353 40.42456 -12.2076
2.449739 29.88261 -12.23409
22.06893 37.86299 -9.553949
0.4419817 55.15059 -12.34697
2.816309 61.26126 -8.224142
23.0831 20.95329 -12.52534
22.69171 22.30622 -12.53097
15.79302 13.98797 -12.53687
3.148873 98.27579 -12.15328
15.47772 98.9952 -5.504306
11.48345 106.4255 -6.325688
4.680809 75.31777 -8.802198
3.91674 84.59544 -9.98907
19.32407 78.02922 -4.156882
3.133853 19.74165 -11.08804
2.664572 11.26862 -7.761121
2.435972 34.72465 -11.48405
1.682258 54.80743 -11.21025
2.596554 63.8438 -8.540752
20.16924 57.6025 -6.75157
20.69446 53.46972 -7.123145
17.12619 20.11866 -12.81662
5.843794 97.68134 -12.35993
7.57984 95.18604 -12.59096
15.69191 99.52683 -4.811237
15.33198 93.37575 -8.073526
2.39596 103.0082 -10.33685
18.69633 86.07465 -4.740427
3.110506 20.0203 -10.97085
1.562023 32.51944 -13.18803
19.54005 36.82003 -11.67872
18.55875 61.09547 -7.68928
17.34672 17.159 -12.97338
13.69834 99.88042 -7.555792
16.69098 96.10939 -4.833859
3.881815 100.3985 -11.51429
6.133633 77.44398 -8.970669
4.783781 78.87225 -9.066709
17.11197 88.11826 -6.611139
2.867475 25.82715 -11.30438
2.843225 18.34293 -9.388149
2.472676 55.50315 -8.51664
2.333116 50.7114 -8.950321
15.15105 57.81576 -10.04388
13.18454 14.76365 -11.24174
17.15408 96.65013 -3.357901
7.306204 77.82287 -8.945398
17.81726 84.30316 -6.044097
2.786432 22.72643 -12.23673
2.657327 13.76387 -6.304528
2.387168 39.32445 -9.502517
1.127349 51.37834 -12.28308
19.18916 50.30463 -9.297541
19.68598 14.65201 -13.64744
14.4089 99.39958 -6.913665
10.63351 75.83244 -8.899441
18.2591 88.66154 -4.91033
2.77093 12.81318 -8.38211
1.363149 50.70248 -12.13392
18.20975 58.7709 -8.361304
19.35924 51.20554 -8.989577
21.13545 46.95309 -8.302901
19.69394 17.24387 -13.51225
10.10639 97.43972 -11.30049
14.61986 93.22591 -8.891623
14.9386 95.63322 -7.856297
17.31077 81.14902 -6.57923
18.08544 88.77381 -5.182225
2.936593 21.69361 -11.98682
2.656179 53.39528 -8.134518
16.14392 58.47541 -9.583211
16.39511 13.16311 -12.76764
17.95102 14.89075 -13.21952
14.27109 95.73698 -8.58392
8.696196 98.17084 -11.70396
18.44116 80.45366 -5.443581
17.84776 76.51744 -6.206855
3.283932 13.06009 -9.888458
14.62221 58.05735 -10.17152
17.88494 16.24418 -13.14795
14.29899 15.13284 -11.88633
15.9178 81.80404 -7.511101
3.729331 48.84996 -6.903982
21.48422 45.94949 -8.058491
14.77913 18.99788 -12.09005
2.482414 19.60842 -7.826548
3.122821 19.84466 -10.98881
4.058884 47.22525 -6.675022
20.68949 48.50367 -8.452761
2.701283 23.36856 -9.549211
4.117817 17.63475 -4.870438
9.53408 42.05278 -8.910858
11.72242 15.73551 -10.11153
5.380369 15.76882 -4.583449
13.46978 19.20349 -11.45637
2.846001 20.27489 -6.103763
7.010206 22.32443 -5.582632
2.474848 23.58681 -8.280321
6.847209 14.01708 -4.929389
9.712388 14.54661 -7.810743
9.425257 15.74133 -7.506836
2.851253 26.50577 -6.46468
8.723991 22.50163 -7.023771
5.267253 28.13242 -5.356183
5.87659 18.60936 -4.849245
10.48459 14.5065 -8.769893
2.679247 30.30062 -6.970135
7.790332 19.9177 -5.994554
2.43204 27.19728 -7.981345
2.964034 32.41283 -6.608757
4.108149 30.52279 -5.637248
2.566738 27.0766 -9.288503
2.131921 26.28828 -13.00407
3.735888 32.9165 -5.955746
8.996861 21.29589 -7.260413
5.119608 31.43157 -5.582009
8.308353 20.12719 -6.473637
11.42364 19.57561 -9.897183
2.447371 34.98897 -7.971816
2.287038 36.84873 -11.78611
12.71163 23.08141 -10.9931
2.445765 33.11108 -8.922507
2.635411 39.58228 -7.58862
2.471116 34.99702 -9.454403
4.917257 36.88833 -5.890749
6.567277 33.4031 -6.061516
17.37497 22.60963 -12.78155
3.626734 41.09189 -6.528177
4.599447 40.19912 -6.109397
4.248819 43.45413 -6.380461
5.629383 47.05983 -6.640197
2.477186 14.43536 -13.03371
13.30344 105.5013 -5.100218
20.0795 69.24017 -3.82162
18.80325 71.94476 -5.44266
18.10531 71.1768 -6.437068
17.50312 74.14847 -6.638255
16.357 75.15301 -7.497683
15.25825 69.42107 -8.623846
17.2765 76.17319 -6.749001
19.34353 69.44439 -5.138382
15.42065 66.39573 -8.900105
19.08246 67.77114 -5.870679
18.22899 66.94964 -6.992746
18.30579 65.29926 -7.186429
5.144295 93.39996 -12.8293
5.151924 87.44617 -11.23619
5.343341 92.36446 -12.75163
6.129754 90.72244 -12.49003
11.09956 93.74677 -11.5061
7.052586 88.8852 -11.92082
9.902057 93.29567 -12.06831
11.67309 91.56952 -11.2398
9.673676 88.96894 -11.57799
3.505695 108.5455 -7.288308
7.082174 108.749 -6.754114
5.748316 105.9943 -8.618277
7.691639 104.9571 -8.993416
20.14248 28.81661 -12.49159
19.09547 25.71403 -12.80525
21.11638 24.35259 -12.80726
15.83556 24.00724 -12.38533
16.2612 24.95809 -12.47539
17.09258 30.58089 -12.44282
13.52123 25.31322 -11.4813
17.57676 31.89231 -12.40961
13.73816 34.08445 -11.47957
21.57354 30.07342 -11.82769
6.879638 103.5809 -9.966584
6.108634 102.9658 -10.3643
6.448105 100.8824 -11.31838
11.85733 99.5106 -9.459836
11.75417 101.1577 -8.834514
8.628787 107.8242 -6.941304
10.19935 105.8151 -7.492401
11.78043 104.5337 -7.127723
2.419934 34.31177 -11.67661
4.10454 56.5765 -7.200045
15.44085 34.89116 -12.10187
19.49536 82.61353 -3.796011
6.289189 68.72811 -8.428765
3.201181 66.34701 -8.143012
6.16006 79.69467 -9.03546
7.901798 84.85631 -9.850168
7.665586 83.23469 -9.346078
5.989302 86.42023 -10.71026
7.183623 85.36623 -10.12758
7.131202 85.70996 -10.30225
11.11498 81.88304 -8.772221
12.50164 81.08151 -8.557254
12.16594 79.18568 -8.615797
15.27942 79.00586 -7.844637
14.45311 79.55633 -8.136695
13.22171 82.97817 -8.641099
9.926373 101.468 -9.93666
15.78901 89.4138 -8.042701
10.01673 73.56465 -9.150981
9.477825 71.49716 -9.307556
6.070641 67.51843 -8.25846
7.814477 71.82157 -9.033605
12.18527 74.6169 -8.877987
13.93287 72.08678 -8.80236
13.92713 75.12514 -8.560389
15.73187 71.94084 -8.127219
14.15213 57.45805 -10.35182
14.48979 55.01073 -10.53756
2.458349 20.92016 -7.659261
8.586579 27.29483 -7.158945
6.455992 35.19664 -6.131657
7.516292 30.71573 -6.4673
8.838353 35.57584 -7.912843
6.669687 38.01586 -6.47673
9.971417 39.64509 -9.093922
8.969177 41.23184 -8.398238
8.93831 40.30118 -8.3117
2.545949 43.45695 -8.024275
16.31402 76.35094 -7.46497
14.18012 64.55581 -9.552278
12.19166 69.49659 -9.444271
17.56353 63.8081 -8.016922
10.23919 60.53955 -9.894686
13.08639 62.23643 -10.02594
17.12265 62.75051 -8.460443
11.55535 62.77658 -10.03558
9.165548 63.60899 -9.485098
9.621081 64.51772 -9.627497
11.92735 66.7701 -9.727584
12.49072 89.3911 -10.55873
10.69391 85.29251 -9.783172
9.70801 102.9272 -9.331775
14.98506 25.38396 -12.09893
11.7511 24.50749 -10.24882
13.57051 30.57623 -11.46625
9.332173 24.8019 -7.801584
9.588919 26.47324 -8.151156
9.707649 28.51392 -8.364064
9.447703 25.58703 -7.962165
9.115542 31.46943 -7.915103
4.30508 65.07043 -7.759447
4.532783 63.66113 -7.627121
7.341571 65.81384 -8.712603
7.547285 58.98819 -8.455279
5.884891 62.9534 -7.840592
9.789833 58.5334 -9.73161
13.53982 106.6168 -4.181126
14.934 85.66491 -8.340129
13.28077 86.66875 -9.488858
15.18904 89.15506 -8.60358
2.97347 44.27646 -7.226525
6.109975 46.20788 -6.759764
6.666132 47.31503 -7.08169
9.32707 48.17097 -9.116549
10.92094 36.32605 -9.626582
9.295647 42.44937 -8.744563
20.03099 67.67036 -4.352282
19.81042 43.35302 -10.37855
12.96727 57.15805 -10.4714
5.453237 51.94893 -6.907588
6.600412 54.92812 -7.59588
11.28152 42.64178 -10.16865
21.00882 40.18272 -10.20849
20.58567 38.34044 -10.94829
19.12033 43.73504 -10.6712
17.51594 45.83472 -10.95607
17.11481 49.21611 -10.55573
14.34796 48.93724 -11.1118
14.65108 46.18745 -11.32398
11.97578 49.19754 -10.63495
11.10569 46.97443 -10.21793
9.588972 47.2118 -9.25941
10.50116 41.93168 -9.637633
8.064787 54.5843 -8.537432
11.52203 55.7182 -10.37916
11.64489 52.6457 -10.48674
12.60017 55.15787 -10.59224
10.12202 54.01723 -9.835317
9.478643 52.16616 -9.41538
10.314 39.47769 -9.339543
16.54943 38.23096 -12.07238
14.32938 44.61786 -11.39346
15.20715 40.95355 -11.74374
14.00821 39.29116 -11.4723
14.00875 37.0499 -11.56455
11.14991 36.69077 -9.799816
15.82203 35.23895 -12.16548
8.709632 52.34857 -8.878652
12.42223 49.52297 -10.79033
13.58102 51.23067 -10.91817
-14.3791 130.8353 3.871957
-12.84581 121.5947 4.862471
-8.428466 131.3825 13.70303
-12.83487 141.938 4.172578
-7.407354 140.2403 8.662499
-6.516506 124.7384 11.64412
-5.762306 141.3099 7.979322
-6.191737 147.6909 2.874506
-10.75608 135.089 12.6595
-5.563924 144.5514 5.461176
-8.669591 147.6537 1.652008
-9.565068 148.632 0.3530991
-7.441404 148.1459 1.919454
-13.61322 126.7061 3.9254
-7.405562 136.7634 12.35002
-14.83927 135.4859 4.339857
-10.40603 123.0817 9.580543
-8.0581 146.4257 3.035793
-8.459536 143.9126 4.99627
-13.65134 126.7922 3.664661
-7.826384 130.506 13.488
-14.86586 133.463 4.559334
-12.03645 123.3863 7.815209
-8.238066 141.9018 6.853532
-6.952281 146.6194 3.394994
-13.69394 128.4688 5.16028
-8.581985 131.6687 13.73792
-7.701197 139.5413 9.356947
-14.30019 136.7465 5.823599
-8.425035 122.9389 10.9425
-8.56885 142.9112 5.81214
-14.69241 131.8954 5.510042
-11.74056 131.3664 12.37123
-14.79049 134.7026 6.41058
-9.663735 140.9687 7.001369
-12.30441 138.7932 7.125874
-14.73197 134.9643 6.393351
-13.10246 135.2146 10.36046
-13.35775 128.2475 6.615416
-9.922354 138.1246 10.38319
-12.55573 137.4974 8.568827
-10.96338 138.9654 8.384277
-7.32999 145.9911 3.743647
-10.59496 126.0765 9.211953
-11.40901 126.1677 8.521883
-7.898277 123.9479 11.16821
-12.32537 131.8411 12.06058
-13.12741 132.6777 11.27605
-13.48998 129.3797 8.888021
-12.35456 127.826 8.630601
7.861436 127.7825 11.66507
7.909081 151.2175 -2.080741
11.49672 143.9089 3.193156
7.706299 152.9757 -5.19426
8.060485 139.1593 9.751364
14.76811 134.8984 0.4493773
9.470476 149.7483 -0.5660733
6.527813 151.9215 -2.072933
8.154618 142.7381 6.097575
6.239136 149.1938 1.754714
8.703167 128.0125 11.76781
11.49507 145.6372 1.947002
13.1027 123.0252 4.030969
14.51454 137.2187 4.44377
8.081244 146.9469 2.583684
10.98782 134.2624 12.87359
14.65799 132.5219 3.028108
9.033236 135.9731 12.78756
11.80336 143.1038 3.773942
10.33153 142.1317 5.431125
11.90719 122.1663 7.789501
8.911361 148.4931 0.8022361
10.14069 123.8555 9.775719
10.78511 132.2911 13.15907
14.85165 132.5187 5.773338
6.906382 140.9839 8.012868
11.76317 145.0389 2.253481
12.13944 122.4364 7.478804
8.70333 123.9983 10.73898
11.27538 124.7014 8.738708
11.77998 126.2898 8.165305
13.66503 134.1299 10.15478
8.515955 141.5236 7.017559
13.39605 133.6584 10.76571
11.98838 132.5386 12.39276
14.26749 130.9485 8.69131
8.630681 142.0081 6.534271
12.9979 125.7909 6.301285
12.8431 122.7913 5.864063
12.17086 128.3039 9.84691
11.70966 139.5542 6.85598
14.49815 131.0096 7.257848
12.89336 130.7333 11.16407
9.786139 140.4059 7.432093
12.95931 128.3681 8.320951
11.45514 137.7904 9.605692
12.29347 137.6164 8.788125
14.52897 131.0878 7.098146
11.80626 137.0123 10.21805
14.51356 132.6378 8.809223
-13.97196 128.9779 3.016307
-5.154887 139.7815 -12.72158
-13.57626 133.7234 -7.595756
-6.704041 151.9053 -8.816155
-8.129072 150.8144 -9.371439
-6.852675 133.9864 -11.43944
-14.24919 132.9312 -5.337024
-7.170207 151.9676 -8.513706
-7.292348 129.2604 -9.360399
-14.35256 132.8773 -4.651872
-8.357066 150.3248 -9.747367
-12.90226 121.6875 2.324599
-9.069816 123.4919 -5.337978
-7.484401 129.8454 -9.588883
-14.0578 131.9378 -4.516414
-6.788601 132.7527 -11.01507
-8.394107 147.2962 -11.52262
-8.499304 146.2651 -11.83597
-12.2652 121.7699 0.6263979
-6.642816 122.6691 -6.375244
-13.60873 126.6727 1.812703
-14.03243 132.3956 -5.344738
-5.866194 138.4629 -12.69913
-10.26129 142.9693 -12.10632
-10.34987 146.6017 -11.36564
-7.953157 120.4128 -4.765966
-8.875633 124.7255 -6.19436
-11.29321 123.0316 -2.383752
-12.78662 137.5159 -10.44697
-8.355053 135.1874 -11.51678
-8.185009 122.2231 -5.32981
-9.553037 126.5125 -6.789348
-13.92914 130.118 -1.335565
-13.91647 128.8863 0.508751
-12.17773 136.4046 -10.37309
-10.46299 138.9573 -11.96939
-8.860407 134.3105 -11.04621
-11.49112 127.9511 -5.969663
-9.958912 129.9407 -8.510726
-13.14395 125.3115 0.4685725
-12.17926 123.6656 -1.022067
-13.79548 128.4364 0.1330682
-8.460819 139.6898 -12.5906
-9.507279 122.22 -4.284111
-13.32176 128.6421 -2.588416
-12.74533 127.1611 -2.800273
-10.8563 129.6707 -7.762866
-12.47507 128.804 -5.175763
-10.30801 133.8173 -10.23336
-13.15617 131.4302 -6.313198
-12.53121 134.0501 -8.939826
-0.416104 120.1113 -6.881801
-0.769484 119.9747 -6.279903
-2.776916 149.4573 -10.9685
-1.741042 119.8523 -6.381624
-0.2771517 149.1305 -11.03582
-5.573343 120.3312 -5.92155
-4.398876 120.6827 -6.534196
-5.272495 120.9399 -6.23071
-3.673368 127.1929 -8.941508
-2.031584 145.3407 -11.91405
-4.073517 122.231 -7.004112
-2.887636 124.3431 -7.901002
-5.249177 130.8754 -10.48802
-1.430359 138.0386 -12.30472
-4.588047 143.7667 -12.35545
-0.7688246 146.8973 -11.59836
-1.50253 124.3563 -7.911796
-3.957642 128.1058 -9.29553
-2.715547 129.525 -9.885472
-4.955507 138.1475 -12.5687
-2.577709 144.3593 -12.0789
-4.139553 141.5559 -12.52553
-4.523029 126.0842 -8.405194
-3.730294 136.3504 -12.16407
13.56212 126.4278 1.425297
7.476061 151.2718 -9.121346
14.78189 134.4402 -1.928083
10.00965 144.6223 -11.95179
5.603329 130.8802 -10.46815
7.196113 152.0792 -8.374746
8.252316 151.298 -8.827701
4.398036 148.0962 -11.54649
13.60221 129.4654 -2.439503
12.62441 120.5064 -0.5675005
12.05227 138.327 -11.14552
9.955474 146.1202 -11.5901
6.962814 119.5332 -6.204202
14.09561 130.5201 -0.5692186
8.754854 125.1423 -6.493181
12.9848 124.205 1.064413
9.476098 119.9658 -4.952748
4.256778 140.9938 -12.56531
4.649062 144.0292 -12.32877
7.977911 148.7802 -10.92905
14.09685 129.8844 0.9502575
8.034445 123.0198 -5.799529
8.11609 126.295 -7.474914
7.602249 119.5783 -6.082994
6.93817 135.6268 -11.94899
11.70626 139.4018 -11.54745
6.073814 141.1799 -12.76974
9.847738 141.1326 -12.27929
12.52119 125.7893 -2.050321
13.78741 129.5302 -1.35974
13.66776 127.5897 0.3966071
11.89297 128.6072 -5.962577
14.38843 132.0159 -0.2013382
7.368309 134.2496 -11.43248
5.519753 131.1656 -10.60225
7.20964 138.3707 -12.67918
10.73851 126.074 -5.444651
11.40868 123.5336 -2.551489
13.83991 130.7424 -3.360401
8.539199 134.6826 -11.28387
10.32177 138.6308 -11.97044
7.899621 131.8312 -10.34314
11.22625 120.1633 -2.83033
14.36398 133.2198 -5.347061
14.53153 133.0311 -2.181954
11.43088 129.0768 -6.856813
10.29158 130.9988 -8.867355
11.38108 133.27 -9.35895
10.04629 126.9972 -6.739947
8.643196 131.4831 -9.922211
11.89745 122.8931 -1.074191
1.776511 121.0028 -7.229225
2.10175 149.407 -10.96264
4.480701 149.442 -11.01909
4.289598 133.9758 -11.60071
1.498017 148.4952 -11.24231
0.6500614 135.1291 -11.85188
0.5265278 147.0312 -11.57038
-0.2369737 147.1296 -11.5468
4.771795 121.0246 -6.852592
0.9852229 131.5601 -10.75398
3.533187 140.8659 -12.47642
3.070512 147.2237 -11.65594
2.031256 124.2484 -7.872052
5.472035 128.2679 -9.239551
0.6996562 132.6053 -11.13768
-0.231482 141.1739 -12.28653
4.483682 135.0384 -11.90009
3.594033 126.3133 -8.604739
2.137555 131.2769 -10.64658
2.608109 135.6295 -11.9801
2.816544 145.3734 -11.94736
0.1540409 140.8612 -12.29962
0.8453665 137.484 -12.23501
2.649661 130.7993 -10.44661
1.160468 146.4093 -11.69438
-5.292247 122.1414 11.87708
-1.831158 123.1808 12.16198
-5.553774 130.1113 13.22549
-5.899692 140.2891 8.862848
-3.58971 123.2805 12.16744
-5.024966 148.9258 2.511162
6.253169 136.9597 12.11947
-6.371742 122.8177 11.76424
6.193898 122.8656 11.81511
-5.222799 144.7988 5.354993
-5.563843 149.7723 1.409693
6.637743 126.8476 11.34016
3.061371 124.8898 12.2678
5.754236 136.5035 12.42709
4.844947 146.8234 3.963984
3.357254 150.4647 1.330322
7.489535 129.0494 12.73564
-0.7280789 124.1808 12.26966
6.877715 128.6927 12.43398
8.101402 135.4898 13.21157
