# .PCD v0.7 - Point Cloud Data file format
VERSION 0.7
FIELDS x y z
SIZE 4 4 4
TYPE F F F
COUNT 1 1 1
WIDTH 1664
HEIGHT 1
VIEWPOINT 0 0 0 1 0 0 0
POINTS 1664
DATA ascii
-13.69432 79.38281 13.20083
-15.70751 77.2924 15.20692
-11.59977 80.77338 14.20457
-23.24673 65.47377 3.392182
-22.71559 62.12392 3.594423
-20.44669 67.27586 8.728271
-19.20225 70.19965 6.302541
-19.20659 75.20018 6.508805
-21.98592 76.84436 9.031795
-21.49725 82.99644 8.129454
17.00498 63.07623 6.229188
19.8599 84.20031 9.237917
-20.31116 15.94912 9.380904
-15.18934 82.10847 11.34278
-16.69727 73.05006 12.40446
-21.97024 80.57839 10.6897
-20.7578 73.69722 10.47658
4.644298 18.91994 25.75104
3.808622 19.1047 25.69775
1.564996 22.76367 25.24353
4.843483 23.88132 25.7582
11.23108 13.47756 13.59835
-5.403089 8.576245 21.33542
-9.961328 11.53788 29.11615
-5.277 10.9667 23.18253
-11.60512 17.46612 28.24216
-9.317163 15.20242 28.91368
-5.082654 82.39587 15.42014
-4.792179 78.85959 15.12891
-10.41878 79.25222 23.98837
11.56977 17.28378 20.41175
1.854271 10.22748 16.26398
8.977058 86.63195 20.32509
5.815614 83.57433 24.16331
-1.090459 86.26726 17.66982
16.653 17.50611 18.43988
20.52775 16.5151 6.303359
-21.81251 54.77851 -0.1288405
-12.98723 9.15016 27.27106
-0.377465 80.84679 13.03313
3.65628 82.23386 15.96496
3.326698 83.04885 15.86855
-10.46924 78.61967 14.34654
-11.22591 72.64207 10.30774
-11.63224 74.27605 10.63448
-10.11277 76.12089 14.14768
-8.504581 75.42077 10.79551
-9.05898 74.802 9.982337
-15.26873 73.49924 12.10089
-12.47847 72.04481 10.48234
-15.05608 72.92095 12.68441
8.461206 10.03192 8.839947
5.395771 11.15115 6.029896
14.52349 13.06281 10.33726
14.9725 16.647 11.05001
16.69688 17.29644 12.59936
17.66132 18.2524 18.38028
20.07341 83.58215 13.1288
20.41513 77.29878 10.01946
12.21012 78.07441 15.67655
10.04565 17.54728 16.64874
-20.86181 42.6732 3.019007
-20.91787 39.93637 4.171968
-19.09487 44.79292 7.147107
-19.41261 45.07367 5.595942
-19.40197 51.94375 5.436265
-21.59188 49.90101 -0.02022928
-19.31445 54.43566 8.102137
-20.82171 24.58597 10.53096
16.83879 65.1642 7.353333
5.317089 70.23909 9.181968
3.414721 68.37762 10.74932
12.47695 68.01151 9.977486
8.380671 83.39085 15.35109
9.990131 78.38288 15.56618
18.27348 54.2954 10.33832
21.38556 58.36309 14.70315
24.27888 19.71171 5.2032
14.95454 27.23907 6.642343
-4.113525 17.72098 7.293228
-12.92473 69.82951 12.80167
-10.9389 79.20414 15.96789
-11.96386 73.66524 18.9747
-5.91343 78.04375 22.08968
-7.090594 75.04155 24.26653
-12.21195 73.09411 19.41273
-9.981381 75.26744 24.54803
-7.081561 71.52625 24.61194
-8.019345 75.45291 18.97886
-7.567911 75.13201 17.76102
-7.023174 77.30293 20.49824
-19.74438 62.47631 5.38765
21.74209 71.30645 3.372056
21.02738 70.32247 5.228123
-20.23749 17.89481 10.86466
-20.99079 20.605 7.903379
-20.81662 24.08443 4.379286
-18.8526 78.84528 9.838861
10.08959 11.37382 11.13118
10.25715 18.9496 11.13474
-14.79862 13.55954 23.24415
-5.290852 11.14909 21.00113
-5.367292 13.45131 18.97831
-9.194513 19.91698 28.5737
-6.012866 79.72327 22.69801
11.60703 23.54361 19.48553
10.30862 15.68885 23.77769
3.521231 10.82324 15.47582
9.867124 84.78861 20.14033
11.17131 81.31597 19.75645
10.55135 84.68041 18.72643
18.19425 16.92351 6.635494
23.03544 15.40474 6.129509
1.557944 79.67485 11.23498
-8.443078 73.01255 13.08811
-17.33129 69.59721 11.86293
-11.97023 69.1226 9.449281
2.50067 10.17054 12.28344
-6.100357 9.775303 14.21236
6.690605 14.16492 6.741828
0.8062494 17.92307 6.171735
18.54803 20.77955 13.82893
18.77502 71.06644 10.17106
17.05165 74.77022 16.51981
18.47411 71.89867 13.82773
4.725599 23.5451 12.42745
0.977486 23.32809 10.56545
3.277232 28.14201 11.28915
3.813552 17.90698 5.474685
-1.614623 75.5042 15.7993
-19.3738 57.25063 8.094193
11.2014 72.61422 14.20568
4.025217 67.97681 13.54319
3.726167 62.84957 12.55747
5.628329 61.74961 8.004914
13.33982 70.82022 10.89477
20.91309 53.65951 12.2273
18.20534 78.16339 7.765472
-19.29108 66.9482 6.813909
-23.36854 70.29235 11.71906
-19.40724 67.68653 11.58283
-16.86975 68.30424 11.46986
17.52538 66.59729 9.689223
22.01127 70.59193 12.07322
-20.55837 21.93186 12.25275
-17.47547 21.3813 15.37098
-1.828074 23.99846 23.57776
9.719797 18.52519 9.834436
6.612071 22.69057 6.406945
-6.013162 19.03003 15.90271
-9.664672 21.66532 28.58946
-12.87812 16.81192 26.91073
-2.904929 77.6744 12.56936
11.45374 24.88931 18.51551
2.874268 12.16048 15.90542
2.215827 15.53221 16.14857
8.113441 78.40154 21.47344
10.4351 75.00314 16.05104
6.761964 73.74966 16.31444
6.32034 67.92126 16.24922
5.921809 68.67677 16.18451
10.39989 69.28517 16.11849
15.5508 20.84815 10.75766
17.36772 72.09962 7.980927
2.443949 74.10341 11.17425
1.676903 74.15259 11.07975
2.009621 12.95762 11.94929
16.57943 18.37321 12.29458
18.22707 68.37521 15.48047
4.742628 27.01348 12.08501
-0.02647484 21.7754 7.271991
-2.72752 77.09064 17.73905
-21.92634 43.25688 11.48459
16.45238 62.97468 8.617762
20.43487 64.98017 14.58817
17.8688 64.99744 17.45594
21.23692 57.31992 14.9349
20.58384 53.18967 15.85842
18.26489 28.29434 11.71324
19.70471 30.79203 16.0677
19.57655 32.81545 13.01178
18.45229 77.54544 7.591471
-12.91216 67.66744 23.10781
-12.87313 65.90453 23.32768
-17.9818 69.48909 11.29475
-16.97711 67.20905 12.35614
-20.19874 26.4448 7.518133
-2.931578 21.5007 22.70642
11.15874 22.46586 12.94398
13.37168 21.48552 17.12941
14.58916 23.97978 18.01606
-11.18725 14.23261 12.11026
-9.660279 16.65673 11.59866
-14.9027 17.71369 22.71017
-10.6488 24.361 28.39345
9.259838 24.43787 24.57368
-2.845751 22.14409 16.22687
12.35394 66.29128 18.89256
11.53939 64.33907 17.16303
-1.101409 71.07206 21.03641
-8.821668 64.50848 13.23762
-10.03376 65.63814 7.925488
-6.876536 63.901 10.98762
-7.478109 61.4859 12.22337
3.668066 17.98832 12.87297
-4.231596 22.98347 10.97523
-4.805931 21.9004 11.25761
19.0647 19.41765 16.41797
18.01811 67.66447 16.35701
3.724799 31.7347 11.07932
2.214833 77.43603 20.83126
9.016813 71.40298 22.78026
2.551755 75.64809 21.11966
-22.66036 50.9584 13.23597
3.211539 57.92015 11.65073
9.724057 55.61179 8.124249
7.469164 51.70541 7.390414
3.579125 61.35462 12.20037
7.066173 57.85213 16.02523
20.99491 56.22569 15.4049
20.17587 41.71985 12.66291
21.01663 48.34697 14.67174
18.45571 25.84 12.51144
19.89497 31.86351 15.114
-13.20911 63.98148 20.83934
-21.33973 60.98743 9.60843
19.32362 67.33412 10.5209
-19.61453 32.86408 6.896995
-15.2174 26.25183 13.80244
-13.81457 22.06226 12.77466
-5.421451 27.20443 7.195294
-11.05089 27.56574 9.361856
-11.35902 22.5136 10.04595
-9.459844 16.85528 8.978266
-17.37503 23.75768 15.4903
1.922969 26.60155 25.36115
-0.678395 23.31891 16.3378
5.11005 31.15823 25.76761
9.203332 30.00411 24.53863
11.34076 29.82686 21.87668
-4.793029 22.93304 19.4719
-4.806153 20.91899 17.40084
2.029361 33.27753 10.25838
11.70864 26.0121 14.24658
10.13173 25.49737 9.577546
8.367638 27.50639 7.387611
-5.039739 21.37473 19.26773
-13.94001 21.52356 24.84624
-15.60985 20.30019 19.99493
-10.27976 32.54405 27.97631
6.016836 37.63132 13.78158
5.401081 32.16619 12.38031
-0.3706869 18.80963 16.43499
12.17129 72.23179 19.81841
12.38992 65.70513 19.02273
-2.148947 73.26444 12.89865
-9.154562 63.91156 13.34741
-14.01912 60.59331 8.675621
-12.87376 63.30523 12.39708
-15.5521 71.28291 14.81685
-11.72162 58.60823 12.56351
-13.59575 66.19699 12.35109
-14.92862 65.05484 14.39102
-12.16666 68.99905 15.64496
-12.73151 74.09193 15.16394
-13.40522 57.0227 15.49219
1.855065 15.08721 11.779
2.640789 20.70063 11.81152
17.42819 66.02354 17.75576
-22.24754 41.95071 12.08226
16.29281 52.3124 18.76951
13.3713 50.76596 18.49142
17.26451 42.02945 9.902719
20.3439 40.11314 13.41979
19.35773 36.49697 12.05334
20.24997 42.45642 16.01982
17.23936 51.2261 18.47047
20.054 43.00161 16.35184
-12.67688 63.65928 19.41493
-11.97617 65.25176 24.56975
-6.058221 61.25904 23.97359
-6.301579 63.55781 24.46185
-11.20017 63.70569 25.25423
-15.82377 62.03299 11.43384
-20.67639 60.36743 14.27645
-19.24113 59.48477 14.14556
-20.46137 24.46536 13.51245
5.77015 31.65593 25.70012
11.46753 31.36593 21.49865
10.17117 36.06402 23.59698
5.438917 37.53576 25.73797
-3.317594 29.05709 21.89635
11.46139 32.44958 12.05221
1.447069 29.70691 6.529475
4.639583 27.24562 5.89224
-5.765993 24.5645 16.31141
-9.651158 23.5869 28.4711
-4.912557 74.70567 14.74624
-4.9781 67.55345 17.25718
-3.214563 74.34728 11.69727
6.562142 33.14292 13.47058
-0.03637533 24.73796 16.39121
3.999046 18.05131 13.44612
3.907712 25.5801 14.51933
0.7585915 25.18248 10.67971
8.350595 60.39499 15.93198
7.760142 76.0316 23.68317
4.256673 69.80237 15.49527
2.637228 76.23402 16.81912
2.392629 73.80271 16.85828
1.288493 66.03525 11.07299
-12.77809 61.30053 8.220423
-8.637104 58.69138 13.01512
-13.80431 56.91483 11.74337
-14.77086 45.95614 11.84722
-15.43918 51.03984 12.05324
-10.11013 51.83158 12.57997
-13.39418 53.07513 17.32273
-13.50304 61.58228 22.09046
-12.23513 56.0806 25.15071
-11.47717 52.17913 25.96162
-14.08461 49.50838 23.28679
-8.660583 54.78615 26.62592
-13.59023 70.64838 15.0203
-2.847888 23.51996 10.47929
-22.78293 51.69097 12.70559
-7.164025 63.17577 20.2471
-22.75003 51.86699 12.08804
-20.38932 50.43111 14.7153
-19.3064 56.52526 13.97008
-17.9058 26.50562 15.31575
-20.56354 35.59161 9.552954
11.37308 30.6878 17.44134
-4.861514 26.05061 18.51865
7.989673 26.58824 7.140769
6.220492 34.06079 6.435632
-15.74572 21.52622 19.08835
-13.86277 24.2028 24.81718
-15.73538 20.28234 16.63136
-12.37507 22.46075 12.06376
-10.34813 19.83853 11.61075
-6.251619 70.8075 13.43894
-6.384881 70.57099 11.25886
-2.69754 64.63902 11.35564
3.521725 65.49042 12.4643
2.97954 68.86898 16.5635
2.862857 66.40974 16.53762
7.356624 37.23341 14.32463
11.87944 61.75486 17.58129
7.145422 70.99124 24.86771
9.381173 65.19989 23.5594
-6.605396 58.40285 8.905603
-8.949055 57.69716 7.782196
-9.759284 52.14295 12.68754
-8.56385 47.60628 27.06161
15.8123 66.67742 18.51711
3.85124 39.29266 12.51323
4.100541 33.95615 6.165419
18.9398 41.53657 17.64187
-7.243001 64.61764 19.69927
-6.403783 61.15511 22.93948
-15.66682 58.59724 9.834424
-13.77837 29.68231 11.80123
-22.42064 40.68132 12.80357
-20.31847 34.93795 14.8774
-18.96067 33.91071 15.05625
0.7889121 29.88609 24.93503
11.55446 35.03307 11.36912
-10.26155 21.14824 11.56246
-5.932737 70.8009 13.71067
4.283891 64.89092 15.30509
1.089638 63.87394 16.24047
3.885719 28.48667 14.81989
-1.804718 32.32124 16.08977
-4.048579 27.06104 10.73324
8.823774 66.65701 23.99179
9.301375 59.15379 23.81028
3.636376 68.07616 25.18086
-11.19543 55.54518 7.926877
-13.70125 51.51073 18.58836
-5.869864 49.20537 24.18766
-15.07972 44.63517 18.75976
-15.23944 43.30679 20.64165
-5.984069 50.17157 24.39899
15.89051 68.1106 18.40898
14.89555 75.41699 17.87351
12.48528 73.85809 17.16558
13.47698 69.08783 11.0196
11.24407 64.97591 15.6404
11.97047 62.42083 15.05165
5.807984 43.041 14.3194
4.977415 55.19275 7.525676
4.380486 52.72661 7.408696
14.88406 52.75938 18.94937
12.05366 54.92545 15.88449
12.10993 57.95554 15.61497
14.88751 39.99851 18.74933
17.74955 34.15231 18.40129
-6.462989 61.27203 19.3413
-5.930518 58.38549 19.32493
-16.38511 52.08245 11.2486
-21.24093 41.7384 14.71625
7.476554 41.24612 25.31289
-0.2006268 36.60746 24.39945
-2.212955 39.18031 22.74098
-0.7755656 43.85161 23.86245
3.557734 44.32639 25.7052
7.884681 42.76994 25.12546
-2.811222 41.68507 21.94931
1.160676 46.8196 24.89985
7.49655 46.58096 25.26784
8.673598 47.03408 24.60375
7.914803 54.2187 24.90235
9.048897 45.01074 15.47698
9.365283 54.06824 23.91976
11.34784 55.16037 21.71051
11.27833 56.0029 21.79055
-3.630844 32.63976 21.21086
-13.68658 29.95796 24.90513
-13.55787 33.22561 25.0179
-14.88125 31.21815 22.08508
-14.15034 29.71543 23.95862
-6.530375 22.91479 11.35433
-12.43678 29.46998 11.73687
-6.174803 65.71164 10.53669
3.834303 63.17752 13.17184
6.375401 67.07973 25.34311
7.153592 60.74932 25.15717
1.319294 67.69748 21.74911
-14.2702 47.28215 23.12697
-6.343428 53.68156 21.45684
-4.295399 53.59436 16.64072
-6.63287 52.51706 12.50118
10.87487 69.62592 15.97565
10.5289 62.92532 8.71084
10.96797 55.16821 8.763967
12.39942 58.68919 14.89281
12.74686 66.00996 17.92603
1.075349 39.97914 9.245111
7.806547 48.5088 15.50144
5.668213 49.60209 14.92303
19.42522 35.7224 17.07952
16.71799 33.08368 18.66879
-19.6199 43.13704 14.81285
-16.87143 40.09786 13.71624
-14.41191 44.0444 10.74513
-12.62634 41.50138 9.406168
-17.13021 48.39494 12.86149
-16.83191 54.62357 11.18314
-11.77459 27.87664 9.955512
8.259197 40.90385 24.96437
11.25196 50.30673 21.87112
11.6489 43.51892 21.11665
4.859475 61.48281 25.77438
0.4949951 56.06432 23.95417
-1.990558 52.98524 22.57335
11.96953 38.68013 19.40014
-4.579483 30.77596 17.64035
-4.152414 35.6929 19.80055
11.70732 44.68431 13.83323
3.895603 38.45191 6.421287
-3.797318 24.89026 7.909658
-2.702594 17.95007 8.386324
-4.513191 17.85048 10.92367
-10.16847 27.44615 11.44897
-8.729532 32.38486 27.85903
-8.056876 33.29526 27.58955
-9.865274 36.9861 27.73244
-4.827269 59.59129 9.778949
7.312875 38.46677 14.41308
2.645839 68.993 23.20291
-3.361398 68.64924 18.08488
-1.497012 64.14799 21.44881
1.513372 62.33861 23.03388
-1.853795 66.10009 16.00114
-1.597644 61.91689 15.7952
-8.116126 51.89691 12.58047
-5.584668 52.45714 9.681885
-15.70081 43.40865 16.98444
-6.58812 56.2008 12.75476
-5.76766 61.66452 13.83454
-5.594563 59.50846 14.24699
10.62764 52.5715 8.552562
11.4456 47.9318 9.293547
12.33807 48.14433 11.77236
16.41248 45.85645 18.81425
12.79747 63.33941 18.06709
6.554944 47.7393 7.062327
4.729507 51.85521 14.2557
2.641646 55.27672 10.81999
2.614318 40.59089 6.820678
11.79799 40.70595 10.87494
11.89469 41.41997 11.78336
11.6478 35.11019 12.95397
12.07878 38.27792 16.4411
16.79095 32.61617 18.63956
13.53825 31.82776 17.8528
-10.7194 45.2268 8.063673
-14.66662 48.16196 10.35852
-5.467168 46.92731 8.493512
-11.2011 41.25313 8.477319
-10.4707 40.1618 8.174861
-9.699165 28.54442 8.365152
-14.89944 39.38254 11.82289
-9.403746 24.86603 8.364247
12.06542 54.94226 17.93884
10.38416 54.33181 16.23594
-2.938334 47.16214 21.56808
-15.94137 30.41689 16.23127
-15.42583 32.78384 13.69751
-15.72961 36.64853 18.73232
-15.82661 42.63574 13.19972
-14.85751 45.04126 11.9189
-9.599474 44.54893 12.21806
-8.204677 28.15747 27.8735
0.424848 55.74298 10.70399
2.313452 62.08925 24.09629
-3.095056 52.23394 16.40104
-3.615239 47.46671 20.14791
11.80968 47.44175 15.70821
4.758131 48.31181 7.009997
1.793747 47.29192 8.665984
9.632097 42.71276 7.951315
10.982 47.05241 22.30475
11.2117 52.79543 16.60397
-12.51061 50.92283 8.585732
-8.005365 36.04709 7.438363
-3.55658 24.71427 10.24213
5.500692 52.22262 15.02702
3.886952 53.63409 13.02755
-1.268868 37.06665 16.08481
-4.205081 42.49903 17.32543
-2.174786 47.55349 15.98479
4.105772 42.82947 15.36151
-13.67219 41.42348 24.46467
-9.381637 41.23962 27.49842
-15.93645 33.68143 17.46103
-5.449221 48.96391 10.11239
-8.118879 27.25875 11.54277
-5.205327 28.48425 24.41236
2.611822 55.78437 11.02807
-3.068042 52.78916 9.513975
1.307144 56.48048 16.22045
4.115245 55.62704 13.68142
-15.26161 43.66373 20.21466
-4.88573 32.6976 7.700421
-4.055818 31.63536 8.611583
-15.79807 35.46685 14.34909
-13.38997 42.17267 11.59556
-9.796313 43.62286 12.1354
-14.17682 35.71787 12.18839
-5.735292 42.47749 10.95536
-7.990289 35.19556 11.8523
4.160068 55.943 13.47373
-15.81458 41.22866 18.30851
-4.625021 28.53319 20.804
-4.796009 23.88127 22.35636
-4.874108 20.61317 21.22465
-4.636654 30.20625 19.73708
-4.312678 40.70927 19.04078
-0.9313643 31.51264 9.969949
-6.462934 50.98576 11.77166
1.788935 34.85007 10.89406
-3.598741 47.71251 20.16981
-1.722971 49.28441 15.92608
1.769072 55.10963 16.28375
4.239155 50.49166 13.91873
2.103367 47.65441 16.3508
3.789539 42.79618 13.13652
4.010262 39.57291 13.55568
1.772461 44.20948 10.77761
-3.88107 48.12212 9.575309
-1.511458 45.78307 9.383083
-6.673555 42.97093 11.78663
-4.628675 39.63745 8.851223
-5.768442 38.83015 25.43164
-7.865444 46.32856 27.02534
-4.58063 38.25091 22.30777
-4.790359 38.74811 23.07115
-4.497655 44.47746 17.59801
-5.341523 35.15694 16.79688
-6.60198 41.23632 13.28843
-4.763758 41.28698 10.46552
-6.453481 32.52949 14.18832
-5.881889 35.88851 15.69272
-6.620726 48.62493 12.86042
0.151556 38.69361 9.874942
-0.5648497 32.20268 9.96895
-6.337919 42.98722 14.47248
3.265311 33.54838 12.26375
1.084428 52.07167 9.996202
-5.416983 46.50916 10.56716
-4.623682 38.81586 10.0676
-5.95797 52.65629 20.60301
-5.855243 48.64095 14.88484
1.460319 47.485 10.3567
4.34031 58.5383 14.32516
-7.507596 24.44005 27.66002
0.287276 86.24306 20.30498
-6.064946 15.92364 11.24617
1.360223 32.07215 6.746955
-4.333733 11.47489 10.79501
19.29384 92.96119 4.751161
-14.84994 93.31152 10.05437
0.4469293 91.46037 12.81363
-8.603864 91.52064 20.40217
-16.87794 107.2983 1.626204
-7.492559 91.1758 20.44937
-11.37612 114.8851 11.34797
-0.1870208 91.4687 16.89271
1.10218 92.93829 12.62076
9.908753 91.40782 11.648
14.95052 93.57023 13.59983
19.61073 96.38551 3.118329
5.313159 116.1195 15.49182
17.08549 110.138 4.486318
-10.50346 94.6159 19.85093
2.589272 91.89532 14.51746
-5.72553 96.82936 18.47092
2.001528 95.83976 12.82516
-11.21467 111.5063 12.25366
14.94425 111.2136 8.755111
14.01249 92.99895 14.36434
-8.353238 92.9191 20.37127
-13.54313 104.2236 13.65034
16.78297 109.6641 4.23961
-9.164448 112.4142 15.2418
-21.18195 93.54059 5.904932
-9.337908 93.71544 20.22992
16.74774 111.063 4.617898
-2.637222 112.9187 14.5527
-0.4221668 114.1859 14.00171
-20.97152 94.23054 2.977173
14.60137 110.1212 6.955278
-18.85625 106.0964 5.692068
-5.4557 112.0907 16.1578
-5.035099 108.832 16.71843
-0.9748349 113.122 14.54406
12.28214 112.9423 10.68254
-15.89118 112.7755 6.255868
16.17637 108.0726 6.583712
-14.33566 112.5977 9.518996
2.318598 112.3734 16.16455
7.907598 113.7018 13.04587
15.4664 110.9662 7.922675
-19.56175 103.7143 4.951114
-8.293018 109.922 15.83763
5.750619 114.1581 15.0838
10.24687 113.4967 10.24424
17.44755 100.8795 7.831964
-5.890582 107.6182 17.41249
8.293967 110.9771 13.40545
-11.09466 111.0709 14.07754
13.13179 109.8826 11.45473
6.001327 110.6736 16.7722
8.452797 109.2358 13.01327
-12.88365 108.4138 13.06545
8.542684 102.1344 10.47264
-12.27743 103.1031 17.6828
8.936779 108.9124 17.18735
-9.47103 109.586 15.9736
-13.39972 106.9324 14.90801
9.148805 105.567 17.46746
-12.7618 103.2445 15.34521
9.319002 104.1493 17.03957
-11.72823 96.73631 11.18482
-11.45819 95.12342 12.54262
-14.03215 94.20625 11.22878
-10.82513 105.497 10.92079
-13.44533 109.6693 8.98199
-13.88044 101.9679 9.172326
-14.97528 97.69682 7.761998
-16.50501 101.2047 6.316929
-16.14056 98.26971 7.013703
-15.69662 104.7199 5.928358
-14.25978 106.0076 10.30251
-15.82357 111.0139 6.22371
-12.19662 90.59483 11.20662
-1.479794 98.51933 14.48676
19.09107 94.87003 9.184266
-5.760113 96.82012 16.89964
3.365628 94.98122 19.72267
7.999671 99.87119 19.29975
8.638147 94.08688 17.14915
6.906781 91.35618 12.96535
-19.06427 91.75533 8.460469
0.8986402 92.67069 19.35967
13.25073 107.0808 9.642519
11.43903 111.952 11.14934
10.89486 104.8683 10.84842
7.471565 102.8758 12.5204
11.86957 101.8868 13.49349
6.708483 100.3486 12.6942
8.884602 98.701 10.35487
8.396545 99.73122 10.59556
10.15493 99.69075 10.55048
-3.556298 107.8523 13.06352
7.259526 105.4647 15.41951
-12.406 100.8012 17.43591
-11.8949 96.71346 17.43471
-10.5813 105.2558 11.24568
-18.88728 106.4172 4.749434
-5.082784 100.9793 17.49445
3.254714 100.063 18.68215
4.143951 107.1276 16.70949
0.5846114 100.9342 17.71615
2.738779 100.9971 13.97537
0.2971831 100.4426 12.92725
13.47532 103.4746 10.35243
12.08887 94.82474 14.0738
17.03952 102.8176 10.00254
-5.056676 108.327 14.57971
-5.686872 98.83531 16.23455
-10.13279 102.2844 18.18137
-10.92892 95.88834 19.57295
2.297966 106.669 18.48133
2.65936 107.2839 13.58144
1.029665 104.4438 12.44738
-1.574375 102.7408 14.63417
-4.105927 105.2031 12.75134
-3.570119 100.8976 13.06307
-5.566097 94.18864 13.72283
12.49884 100.1568 14.1247
15.48345 98.81204 10.75982
15.16379 115.8204 0.7320257
14.71612 119.8075 3.230468
4.066822 115.6667 -10.17749
-15.16792 150.1857 -8.476014
10.18313 119.3577 -8.885883
-0.974193 148.1432 -10.99388
4.81859 114.6109 -10.01223
-14.88965 114.8259 -2.77057
-14.21563 117.8394 -6.042305
-2.129725 146.5817 -12.49701
-15.56055 150.9306 -7.107287
-14.79216 118.3377 -4.399583
14.64198 128.148 0.5518224
-13.16393 118.3882 -7.571856
14.89126 131.8406 -2.33866
11.23761 151.2308 -7.694481
-16.60977 129.8903 -1.79517
14.9835 144.9234 -10.56098
-11.22654 115.8505 -9.297416
14.63138 127.613 1.081007
15.37785 147.7746 -9.932859
-13.93038 150.1234 -8.816887
-11.3563 122.0725 -10.17601
12.4196 144.6349 -11.26015
-15.564 140.2234 -9.797831
-16.17164 123.7558 -3.449831
14.58668 125.0654 1.165656
-16.33927 124.8551 -3.558265
-10.74541 147.2223 -10.96325
-12.70481 119.9801 -8.684644
13.73065 125.3795 -4.641995
13.04706 125.3343 -6.104238
10.95302 126.4366 -9.423895
-13.40933 125.4521 -9.085565
-15.40278 128.4041 -7.12192
-16.17091 127.4562 -5.545706
-13.62318 130.6655 -9.785357
5.193806 118.0882 -10.55964
-5.379708 115.2491 -11.50594
14.55558 116.2594 -0.5280753
9.507195 150.656 -8.987556
-4.025954 147.7525 -12.54354
-15.62203 141.101 -10.02868
9.935651 147.4556 -11.03848
5.269986 146.3136 -12.01342
-11.09867 142.1719 -11.82841
11.43009 117.5559 -6.682903
-3.197545 116.762 -11.27537
4.204576 119.0116 -10.88348
7.451173 125.0934 -11.10037
-5.464519 145.8556 -12.13104
-6.607402 122.1372 -12.02726
11.55418 134.4529 -10.47409
10.98909 130.1352 -10.06391
-11.08468 135.618 -11.55411
10.23236 140.1896 -12.07073
-10.30478 141.0293 -12.06717
-2.930639 124.0629 -11.23891
-0.8232934 126.2403 -11.13865
3.691852 123.2473 -11.65749
3.692594 126.6913 -12.11
5.681323 131.447 -12.01296
2.774575 131.4604 -12.99024
2.630878 133.9308 -13.22915
3.112162 134.6138 -12.96853
-1.548175 137.161 -12.97924
-7.096068 130.8382 -12.51559
-11.36875 137.81 -11.57453
-6.705959 145.7681 -12.07682
-11.36902 124.0835 -10.4256
-4.132049 124.0947 -11.76146
-6.84374 122.2978 -12.0228
1.124056 122.8865 -11.65978
-4.138624 130.7372 -11.86596
-8.059635 133.5779 -12.51594
9.219063 140.4389 -12.34566
4.635662 141.4863 -12.77818
3.218059 137.2739 -12.94596
6.468458 140.5634 -12.71637
22.24177 92.71377 -2.780829
-12.63189 93.04756 -15.44255
7.052619 95.16682 -16.12779
13.70127 90.17464 -12.20288
-11.48692 108.0212 -11.45079
15.97041 113.9846 0.8473018
8.573317 113.7207 -8.877568
5.750136 108.9181 -11.54722
-2.363851 93.40813 -16.26803
1.853172 91.59889 -11.79723
-18.37506 90.57865 -4.851534
-22.90493 90.23628 -1.434792
-0.2481544 113.8907 -10.64768
-9.808658 112.8885 -9.683674
-10.79976 113.3554 -9.24782
-13.39444 90.05013 -14.33937
5.042441 95.13484 -14.88345
-2.703399 93.48848 -14.1877
-20.51092 99.45021 0.08412127
-6.265431 110.144 -12.4798
22.69315 93.78323 -2.47517
14.80414 93.72131 -11.0073
14.58595 114.6694 2.625725
-17.83258 107.4632 1.252202
9.245881 111.9044 -9.193406
21.09031 94.96946 3.640872
16.08023 114.5174 0.636517
19.31268 100.9141 4.45995
2.781307 111.7301 -10.26702
-10.54899 110.2186 -10.53905
15.53417 113.5363 0.9205872
-17.02924 105.5145 0.8382909
13.85069 112.9272 -5.287799
3.313317 112.1098 -10.8046
-4.298257 112.4053 -11.24567
-8.9763 111.6532 -11.88276
-20.45855 99.12495 0.09189426
-17.57761 106.9657 -1.291346
-18.21996 105.8724 -1.089427
13.29178 112.0579 -3.382095
-5.12938 110.5386 -12.26888
-11.58964 111.8357 -10.07656
-15.15077 108.2288 -2.851526
2.912859 109.0434 -9.584291
-3.238739 111.2365 -11.63959
-10.04485 111.1236 -11.55218
-14.61068 109.5582 -2.891569
21.1573 97.20628 -2.192837
13.08597 109.3837 -6.710059
5.06061 106.2652 -12.68778
-7.071426 108.0409 -11.3932
4.926554 103.9437 -13.67797
-8.703109 108.7757 -11.64556
-12.35739 107.957 -8.127048
12.18113 109.4392 -7.655461
-12.44444 106.9879 -10.86994
12.20911 107.4818 -8.249891
-6.493901 106.5884 -13.47048
-21.53202 99.84021 -1.673718
7.877985 105.992 -12.10275
12.11246 104.7206 -8.111314
14.75338 105.4908 -8.017303
-16.83787 94.56643 -10.90905
-11.36064 103.8587 -13.77188
-17.26515 93.8038 -10.03187
-9.397558 102.1367 -13.41137
13.96526 101.1873 -8.54726
-21.41186 92.23979 -4.527296
-17.01009 89.35399 -8.090342
-13.57038 91.08846 -9.991746
17.94312 93.94087 -4.012751
20.83486 94.98191 -2.319367
-0.6526824 94.80717 -13.81392
3.692974 89.30595 -11.97512
-5.322288 89.8263 -16.32981
-7.895511 95.32499 -14.60208
-10.81292 95.30698 -16.21782
-12.62537 92.72739 -15.45043
-6.38019 97.65977 -15.09923
-2.797843 91.42448 -14.46086
16.31003 107.7494 2.253706
-12.55239 105.3221 -8.830574
-10.84731 105.9302 -9.130877
5.243503 106.3097 -11.11444
-14.94207 108.677 -4.674574
19.14289 100.0184 0.2715812
18.88663 100.2676 1.300519
18.07759 106.0986 -1.057864
16.97122 109.6914 -0.7052174
16.73993 100.9788 -1.458449
15.03703 109.5181 -1.706756
-21.20863 98.04343 -3.567622
12.14964 96.11945 -11.48429
10.11397 97.79478 -11.17796
-11.27873 100.8333 -10.78691
-12.6686 94.69798 -13.70404
-12.7353 97.31014 -9.458064
-13.31954 93.93035 -10.00493
-3.208293 89.2358 -13.95637
-5.191831 96.86275 -13.14518
-6.715657 101.0007 -14.36721
-0.1640027 97.47088 -15.74447
-1.412478 101.8396 -15.50985
15.13407 111.4324 2.400383
15.50834 110.2299 -2.460343
16.93516 104.8637 -0.3637347
6.401075 101.7678 -14.40563
9.704391 100.9754 -12.48086
-12.38412 94.78761 -13.02223
0.2316261 94.28416 -11.98535
-3.314968 99.85525 -12.45313
-17.19491 97.37073 -9.882817
-0.3869604 101.8585 -15.51516
-4.606821 106.1407 -11.38481
2.65947 103.9906 -10.12555
-2.16579 101.9053 -14.59237
3.034254 101.3804 -10.76704
5.076011 95.84546 -12.59922
2.456242 95.78753 -12.09849
-3.568041 109.3415 -11.38233
15.44711 100.3141 -6.418811
15.71272 99.16369 -5.818846
14.47582 103.6076 -5.630635
24.89246 14.87526 -2.133816
25.61581 29.58801 1.595025
27.07744 12.28258 -2.635804
21.04019 84.92995 0.6276425
16.44547 11.14079 -16.40021
6.811766 8.063899 -10.18412
-22.99495 88.74785 -5.332098
38.76632 11.25014 -1.434395
38.54972 13.28839 0.7655142
23.88011 91.32409 -1.193545
10.90327 88.09219 -13.53294
15.85298 89.54668 -12.01581
-22.49454 88.69473 -0.1196414
-3.331052 8.326509 -13.4429
36.7827 12.17623 1.345738
-14.56942 9.884336 -10.83187
7.259686 9.006451 -24.41909
29.39126 12.98173 -1.208017
-29.31319 63.43464 -1.061467
20.84653 25.33801 -10.90917
25.26636 11.27655 -3.283573
-8.31967 87.80685 -18.12444
-13.75382 88.57519 -11.90468
17.99464 12.09932 -12.6367
-21.18415 88.28065 -4.022591
-21.73673 87.52193 -0.4195358
-4.883538 86.99924 -16.55989
-30.89954 32.48346 -0.5506544
-36.91829 8.790447 -1.552613
-21.57997 79.20188 -0.5886052
-23.85425 85.0986 -1.514434
30.5509 14.71856 -0.4508884
39.23952 11.59077 -0.8895312
19.93825 12.97508 -10.27399
22.45216 74.12312 0.2642783
22.69059 87.64532 -0.4973046
22.98352 86.38004 3.602478
-13.80163 84.08801 -10.14693
-25.08989 54.35638 -0.2623527
-34.78021 9.562235 -6.387053
-25.83132 58.38628 -0.4262502
-21.7872 88.75896 -5.326671
25.42471 34.13435 1.506434
38.8825 15.18882 0.1767826
24.5363 39.19976 2.156246
12.20186 86.19219 -12.69471
23.15392 67.58382 0.2555591
24.44913 85.77026 4.321148
12.2481 10.47575 -21.55078
6.863591 13.48555 -20.50614
-10.91593 7.866661 -10.53912
-29.34944 34.75698 -0.8111724
-26.54259 11.27879 -9.456885
-32.82767 18.63082 1.145098
-36.43491 14.62207 -1.499568
-19.43219 86.76694 -4.643463
-24.595 82.06906 -0.4090605
26.8979 26.53719 -1.995013
23.57554 51.87457 1.72923
28.60551 14.82446 -5.634925
14.63354 11.44515 -12.82468
21.02876 87.13023 -5.286406
24.06849 71.83028 2.314582
24.14783 87.05914 -4.637226
16.03987 8.925251 -16.8546
5.73098 8.423428 -14.66783
2.641582 7.958359 -13.54546
-6.269673 87.66634 -16.20091
-14.91001 7.936782 -11.57799
-13.74659 88.33582 -9.895354
-32.59474 40.42868 -1.310614
-33.93176 21.21062 0.3399538
-22.33621 9.715986 -9.948425
-25.29489 61.6968 -0.5426037
-26.59218 65.08379 -0.4123523
-23.97168 74.73534 0.1152349
-26.78141 85.09274 -2.456959
25.66391 20.47648 -1.972211
22.71099 53.93713 1.486685
28.16309 12.76398 -6.071668
19.09441 11.14879 -12.28761
9.262798 87.98241 -17.14794
18.30996 88.19892 -8.146591
21.47237 85.1496 -1.565543
22.95764 87.69274 1.488041
9.797832 8.496052 -24.95716
7.71338 8.800088 -22.06795
0.5206487 88.10915 -12.88229
6.773411 10.9834 -19.58312
-5.457627 87.80274 -15.77939
-13.2762 87.03384 -15.84524
-16.08324 9.006564 -12.86434
-17.08083 88.51304 -12.1991
-32.16182 39.77004 -1.009767
-14.55171 10.2297 -11.2499
-25.43116 13.06497 -9.941948
-35.01652 20.89465 -0.1315015
-17.30332 88.8909 -10.37101
33.24471 18.5033 0.6318733
39.14454 15.52262 -0.5098833
20.17912 10.15428 -12.05998
12.06559 85.18145 -12.50768
7.621885 87.20177 -17.56744
18.73043 86.93649 -7.00632
24.9457 57.91394 3.266825
24.63114 84.3859 1.578908
1.950625 88.48938 -12.19038
5.397016 84.95081 -10.93576
6.223453 12.00508 -24.24279
-7.183364 8.599806 -15.79561
-4.290583 86.39798 -15.12725
-11.72433 87.65521 -17.23774
-2.960439 88.20285 -14.4527
-14.73951 11.65944 -11.45869
-16.21985 85.97382 -10.83591
-33.1408 38.20712 -1.43603
-29.39335 50.0668 -0.617016
-32.12134 49.64835 -3.985999
-15.66546 11.51798 -11.71266
-35.54738 18.95812 -0.3523036
-25.80429 72.42009 0.03352734
24.79198 41.19 1.019763
15.84562 86.07851 -12.26868
10.63656 86.29935 -17.18715
23.94525 79.78096 3.985919
24.81596 63.88438 4.115399
6.293609 16.12434 -18.91039
-1.093198 87.42216 -13.80353
4.269145 12.72079 -12.06499
-15.08081 83.42535 -13.9691
-13.04246 12.2806 -13.07718
-17.56478 83.19019 -12.1437
-29.90876 44.48653 -0.6418681
-35.75856 21.13247 -2.157388
35.82872 21.69454 0.05720381
11.06161 85.14045 -17.87968
24.41114 64.53632 2.616314
-1.519763 82.93771 -15.35775
-10.25109 10.59635 -16.98533
-12.08454 81.96863 -13.11349
-13.63219 83.20494 -9.042584
-34.4187 32.57145 -2.879183
-34.78607 27.01253 -1.166976
29.42882 21.40181 -1.41617
21.20035 15.38777 -11.99993
10.09706 13.33366 -24.49803
7.230255 13.6663 -22.39547
-12.50843 84.68182 -15.74991
-12.93199 81.7477 -9.089866
-19.33404 86.50414 -7.331834
25.39168 20.64695 -5.974186
9.687152 84.82035 -17.49625
0.6704775 83.28911 -18.63347
-14.2268 85.88698 -15.30546
-36.13435 15.95318 -0.7638639
-27.82758 74.96902 -1.716196
30.62549 19.64685 -5.424139
9.713188 81.49277 -17.18355
-9.534678 20.52716 -17.64915
-14.60142 77.81271 -9.565585
-33.23797 20.29844 -6.942305
30.51075 22.51356 -0.09925499
-1.705286 83.08917 -15.9056
-13.62491 78.11824 -9.298193
-0.3271466 80.94492 -16.62956
-13.72065 78.26359 -13.84151
-2.391097 85.24687 -18.67703
0.9864584 78.87553 -18.84948
-2.92585 81.16785 -18.22952
-15.51462 83.48093 -11.7249
-16.26988 82.28607 -13.06668
-2.63967 69.94255 -13.39428
-1.885738 75.45846 -15.00281
-0.07529957 71.75481 -20.58394
27.25272 30.34006 -1.241511
32.04937 26.59508 1.325227
28.79985 34.75598 2.11896
35.84396 32.30235 0.719204
21.82067 14.81583 -9.710981
2.834499 10.78891 -15.03087
-13.98215 11.452 -11.01261
-27.50027 55.33871 -0.6049091
-16.19729 84.35131 -10.21369
-16.31331 79.72746 -11.05657
-26.36948 79.42566 -1.860374
18.50279 86.85679 -10.60733
26.13454 87.54644 -1.968313
-24.4729 15.19524 -10.41182
30.23536 48.06139 4.329689
22.91768 83.33136 -2.049877
13.34835 12.12632 -18.70535
4.09698 12.22425 -22.36636
-14.19973 13.50725 -11.05668
-17.16285 12.07294 -9.5555
14.23262 85.54475 -11.84091
11.62117 82.44074 -12.20258
16.76482 73.83394 -13.12089
18.69424 76.17033 -15.20057
29.60359 59.64513 3.558408
5.142398 11.27032 -15.49009
4.351547 13.35508 -13.59766
-13.43703 13.20404 -13.15563
-16.85485 18.5631 -13.54923
-11.99879 22.06869 -13.7538
25.5921 77.55286 4.511632
-12.81205 82.69299 -15.94204
-34.34893 26.65864 -5.105083
34.3232 26.15814 1.217116
36.57937 28.8523 0.3349721
37.52172 31.3891 -1.770043
34.83852 21.95107 -5.258746
4.74881 86.09903 -14.95136
14.46232 15.14911 -16.8955
-2.568161 13.74901 -13.99341
1.319511 11.22444 -12.08474
-1.37976 17.04285 -13.91761
2.08238 17.88311 -16.48821
-1.378256 21.64983 -13.26615
-14.35075 25.96242 -13.86577
6.516729 14.22254 -12.06455
6.473737 16.32601 -9.699423
31.46366 18.06417 -5.285212
-28.27245 78.73887 -3.220056
-27.44102 74.34193 -5.423985
-28.71841 71.73347 -5.020111
-28.87062 66.04182 -5.897226
-25.90812 72.25372 0.01238604
-24.34003 80.51904 -5.92271
-21.87965 79.61225 -5.975725
-19.11692 79.81988 -8.855782
-19.76594 81.01994 -7.386337
-17.50338 75.65944 -9.789478
-19.62915 79.98881 -8.376475
12.47778 83.59123 -15.73046
11.77244 81.02282 -18.44367
39.34079 17.05365 -1.4507
17.3744 20.15728 -13.53085
-16.1532 75.75799 -13.04945
-16.71997 76.95281 -13.91311
-19.6821 76.23777 -8.353454
-19.64876 74.0105 -8.200935
-18.80844 79.61094 -5.56164
-19.35432 73.4278 -3.917766
-19.09891 69.65818 -5.18705
-22.06747 69.67175 -7.223342
-18.65629 67.21329 -9.905072
-2.993484 83.87167 -13.88102
24.13032 85.30674 -1.087452
3.082125 9.084207 -16.56376
-17.11264 14.63825 -13.02951
-18.01894 21.3339 -14.01491
-29.71865 46.56919 -7.76347
-31.0447 58.43414 -1.787231
-29.37694 58.02707 -0.7496077
-29.14715 59.39323 -0.7725466
-28.5127 56.62679 -0.5200309
16.08529 14.55569 -10.62823
23.82026 19.9924 -12.61883
23.62496 19.81623 -14.70858
21.61671 12.31777 -15.66902
-34.78562 28.99108 -3.54969
-34.70412 27.96874 -4.192605
-33.17617 34.19149 -5.580951
25.55277 51.71446 3.99775
31.52881 48.67929 3.141443
24.74087 85.84571 -4.789606
14.91449 15.83301 -16.47879
-11.69693 16.00386 -10.55463
-16.85638 17.30298 -10.9278
-18.29906 21.27427 -11.87977
16.01672 76.68522 -12.1676
6.038946 14.45403 -18.05166
7.748035 20.81684 -23.44325
9.036899 18.74374 -24.20183
10.85939 20.62758 -23.35971
6.058869 17.7417 -18.95094
-18.71719 20.24606 -15.66256
-15.18547 25.97367 -13.88221
27.2906 73.34609 2.965491
26.36684 78.89658 2.580538
-31.29057 44.04113 -6.383176
-30.21404 42.25732 -7.701341
32.7403 19.74879 -0.6316292
37.94055 27.9734 -3.346894
17.61632 18.36378 -13.25329
19.48086 21.56212 -12.87143
15.64621 23.71974 -12.11783
18.87243 21.06981 -11.00076
17.42818 27.83331 -11.54456
22.52117 22.11749 -9.529139
24.71937 23.33529 -6.030825
29.36388 20.49449 -5.519419
25.57421 25.36197 -5.915794
28.40875 23.93494 -5.986128
28.98416 24.42356 -6.120377
23.43775 16.09529 -8.087226
34.01573 28.45379 -6.056255
1.460303 82.36601 -11.06723
2.189326 16.6634 -17.28148
-4.929877 24.75991 -17.29177
-9.090318 18.25623 -17.44032
3.577353 80.0295 -10.28642
6.814972 78.75143 -10.10231
11.96294 77.99339 -15.76316
12.17404 75.22162 -18.99754
-15.88842 77.90891 -15.29339
-13.31372 77.59313 -16.77892
-15.14423 14.45483 -17.42316
-17.85556 71.45705 -14.79099
-17.96059 71.86383 -14.7895
-17.67439 70.80252 -14.83578
-18.58536 69.17481 -13.72408
-16.01031 65.09267 -12.31504
-5.650249 81.96836 -12.68903
-5.583007 81.71892 -14.86922
-5.504134 77.91076 -12.36376
15.6795 11.79401 -16.61864
-18.61744 15.74539 -10.89667
-21.83411 58.05958 -8.052049
13.19383 35.22485 -15.97798
-31.66837 25.03805 -7.786262
-26.07756 22.75409 -10.8209
-26.38929 20.84095 -10.52075
-20.93258 18.15181 -10.65377
31.11614 51.29271 1.884801
32.60448 47.55602 -0.1856004
29.23846 40.87893 3.702202
21.56522 81.41937 -1.94411
24.65822 80.65518 -4.110733
25.11531 76.78514 -0.6846012
19.62084 82.87545 -6.659292
-21.49578 16.30898 -10.6827
-12.43922 24.36821 -11.23522
-19.87093 26.28024 -14.71662
20.43059 80.93562 -6.033819
6.135274 23.03429 -20.02134
6.281043 23.68314 -20.9786
4.997976 22.4312 -15.58125
5.584621 19.28158 -13.63055
5.315633 23.89558 -14.08
0.6620569 30.21528 -19.9092
4.002702 14.77586 -11.95318
-10.95152 18.31093 -17.64244
24.52985 80.49781 -0.9008269
29.30071 73.63535 -4.830444
30.3394 71.52693 -3.870968
24.30196 74.44629 -2.454955
24.2312 77.54143 -2.565882
-29.48555 34.70857 -8.90292
22.45099 23.16705 -12.11175
11.94117 19.1537 -21.57625
2.519065 81.72872 -10.02713
-12.45083 17.81443 -17.69376
0.3365635 31.93601 -12.38049
0.8154769 30.34617 -14.23759
4.178469 80.94694 -15.57408
7.086522 82.44759 -13.42936
11.05035 77.7849 -18.97292
4.3011 47.47277 -18.71292
-13.34027 14.62209 -17.55004
-18.81885 66.21796 -4.482346
-17.39114 62.01007 -6.709318
-17.72969 68.11452 -14.9721
-24.05646 61.66526 -8.972749
-32.01902 32.07481 -7.033893
-28.97544 34.89667 -9.299093
-15.41506 17.11139 -9.800445
30.11017 55.03181 1.974199
25.77973 62.66544 4.773744
29.2573 61.07761 3.621413
30.39303 37.04041 3.238572
30.99581 42.0125 3.843953
33.12792 41.70776 2.535319
35.66956 42.6339 -4.34841
36.10801 40.85258 -2.988498
36.85516 33.91566 -1.234191
-18.20376 14.77826 -10.05692
19.35539 81.50082 -12.86038
17.54777 74.65818 -14.1286
19.40252 78.85155 -5.374084
6.596714 31.59493 -22.14947
6.408924 26.10393 -9.629911
5.421267 32.33348 -8.892082
2.60235 28.28561 -11.41714
5.84777 27.29902 -12.4276
7.046713 15.70581 -22.89211
-16.37647 16.34254 -17.225
28.35682 66.99725 -5.612487
-31.16112 48.86389 -5.79496
-28.47068 45.37232 -9.04574
1.188091 78.37941 -18.17294
1.280841 79.53763 -10.98996
-2.031389 31.08902 -14.57289
10.5974 70.29797 -19.58543
-15.86894 55.4143 -8.936287
-25.22929 61.39314 -8.970069
-26.99549 69.83186 -7.088176
-29.93893 36.22254 -8.452059
-22.82065 24.58651 -10.63702
-20.56984 27.13012 -10.59851
-23.70127 32.53981 -11.02685
-29.10993 39.86438 -8.924327
31.79788 57.62057 -2.265071
24.21656 68.12239 1.783766
26.85684 69.66492 1.77374
33.04802 41.19848 -6.585173
30.96591 45.089 -6.35928
37.00711 32.19222 -4.069531
33.94458 34.881 2.140377
29.97033 39.76094 -5.611719
28.54173 34.90052 -4.722051
18.62204 84.7384 -6.283248
18.41345 84.20924 -11.70851
21.69435 78.70676 -2.273766
23.9029 69.71671 -3.362031
23.75709 70.27199 -5.019831
18.20073 79.56413 -11.15954
17.90641 75.80506 -6.666495
3.658154 18.35128 -13.17951
2.762433 25.89979 -12.10991
4.152401 27.33894 -16.53558
1.876281 36.42106 -10.97113
4.685685 34.15919 -18.2124
4.630437 37.53559 -15.67473
6.652717 18.34963 -21.64266
6.289096 22.28014 -21.9538
5.816445 21.71526 -19.08747
27.13589 66.08582 -4.261073
-26.43453 51.828 -9.725201
-26.51296 56.74961 -9.05722
-24.72029 57.60723 -9.343522
-23.67928 54.92136 -9.437327
-24.70963 48.89399 -10.20284
-21.66017 49.03706 -7.994556
-19.09162 58.43686 -5.606277
-20.02733 60.54049 -5.482708
-15.50022 54.32816 -8.544723
-1.491692 76.67611 -15.12897
3.18948 77.51281 -9.433592
-14.17182 24.09942 -17.97908
1.026352 28.96768 -14.14064
1.626794 21.36032 -16.93674
2.362332 22.32183 -21.71265
0.1065021 36.74767 -14.45239
-0.3402888 41.23651 -13.17682
-0.6032996 44.64656 -13.56152
-1.662714 45.07421 -12.14569
-1.772164 42.1827 -11.89093
-1.255025 47.67028 -16.76187
1.652078 41.87719 -10.44023
-1.87512 35.32028 -12.87521
-0.9933258 46.79648 -20.27835
-6.11272 39.23389 -18.86196
3.952676 74.94502 -16.50934
10.65063 68.49105 -19.89293
-15.80485 73.06264 -13.90068
-22.83648 62.83654 -8.501635
-1.753355 66.06103 -15.83128
-24.80246 63.54791 -8.776155
14.04453 25.51313 -15.95313
13.67689 22.13793 -16.7851
-25.83842 29.58858 -11.18643
-14.9065 47.78453 -10.01686
-17.10961 23.26743 -12.39971
-19.99662 24.38186 -12.5159
27.82668 66.9059 -0.948149
31.63666 63.65907 -3.147031
31.31021 63.35423 -6.330747
30.07705 68.51743 -5.620179
32.36266 61.74484 -5.293075
34.12187 48.95427 -5.698817
32.93909 48.87497 -6.708891
27.46118 58.41148 -6.626325
28.10375 57.55476 -6.624224
33.668 30.68132 -6.25317
32.56234 31.43009 -6.38512
25.6369 27.66557 -5.587616
22.80977 28.61208 -8.536209
23.38724 26.69709 -7.281496
26.98561 42.38065 -3.83498
21.00895 28.9189 -11.02181
25.26969 31.37809 -5.098606
3.423738 23.19168 -14.23272
5.824806 33.75738 -12.77361
5.814887 40.20245 -21.07964
6.277574 35.98459 -12.01049
6.240467 34.94489 -9.573993
5.518156 39.42128 -13.63439
4.338604 55.93501 -15.57256
4.389839 49.97718 -15.70824
4.053123 49.91059 -17.58754
5.927656 48.45018 -13.09205
4.288086 20.37189 -23.4377
23.08837 65.4724 -4.535851
22.90684 64.58623 -3.103068
19.88901 68.27612 -4.110544
17.5533 67.49579 -7.724695
18.11122 62.44565 -6.885602
23.73078 62.98072 -4.295062
17.67978 63.95462 -8.994159
-15.51139 53.43661 -10.50122
-17.77994 56.84001 -13.88911
-1.333639 73.3205 -15.18726
3.035324 19.47935 -22.18128
1.826472 26.15702 -21.62798
2.521856 27.64502 -22.64874
0.1740244 38.24947 -21.14357
-2.51481 45.97331 -12.29782
8.615387 77.33094 -17.49866
5.801431 72.12971 -19.50979
3.892498 69.82908 -17.32426
11.15935 61.18091 -20.8029
-16.49178 61.94378 -12.36682
9.249744 25.92171 -23.752
12.52305 28.2465 -19.88104
10.88125 30.70448 -22.98632
17.97239 30.42375 -14.59436
-17.8877 24.00737 -12.609
25.66048 62.78555 -5.270029
26.53148 57.09339 -4.760691
33.14407 35.75895 -6.451837
30.41845 53.39452 -6.852241
22.96085 35.41 -7.782819
24.41533 36.49169 -5.591779
6.321814 31.95022 -11.52204
6.113329 43.57209 -21.2493
18.0778 66.13312 -9.091538
20.442 62.96155 -9.727484
21.45031 71.52277 -10.60476
21.5931 68.51425 -12.599
20.28032 72.0118 -3.806783
18.98245 69.8431 -15.13007
22.7001 64.51575 -11.07647
22.95339 60.4468 -11.82638
17.47383 55.19717 -10.15877
22.47982 60.09341 -13.92972
-6.511056 25.9892 -17.75175
5.202077 29.43765 -22.3494
0.8808743 37.68684 -21.97269
1.035808 36.93269 -22.07219
4.161701 68.39705 -15.51389
8.166091 62.76429 -20.88319
6.557367 69.74812 -19.47395
10.9658 35.40608 -22.54771
7.912071 31.74547 -23.03156
12.7625 31.6876 -18.23597
-16.709 29.32023 -11.52245
36.10947 34.44805 -5.093078
32.12095 53.43649 -6.937096
24.27749 56.88226 -2.770826
22.65335 32.08465 -8.610551
5.722294 24.76159 -19.54258
5.882821 44.98262 -21.01571
12.56934 56.51941 -17.14408
12.84305 59.89737 -13.12665
23.08438 73.36973 -4.693401
21.94995 62.8222 -9.858186
-0.4540059 70.36189 -12.36057
4.480915 26.20188 -16.96643
3.157176 36.52686 -16.15656
0.4879014 40.91711 -21.707
-3.210659 49.21896 -12.37879
8.815607 62.11064 -21.02555
3.806004 64.13869 -17.44476
4.200721 72.26413 -15.42569
4.63496 76.80081 -14.50834
6.012301 70.21989 -13.40855
7.466878 73.91988 -11.07115
4.731522 75.87162 -9.883989
-13.2382 67.01656 -10.44041
-17.66674 66.48852 -13.39972
-12.51943 68.7997 -13.88945
-11.95552 65.58396 -13.77525
12.75744 30.68064 -18.15616
11.96346 34.53313 -21.59196
-22.89692 41.07027 -9.772976
-19.81908 27.24872 -12.81138
16.92613 33.14948 -12.43372
18.97437 30.31713 -13.90675
20.56928 33.91962 -13.10493
23.85924 34.6632 -12.47262
26.10899 46.23179 -3.488593
22.29253 48.2888 -5.381381
21.86976 37.95914 -9.581314
22.08164 47.65382 -5.924178
17.45335 37.86809 -13.71576
3.142457 39.25771 -9.29365
1.5387 38.56112 -12.14609
2.582853 43.06467 -9.436885
20.99737 72.96777 -10.8004
5.973026 25.1752 -22.1501
-2.880285 55.68647 -15.72961
6.330367 66.06104 -12.95853
1.583202 71.47021 -9.353093
3.284473 68.28074 -8.886693
-16.85619 63.56687 -15.84883
11.75233 40.09281 -21.59437
8.094088 34.6333 -22.89925
7.42731 33.65371 -22.67773
-23.03867 45.17843 -9.147461
-15.45169 32.39474 -13.27249
20.17495 41.68142 -10.45863
23.48857 39.87785 -12.18856
23.29 43.75739 -14.58278
21.3449 22.57679 -15.6494
24.01124 24.30869 -14.14526
18.79523 30.29992 -14.83054
25.07824 49.49297 -3.257886
17.90389 53.35344 -11.36621
21.80869 54.26538 -4.315598
26.40941 52.76565 -3.356685
4.056089 33.75921 -17.21136
1.638224 40.56446 -13.72191
11.1984 46.66268 -21.69514
22.55738 61.69167 -13.41964
12.10748 62.04292 -14.34521
3.847303 66.80512 -17.16733
3.839713 60.11791 -17.5591
4.291406 58.91426 -18.90366
5.026409 57.11942 -19.94285
4.97178 54.88226 -14.46555
4.834439 66.15639 -8.863685
-16.51979 63.3905 -13.45805
-17.75672 61.05801 -15.13775
13.52124 32.1376 -15.81664
17.51158 34.91715 -14.22236
18.33899 36.24488 -14.32143
12.83001 36.77892 -18.53882
14.18995 40.91119 -13.91476
10.08627 48.12922 -22.04151
12.70426 43.63603 -19.75594
-15.41183 52.39587 -10.66738
-15.90826 50.71152 -10.89542
-21.03683 46.67809 -8.268184
-17.70059 29.53647 -13.099
23.72381 40.03984 -14.34441
22.9577 44.23978 -11.75702
21.27884 47.9903 -15.17372
23.60233 50.42019 -12.4659
17.51115 47.25919 -10.58445
19.7161 28.25925 -15.15986
17.28488 44.86388 -11.86356
19.84855 38.60987 -11.27294
17.46791 53.97934 -9.312814
19.71687 52.74649 -7.244766
12.38633 52.60023 -20.33064
16.03647 60.41793 -12.55193
18.09178 58.42624 -14.11894
19.03248 62.25603 -14.83891
20.01464 58.27873 -15.06423
22.27488 58.44985 -14.47507
11.83625 67.58646 -13.64954
13.08159 74.32543 -11.88759
6.732245 52.15608 -9.851427
6.338305 57.75968 -12.57771
2.225095 48.63453 -9.360402
5.531984 62.50236 -9.023954
4.615337 51.42737 -8.738354
3.468112 52.28941 -8.818922
6.720868 54.84956 -11.74241
20.97469 37.96024 -15.21203
11.89313 43.63953 -21.2417
13.70806 53.42559 -13.04363
13.07514 53.74913 -13.69427
18.3443 52.80014 -14.01694
17.5654 53.04943 -13.46368
19.95347 54.82665 -14.98655
-16.32239 50.2794 -11.75297
21.43434 43.19684 -11.96367
22.87294 61.35139 -11.58654
12.54629 66.59124 -12.68122
12.14596 76.81577 -12.15208
1.107206 49.5362 -14.01437
0.3603283 51.58242 -11.32696
0.3870932 55.40248 -10.80408
-0.5402515 65.85818 -15.9092
-16.28443 63.69502 -17.19382
-15.85483 60.42233 -14.15145
-13.39012 63.81404 -18.54323
-10.57104 60.74021 -11.26477
-13.38179 58.7665 -14.10446
-13.97682 56.49495 -14.15529
12.88172 44.38066 -17.93035
12.81738 42.11178 -16.63125
12.52412 51.62609 -16.12841
-20.20786 49.7748 -14.5133
11.55656 76.26591 -12.90661
0.1007403 63.64091 -16.65489
1.63624 60.51912 -21.11496
-0.2748565 59.74735 -11.5522
1.702646 51.94092 -15.51708
-0.6154367 59.4664 -12.77492
2.747442 49.62443 -16.55067
1.521698 58.59731 -17.60756
2.14186 52.67138 -21.48995
-10.72245 71.61529 -17.18719
-16.64811 57.2592 -17.4295
-11.41964 56.62342 -13.94532
-18.94157 43.49688 -10.33555
-19.22683 43.26093 -13.36043
2.318676 51.25122 -21.47247
2.880292 46.0377 -16.34845
2.030902 42.49952 -14.87658
2.253761 41.30671 -15.1211
0.2685311 53.32843 -21.72471
-15.16843 68.29878 -17.8951
-8.217593 80.07732 -19.55662
-10.67305 82.22713 -17.27008
-4.517821 78.49417 -17.50504
-4.026948 76.86638 -17.65907
-3.297258 75.97762 -17.13167
-3.554021 71.5216 -17.93162
-3.030748 68.56147 -17.38721
-8.541974 70.02323 -18.40483
-10.4747 69.4799 -17.09398
-8.588954 65.91874 -18.23349
-16.3886 54.38079 -14.52071
-12.31237 54.29638 -11.03144
-15.1342 57.8637 -13.0048
-20.48717 41.82756 -13.8383
-16.49086 29.86024 -13.85524
-15.20887 32.65149 -13.27091
-14.75916 32.96625 -12.81251
-19.80443 36.46783 -13.16149
-14.49519 32.22033 -13.12802
-9.931078 35.47866 -12.82053
1.526391 69.38124 -19.65739
0.595702 66.59572 -20.90178
-1.055202 65.35819 -20.8374
1.851708 65.25391 -19.02398
-2.465776 58.64588 -17.84349
-2.410465 62.34149 -14.473
-4.815547 61.77744 -13.78738
3.587953 47.47968 -18.30756
-2.137819 68.34929 -14.22458
-15.97112 50.97715 -13.79464
-18.72562 53.29242 -15.63315
-16.87303 38.85816 -13.28392
