# .PCD v0.7 - Point Cloud Data file format
VERSION 0.7
FIELDS x y z
SIZE 4 4 4
TYPE F F F
COUNT 1 1 1
WIDTH 1657
HEIGHT 1
VIEWPOINT 0 0 0 1 0 0 0
POINTS 1657
DATA ascii
8.122242 52.61716 14.55328
7.61214 54.6277 14.61148
11.5248 118.8058 5.412655
11.18329 107.9176 8.55448
-14.59347 76.56541 7.724795
-12.87706 103.8542 5.45719
-12.76181 103.4371 6.022912
-13.30501 102.1136 3.845821
-11.60408 108.8796 7.474357
-6.863615 108.2177 11.711
-12.33518 105.3217 6.880876
-12.55271 104.5909 6.413759
-11.67679 99.40417 9.009799
9.516929 57.21228 13.63227
9.989332 51.4058 13.82473
12.59101 105.0313 6.155908
10.82562 108.0432 9.066331
10.82363 109.9872 8.261064
11.15952 110.3931 7.560213
11.80207 110.4995 6.022768
9.312198 109.2389 10.12179
8.869326 111.5421 9.948375
8.665798 111.8418 10.10114
-14.18478 79.64294 8.601737
-13.38814 101.6346 3.558871
-12.11223 106.0762 7.225245
-14.44437 91.96091 7.587479
-14.7267 90.80183 7.120696
-14.3396 92.55872 7.703048
-12.75685 98.1586 8.143149
13.41653 94.28558 8.449372
11.44555 98.38037 9.380628
8.481613 52.58171 14.40699
13.41635 101.5794 2.727358
13.35232 101.735 2.096526
11.80438 109.5818 6.410162
7.553993 113.5419 10.93056
-14.37177 96.58327 4.933291
-13.15872 91.73537 9.226483
13.97454 97.77219 5.767591
12.57374 91.89799 9.714287
13.81996 97.78059 6.25234
13.45015 99.13972 6.331856
11.50668 99.21058 9.240038
12.99073 102.6658 5.464512
10.70404 106.2482 9.500799
10.66261 114.9601 7.633369
-14.0978 96.94884 6.026896
12.06111 93.98555 9.721382
12.27047 100.7049 8.000088
12.28646 101.5388 7.77503
9.46195 113.1504 9.349495
-13.84887 98.40832 5.669695
-13.72495 99.43089 3.226405
-11.72112 101.091 8.642344
-11.83791 101.9199 8.389886
-12.53582 98.66724 8.268324
-11.82565 93.86915 9.87043
13.42956 92.9428 8.729079
11.15062 94.74756 10.094
10.69511 104.3478 9.618775
10.99748 105.6222 9.23316
12.73204 102.9746 6.279788
-13.63963 99.91242 3.331451
-11.66524 98.70098 9.118118
11.67693 95.13578 9.799008
-10.0754 98.74501 10.18349
9.890036 93.97114 10.64323
11.50382 94.41387 9.991032
-10.52302 96.22935 10.1702
8.326129 93.67633 10.90154
7.313225 92.04331 11.2018
10.6101 92.45616 10.53175
5.706469 89.53637 11.2824
12.0566 91.94374 10.10042
12.50431 89.65841 10.15685
10.27755 87.81517 11.51873
8.195064 91.67142 11.50116
6.789431 114.7448 11.4766
-8.413757 97.17315 10.73783
8.865694 95.79687 10.82257
-10.56666 101.4617 9.822593
-8.352514 101.6978 11.13087
-12.18736 95.00057 9.482191
-9.223698 95.8548 10.70124
-7.311867 96.50153 11.0848
-6.057106 97.72002 11.1265
-6.078689 99.09125 11.35427
10.26417 98.99307 10.04598
8.100051 97.65817 10.7907
5.926934 110.7639 11.79299
-9.990629 94.84992 10.50935
-8.286631 99.00877 10.87788
4.822833 113.0934 12.23032
4.209559 113.9294 12.4746
6.025141 109.7265 11.89815
7.594656 111.5428 10.8466
7.215207 107.0571 11.66456
8.756173 109.7174 10.40703
9.53939 105.9522 10.53623
-5.432638 98.48962 11.34881
-2.634806 98.93602 11.87406
10.04077 106.4779 10.05544
-3.872405 96.29192 11.41995
8.20624 106.7145 11.22191
6.399274 106.3748 12.04459
6.861652 101.6189 11.61648
6.03093 104.4837 12.13381
5.995983 103.0152 12.01527
2.007554 103.4834 12.92312
5.458956 105.0169 12.35969
6.100269 99.80953 11.47438
9.567027 99.65222 10.43094
10.17494 103.5049 10.13794
11.14131 99.02688 9.513752
10.96136 100.2372 9.533175
10.28284 102.8521 10.04617
7.492442 101.4536 11.40895
10.65232 144.9782 3.605902
-11.41148 129.2563 5.163121
-10.92747 128.5328 6.31821
-10.6257 125.2921 6.96063
1.388899 117.1002 13.15432
-1.296731 127.0488 13.29653
-0.7528095 122.1008 13.41624
-10.72517 129.0708 8.078477
-10.43976 122.6246 7.429255
-9.034454 122.5757 10.09766
-10.75629 128.5495 7.180109
-11.42889 129.9865 6.490631
-12.23459 133.146 6.399724
-9.399981 121.6028 9.523698
-10.81487 132.1797 9.631973
-9.416677 134.6053 10.09381
-10.11602 127.0577 8.711845
-10.28718 132.8501 10.11673
-9.893712 119.0931 7.867597
-10.10391 119.9788 7.649184
-14.58119 50.48398 12.55419
4.917926 126.3517 13.07574
4.338449 125.1421 13.24203
5.050546 123.4843 13.06205
7.079299 128.6578 12.58609
6.608128 129.0408 12.78436
5.845644 129.9251 12.99091
-8.168667 51.34796 14.67001
-7.299933 53.63742 14.00436
-9.127807 51.53656 15.28855
-7.71084 49.99907 14.2056
-12.18144 55.36134 14.27305
-6.7945 52.55779 13.50607
-6.035778 51.24168 12.76218
-4.489427 51.31133 11.95036
-5.683976 53.74032 12.65472
-8.212828 55.31142 14.73325
-4.426271 56.67877 12.08179
9.888222 131.2614 10.97113
12.0624 119.1554 3.792863
-11.07727 117.036 3.652828
-11.29968 117.5409 3.180855
-10.53537 116.101 4.998511
-10.96332 119.196 4.727726
-10.82776 114.8227 4.752313
-11.30196 112.6197 6.513214
-11.56361 110.5567 6.460659
-11.05267 112.1174 7.409278
-9.898722 111.8113 8.899112
-7.379869 114.2913 10.65894
-5.942945 110.9378 11.71823
-10.64381 103.5441 9.699507
-6.168887 109.5996 11.85011
-4.866659 109.3733 12.44784
-15.18862 59.48919 10.0588
-15.94805 63.62508 8.16334
-14.37882 64.21124 10.51289
-5.267102 130.5654 12.94467
-10.6551 131.2643 10.05485
-10.23623 129.547 10.20348
-10.3681 129.1545 9.528094
-9.880094 127.2094 9.223222
-8.189754 129.6321 12.25034
-9.627411 129.4411 11.13959
-7.93223 127.9019 12.07995
10.57352 126.6019 8.653109
9.538886 124.5858 10.23672
10.00516 122.5678 9.185626
9.192037 125.3552 10.78358
9.249122 124.3972 10.57167
8.068618 128.9958 12.20947
8.47802 131.0823 12.03915
12.25925 124.152 2.614461
-7.965744 74.05614 12.56632
15.05981 79.19907 4.830956
12.00712 114.7824 4.658699
11.75218 118.0122 4.926097
10.87808 118.9849 6.951685
10.12385 115.0805 8.468231
12.36614 111.3333 3.568362
-15.2931 83.68497 4.926383
-15.07691 86.09769 6.623967
-13.04708 86.37764 10.06919
-14.61667 83.59408 7.945642
-13.02036 85.59677 10.0561
-13.18549 86.58485 9.922549
-13.49158 83.17673 9.785223
-12.86168 88.72507 10.00802
-11.26967 84.46853 11.5832
-13.67315 82.48729 9.515272
-11.62854 84.91832 11.30605
-8.529004 83.17759 12.4248
-8.849138 84.58826 12.22699
-11.81763 80.94413 11.35454
-9.445756 81.92183 12.29892
-6.880441 82.63983 12.33839
-5.0362 81.34055 12.51035
-14.4386 77.43545 7.82093
-3.14577 79.52634 12.60347
-11.95302 76.93352 11.17506
-8.902626 80.82607 12.45693
-6.417712 79.57262 12.56285
-6.997006 79.39398 12.55028
-8.323862 79.44822 12.56079
-7.288917 78.6252 12.54196
-3.441143 78.55342 12.54139
-1.206211 81.01199 12.54225
-1.373422 82.17992 12.22235
-0.06060218 81.66325 12.34647
-0.8991209 77.76889 12.51711
-3.638101 81.86617 12.34971
-3.035628 74.62765 12.51927
-1.596146 76.80801 12.50847
-4.803852 77.625 12.51525
-1.065491 79.15986 12.59645
0.4352709 83.68687 12.60882
-3.608129 83.45641 12.53356
-0.2746651 74.95956 12.53015
-2.169827 74.5141 12.51186
-1.807954 83.42425 12.50086
-1.527123 73.12025 12.42113
-3.723657 71.36406 12.46404
-1.60565 74.37186 12.50395
-0.3360719 81.92211 12.26663
-10.41319 78.07018 12.10391
-0.6226565 73.82554 12.48979
-1.700229 73.62041 12.46368
0.462131 77.15456 12.51024
-4.884051 71.28757 12.7737
1.256287 76.40829 12.51483
14.8886 62.16475 8.615748
14.21482 65.88948 9.356802
13.58319 63.21413 10.40321
13.70045 63.75245 10.22132
14.50229 68.04357 8.679934
13.64977 68.9175 9.904131
14.26041 67.70026 9.126827
13.51638 68.84679 10.0798
13.93601 66.87009 9.691851
11.39876 63.67435 12.22106
11.57524 67.13895 11.88288
8.888773 64.71147 13.30374
9.645795 65.35618 12.96105
10.36912 65.09608 12.67463
3.655214 68.68977 13.87564
15.14048 82.56372 6.135348
14.53961 80.73746 7.866831
-0.3683757 51.02145 14.73188
15.16624 85.67564 6.324058
6.233445 50.11212 15.5474
1.236199 52.7494 15.93131
-0.1742909 52.67883 14.57704
-1.78349 54.39893 12.63867
-2.574092 54.6408 12.14395
-1.038133 55.17148 13.19207
-0.4380833 54.265 13.96694
1.415077 54.28873 15.75816
-2.144417 57.15262 12.18709
-4.974814 57.30925 12.38432
-2.762843 57.82283 11.94063
-1.026994 61.02868 12.56728
-2.765501 60.25549 11.88625
-1.07903 62.52535 12.45082
-3.215101 59.56099 11.88074
-4.309041 58.85188 12.08571
-6.816689 55.33052 13.6777
-6.480896 58.23798 13.52891
-4.945769 60.0316 12.46582
-5.38242 59.6856 12.73608
13.70851 55.50787 10.82236
13.62677 54.21927 11.02837
15.0635 93.22935 4.389223
4.114185 51.09279 16.29207
4.273348 51.8223 16.15504
11.23678 50.90451 13.19222
-14.61153 73.46754 8.582141
-12.18186 76.74941 11.00904
-14.19587 73.24507 9.261227
-12.29601 75.60275 10.95508
-11.90046 110.7621 4.189742
13.84652 92.71832 8.287808
14.02996 93.10039 7.984969
13.94802 91.057 8.484554
14.36398 89.83843 8.025319
14.11961 88.76474 8.524935
7.575374 55.19379 14.58376
4.393413 53.51546 15.93797
3.644036 54.74865 16.00208
4.894187 55.13428 15.62785
4.325178 58.47131 15.41439
4.342411 59.84021 15.23656
2.18035 56.46688 15.72942
3.794399 53.92197 16.05772
5.182049 57.99277 15.24824
7.52206 57.83622 14.39891
-14.11195 77.43958 8.537489
-13.91339 79.53259 9.085669
-13.59819 81.01047 9.603065
-14.51313 80.95265 7.987138
-12.27215 77.84837 10.96722
-11.09607 75.73778 11.73191
-12.12217 79.23101 11.13301
-8.269412 78.0587 12.50367
-11.28096 75.61604 11.61635
-9.387604 72.48559 12.58758
-10.49096 72.10197 12.33852
-8.786801 72.5112 12.71917
-10.27588 70.61119 12.64635
-10.47321 71.20006 12.48265
-9.237499 74.14162 12.36359
-7.315496 75.0281 12.51132
-13.84684 70.68694 10.18259
-5.079442 70.97788 12.83928
-8.711637 70.91837 13.02705
-7.224913 72.52494 12.8839
-6.827408 69.24718 13.39747
10.19342 110.1937 9.026752
-14.58764 88.64205 7.81795
-11.43649 89.59728 10.78761
-10.51996 88.36501 11.38207
-11.57451 89.1929 10.76437
-11.00271 87.23465 11.38228
-7.304221 84.58365 12.34857
-7.520349 88.69718 11.64943
-10.59905 89.14589 11.24149
-10.5355 87.13732 11.55694
-6.909474 87.44809 11.98503
-11.82896 91.76614 10.23916
-5.093311 93.58842 11.06277
-6.591762 94.89906 10.88564
-5.250585 94.10551 11.21073
-3.670908 94.04815 11.24461
-2.421607 94.5891 11.25102
-10.76369 93.66782 10.43654
-8.962953 88.51921 11.60912
-9.788114 92.3852 10.79918
-8.032556 88.86216 11.61127
-8.900026 93.19068 10.899
-5.460264 92.15016 11.29125
-1.927582 92.34002 11.09463
-1.424178 92.25791 11.15905
0.1023921 91.27184 11.83075
-6.45264 89.67608 11.29529
-0.9294335 90.5563 11.45731
-6.884591 89.44762 11.38377
-5.679733 89.55777 11.26916
-0.05340812 89.32764 11.2511
2.477524 91.15764 11.80574
3.844435 90.61551 11.45148
-1.463043 88.94859 11.45463
1.712162 88.79651 11.57335
1.079663 88.08412 11.99613
4.680063 87.84284 12.05622
-3.691724 89.09202 11.42674
-3.885046 88.70463 11.59345
3.400941 89.51057 11.22037
-3.061184 88.64977 11.64919
-3.342088 88.25585 11.94846
5.153769 88.72254 11.62302
-0.931356 85.83052 11.89526
5.70675 90.77885 11.45987
9.171159 115.2092 9.707613
-9.647897 102.0837 10.47566
-6.05227 109.0254 11.99219
-7.103288 108.0588 11.61555
-5.593775 107.023 12.3589
-9.079345 104.2259 10.87274
-4.487819 102.6745 12.3475
-5.619048 103.9555 12.226
-5.629927 104.5689 12.27849
-5.461952 110.2005 12.08362
-7.436463 103.2573 11.57954
-9.510668 106.482 10.52421
-9.054246 105.7691 10.86772
-5.14566 107.3635 12.51083
-5.313215 106.7278 12.46503
-1.556008 103.1756 12.92337
-5.632335 104.9063 12.30034
-2.654408 107.6046 13.15006
-0.9556103 106.1385 13.25023
-0.799477 103.8228 13.06816
3.162155 101.9553 12.47645
2.229744 101.7997 12.5786
0.3940983 100.4304 12.3972
-0.7338525 100.2355 12.3365
5.524801 98.27939 11.29641
3.055 96.14439 11.64223
-2.075224 98.19231 11.7976
1.290978 96.70101 11.67515
2.793372 97.20265 11.50685
4.13808 96.75372 11.42719
6.223563 99.45032 11.3869
4.021357 96.24058 11.57543
5.405108 96.30463 11.44615
6.65435 93.30426 10.97502
8.402151 95.69899 10.95027
2.790482 95.61884 11.41795
1.929212 95.62575 11.45734
2.188509 93.28889 11.08174
5.502516 92.47676 10.9979
4.912242 92.25459 10.99657
0.08227424 92.5804 11.16166
1.077211 95.49479 11.47051
13.1959 89.10037 9.600428
13.77404 88.15422 9.036896
13.8445 84.92313 9.213358
14.56257 83.81488 8.079745
13.46273 84.26243 9.787927
14.39346 81.28679 8.304705
7.726153 88.01752 11.83018
11.57639 86.90504 11.08201
11.44314 86.41988 11.21393
12.33667 84.81258 10.84752
14.29972 80.81119 8.467149
13.55592 83.71778 9.69997
8.843345 87.31769 11.82156
5.772372 86.86396 11.91153
11.98028 85.91714 10.95922
6.35435 114.212 11.65106
6.010972 116.5237 12.03504
9.273708 119.4529 9.909513
9.549549 116.8276 9.337396
3.356961 113.746 12.69294
2.788966 115.16 12.88756
3.568867 112.1846 12.6066
3.321584 111.2324 12.72177
10.03147 118.2203 8.651435
8.971172 121.0826 10.42742
5.241861 120.6119 12.72063
9.525186 117.4111 9.398348
-0.05379345 114.1584 13.06113
8.505744 119.4045 10.75067
2.574631 117.5795 13.07235
3.393937 115.6315 12.80607
9.090962 119.3067 10.12819
7.972535 122.2156 11.45752
5.056524 119.6775 12.70058
-0.1465282 115.1728 13.10683
-0.05034184 118.0828 13.23401
7.271396 121.3056 11.82616
7.344805 122.2189 11.86596
-2.126986 115.9477 13.04539
-1.88301 118.1619 13.18648
2.280765 112.0629 12.86884
8.44706 125.2224 11.46025
6.269926 124.9913 12.66061
6.612506 123.8787 12.43151
6.705461 123.0156 12.29774
-1.096529 115.6451 13.10255
-6.896649 112.9775 11.11071
0.1190624 112.34 13.00737
-5.585816 112.6534 11.84536
-3.387455 112.2886 12.62812
-1.177683 112.4152 12.97086
-2.65055 110.8182 12.89318
-1.157005 106.4803 13.25694
-1.333276 105.1277 13.19469
-5.763918 112.3792 11.73948
-0.7904454 105.476 13.21935
-1.950347 110.0476 13.0303
1.034101 111.0503 13.01224
-0.7146169 109.9356 13.07154
-0.09827442 109.3687 13.11201
3.394028 107.723 13.01065
2.564919 122.1034 13.37135
4.471322 119.5491 12.86228
2.572142 122.6435 13.41406
-4.872799 115.2368 12.37841
-2.060699 119.3538 13.23742
-3.396008 119.2788 13.07994
-3.370934 108.1438 12.99583
2.215684 109.6763 13.04311
1.153544 124.8815 13.48847
3.128178 122.1099 13.33689
1.054166 120.0723 13.30845
1.16677 122.3204 13.43012
1.354456 118.0058 13.19823
-3.067341 120.8497 13.23317
1.235349 107.0848 13.27535
2.262611 106.0749 13.18736
3.562049 106.7271 12.99538
-5.606117 116.071 12.09894
4.565785 106.1932 12.70609
4.74069 106.7844 12.66832
-3.13029 121.9398 13.32481
-1.393768 122.6255 13.44699
-4.996186 117.6412 12.51008
-6.91885 118.8975 11.7805
-7.843959 118.004 11.16339
-7.319673 116.0921 10.97686
-9.500211 125.7425 9.851067
-8.683985 127.0011 11.31528
-7.60116 128.346 12.33306
-4.898348 126.6476 13.05884
-6.140248 128.4872 12.83999
-5.989854 124.9801 12.76965
-3.020049 128.7052 13.12951
-1.777663 124.6556 13.53668
-3.515813 126.1149 13.2828
-3.3685 127.054 13.22258
-2.620219 128.5172 13.14834
-8.054718 58.02736 14.54086
-15.50086 65.26048 8.677617
-10.51282 114.6251 7.82446
-9.671736 116.482 8.400239
-9.927004 116.1273 7.250679
-9.269453 115.6728 9.656596
-7.415054 115.1169 10.69179
-9.243901 117.66 8.95692
-9.066543 119.0027 9.311447
-8.607482 118.9374 10.46507
-8.998983 120.4752 9.977509
-10.34828 107.6889 9.641692
-9.729117 109.3246 9.760923
-14.7003 63.26125 10.2136
-13.63594 60.66344 11.99401
-10.86288 62.74168 13.76113
-12.51902 60.97352 13.0191
-14.54744 71.53924 9.088549
14.36376 73.152 8.364457
13.98561 71.95004 9.170792
13.72344 70.60093 9.667461
0.3992911 79.5186 12.62446
-6.146308 77.62337 12.51497
-7.241399 75.54369 12.5016
1.748663 81.24739 12.46549
-0.6145903 71.87931 12.36263
-0.6761233 73.18011 12.44487
-1.964581 71.60813 12.26616
4.64201 77.4146 12.51475
3.714008 75.52457 12.55255
2.156548 77.91528 12.52287
13.38005 76.86498 9.700536
5.505323 78.11115 12.52853
2.466479 72.84957 12.87745
2.778727 71.28146 13.26365
4.697604 80.63775 12.56304
3.209262 80.18715 12.60679
-1.141637 65.0263 12.24396
1.955432 70.58507 13.17215
3.016595 82.41728 12.21856
7.578819 85.69309 12.09218
6.679414 85.85001 12.03088
6.638156 84.33956 12.41926
9.152632 66.29996 13.07594
4.189036 65.94858 14.36502
9.299657 64.06992 13.20807
10.25307 71.7465 12.22058
8.078921 66.85819 13.35593
7.823559 67.8969 13.30246
9.666707 72.51023 12.32975
3.575469 69.68996 13.67889
14.65247 79.90778 7.399622
12.95153 82.30394 10.47202
13.5257 76.48101 9.47075
14.58356 74.51266 7.645617
13.64823 74.79939 9.41986
15.10757 75.99847 5.66606
14.7584 76.89665 6.588147
-11.39054 58.50562 14.22676
-11.32793 59.73942 14.04725
0.7499349 57.47953 14.64696
-0.1021847 58.70699 13.68962
1.965609 61.38495 14.73138
4.350241 59.48642 15.28563
-4.860759 60.66919 12.45006
-3.978615 62.19022 12.11552
-9.51472 59.66949 14.59813
-8.627935 58.01494 14.72248
-8.106853 59.65803 14.48607
-8.210558 62.42453 14.27189
-10.71629 61.59356 14.02385
-10.88048 63.23289 13.66559
-12.2889 63.25707 12.78286
-11.68412 66.10534 12.70994
6.784294 62.9347 14.18235
8.788006 59.76624 13.74676
6.8738 57.73946 14.65882
-10.54027 70.07053 12.63937
-11.05834 66.54848 12.98816
-9.006046 65.50921 13.89218
-10.49969 65.48845 13.44507
-9.428456 65.34541 13.83441
-7.966096 65.34064 13.9519
-3.724225 65.93877 12.17458
-6.205406 63.58392 13.41423
-6.585373 64.47228 13.61705
-6.36905 63.29043 13.50852
-4.093766 64.61974 12.24897
-2.681895 67.3668 12.01594
-0.3682725 64.20145 12.70551
-0.004962876 63.928 12.98501
-2.328593 64.45293 11.9256
-0.3518791 63.58679 12.78273
0.4611359 61.56651 13.67461
-4.010934 66.56116 12.30151
-6.361463 66.00849 13.46726
1.694151 67.51307 13.55849
2.882157 64.31947 14.54393
-5.67321 68.29951 13.11144
-7.646662 67.36601 13.6942
2.01702 69.85478 13.2988
0.6936373 70.19672 12.72839
1.653094 64.17051 14.08628
5.92918 64.49059 14.26418
-0.1330656 67.62705 12.54243
2.240338 63.79841 14.41642
3.818083 66.06829 14.35159
4.198175 66.86277 14.20979
3.217789 68.94545 13.77458
3.940479 68.87926 13.84154
-0.1833636 68.07162 12.50394
-1.123731 66.63637 12.18473
-8.178745 87.00723 11.96801
-6.975575 88.86181 11.56712
1.136826 85.97018 11.82622
-0.8476311 84.58018 12.56244
-4.360844 85.39881 12.04981
-4.925338 103.4762 12.36073
3.10601 102.7086 12.63897
0.2119028 102.9997 12.93653
13.37344 88.05262 9.53402
12.55399 82.03373 10.80208
12.50557 80.4293 10.88338
8.873386 77.66682 12.43203
13.95862 80.29145 9.058316
11.33161 80.36692 11.70319
10.67988 79.69117 12.03473
10.14885 85.60742 11.86055
10.02688 84.75011 11.98266
10.5457 84.98978 11.85116
7.99726 80.28911 12.55192
1.902668 108.9484 13.12693
-6.458534 121.1029 12.28193
-5.605128 125.5441 12.90422
-6.58812 124.9279 12.50694
-9.263085 123.5402 9.78338
-8.741191 125.098 10.75013
-6.989398 120.8247 11.99639
-14.99404 66.47697 9.300552
-7.027373 75.20782 12.51273
5.725614 72.15799 13.02794
7.373278 73.96704 12.57063
6.777182 74.25289 12.59174
4.43218 85.52673 12.0651
1.832933 86.99172 11.98104
4.843577 63.95048 14.6025
4.378142 62.63833 14.87014
3.751936 60.59787 15.24636
6.574931 59.88031 14.57041
7.115924 62.81556 14.08334
8.781259 60.56923 13.68748
9.182313 61.6383 13.44455
12.35147 71.60371 11.07525
8.718994 70.9221 12.71372
9.211447 77.15877 12.36115
7.950256 71.27375 12.82537
12.78485 73.52618 10.55873
11.33709 73.25116 11.64239
1.293474 59.73233 14.61958
-14.12352 63.20238 10.99769
-14.47952 66.11018 10.09198
-12.63392 69.13146 11.60766
-12.99701 67.48267 11.54863
-12.91534 65.93767 11.85143
5.50628 66.74202 14.03877
-3.943055 85.57457 11.97888
8.855766 77.91769 12.4342
6.697756 77.32081 12.51739
10.5391 78.46537 12.07771
9.214067 79.00799 12.38605
7.87777 79.04578 12.54934
10.33294 77.85361 12.09076
11.24035 74.65241 11.63028
8.169401 82.14175 12.3968
6.830791 79.61357 12.56082
7.55339 81.04674 12.48364
-5.81193 123.0312 12.76267
-6.69378 121.6876 12.20056
-6.279619 122.591 12.48466
-11.39163 129.6515 6.04519
12.00549 111.9608 5.061209
18.16999 50.24955 -0.8201843
13.77412 138.2293 -7.535399
13.58471 131.4493 -4.203333
15.61398 68.25909 0.8119748
13.49809 143.9796 -5.540678
15.75725 70.25898 0.9847438
12.30601 49.83094 -2.724122
-20.42846 48.54181 2.1631
8.413213 144.4304 -6.743823
11.46495 144.6101 -5.48503
14.87146 90.29742 0.2113513
14.71839 91.50342 0.2647768
15.03841 86.91586 0.3133696
13.51153 140.9471 -7.443824
12.06778 135.1514 -7.422741
10.0141 145.8408 -1.622859
-7.481215 145.6692 -5.582654
14.64736 139.314 -7.454978
-12.57598 132.0886 -5.449595
-13.94424 133.3022 -4.423326
1.192029 130.4781 -10.19505
3.408036 135.9565 -10.14901
12.55979 145.7639 -1.283149
7.220543 141.7128 -8.699689
11.34849 144.3194 -5.888103
-7.993699 146.0025 -4.450222
-14.23984 141.8532 -6.92612
-15.59919 47.32832 -1.522458
-8.565203 126.1102 -7.089717
-12.67092 99.32011 -1.565362
-13.46205 80.52536 -1.728376
-14.4503 135.3621 -5.93123
-19.78378 48.00365 1.610213
-19.21345 48.4408 1.122969
-19.5382 54.7229 1.357987
-9.055511 128.3983 -6.897556
-16.24694 68.04804 0.8697138
-13.0016 144.1598 -5.406983
-3.588139 128.9694 -10.53442
-2.919684 128.1334 -9.760059
-5.139209 135.8951 -9.804645
-8.12227 140.6604 -8.774067
-10.85652 145.6949 -2.858182
-14.42896 90.90759 -0.7629439
6.079726 137.991 -9.287945
-12.93452 131.6514 -4.542593
-12.34945 129.0036 -1.698323
10.55426 145.6751 -3.340183
-11.60518 145.8209 -0.8698145
-7.945839 96.60596 -8.878333
-13.17619 145.6227 -1.980693
-12.77446 130.5045 -3.30579
12.58965 144.2239 -5.533519
-8.627232 146.2044 -2.133337
-13.87284 143.4513 -6.077804
-12.53521 131.3574 -4.984169
12.69007 131.5829 -5.574955
13.44766 133.1405 -5.427822
12.14461 130.8995 -5.85263
12.46405 141.4387 -7.55703
-12.83879 140.5648 -7.656217
-13.32796 136.895 -7.346154
15.98196 45.65381 -2.378973
3.208815 46.83079 -4.885053
-14.37687 90.91888 -0.8889752
-19.31543 56.52306 1.231051
-7.478065 117.1457 -6.190741
12.30292 120.038 -2.309161
7.714372 146.0902 -4.388324
-4.896035 133.4599 -10.12504
-5.934896 139.9297 -9.287781
-10.63629 125.3318 -3.740073
12.92593 143.3515 -6.454923
-11.94348 145.4749 -3.120202
-10.59289 144.0999 -6.392509
-10.56378 145.0256 -5.155283
-7.973884 145.151 -6.102965
-11.9883 133.651 -6.958937
12.00076 132.9594 -6.68065
16.75622 50.11254 -1.451158
18.5616 47.85837 -0.9215822
15.83942 54.41944 -0.9145543
7.377221 74.56044 -4.105197
12.78781 100.2668 -1.166825
-17.31771 51.52673 -0.2889997
-18.55607 47.8708 0.5789355
-18.8234 51.4505 0.7961851
12.93642 125.627 -2.18213
12.20228 109.3556 -1.744041
6.581318 142.3896 -8.550493
7.796958 145.8152 -5.12836
-5.861723 135.0421 -9.617006
-7.323473 141.3988 -8.773424
9.057252 145.8801 -3.604233
-11.49137 127.2041 -3.210791
-10.49807 126.8612 -5.346458
-11.2877 124.6548 -1.943114
10.26389 145.6342 -3.722243
12.22123 145.3767 -3.257534
-9.466366 145.1008 -5.507874
-11.56352 134.0572 -7.33512
9.79195 132.1114 -7.882372
12.28111 142.6783 -7.058181
14.2246 46.11141 -3.04823
16.07427 53.4466 -1.056648
9.576662 46.89775 -3.9766
-0.3929974 46.37987 -4.837225
14.96818 72.46456 0.5680867
-14.70263 86.50549 -0.5486713
-11.66811 111.8946 -1.742129
-12.76004 47.80313 -2.889349
-19.83686 52.07928 1.598424
-18.36527 51.19197 0.4468853
-6.937674 115.3956 -6.779467
1.281441 128.9799 -10.04511
2.313164 132.9159 -10.75573
12.48099 124.8842 -3.42421
12.78351 122.5372 -1.133698
4.934268 137.4082 -9.432965
5.892861 134.225 -9.096344
6.265887 142.7957 -8.372337
8.50078 142.7631 -7.997953
9.930021 143.2176 -7.345826
8.118566 143.803 -7.363106
8.185578 144.2803 -6.962149
-2.561829 129.2198 -8.743892
-11.52394 122.6132 -1.440137
-9.002939 142.963 -7.764485
-6.290228 139.8878 -9.22335
-11.43139 127.6941 -4.229453
-11.53424 131.1299 -6.233233
-11.49129 123.774 -1.521496
9.293642 144.9464 -5.83435
10.36173 133.1877 -7.82168
13.04428 45.96885 -3.498548
16.94383 51.39218 -1.162493
16.03987 50.53411 -1.651661
14.25141 52.72976 -1.642731
17.45485 54.89843 -0.3602135
7.983431 48.02728 -3.742568
5.589324 46.18605 -4.548857
-1.522755 46.60044 -4.810108
13.87147 76.05074 -0.6354755
13.91893 81.91062 -1.406042
-14.98515 87.14407 0.1694636
12.23859 104.4069 -2.435313
-11.15732 112.9376 -2.977425
-1.024302 50.30083 -5.153221
-13.46755 48.10654 -2.569064
-18.78781 52.42815 0.779324
-11.48664 115.2974 -1.820257
-0.922877 127.6346 -6.856943
0.03063436 127.8883 -8.326323
12.81025 123.8212 -1.74794
12.33238 126.7526 -4.280005
11.01488 123.3266 -5.111848
12.24478 119.5102 -2.344162
6.197736 139.9536 -9.243308
5.718748 135.9693 -9.204468
3.740394 131.9799 -10.19368
9.779195 142.0452 -8.030803
-3.788138 132.0063 -10.22185
-3.783222 129.2108 -10.60354
-5.778358 129.5746 -9.692097
-11.27666 119.7711 -2.028056
-9.204818 139.9473 -8.58592
-6.433224 136.8963 -9.399057
-10.35859 129.4671 -6.434669
11.0692 133.7005 -7.553939
15.79452 57.20215 -0.3838226
15.26562 49.8413 -2.050186
15.35145 48.7274 -2.21789
14.70284 49.47181 -2.306062
13.76073 54.34134 -1.334456
16.94175 57.21476 -0.1144676
4.615878 47.71366 -4.696817
-16.8919 70.11066 1.216001
-17.30577 64.57625 0.89407
15.96777 69.2948 1.023194
14.66137 89.45596 -0.6396914
-15.2421 78.21962 0.8346118
-14.56683 88.80794 -0.860882
-13.71966 94.88514 -0.4748504
-12.86169 97.6947 -1.453574
-11.37428 105.6873 -3.335997
-11.81371 112.246 -0.9838158
-8.096674 47.17369 -3.990173
-17.28273 62.32544 0.6461183
-18.98446 56.08809 0.9976412
-13.63714 49.48569 -2.361223
-12.18377 48.93207 -2.913766
-17.11218 53.63168 -0.3152095
-0.246059 128.1807 -7.944659
11.252 127.0667 -5.497617
13.18479 127.2876 -2.044694
12.27729 121.7108 -2.788862
11.96474 120.0173 -3.061246
11.97186 116.0279 -2.569836
12.35037 110.0359 -1.11944
8.242751 136.5163 -9.003562
6.565864 136.2419 -9.231005
4.022308 131.3571 -10.01189
-4.803467 129.8286 -10.47928
-11.24576 124.1935 -1.935909
-9.083026 139.8335 -8.621288
-8.443165 137.073 -8.790159
-11.06461 138.4478 -8.124769
-8.587872 128.7354 -7.40917
-7.260856 129.4431 -8.399709
-8.839041 127.9182 -6.845035
-8.061228 127.6078 -7.364758
-7.799893 128.2414 -7.737382
11.05291 131.5664 -6.943544
15.38932 61.12832 0.09897828
14.52979 63.63729 0.1389436
14.25712 61.51476 -0.1257053
15.19939 60.10638 -0.07113054
15.95188 65.63801 0.7220474
14.09271 53.98552 -1.362184
11.3643 54.45964 -1.7363
9.474798 56.96652 -2.173672
13.73447 46.94928 -3.092811
13.00464 51.13011 -2.250453
13.78377 51.26897 -2.088594
2.804215 46.8421 -4.903738
-1.870677 46.41225 -4.775417
-0.2848417 50.52308 -5.203229
-1.710745 48.51915 -4.973825
-2.150517 49.59091 -5.018632
-15.71529 70.13277 0.8042966
-15.83902 67.51609 0.7174631
-13.94991 73.99136 -0.1790282
14.14171 72.92566 -0.1068217
14.70744 81.6936 0.5931081
14.89231 84.4991 0.315647
14.45336 85.20367 -1.067042
14.57885 90.43113 -0.5477023
-14.9171 80.4568 0.862123
-15.62981 77.62526 1.117388
-14.5608 87.3256 -0.9578663
-13.92528 87.90339 -2.360763
-14.25995 89.07821 -1.56339
-12.75401 87.31462 -3.900378
-14.67983 87.69569 -0.6622941
-13.20989 90.52575 -3.284807
-12.41559 91.90439 -4.341005
12.83578 102.0303 -0.9565119
12.55891 103.3238 -1.804869
12.22606 106.2077 -2.029235
-12.38645 99.49171 -2.302562
-13.1447 95.27052 -1.747158
-11.85173 108.1819 -1.50403
-11.78396 109.9181 -1.516443
-8.270319 48.12331 -3.750698
-3.438939 48.13142 -4.780554
-14.30727 50.44886 -1.983108
11.11383 128.5923 -6.020236
12.30545 114.1542 -1.379145
12.29096 110.9952 -1.349947
7.568621 137.3638 -9.174119
7.352193 132.25 -8.966566
-3.871633 131.5373 -10.30241
-7.682192 133.3547 -8.870837
-7.981914 136.2962 -8.926296
-9.655485 135.5191 -8.379634
-9.940005 121.4177 -3.414889
-10.26524 122.1358 -3.08195
-8.630447 134.0341 -8.664867
-9.184557 132.5154 -8.278956
-8.533459 131.0139 -8.196233
-5.249348 128.7539 -10.27918
-6.991419 127.3323 -8.383654
-6.112494 124.6767 -9.655718
9.34695 133.0623 -8.253816
8.860763 130.5863 -8.346382
12.44927 52.13417 -2.046746
9.528207 50.32589 -2.931103
10.79757 51.27482 -2.490726
2.684963 47.62166 -4.973854
0.8049973 51.89576 -5.308747
3.305257 52.35676 -5.007491
-17.75359 64.57095 1.043313
14.50522 75.27605 0.09939326
14.88451 80.80662 1.182142
14.2588 67.97384 0.2093739
13.29515 75.30775 -1.270756
14.798 90.38326 0.0180864
13.69735 95.65164 -0.1047397
-14.52413 81.7368 0.06751015
-13.61976 78.463 -0.9985544
-14.00245 75.18203 -0.2284463
-14.09347 83.86756 -1.583988
-12.05923 94.28056 -4.45793
12.35572 107.5634 -1.405433
-12.4999 96.0345 -2.973193
-11.97066 96.15624 -4.105151
-11.88256 106.5197 -2.106035
-11.4564 107.4888 -2.853949
-11.32751 112.0228 -2.69877
-4.142289 48.99033 -4.716042
-14.36787 52.85817 -1.619779
-16.33923 53.31118 -0.7746426
-15.46843 54.04131 -1.088615
-15.68017 51.97267 -1.220805
-14.95655 51.31384 -1.616611
10.48431 128.828 -6.614668
11.87078 119.151 -3.126854
11.87523 112.0946 -2.693134
11.02457 135.0764 -7.875395
7.095702 137.2259 -9.220096
-10.58188 117.8101 -3.190633
-6.713739 132.4819 -9.11445
-5.07721 124.865 -10.49614
-9.250751 124.4072 -6.539329
8.643267 129.9539 -8.419655
11.76556 57.7035 -1.208517
11.00441 52.06874 -2.274667
10.72952 54.21053 -1.951645
2.277958 49.45479 -5.117325
-14.27229 73.59866 0.05585826
14.41117 79.71136 0.1218003
13.18852 71.8496 -0.8990855
13.99521 90.46387 -1.954505
13.63269 91.59707 -2.403868
13.04346 91.28108 -3.421041
11.67099 87.74596 -5.405962
12.30528 88.23284 -4.607508
12.74111 98.32191 -1.634063
-14.47698 78.14745 0.04939238
-12.0261 73.82083 -2.078496
-13.0432 75.32867 -1.212953
-12.66762 76.19799 -1.78132
-13.5582 82.96933 -2.180929
12.09605 107.0377 -2.276152
12.39135 105.6386 -1.704144
-10.98231 98.71791 -5.382935
-11.95422 100.522 -3.339382
-11.13211 111.4581 -3.177383
-7.828838 51.11761 -3.293566
-14.79736 60.15186 -0.2965778
-15.69851 55.17978 -0.8525533
-16.13403 52.02394 -0.9832264
12.98287 127.7022 -3.44762
11.59416 114.1034 -3.422946
10.34925 114.3428 -5.022095
10.75407 134.9285 -7.972316
9.214901 138.6171 -8.601498
10.87816 137.4404 -8.120548
11.76609 139.4579 -7.998843
-8.798335 134.8394 -8.649531
-9.771127 116.393 -4.121856
-3.325608 128.1481 -10.42234
-5.388778 123.9549 -10.26708
6.275793 127.7069 -8.226868
11.44058 53.90105 -1.818736
6.393507 50.86289 -3.773399
8.919118 50.53652 -3.008914
11.62069 51.52375 -2.313765
-14.43461 65.50131 0.19172
-13.01141 67.98518 -0.4425684
-14.25531 61.97139 -0.1333962
-12.73749 64.97253 -0.4526478
-13.9312 62.79443 -0.1370692
11.77354 75.4575 -2.726671
13.17241 94.96993 -1.835854
-13.20678 78.51947 -1.546686
-12.48733 79.49192 -2.632916
-12.09097 76.35558 -2.389348
11.93005 105.1767 -2.852492
-11.86112 89.83817 -5.380625
-11.49611 92.69904 -5.784224
-8.453135 105.8592 -6.660486
-13.41734 55.7968 -1.276523
9.73925 128.0304 -7.30546
8.346243 127.8161 -8.139379
7.909088 124.4706 -7.543637
-8.823279 122.0125 -5.594215
-2.435823 124.1511 -9.23254
4.881689 130.7364 -8.946565
4.770257 49.85155 -4.538019
5.197247 52.29626 -4.261935
2.05831 52.27193 -5.256913
-14.45186 68.68604 0.3141105
-11.62857 57.07281 -1.339602
13.46366 74.51069 -0.9881397
-7.919273 84.66576 -6.770833
12.1351 88.74722 -4.897321
11.66813 102.4989 -3.715924
-11.9029 79.44163 -3.178179
-13.95389 84.51779 -1.930436
-13.18581 83.38962 -2.760005
-12.1488 85.40614 -4.393909
-10.9138 82.74099 -4.741978
-9.254279 83.44476 -5.628312
-11.9044 81.46491 -3.727214
-11.10578 85.99886 -5.639258
-10.64754 85.82936 -5.905958
-9.37691 81.39644 -5.145835
-11.06533 88.04931 -6.236282
-9.260785 87.46922 -7.481788
-11.38669 75.47115 -2.835656
-10.66374 78.56438 -3.828202
-10.894 74.75631 -3.03504
-12.47837 72.87936 -1.483614
-11.71539 73.29826 -2.258445
-10.57903 73.49739 -3.088039
-11.52045 90.56756 -5.88464
-11.20029 92.64399 -6.248443
-10.71558 105.2568 -4.409336
-15.57534 57.61778 -0.5443889
-10.49491 52.54003 -2.402841
6.169202 126.8929 -8.152485
10.72992 103.91 -4.799566
-8.888394 121.472 -4.962842
-9.113832 119.0409 -4.310805
-2.763018 126.0317 -9.838001
-2.375084 124.5502 -8.96315
10.47659 56.35416 -1.795311
3.495744 48.71025 -4.943536
3.357205 53.06025 -4.996806
13.54488 76.24611 -1.049035
13.54232 73.9886 -0.8276187
11.3988 86.58692 -5.596515
-12.4924 83.38784 -3.655982
-9.856251 85.5584 -6.295542
-10.40887 77.19786 -3.643354
-8.498022 71.61969 -3.610661
-6.990305 76.62982 -4.479299
-11.10093 90.11007 -6.455162
-10.37536 91.63935 -7.350225
-9.815347 107.4075 -5.305154
9.139483 110.4625 -5.691461
11.60259 111.7168 -3.336151
-7.875156 117.3752 -5.705513
-9.276271 110.4796 -5.465278
-2.605428 127.0844 -9.251909
-1.254012 126.2189 -6.918634
-2.217499 123.4118 -8.994998
-3.226815 123.6071 -10.97537
4.200812 53.50061 -4.700172
6.533696 51.999 -3.650639
12.07741 85.85806 -4.603258
10.21463 85.55351 -6.062023
6.495327 87.96558 -8.945918
-12.79445 69.6988 -0.781657
-11.81512 69.98814 -1.785412
-12.59828 69.4958 -0.9478408
-7.560503 76.30181 -4.37507
-11.08727 95.9754 -5.883944
-9.523685 93.94338 -8.111967
11.51349 111.1769 -3.48654
-6.109519 115.57 -7.974978
-2.023708 123.6955 -8.443456
5.440331 54.47124 -4.161142
5.464763 58.8415 -4.30619
13.55652 78.77761 -1.222604
-7.405546 73.1013 -3.934581
-10.51052 95.9762 -6.732604
-9.627546 88.2258 -7.567567
-8.774529 90.4994 -8.75031
-13.36402 58.83045 -0.7219636
-10.85976 59.8415 -1.420197
-11.4771 56.85158 -1.410101
6.544018 115.5716 -9.110114
11.13264 59.30667 -1.353018
8.118889 84.56463 -6.584782
10.54741 75.8494 -3.400874
-9.542428 70.66497 -3.217978
-11.31827 72.6359 -2.495663
-10.07706 95.06343 -7.468725
-9.256758 96.27264 -8.035116
-10.071 97.86804 -6.955785
-10.63217 58.90365 -1.548925
-11.16109 61.43669 -1.260526
-6.11652 62.83511 -4.022723
-10.06862 60.07565 -1.875973
0.102416 126.036 -8.019584
1.338131 128.8014 -10.07013
0.06111497 122.9918 -7.828395
-1.516046 120.3512 -9.007638
2.288342 57.29877 -5.30583
10.82992 73.37206 -3.02548
12.02059 100.046 -3.170771
-8.140252 93.59641 -9.161238
-13.16889 62.74223 -0.3423479
1.305224 123.7745 -9.3399
7.970432 58.76194 -2.981308
7.73255 73.05125 -3.900629
11.81904 98.15868 -3.927503
8.560884 105.0494 -7.475562
11.46215 101.6136 -4.14758
-6.799748 95.27143 -9.569824
-9.397573 54.98741 -2.29627
-1.055166 121.2054 -8.169774
1.937429 55.70046 -5.336125
10.78329 99.50746 -5.512261
-6.522816 91.69798 -9.780192
-7.161213 92.36445 -9.58119
-9.169724 58.45152 -2.215306
1.307053 120.7099 -9.142744
-2.225821 119.9749 -10.58064
-0.6327844 118.958 -8.684089
8.597228 59.70248 -2.712581
10.03992 98.10889 -6.949413
-8.780045 56.83124 -2.343984
-1.956084 121.7952 -9.260241
9.046458 59.14188 -2.419342
8.31751 60.80011 -2.999662
7.235439 61.61893 -3.711951
7.624251 61.15261 -3.443793
10.64041 96.97649 -6.341625
10.89858 98.91694 -5.458842
-7.281771 56.55605 -2.958789
-6.425046 57.62271 -3.338916
-7.451563 60.23788 -3.207767
-7.745106 59.54912 -2.973888
-4.203715 60.55547 -4.522545
-8.759951 61.23275 -2.708503
-9.107332 66.25968 -3.061169
-8.639954 63.69152 -3.060029
-6.533069 55.2175 -3.367111
-5.384553 57.00053 -3.803696
-9.047202 54.8225 -2.428834
2.461289 124.0544 -10.46182
11.02188 60.42136 -1.381896
9.825188 59.3708 -2.009606
8.658521 63.07156 -3.05722
6.459665 58.16418 -3.76809
1.966366 63.8568 -5.293503
0.8697954 54.0879 -5.402489
9.743415 96.87463 -7.51086
11.78277 94.1717 -5.028095
10.88021 95.53424 -6.288981
-10.07647 53.00613 -2.402873
-9.036182 52.14946 -2.793937
-5.937347 49.14609 -4.20858
-5.068804 54.93061 -4.067089
-5.309014 50.28836 -4.342323
-2.584441 54.4356 -5.077263
9.63514 61.76775 -2.303558
5.212308 62.11102 -4.588418
-0.09393632 51.80749 -5.2911
11.17003 89.74327 -6.323901
10.92132 92.93297 -6.600251
10.48307 92.59105 -7.201533
9.872016 92.22198 -7.953373
9.64067 85.84689 -6.539933
9.632049 93.56003 -8.067063
12.21035 91.80692 -4.702368
9.209225 93.34921 -8.422676
12.71516 94.29505 -3.125085
-10.41024 54.96155 -1.989339
-5.910066 52.28875 -3.906162
-4.885405 54.23664 -4.208068
-4.426305 61.01688 -4.476143
-2.930137 62.29004 -5.015342
-4.168689 62.75181 -4.659037
-2.609883 58.51705 -5.067856
-0.5101963 57.67871 -5.446782
-0.3971292 55.97273 -5.433958
-4.322832 54.06224 -4.473041
-6.188104 53.26567 -3.695439
-1.806809 51.75631 -5.166597
-0.2912666 55.41228 -5.427858
-3.431492 50.33433 -4.877658
2.532742 126.7012 -10.65604
3.599142 125.1454 -10.66238
4.083721 125.1399 -10.55309
0.6421104 120.066 -8.487119
5.240646 125.158 -8.849726
7.584132 128.476 -8.284734
3.967318 62.59302 -4.969258
9.477193 97.21299 -7.682971
8.798329 88.24825 -8.138378
-9.507179 49.22427 -3.314882
-6.090963 51.3139 -3.923816
-5.962698 64.20313 -4.125811
-1.149354 60.93909 -5.365406
0.1490379 56.13882 -5.452998
4.697511 127.1335 -9.49103
4.063103 60.64463 -4.928019
7.608207 93.14691 -9.454924
8.704777 94.30713 -8.725321
-5.226456 65.37647 -4.315152
-3.056018 62.5685 -4.98211
5.018159 130.5143 -8.884212
2.178418 58.21538 -5.331925
-2.531155 97.30943 -9.73375
8.088473 92.71301 -9.209457
5.960588 89.46027 -9.636468
5.294483 129.4738 -8.686486
7.085613 91.05925 -9.562628
4.063602 129.0952 -10.11039
-1.102581 64.31124 -5.304146
2.231516 61.45941 -5.310917
4.957557 94.17485 -10.02851
6.184371 95.65221 -9.741014
-7.656277 146.5487 -1.997255
12.90151 135.7558 -7.176508
-11.0151 114.4777 -3.100473
-8.521575 138.4433 -8.792637
17.62004 48.04877 -1.350319
13.29744 83.11849 -2.56846
14.09805 84.32552 -1.643592
13.09614 85.2549 -3.25252
11.03898 78.40862 -3.54094
11.78072 79.46093 -3.270379
10.61563 79.70872 -4.172945
8.139909 80.82468 -5.347106
10.66931 79.45158 -4.074974
11.24054 81.9755 -4.336155
11.04971 84.04581 -4.946849
11.94471 84.03688 -4.243613
8.309136 125.4747 -7.698807
5.438652 122.9181 -9.035493
9.666936 123.3456 -6.784473
5.216009 123.6867 -9.338135
5.898127 122.8038 -8.083737
4.072248 122.0265 -10.5952
12.32442 139.203 -7.911242
12.14589 67.2309 -1.119197
14.0263 63.36843 -0.03747964
12.9424 68.39529 -0.6309792
12.23602 69.2788 -1.411852
12.04576 65.46317 -0.9688299
8.949462 62.1536 -2.769387
10.49689 62.62818 -1.791784
10.41222 64.25066 -2.001004
11.061 67.47439 -2.103184
9.968566 64.74264 -2.399144
9.183125 66.85378 -3.251396
7.289374 63.78899 -3.885381
10.06951 70.60023 -3.138996
11.90773 71.0253 -2.092007
8.385934 65.9895 -3.565682
5.755355 71.06942 -4.26793
6.982118 73.53851 -4.072675
10.27728 72.53046 -3.152911
9.04334 66.25105 -3.256078
6.170441 65.55243 -4.382159
5.565692 66.26993 -4.540699
8.411384 68.43927 -3.714175
6.839698 70.79134 -3.972531
10.28073 69.61533 -3.02198
6.694457 69.14024 -4.155549
3.192299 67.82191 -5.01287
2.99748 69.38267 -5.009428
2.997124 68.73257 -5.025846
4.92151 67.77689 -4.659578
3.324926 69.98605 -4.93237
3.33711 66.99732 -5.006389
2.155967 66.2046 -5.215062
13.56572 73.41335 -0.7210915
12.35659 72.2747 -1.879256
-9.044102 107.3151 -6.015501
-8.761385 110.8901 -5.753226
-8.978145 111.8892 -5.455225
-10.25117 114.156 -4.10263
-7.023465 113.0189 -6.718122
-8.532543 115.0548 -5.255654
-8.313012 117.2782 -5.21322
-10.78332 112.2921 -3.625148
-4.862886 109.3231 -8.940681
-7.653521 108.3575 -6.889665
-15.11541 51.53998 -1.525186
13.52038 93.32792 -1.829019
-10.8687 100.297 -5.320664
-15.72155 56.64972 -0.6322783
-13.14655 59.27409 -0.690972
-15.4762 58.56201 -0.4211315
10.4296 116.972 -5.280475
9.641176 116.6978 -5.751565
7.488605 114.9524 -6.983415
7.317137 116.5 -6.974048
8.535756 120.5206 -6.765264
6.024444 116.1781 -9.838264
7.903277 115.7262 -6.50485
10.50484 118.5466 -5.378366
10.67237 121.748 -5.500579
9.547822 121.5854 -6.601045
6.502269 118.7959 -7.968635
8.439115 122.6865 -7.187754
9.262826 113.5308 -5.577113
10.97577 119.3499 -4.789097
-4.37438 123.0103 -10.98226
-3.404771 122.509 -11.1433
-8.59306 123.9112 -7.250737
-4.486046 119.9954 -10.85327
-6.672182 120.3811 -8.790391
-6.336321 123.4382 -9.462249
-6.850226 118.3347 -7.553251
-3.311481 121.1959 -11.19634
-5.923661 117.2376 -8.753886
-6.989848 120.8295 -8.499516
-5.129703 119.2601 -10.27571
-1.791114 115.1146 -11.33821
-4.176406 118.7042 -11.00318
-3.991532 117.1973 -11.04353
-4.117125 116.2611 -10.81436
-5.417519 113.7329 -8.747234
-0.6799017 114.0622 -10.53703
-1.41788 115.9344 -10.80248
-3.459205 114.3811 -11.05733
-4.092742 114.4122 -10.5182
-0.8706932 113.0788 -11.08978
-1.522082 114.9154 -11.15139
-0.7266016 116.3121 -9.7215
-7.957084 113.6174 -5.888325
-7.355035 115.3873 -6.283457
-0.3529678 117.825 -8.853897
-6.097261 112.7694 -7.715292
-1.297364 113.6518 -11.29187
-5.788407 111.2275 -8.009151
-5.442094 109.688 -8.372005
-6.717676 114.4771 -7.017582
-4.333301 108.2216 -9.602698
-1.997789 109.938 -11.47314
-3.147178 108.017 -10.68432
-1.18374 110.7103 -11.72158
8.444815 110.5294 -6.508983
-5.03298 109.6544 -8.751521
-0.9489165 105.4225 -10.92807
-0.5091015 109.0377 -11.68541
-5.236884 110.2089 -8.568742
8.745024 52.41388 -2.766454
9.007315 54.44811 -2.472592
-12.32004 82.20924 -3.563152
-9.819535 85.99973 -6.497713
9.147123 108.0275 -6.057434
8.715851 108.601 -6.580402
8.705792 106.9259 -7.082939
8.518188 109.3984 -6.688431
9.261027 104.4281 -6.613669
7.775417 109.9039 -8.000352
9.444973 101.9988 -6.589333
8.206375 103.9613 -7.834187
7.259126 109.3937 -8.919181
9.407399 104.7077 -6.395976
7.620481 104.7806 -8.459744
10.4521 105.6089 -4.879458
7.152597 54.83488 -3.288571
-9.171807 72.05039 -3.479309
-7.053052 73.1553 -3.974666
-8.174807 66.946 -3.283587
-10.48825 69.44072 -2.682679
-7.072059 68.46301 -3.550069
-6.674996 65.73006 -3.842066
-6.564569 69.36721 -3.71977
-5.995382 69.66223 -3.844129
-4.736872 70.04821 -4.195392
-4.394273 70.62699 -4.303647
-5.00557 68.27589 -4.162509
-7.770711 102.8214 -7.613098
-10.67042 101.8574 -5.277064
-10.35663 103.1266 -5.33269
-9.288312 100.3311 -7.10339
-8.357928 101.8468 -7.41605
-8.658964 103.5378 -6.835093
-7.760125 103.6364 -7.489949
-9.95575 64.50418 -2.374135
-9.396779 64.31102 -2.712196
-8.532774 64.87459 -3.245563
-10.2315 64.20528 -2.129436
-11.98615 63.33121 -0.8248537
-10.13239 66.96036 -2.660851
-9.541454 62.25968 -2.356241
-1.41902 86.1725 -8.077424
-6.782316 89.43347 -9.391377
-7.736495 80.72513 -5.392992
-6.234729 85.19637 -7.308553
-5.287892 85.28056 -7.431049
-6.659745 89.80774 -9.527559
-4.339596 88.75421 -9.549391
-7.64095 82.71702 -5.798806
1.727013 120.0696 -9.465055
2.164736 117.0858 -9.250652
-0.8112808 115.3017 -10.22404
5.59322 122.1631 -8.918891
5.402606 120.1191 -9.916145
5.46486 121.1429 -9.619141
0.6662897 117.3882 -8.582659
3.014205 118.1204 -10.08456
4.351886 119.1679 -10.58107
3.700357 118.9658 -10.57921
6.895187 115.6569 -8.12759
4.255816 117.5471 -10.54621
6.941719 113.1859 -8.824368
3.35254 117.9237 -10.27988
5.914977 116.0469 -10.01707
6.172257 117.5753 -9.350357
6.836634 108.8616 -9.390266
7.459026 111.6851 -8.148117
6.128514 114.8977 -10.01379
6.295219 113.0338 -9.939219
1.188874 109.826 -10.71623
5.06561 108.9937 -10.70048
6.830001 108.0196 -9.362657
5.505112 109.3756 -10.54854
3.506202 110.8825 -10.26974
3.985173 112.4415 -10.00509
8.963541 60.16384 -2.550202
8.869079 89.52537 -8.52414
7.005215 90.06126 -9.491096
-13.13934 51.48711 -2.191143
9.595082 96.39294 -7.73326
-1.721807 66.24609 -5.181865
-1.362607 65.6031 -5.249226
-0.4408173 66.32515 -5.304755
1.388295 63.73422 -5.347317
1.546212 64.16917 -5.32738
2.868471 66.26125 -5.107511
0.5941638 64.68748 -5.365355
11.50205 135.4523 -7.715542
-11.89541 136.1165 -7.678478
9.663329 81.57126 -5.076417
6.320121 83.28439 -6.109063
8.932536 81.33498 -5.253499
7.14965 87.19997 -8.40379
8.461435 77.51746 -4.432598
6.320399 83.66467 -6.296872
7.981409 88.03994 -8.446109
5.371256 87.33504 -8.747617
6.964497 80.00785 -5.244141
7.063565 77.63529 -4.66992
5.34049 82.33013 -5.81674
6.043558 84.35426 -6.73246
6.07605 85.94785 -7.90616
5.816728 82.38593 -5.812635
10.57513 61.86719 -1.700957
5.781766 72.35712 -4.216687
-11.48109 99.39325 -4.383001
9.298416 112.7727 -5.512863
0.2027928 105.9247 -11.15982
-8.192101 82.98405 -5.763299
9.926829 111.8898 -5.070419
7.099064 102.7147 -8.746376
6.523827 107.4482 -9.582193
5.86336 107.7341 -10.07392
5.893261 105.0885 -9.685472
4.329496 104.6422 -10.25141
3.993697 105.9525 -10.62429
4.834621 104.0243 -9.955738
7.250418 102.0837 -8.568692
2.257493 106.4947 -11.14789
4.690317 103.2181 -9.835841
3.107624 104.39 -10.52449
3.502191 103.3226 -10.21007
-0.7741064 101.2723 -9.903303
0.8870348 104.8996 -10.90775
1.461455 105.1977 -10.9568
-1.208643 101.7798 -9.983705
-2.481304 106.1753 -10.73672
-0.9830828 103.7014 -10.51007
-1.412144 100.0946 -9.619213
-2.171377 99.0228 -9.528524
-1.369851 102.5616 -10.16503
-2.103379 106.0506 -10.82721
-3.48037 105.0757 -10.183
-4.095885 102.1548 -9.501361
-4.84595 108.2853 -9.120852
-7.242533 77.68014 -4.666153
-5.799879 77.69061 -4.74766
-7.084384 80.21673 -5.31341
-6.45515 76.54269 -4.507437
-5.391779 73.12899 -4.153564
-3.491791 71.81705 -4.583194
-1.433612 73.72573 -4.988713
-3.514912 73.75716 -4.585107
0.8079161 68.6148 -5.262149
-10.21833 97.56968 -6.77732
-8.95304 105.1835 -6.336491
-6.448601 92.92401 -9.832169
1.270083 114.8121 -9.11027
5.055431 115.1928 -10.49068
1.936295 114.5382 -9.252353
-0.2505826 113.3997 -10.38983
7.7747 94.72388 -9.251082
7.490198 96.42322 -9.148879
-2.478369 67.79368 -4.993844
0.8866963 63.47354 -5.37747
5.055725 83.91967 -6.495153
2.091299 84.84163 -7.154554
4.391868 85.38349 -7.544453
2.823938 84.49195 -6.904303
-0.03404263 82.51495 -5.956747
6.379242 74.77284 -4.293118
1.068965 81.1382 -5.557797
-0.5396381 83.11373 -6.196932
-6.22369 81.84196 -5.644675
1.806529 86.42926 -8.257115
-1.927469 81.06552 -5.53962
-0.1089236 85.36211 -7.525758
-1.563083 85.10706 -7.344152
-1.100897 81.68021 -5.700748
-4.966665 83.075 -6.075883
-5.300192 79.65267 -5.186301
-0.09425846 85.70367 -7.76454
-4.583609 82.85732 -6.010446
-3.56403 76.02177 -4.704704
-3.148351 77.15291 -4.831495
-4.882214 78.28205 -4.900337
-1.138779 79.22998 -5.15295
0.7306297 77.76571 -4.968619
-2.341285 74.56754 -4.832048
-0.8498719 72.1865 -5.118204
-0.4299077 72.79961 -5.11291
0.4003806 72.10749 -5.160529
-0.7228807 69.42593 -5.218891
-1.953465 117.8153 -10.78503
1.443975 108.0359 -11.36264
-5.558837 98.32022 -9.449843
-3.068046 98.19663 -9.617846
-5.135777 97.81502 -9.587044
-4.995782 93.62734 -10.04536
-6.270521 91.85223 -9.860064
-3.912228 89.74338 -9.846274
-5.361657 98.15023 -9.510438
-7.579281 98.36424 -8.768518
-3.691137 94.95518 -9.977736
0.9981231 90.04405 -9.866738
-3.870301 99.46403 -9.395772
-8.047882 100.4154 -7.99665
-2.590887 95.70773 -9.91569
-4.220139 89.76526 -9.860789
0.10543 88.24545 -9.288131
-8.537432 99.45831 -7.94017
-4.081322 92.96909 -10.10031
-7.108884 101.5265 -8.22715
-5.405612 107.272 -8.833475
-7.257796 105.7504 -7.552986
3.504706 113.4909 -9.769194
4.799832 99.89646 -9.346503
5.052533 95.99067 -9.870649
4.851799 96.68596 -9.783085
-2.599375 68.09615 -4.956045
6.499944 79.25471 -5.044745
4.823765 87.75089 -9.002328
5.529264 88.49118 -9.340888
5.648292 90.16908 -9.777417
4.962715 92.51017 -10.12133
-0.04982318 81.87633 -5.757635
-0.0835343 81.16724 -5.566606
5.059672 79.67366 -5.182025
4.159527 80.1032 -5.295474
1.766887 79.66656 -5.217879
4.303425 78.69612 -4.980657
5.608963 77.2236 -4.690403
1.203143 76.84249 -4.921819
0.8981606 75.38795 -4.969411
0.6746687 72.57299 -5.133652
3.402833 75.90794 -4.780397
1.583159 73.91309 -5.022814
5.391733 74.41425 -4.407899
6.180802 76.09838 -4.496722
1.310678 87.20427 -8.720658
0.6999851 88.07529 -9.201223
-0.4377529 89.4573 -9.740837
