# .PCD v0.7 - Point Cloud Data file format
VERSION 0.7
FIELDS x y z
SIZE 4 4 4
TYPE F F F
COUNT 1 1 1
WIDTH 1665
HEIGHT 1
VIEWPOINT 0 0 0 1 0 0 0
POINTS 1665
DATA ascii
-15.23735 139.9639 -0.3617155
-10.03105 149.7995 -0.8122377
-10.02754 150.7705 -2.109946
20.20377 81.48913 4.143704
20.31845 79.37309 3.657192
19.03927 91.95467 0.6839857
0.2699952 70.58278 8.811625
20.50573 76.53459 1.729409
20.16831 75.73362 3.558729
7.736478 70.17629 8.7328
14.15214 72.67068 9.107276
12.73671 72.77867 9.214015
11.22819 72.84851 9.222046
14.52101 72.55774 9.042205
15.79925 70.48327 8.300651
17.55742 74.43517 7.844749
19.86029 74.69527 4.226478
15.18123 138.5007 -1.604107
7.270226 153.1896 -4.964612
-20.51557 77.37405 1.680856
-20.37879 74.87122 1.904158
-15.56488 72.06292 8.691156
-18.73185 72.76597 6.19262
-19.53544 89.95267 1.203233
-20.11848 86.92466 0.2157375
-20.22881 81.85995 3.941456
-20.44716 83.12057 2.789314
-9.36855 71.0988 8.912951
-11.57685 71.80148 9.038247
-8.751168 73.06393 9.241913
16.32164 104.4478 2.946171
17.65531 97.39899 1.299438
16.35754 104.1906 3.17036
14.92051 108.2743 4.356058
13.9569 110.8896 4.128184
-17.6047 97.32348 -0.4629277
-16.26327 104.5374 1.189625
12.50463 118.8809 4.615512
13.06473 122.7935 4.412189
13.31239 124.9847 4.829519
13.13273 112.9117 4.328897
-12.75034 121.7097 5.651102
-13.56293 112.0087 3.675996
14.82722 137.2784 2.008652
14.7318 134.0933 7.464279
14.43348 131.1771 3.16281
14.44561 130.7924 5.061003
-14.68108 132.666 3.608697
-14.53387 136.9325 4.721752
-15.17822 138.9186 -1.082017
-15.22534 137.8916 -2.232604
-14.64255 137.3841 3.485087
19.14386 84.05201 6.400169
20.13006 81.89749 4.336367
19.58975 84.79278 5.371237
20.20811 84.74395 3.295645
18.59597 83.43368 7.364996
18.98781 86.52913 6.267359
17.24673 82.59563 8.775148
20.42716 80.50726 3.174119
17.78065 93.81773 5.206973
4.324801 72.60245 9.174033
6.957676 70.69004 8.831656
9.118234 70.05644 8.707413
11.22515 72.09439 9.097935
13.02028 76.09261 9.687496
19.289 73.37652 5.329016
13.15179 144.872 1.91148
15.31311 141.3259 0.01534863
15.15374 139.0925 -0.9346513
5.879182 151.7298 -1.031125
-20.60624 80.13431 0.183448
-20.1984 76.21693 3.543581
-18.00295 72.54232 7.106782
-18.21075 94.77328 -0.2086519
-16.12481 89.34301 8.999991
-19.10535 87.79417 5.570419
-19.5012 89.87718 2.176781
-19.09464 91.67518 1.555292
-18.70675 93.10123 1.611439
-19.53781 82.72494 5.69124
-7.88304 73.06818 9.242215
-4.664818 71.94371 9.060206
-5.213371 76.6605 9.731947
-8.867694 74.68863 9.47844
15.39651 102.5906 6.459791
16.62868 98.64729 5.18125
18.11939 95.26995 0.9340369
14.80662 108.9323 3.844684
10.89453 110.9454 8.773534
12.91732 110.399 6.938584
9.264494 118.2744 10.18047
14.68441 108.6132 4.725286
12.47471 108.8272 8.250196
11.71866 111.7837 7.75621
14.88711 106.6159 6.014825
9.125319 108.5804 10.26757
-14.98284 108.8635 1.862362
-15.75766 106.2203 0.8132498
-17.44926 98.37897 0.103074
-17.99455 94.68935 3.646426
-17.52739 97.6339 2.402097
-16.86293 100.8248 3.750013
12.41276 121.5356 6.677549
11.29733 118.8418 8.351996
13.54036 126.687 4.460585
13.36941 127.0026 5.374731
13.2908 124.2317 3.985645
12.63158 123.0048 6.469252
13.64662 115.4603 3.738838
-12.73136 120.616 4.03073
-13.00589 112.6521 5.042243
14.79835 136.4183 3.194418
12.2044 140.1813 5.611302
14.81913 135.3901 4.796248
14.61681 135.3713 6.32688
14.8105 133.5206 7.24054
13.7286 129.3524 7.609684
14.16787 131.5533 9.440534
-14.78242 132.1163 6.325163
-14.80885 135.5154 2.70598
-14.58658 134.3763 7.709848
-14.53499 139.0966 2.691282
-14.88429 139.1321 1.542893
-13.53938 142.7713 2.660261
-14.39848 130.7098 6.983612
-14.51444 131.871 8.433385
-14.9876 140.7083 1.226997
17.81021 83.74593 8.274853
18.01405 82.66191 8.056626
13.43485 78.02966 9.883939
15.26063 85.23259 9.826051
14.53429 82.26749 10.06214
18.8607 85.94608 6.624952
18.29753 88.10465 7.052301
18.96278 88.26234 5.73196
12.6926 86.89948 10.21998
17.28017 87.35519 8.404791
18.96193 90.4185 4.436247
19.33852 90.58554 2.247548
18.79149 91.88312 3.506031
4.140941 71.70814 9.019889
11.27528 69.75112 8.641725
15.10952 75.70894 9.433416
16.89429 77.67047 8.82952
12.40979 141.5809 4.224532
7.789456 151.2367 -1.897807
-19.51608 76.86443 5.538929
-19.7536 78.01667 5.091561
-19.92509 77.54288 4.651422
-19.10208 73.95213 5.831887
-18.35223 94.40402 0.9226136
-15.98332 99.36529 6.179771
-17.40926 96.1917 4.444735
-20.06376 84.43737 4.094473
-18.44447 84.95374 7.439007
-19.67224 83.28185 5.414917
-5.290051 73.75717 9.34608
-9.656225 74.99609 9.523739
16.02211 103.9052 4.925936
17.18352 97.97488 3.935667
17.45586 97.87793 2.649274
17.61269 95.35796 4.410282
15.09178 105.26 6.32172
12.73471 107.5498 8.441734
12.30218 99.68457 8.830404
15.40079 105.8763 5.383602
-12.92377 112.4383 5.553078
-16.9081 100.5564 3.704242
-17.11411 99.67025 3.113704
-16.63677 102.3083 3.678238
-16.03975 105.6256 2.959385
12.2193 120.5354 6.784403
11.64099 114.9818 7.013002
13.0432 115.6582 5.465983
14.92588 139.1628 1.260879
14.75434 138.694 2.325243
-14.66981 135.5393 5.99057
-14.10436 137.3267 5.552203
-9.895 138.0061 10.52423
-14.56164 131.2168 7.402493
-14.79572 133.2288 7.28317
-12.00085 141.0369 5.010974
13.42426 85.41873 10.23463
11.33897 92.72832 9.593861
12.36988 85.00082 10.2621
9.694556 82.83982 10.21733
17.96508 76.50887 7.775235
17.91833 80.27906 8.143058
19.89955 77.87656 4.718178
20.06161 87.1917 1.722931
13.23301 141.2304 3.791301
13.71508 140.5418 3.594241
10.13056 149.1618 -0.2072087
-18.63045 79.46626 7.213514
-17.99136 95.61554 2.022674
15.83429 103.3771 5.614004
14.16499 98.34435 8.108705
13.04155 105.8838 8.481995
-16.06055 103.9839 4.727782
12.30875 115.5099 6.804109
-13.15236 127.8997 6.746308
13.93179 137.0788 6.479397
-14.04107 129.4243 4.924692
-13.7993 129.8383 8.707417
-14.11085 130.743 8.9587
-14.69766 132.52 7.925735
10.34746 85.50507 10.23382
15.48114 79.29024 9.643521
18.48591 76.27438 7.132593
17.07295 76.84708 8.619041
18.63028 79.54107 7.269989
11.46928 143.2394 3.637186
3.940622 147.6266 3.691643
9.159 148.7107 0.5684958
7.626011 147.8197 2.016225
-15.55431 75.76335 9.298465
-15.67303 77.80474 9.449561
-6.598742 78.31094 9.918489
15.8891 100.2136 6.108549
-15.42644 101.4176 6.547647
10.32607 117.8723 9.600019
10.81461 116.4231 8.421833
-12.39666 128.2773 9.463616
14.33566 134.2751 8.532296
-13.42557 142.1147 3.116709
6.886055 83.6162 10.22607
10.952 80.76427 10.1446
13.49436 143.0246 2.462122
13.18138 139.1204 5.349216
5.739809 149.2377 1.942294
5.862238 148.024 2.687369
2.647329 149.6759 2.255068
11.48646 147.2909 0.9121328
-18.79459 85.7606 6.799916
-19.63531 78.93288 5.536274
14.78821 100.0149 7.381439
-16.28123 100.9818 5.276891
-16.80372 98.50402 4.789147
-16.85193 96.9001 5.392816
11.51759 120.3072 8.004314
10.84007 120.1724 8.812234
11.67532 116.964 7.296664
-4.008913 132.6087 13.6005
13.84781 136.7451 7.148704
10.89217 137.243 10.79808
-11.64887 142.3176 4.233522
9.993004 81.79316 10.18925
11.16066 139.7799 7.083867
7.039193 145.3003 4.153932
-0.6480261 149.4101 2.572896
-19.63252 82.04033 5.532677
-19.90436 83.87524 4.790457
-10.83608 75.97563 9.647861
14.43366 97.72155 8.109082
-15.75689 101.5134 6.121492
-12.85539 100.3662 8.585073
-16.07645 98.55588 6.183772
-14.49202 98.37473 7.918063
8.276834 117.0299 10.08396
-11.63889 143.7635 3.154468
13.3722 80.36481 10.14279
12.93759 81.94997 10.21147
13.10878 138.4962 6.277247
7.354819 145.8296 3.610952
2.956336 148.7658 3.195671
0.6556032 149.8182 2.153754
-0.61877 148.4954 3.396956
-4.475972 148.5768 2.911327
4.489509 148.7352 2.842447
14.68414 100.4164 7.465544
17.05292 94.15022 6.478206
-15.20975 93.01019 8.64297
-7.133869 127.3095 11.47515
-5.838509 145.2384 4.688548
-5.378338 148.6915 2.491789
9.795494 139.0219 9.188179
9.105845 146.2673 2.518231
-5.10882 149.0077 2.41996
12.22401 97.95637 8.920644
11.05132 98.21748 9.146074
13.71271 102.5558 8.118566
14.99871 95.15643 8.340396
16.20759 93.14241 7.906542
17.80215 92.53317 5.904341
13.75432 95.58873 8.857635
-12.8108 96.23701 8.996095
-14.74555 97.16512 8.017899
-13.64828 95.2738 8.980038
8.249311 123.3507 11.00964
10.66915 116.9425 8.584656
-10.63444 126.9258 9.615334
7.572356 138.8947 10.14758
-6.105961 148.7359 2.132931
-7.760786 148.4904 1.459574
-7.65807 146.3341 3.100718
-3.670185 147.4345 3.864001
-2.642926 145.8392 5.006223
-1.916898 148.1899 3.651618
-0.2823479 148.1002 3.710346
-3.343716 147.2615 4.0632
7.258733 99.08192 9.767416
13.84918 96.66125 8.610302
10.96689 101.0034 9.203601
16.799 90.53405 8.152372
-9.189866 102.4357 9.897827
-7.479318 98.18363 9.561125
8.657043 116.1981 9.770503
11.71625 137.8499 9.194924
-9.047007 146.9442 2.044822
-7.606413 146.0659 3.323536
-5.894558 145.9599 4.129677
7.601266 97.02182 9.463415
8.008299 96.7996 9.410801
13.20258 95.64431 9.034406
14.76671 93.3113 8.915272
12.59352 91.89669 9.670923
-10.53205 101.7667 9.372539
-9.213382 95.46762 9.284267
9.115155 122.3104 10.49353
7.539157 118.4383 10.85755
11.36094 139.0748 7.860157
18.76674 90.92451 4.617017
18.97858 89.00901 5.234464
16.40734 93.40977 7.638161
-10.56996 97.20518 9.2179
13.08897 134.7727 10.6003
6.825114 117.134 10.74678
7.181478 95.1526 9.319185
8.304963 96.07613 9.330027
15.43447 88.13469 9.558664
15.46741 90.17377 9.21207
14.89234 90.89661 9.371911
12.3418 92.46177 9.614089
13.60447 90.20782 9.824843
-10.32951 98.83402 9.245191
9.797278 125.2202 9.873674
7.525903 123.6262 11.34704
6.870949 115.4212 10.614
6.379129 120.6183 11.39608
4.691388 118.8358 11.57524
7.592233 115.5226 10.2464
4.48552 116.3739 11.58966
13.19919 89.6513 9.981994
4.168391 123.8444 12.1795
6.394982 126.4697 11.58636
7.107376 123.8503 11.50466
14.22676 89.22961 9.795966
7.980004 90.95634 9.800717
9.985314 88.9693 10.02696
5.59016 122.2098 11.82931
8.695407 127.3654 11.12013
4.242983 120.5026 11.78929
9.256002 91.08754 9.781271
9.094998 127.9001 11.51878
11.61003 88.70957 10.06467
11.02138 87.44378 10.15443
11.42497 151.522 -3.903624
-19.4185 73.97534 5.211885
-19.93184 75.66125 4.287405
-8.629169 151.6333 -3.24906
-5.771208 151.069 -0.2849817
-5.481509 150.6581 0.3656048
-12.5044 125.5998 7.184778
-12.63616 123.1189 6.558983
-8.98958 118.3918 9.985342
-11.3213 117.3879 7.651087
-7.824755 151.851 -2.998598
-20.1445 73.72191 3.058217
-13.53201 70.0974 8.690701
-18.48398 92.88939 3.669452
-18.1067 94.32085 3.607673
-18.5267 93.27406 2.78722
-17.98949 93.54342 4.782806
-17.32406 93.66102 6.263453
-16.64332 93.00528 7.491121
-15.00017 96.27707 8.060735
-16.51174 92.75204 7.763083
6.151627 74.90982 9.508955
5.005476 72.57005 9.170239
3.991393 73.10457 9.249374
6.658561 73.71757 9.342431
6.306958 74.42226 9.442011
9.954001 75.2906 9.561282
1.703484 85.0551 10.21963
2.932033 76.41318 9.704251
6.998997 77.59495 9.851089
1.588548 75.50027 9.587094
4.952385 78.43848 9.933591
10.58611 111.5191 8.809241
12.32126 112.8999 6.463472
8.731032 111.7582 9.793356
6.457237 113.7125 10.86304
12.66852 113.6155 6.052766
8.149067 110.8248 10.30926
-13.71061 106.975 7.622455
-14.23157 104.2802 7.64336
-9.218122 105.7422 10.23827
-9.404232 99.27432 9.405833
-6.717161 98.53263 9.673071
-7.724063 100.8553 10.01635
-13.92429 108.9741 6.2019
11.16515 126.3394 8.751495
12.72509 128.4018 8.837943
10.61493 125.2604 9.258851
14.04616 129.764 6.554469
14.74641 141.2891 1.762518
-14.65279 107.9879 5.455511
-12.48308 104.2831 8.906442
-13.01081 106.5639 8.412175
-13.21223 132.0031 11.06565
-13.78429 134.2526 9.911357
-15.78792 73.81079 8.93427
-17.1299 73.01009 7.948266
-13.78707 75.56615 9.60622
-16.18127 76.85232 9.144302
-12.95977 74.5419 9.470748
-10.93456 78.92252 9.99516
-11.33892 74.29483 9.424541
-12.20481 73.53091 9.308965
-11.04113 78.3619 9.943736
-8.855617 79.84626 10.05699
1.400812 79.78395 10.0466
-7.926416 78.91492 9.981894
-6.396364 76.81431 9.75086
-4.413724 78.48326 9.933372
-4.328816 77.36002 9.814569
-4.430641 76.63339 9.728228
-6.542019 74.60254 9.465105
1.46712 79.32311 10.01163
-0.8198106 77.51306 9.833145
-1.433542 79.29812 10.00524
1.657141 77.72308 9.855825
-1.385856 76.61378 9.727285
-0.4665598 79.13227 9.991749
12.7698 103.4616 8.723637
13.9261 101.8007 7.931938
-14.41289 135.9979 6.360114
-13.73041 137.081 6.950548
-13.69392 135.928 8.542666
-12.71352 138.8417 6.482099
-12.67639 136.1307 10.10284
-12.18268 136.7871 9.953483
3.571036 150.4929 1.378936
-14.68191 78.47832 9.840952
-15.66848 77.1263 9.407679
-18.3356 80.97505 7.71282
-17.42318 82.32024 8.594763
-15.23449 83.47083 9.885954
-15.74417 81.88385 9.661394
-10.3233 82.01743 10.1903
-17.15298 81.08575 8.828102
-12.27559 79.73914 10.07848
-12.57389 81.74361 10.18431
-15.39592 84.15196 9.817362
-15.93749 84.75032 9.562836
-15.748 86.08054 9.617686
-14.46884 85.62903 10.07298
-8.302754 86.1993 10.20103
-10.69776 85.89647 10.22537
-11.27404 142.1132 4.641892
9.934969 140.4855 7.106436
10.20696 142.603 4.86992
6.425864 140.3679 8.581761
7.634021 143.9192 4.99746
5.055647 145.4742 4.783716
9.075089 139.8636 8.403854
3.280787 145.9598 4.867438
0.5094431 142.5453 7.096248
1.962013 146.6005 4.548197
-0.5258421 145.0725 5.502451
2.78817 145.836 4.998979
1.210972 144.4875 5.869841
2.136658 145.6972 5.119618
4.068686 142.6486 6.923923
4.525106 140.9307 8.172272
-1.015537 143.816 6.291197
9.228366 145.326 3.157271
-0.206612 142.7469 6.969191
-3.085114 141.9575 7.458454
1.040802 138.8489 10.19966
-1.678532 142.0395 7.434478
0.1540669 141.8999 7.549631
2.453475 142.3186 7.240837
4.744082 137.6536 11.40691
5.851815 141.0806 7.942866
-0.9086117 141.4075 7.901493
-1.040538 140.7239 8.446176
-3.899846 139.8208 9.245314
1.664561 139.3609 9.706932
4.015644 134.534 13.26969
4.678243 139.7457 9.30671
7.809841 137.6995 11.44737
1.756198 140.0592 9.028573
2.157342 138.8564 10.20232
5.819038 137.5605 11.56188
3.837077 139.0707 10.0031
7.67448 138.5275 10.57944
12.0158 130.9092 12.08046
10.17708 136.8202 11.68375
2.534704 137.3812 11.55716
10.57908 134.0311 13.00518
7.000382 136.5813 12.45187
7.432566 132.7894 13.89999
13.91056 133.1152 10.02456
11.79788 130.3577 12.01519
12.41075 130.2369 11.38955
1.457846 137.4419 11.47575
5.770751 133.6795 13.64964
4.317831 136.744 12.11771
7.975622 135.5789 13.14165
8.950408 134.9933 13.29407
10.5292 137.4386 10.82382
12.15562 127.6949 8.861703
12.81822 128.9681 9.823835
-1.686811 135.7936 12.62058
4.264407 135.8602 12.69259
4.618233 133.6204 13.53828
0.6497071 134.7006 13.07916
5.471933 133.8939 13.55905
8.69158 128.1533 11.89042
-0.3894246 135.5857 12.71025
11.08974 128.5993 11.3188
-10.57382 129.1055 12.00374
-1.074933 134.0898 13.29174
-1.33501 135.0092 12.99363
-0.2121707 135.9997 12.4982
-5.336999 135.3064 13.07738
-3.232881 136.6825 12.11705
-4.635252 141.0028 8.101584
-10.1606 137.2518 11.22972
-5.539003 131.3856 13.59064
-5.268133 136.4556 12.38505
-4.677791 137.8676 11.19812
-6.18927 138.3815 10.75625
-2.269794 138.2139 10.81612
-9.345418 136.955 11.88288
14.42614 80.12177 10.018
11.78233 79.9194 10.09389
-1.833694 150.8738 1.557294
-8.860913 128.6447 12.29231
-7.25113 128.5925 12.39135
-7.974762 131.6325 13.8021
-11.85456 130.3323 11.93918
-7.807099 128.8067 12.51364
-8.118855 128.8565 12.52227
-6.068348 132.1013 13.72989
-4.060663 130.4631 13.24118
-10.41119 134.4971 13.04691
-6.514124 130.9546 13.56795
-3.181016 128.5409 12.4978
-2.739862 132.0324 13.51509
-1.906564 128.9105 12.65508
-5.752436 127.1347 11.79743
-9.779393 136.623 12.0394
-7.083033 130.6469 13.52066
-4.921917 125.8239 11.95605
-4.988846 128.7276 12.47673
-12.22497 131.1921 11.97037
-11.83266 132.4955 12.52913
-7.952634 132.8259 13.82403
-12.24389 121.7276 7.122634
3.757746 127.3949 12.17525
-11.47932 133.3861 12.69497
-12.66384 131.9173 11.73044
-11.00303 126.0141 8.951237
-0.9076755 129.414 12.83216
-4.100607 126.6318 12.04921
-3.330239 128.31 12.40287
-6.666138 126.8361 11.40254
-3.099207 125.2009 12.23195
-6.158314 124.5952 11.78233
-2.490996 124.1213 12.21275
1.544869 129.2198 12.76665
4.304869 129.7269 12.95171
4.675614 133.0703 13.63393
-8.357441 126.2338 10.59125
3.653781 128.8969 12.61585
5.60243 127.5871 11.95349
-9.520976 125.8005 9.971649
-6.731409 125.2636 11.48263
1.775643 128.5367 12.53909
2.65715 127.8766 12.34175
3.931555 125.7474 12.16587
4.749753 122.2981 11.96351
-8.91917 124.8254 10.49541
0.791722 129.7941 12.96039
3.465979 124.4078 12.22025
1.645717 120.2001 11.92326
-7.888471 123.9505 11.16693
-8.086379 122.2978 11.09195
2.203188 127.2994 12.2492
0.5858817 124.6931 12.21583
2.835267 121.6412 12.01403
-10.95649 120.5168 8.750242
1.306698 125.6153 12.22547
-1.322946 121.9917 12.05204
0.4892738 120.163 11.92847
-11.06194 123.8936 8.978214
-12.5253 121.9986 6.547011
-11.18432 117.6893 7.941053
-12.01836 116.0511 6.28863
-1.464824 121.7863 12.03777
-12.00462 120.424 7.235445
-11.69547 118.2174 7.167944
-12.5779 114.36 4.903134
-0.1030205 118.9086 11.87609
-10.65687 114.922 8.250751
-10.48732 115.3147 8.427874
-10.40597 115.2755 8.502359
-12.78606 113.4818 4.957523
-3.721318 117.154 11.77561
-6.346055 115.7117 10.9274
-2.729835 123.1914 12.14712
-2.875201 120.8512 11.95921
-5.736938 116.5482 11.33917
-3.39585 118.7433 11.78526
-4.223973 116.6912 11.73083
-2.781114 118.4643 11.83664
-8.834797 118.3889 10.06385
-3.724128 122.8327 12.10074
-6.013021 118.3437 11.14566
-4.955683 124.7603 12.08345
-5.767556 120.9716 11.6039
-5.712517 114.9617 11.21351
-4.576266 150.7591 0.7239646
1.522639 147.6928 3.959409
2.392066 106.4804 12.32037
5.202273 99.20163 10.18968
5.520763 99.18146 10.11783
8.274263 99.04522 9.589794
5.074942 99.96822 10.40951
7.748383 101.3809 10.06538
10.0652 100.2969 9.379313
9.780208 92.52986 9.612323
9.683448 93.12333 9.539882
9.661819 93.90147 9.443121
7.750025 93.081 9.535345
7.490143 93.64989 9.458227
-6.80081 90.99818 9.824588
2.898606 97.08339 9.935857
0.9130206 93.96246 9.366529
-4.28132 100.1777 10.66303
2.720742 99.45818 10.74678
3.957864 92.65587 9.5839
-7.697636 95.50211 9.271144
3.465092 90.73669 9.837612
-0.07981881 94.50178 9.335728
7.507619 87.88751 10.11292
-5.485847 91.16285 9.804695
6.467452 91.7273 9.709423
6.53331 88.73868 10.04384
2.317533 91.10119 9.796449
0.8687344 95.70707 9.685681
3.644694 92.75144 9.568675
-10.5433 85.50671 10.22703
1.695782 91.23 9.781612
-0.9342922 91.64507 9.737494
4.393639 90.32852 9.882906
-0.6530843 95.98918 9.792152
19.27381 89.27546 4.247105
-4.850899 99.65025 10.38242
-5.746037 92.42503 9.637685
-2.642218 98.35433 10.37883
-8.364459 100.824 9.858363
-7.451937 99.75048 9.866104
-0.7503887 98.96094 10.80879
-2.986433 97.02274 9.925754
-3.578807 100.9161 11.06039
1.046596 99.84979 11.07807
-5.017221 102.8542 11.22197
-6.842593 103.0862 10.67976
-2.25103 102.0495 11.61981
-1.681944 103.4956 12.01621
-2.135393 99.09127 10.71462
-3.969968 105.4797 12.04941
0.05333501 102.3822 11.82551
-4.175584 102.2554 11.32273
-4.533236 106.8521 12.07989
-3.800573 105.629 12.10247
-2.277664 107.1514 12.32661
0.7033898 104.7977 12.22389
8.110643 108.6158 10.67953
-1.023355 105.0238 12.24624
1.625865 105.5703 12.28964
0.01767176 108.0305 12.29897
-3.618546 115.8551 11.74563
2.043656 117.9039 11.84959
-2.255304 115.8971 11.84457
-3.819852 109.1541 12.14829
5.286427 102.1302 10.96289
4.4632 107.3074 12.09071
2.40136 109.2493 12.21096
-5.018085 109.2108 11.87961
3.226232 108.3077 12.25497
-0.101303 117.4196 11.84682
1.205293 110.9849 11.978
4.173013 111.8132 11.81972
-6.11211 106.975 11.51118
-2.96746 110.2598 12.08466
-5.592015 111.6032 11.43353
-4.907472 111.2673 11.72718
5.662052 107.4566 11.72046
10.7534 106.9322 9.706386
9.520793 105.9911 10.17353
7.841565 104.5157 10.50603
9.487635 104.9525 9.98787
8.440221 101.3018 9.879585
7.66007 101.9221 10.17017
-3.68773 112.1873 11.83191
-3.558897 115.2411 11.76209
-0.4421795 113.2213 11.81074
1.654566 113.4695 11.80689
-6.025838 110.0457 11.48203
-6.536267 111.4943 10.98936
-7.402377 105.0425 10.81395
-5.447417 105.4889 11.60263
11.67122 102.6702 9.107743
6.043622 105.0499 11.33235
5.475468 103.6812 11.29645
5.108378 110.6549 11.70444
-7.989626 107.0439 10.78619
11.02741 101.5584 9.248744
5.88139 105.7796 11.495
2.455837 105.1973 12.21413
4.626437 110.9598 11.81298
4.378761 116.6552 11.62581
2.645253 119.3035 11.8776
12.78614 88.55402 10.08809
13.04238 88.55622 10.08869
10.66539 86.93855 10.17879
-19.60357 72.8385 4.595551
-8.931693 149.8111 -0.3558672
-12.83471 111.9567 6.099113
-13.09838 108.6234 7.671115
-11.64071 109.0447 8.879579
-7.554118 106.6212 10.93298
-11.56439 105.8585 9.304481
-10.73561 105.0244 9.584405
-8.63593 102.811 10.12124
-13.38459 102.8156 8.316232
-10.94387 109.9992 9.083907
-7.610623 109.3039 10.76748
-8.77774 108.02 10.51023
-10.72797 102.9731 9.490114
-8.652082 103.4085 10.14456
-11.96784 111.3213 7.69821
-9.514693 109.8525 9.955527
-10.94964 111.6086 8.522814
-11.62534 111.8792 7.815701
-7.554505 113.7856 10.26922
-12.31448 113.811 6.055009
-17.70414 88.57062 7.694895
-19.15795 88.19788 5.28079
-16.35544 87.41208 9.130034
-15.42354 88.80289 9.451449
-16.05555 91.50114 8.525471
-14.65531 89.60336 9.688524
-15.69418 90.87397 8.893608
-14.69116 88.84695 9.768033
-9.729692 88.71355 10.06795
-15.02664 91.83787 9.098994
-14.51355 94.07132 8.864777
1.130946 74.61433 9.468814
-3.919558 74.24338 9.415281
-0.572902 74.59205 9.464135
0.255712 74.9129 9.509085
6.554887 113.4632 10.82442
-13.81796 107.2111 7.415936
-8.573247 79.43475 10.0233
-5.180312 79.99682 10.06241
-5.245578 83.60066 10.22346
-10.10821 83.15727 10.23248
2.502412 80.69608 10.11437
5.649962 79.66723 10.04771
-4.09481 81.41019 10.15025
7.650088 81.1596 10.14973
-2.581334 80.08263 10.06706
8.925422 80.85114 10.13817
4.36949 79.88499 10.06103
5.785337 82.95538 10.21314
3.696984 83.69888 10.2231
2.55472 82.36631 10.19144
5.990473 84.56636 10.22874
2.627696 89.51379 9.970932
-0.7005305 83.98837 10.22485
2.976606 86.24566 10.1935
-0.4474919 88.71384 10.04576
-1.881415 87.50994 10.13383
-3.182843 89.42538 9.987321
0.280077 83.74218 10.22118
-4.53702 86.51586 10.18674
-3.207613 81.64072 10.15996
10.35745 79.84983 10.07706
11.58147 78.24509 9.937506
10.02576 77.49724 9.848034
9.882797 78.30836 9.937233
1.219427 86.64587 10.17578
-2.98824 85.05731 10.22043
-0.08555736 85.03532 10.21798
0.642802 85.17875 10.21707
-3.601827 84.36771 10.22943
-3.414369 83.64841 10.22051
-11.03704 87.94364 10.13603
-8.914502 86.50452 10.18992
-4.472939 83.28704 10.21724
-5.671264 82.74176 10.20642
-4.273968 86.41703 10.19109
-4.534119 88.01012 10.10443
-6.605909 85.04095 10.22418
-9.972342 87.07345 10.16381
-10.54123 90.07442 9.934765
-6.377776 90.17567 9.914092
-8.477097 90.84515 9.84217
-10.96154 84.07308 10.24815
-8.131632 84.85193 10.2295
-4.551117 90.71083 9.854545
-4.445004 91.09295 9.811828
-8.522286 90.98405 9.826014
-5.299831 96.35396 9.573783
-4.270009 95.53114 9.391852
-7.421892 93.14766 9.524967
-3.686914 94.42793 9.289022
-7.266303 91.49932 9.767019
-3.418904 91.86248 9.718699
-2.195298 93.33914 9.471754
-2.339923 94.82671 9.297933
-4.621876 93.97737 9.3527
-5.881996 139.0948 9.98824
-8.931006 139.3584 9.187645
-7.841884 140.5822 7.978851
-11.69408 138.9182 7.691031
-7.122312 139.4979 9.508413
-3.89995 143.5035 6.343162
-5.442167 140.3304 8.698254
-3.092653 139.3208 9.74635
-12.23654 135.3268 11.31256
-11.09876 136.8596 11.02176
-13.48979 140.7079 3.850987
-8.495009 141.2226 7.030896
-5.718789 142.326 6.81235
-7.806951 143.5633 5.192876
-6.982132 142.3579 6.458067
-10.59023 142.6398 4.616694
3.491487 144.1338 6.011993
-2.870282 140.4243 8.688775
6.860116 131.0299 13.61863
8.525421 132.0615 13.81096
7.440238 130.5338 13.47442
0.788256 137.1267 11.72921
-1.154093 139.7154 9.368571
-1.720061 138.2119 10.80445
13.59862 74.44199 9.415001
-12.50731 120.5936 6.099043
-7.606382 115.9458 10.71681
-4.655494 112.9599 11.62983
-5.139181 114.3412 11.42576
9.025069 96.02273 9.304938
7.625152 87.19361 10.15532
4.235821 85.30962 10.21799
-0.4351162 96.72145 10.04894
5.131303 111.8492 11.56546
6.599466 114.2641 10.77144
2.129485 114.504 11.8251
2.669126 114.2547 11.80662
-9.664987 148.4991 0.5453572
-14.64999 101.392 7.404066
-10.89222 91.48794 9.763141
-11.9495 92.16467 9.675112
-8.839577 92.11411 9.690209
-7.325901 94.22414 9.316581
9.901239 76.43871 9.720953
9.528529 77.09781 9.800051
-8.362252 81.84843 10.17602
8.996954 133.1762 13.69362
8.011053 130.3066 13.37493
-0.1668813 116.441 11.8425
1.674101 115.7288 11.84269
1.069115 118.8457 11.87537
2.720602 117.1674 11.82559
13.73686 75.72279 9.640411
2.493281 101.4059 11.4038
0.779515 100.3755 11.24664
9.610238 130.8397 13.26823
20.19729 73.33115 -1.083873
19.86629 69.81871 -1.670226
19.14133 70.0421 -4.049881
-12.81719 150.8772 -8.227528
20.08032 87.24472 0.6230356
-18.80025 71.59584 -4.864146
18.45255 93.98679 0.2587265
-19.97191 73.75394 -2.20491
-14.60758 150.6697 -8.250477
19.02064 70.56775 -4.351831
12.64235 122.7483 1.223809
-12.18895 144.3461 -11.44234
14.47011 133.2402 -4.605849
16.62535 102.3858 -0.05455236
7.189689 152.5763 -7.772756
14.6132 109.8438 2.24492
17.82324 96.51794 0.1672043
13.65114 126.5252 2.219752
-4.906632 116.7028 -5.612672
-11.21432 104.9801 -7.323607
20.46121 77.1272 -0.3709627
16.91906 100.5827 -0.6932446
14.46311 132.3711 0.4918066
14.58517 132.9939 1.090749
15.16079 137.3941 -1.911804
19.49947 71.51208 -3.335293
11.83989 144.4678 -11.52048
14.31231 69.40513 -8.362919
17.86044 95.28703 -1.885154
13.7507 145.9861 -10.83548
-10.59202 116.524 -3.521156
4.649524 152.1535 -9.448502
10.28295 151.3892 -7.762452
-11.29226 124.5084 -3.486973
-10.8997 87.72643 -10.80804
15.83057 93.72583 -7.31343
-14.15147 97.87164 -7.900556
9.723372 109.1173 -5.950136
-18.90724 70.04324 -4.460383
12.35 149.6992 -9.526699
-4.372077 93.83385 -12.80001
12.74539 149.9285 -9.266296
17.32112 98.6177 -0.7896041
20.13487 73.96709 -1.525315
18.68106 71.61715 -5.070626
12.68461 120.9052 3.178982
18.4291 90.79543 -3.787589
20.4398 77.64267 -0.8522826
-12.3714 71.74187 -8.747869
-11.5219 149.7649 -9.51342
-17.61775 95.79717 -2.495398
-18.53807 80.37483 -5.314142
-19.46215 69.98347 -3.188985
-11.77631 118.8752 0.5329219
-15.55347 139.316 -6.586086
11.87809 151.01 -8.150591
19.68401 69.69834 -2.499137
1.720051 151.0433 -10.27054
-5.23484 150.6884 -10.25835
-4.64644 151.1834 -10.05121
-12.18663 150.8699 -8.330979
8.035234 121.1994 -4.963818
14.22393 81.44921 -8.194896
7.332554 121.617 -5.584142
-14.0132 129.1337 1.957179
-14.92245 139.0559 -9.331657
-14.46671 132.2131 1.057415
-7.729424 122.2158 -5.617698
-8.878839 121.1237 -4.330765
7.111236 130.1967 -9.86041
-12.04676 123.745 -1.422521
-3.4654 149.2612 -11.08318
14.14943 143.3009 -10.91949
-19.87078 76.90147 -2.802645
-18.66589 92.73025 -1.285763
-13.48168 70.2604 -8.586216
-19.48937 74.02481 -3.621509
-19.88701 72.6524 -2.310773
-20.16814 73.02594 -1.200276
-12.55449 148.5747 -10.17839
-6.984916 150.2971 -10.10445
-9.659804 150.6106 -9.099426
19.81828 81.41914 -3.086391
18.62447 69.87469 -4.94986
19.52534 73.39026 -3.472435
16.38549 70.33205 -7.417675
18.32706 94.32822 -0.08205935
20.62384 82.24367 0.8516775
18.77267 81.63168 -4.979939
3.350497 74.66015 -8.774416
-18.05955 93.71854 -2.924802
-14.16648 110.679 0.887574
15.25379 104.5425 -2.493388
-12.07098 113.3275 -1.678108
13.09253 125.5974 -0.05288066
13.15695 113.5606 2.24676
-13.56312 128.8253 -1.677394
-10.95217 140.447 -11.94557
14.72652 134.4377 0.3464188
13.34254 129.5486 -3.537436
-1.855523 150.4925 -10.49918
6.7217 152.0752 -8.590358
14.12384 141.0547 -10.57308
-20.52673 81.31706 -0.6397565
-19.54717 89.26124 -1.011103
-16.43065 95.47856 -5.67521
-19.9429 75.388 -2.491005
-12.73671 142.4426 -11.37334
-13.00636 145.8228 -11.02361
-7.051334 150.7527 -9.72832
-6.105925 150.5567 -10.13667
-4.943289 150.3595 -10.48189
-5.399788 147.8741 -11.60172
-9.926723 148.2364 -10.78611
-10.36497 150.0194 -9.545842
14.58267 71.49303 -8.340876
19.47581 75.47203 -3.671637
7.892571 72.68599 -8.778815
19.82285 88.59439 0.4286448
19.37671 85.70726 -3.498608
20.02751 82.31867 -2.524508
8.967252 70.77882 -8.690146
-1.714279 72.77377 -8.767532
-16.96768 98.88476 -2.127219
-16.1795 104.1511 -0.01229536
-16.48951 102.3628 -0.7165066
-15.41045 104.4263 -2.233033
15.14039 108.1704 0.8073625
16.51559 101.6883 -1.305151
15.85883 104.1098 -1.226827
-13.03558 112.3338 -0.5856362
-12.10038 117.0637 0.9696526
-12.32206 118.2588 2.877101
-12.5879 120.6 2.805801
12.58493 121.8322 1.695488
12.18248 121.9528 0.3890023
12.29564 119 2.40672
12.12805 117.4763 1.742888
12.37257 116.4198 3.137448
12.64301 113.5549 -0.219366
-12.48532 122.485 0.7898732
-14.27704 130.7443 1.636698
-13.85764 128.1062 1.411606
-14.61577 133.5468 -0.3261356
-15.52117 138.5901 -4.969092
-14.86639 135.1283 -1.416202
15.30755 138.4172 -2.968666
15.45504 138.3676 -4.632221
14.6982 137.8416 -8.569733
13.51601 140.6496 -10.87557
13.84716 128.7702 0.2880317
15.24593 137.2342 -2.789071
-0.8453097 149.7176 -10.81789
8.514441 150.2394 -9.765622
2.574007 150.7354 -10.41724
10.81316 145.5049 -11.57932
-19.91322 83.2489 -2.753402
-20.16738 81.22366 -2.140571
-19.7097 87.81929 -1.647731
-19.18851 86.05002 -3.844374
-18.87746 89.52589 -3.359555
-9.945384 70.76895 -8.710246
-18.31164 77.56631 -5.642064
-13.2825 144.273 -11.15936
-8.322767 146.7752 -11.71097
-11.19302 147.1308 -11.01362
-7.350239 151.6467 -8.799652
-9.1151 148.3699 -10.90735
-7.368628 146.065 -12.03547
19.085 78.53143 -4.558631
18.73649 92.81832 -0.4559595
18.82364 90.9958 -2.598286
19.96718 85.22932 -2.034461
20.62438 78.74461 0.8465186
20.47675 84.09518 0.3502938
4.2051 73.21423 -8.777555
4.630105 74.10587 -8.781889
-2.721143 70.35809 -8.69315
-2.086828 72.70227 -8.766451
-17.35342 96.34222 -2.971776
-14.9948 105.1365 -2.600776
-15.15507 107.7739 0.1798658
-14.92808 108.603 0.4805973
15.50858 107.05 0.7786261
17.258 99.42704 -0.1488753
16.45317 102.7701 -0.476673
15.7261 106.0347 0.3138039
-12.28473 115.1427 0.5464987
12.83313 122.0105 2.769207
13.79203 127.8623 3.332591
13.35069 127.3407 -0.9092247
13.1054 113.4718 1.443972
-13.65853 126.7374 2.173168
-13.49909 125.8255 1.93497
-14.93431 137.0105 -7.97028
15.44756 137.6974 -4.77538
14.90113 134.701 -2.957587
14.585 133.3739 -0.6106059
14.72902 134.1475 -1.744806
6.313872 151.0693 -9.696518
2.048901 149.4333 -10.95288
9.068101 150.0579 -9.760006
6.388059 151.1228 -9.626207
12.82342 145.0602 -11.16694
10.97765 141.2064 -11.95
10.82331 148.0423 -10.70161
-19.87469 84.54907 -2.535301
-20.15329 81.45797 -2.177771
-18.3786 88.63679 -4.704734
-12.4264 72.29403 -8.774157
-20.21487 78.19004 -1.931375
-20.01053 78.09357 -2.586014
-1.756328 150.3167 -10.577
-9.80397 145.6871 -11.75088
19.83367 75.05738 -2.821205
13.20211 71.57291 -8.649808
18.30738 92.39293 -3.09509
18.85538 91.97131 -1.345115
18.21749 93.94236 -1.973747
17.0286 89.79724 -6.557174
19.27078 86.05701 -3.643069
19.58686 89.74175 0.4626614
20.31251 76.75527 -1.291993
19.37925 80.40095 -4.046622
18.74803 84.30468 -4.890758
19.31324 86.61937 -3.36661
18.46527 87.27788 -4.87509
17.98625 84.66528 -5.804636
18.76704 82.09638 -4.975574
17.1952 85.34746 -6.61379
13.22876 85.62957 -9.196577
-5.598329 70.78725 -8.711743
-0.1971733 71.64141 -8.736856
1.975139 73.66549 -8.778933
3.55024 73.31145 -8.776529
-8.209212 71.02856 -8.723249
-16.11386 95.68208 -6.153512
-17.20836 94.47818 -4.676264
-17.59374 94.2982 -3.806391
-14.76545 104.2243 -3.726099
-14.70603 103.6927 -4.154719
-15.65549 102.1713 -3.285125
-16.93462 99.59563 -1.554665
-13.01354 106.0421 -5.10306
-13.1941 113.0554 1.449127
14.79987 108.3685 -0.4041536
14.23095 110.5545 1.21201
17.05043 95.75166 -4.243841
16.59597 98.54829 -3.460526
16.93884 98.82496 -2.24322
-12.95782 115.9804 1.351212
12.51784 120.5148 2.454294
13.70185 129.3245 -1.667712
-13.58487 126.4417 1.517827
-13.84687 128.3081 1.051333
-13.35949 125.9629 0.7742315
15.46691 137.4189 -6.447831
13.95021 130.8245 -2.580114
14.38936 132.3946 -2.113052
13.96644 131.8909 -4.636075
8.718431 148.0455 -11.1271
6.588227 149.0005 -11.022
-0.3995375 145.8796 -11.98036
-19.27453 90.182 -1.449374
-18.1062 91.96083 -4.023065
-12.74109 72.81277 -8.74816
-13.65751 72.04119 -8.599513
-10.77935 79.53348 -8.638549
-17.62419 81.91491 -6.281265
-18.43937 81.77188 -5.39587
-19.97305 79.06474 -2.755697
-18.51787 74.79435 -5.409629
-18.46613 75.59656 -5.463096
-17.60088 73.57858 -6.51155
16.15302 73.80598 -7.62686
10.97278 71.67129 -8.752247
15.12943 73.3828 -8.134142
18.04302 94.50841 -2.104206
14.06376 99.70618 -7.171293
16.32648 97.66995 -4.620321
19.85557 78.31996 -3.025152
18.29329 79.2798 -5.642186
20.27455 82.5819 -1.677906
1.340229 74.49812 -8.773582
2.37776 75.06165 -8.767114
1.264015 74.88497 -8.769466
1.945048 75.83964 -8.751673
-16.84292 94.41937 -5.439958
-17.87678 92.40866 -4.330345
-15.10846 101.145 -4.940881
-15.81553 101.9502 -3.060693
-16.46282 99.17954 -3.340462
-11.82501 111.6608 -3.21563
-12.68235 110.512 -3.028879
15.65175 102.1102 -3.345112
16.19607 102.9192 -1.289838
15.77629 104.348 -1.266193
-12.23004 115.91 0.6953173
-12.06413 121.5546 0.2124867
-15.41556 137.4903 -4.199167
15.2238 136.1726 -6.246536
12.78178 135.9182 -9.726472
9.971092 135.2604 -10.98976
15.00587 138.141 -7.885422
15.36137 136.7923 -4.156922
14.28281 132.0969 -2.616682
0.4220626 148.6256 -11.2269
-0.6807323 146.8282 -11.7569
2.900234 149.099 -11.12268
8.610879 147.2642 -11.48643
-14.93243 72.54301 -8.24739
-15.47714 72.75033 -8.003388
-15.24269 74.15415 -8.087835
-16.05793 75.09705 -7.614889
-17.27117 77.52754 -6.693079
-16.81068 78.14006 -6.996881
-8.737485 74.18982 -8.783867
19.01017 77.0031 -4.57903
10.55025 70.33568 -8.673918
11.04535 71.27978 -8.721971
15.71849 73.64001 -7.842745
17.77753 72.50346 -6.332245
17.68456 80.41088 -6.22633
-15.80456 96.09583 -6.451962
-9.978606 100.7958 -10.20277
-11.73859 114.164 -1.64555
-12.83832 125.009 -0.3393165
14.23071 132.0938 -3.61975
1.451281 145.8885 -11.98959
-11.90173 74.10021 -8.776644
-17.59365 81.2519 -6.297668
-16.54082 80.81365 -7.137251
-14.98707 77.64536 -8.053109
-14.657 75.49039 -8.262835
-14.85684 77.01909 -8.150167
-9.458804 74.22932 -8.787538
-6.308446 74.59488 -8.779269
-6.802711 72.63113 -8.766003
-1.905628 74.78017 -8.767638
-12.42102 76.5321 -8.744502
-3.250423 72.14415 -8.75322
-3.863835 72.30961 -8.757479
19.27786 73.26286 -4.059438
19.28577 81.81348 -4.199805
16.39512 82.23096 -7.176421
-13.81176 99.04993 -7.768013
-13.95997 108.6381 -2.254767
12.3076 135.1202 -9.669699
10.38763 134.0522 -10.26732
13.48411 132.3169 -6.426031
13.7924 134.2777 -7.597912
5.876499 148.6578 -11.28842
7.59465 149.0213 -10.85391
-15.07057 84.16508 -8.106656
-2.441832 75.72499 -8.747091
-12.88299 77.58382 -8.615928
-9.441348 77.33344 -8.654235
-5.557194 75.25554 -8.755175
9.667979 70.94131 -8.697649
17.41658 79.74776 -6.511597
19.33244 78.51602 -4.115682
17.81266 83.24535 -6.072066
16.83767 81.61675 -6.905633
-15.11606 98.68349 -6.247108
7.339484 136.1445 -12.00673
7.455997 136.7813 -12.20042
12.93926 129.5891 -4.923388
-1.53914 147.7146 -11.51696
1.929658 143.2847 -12.44692
-3.469239 79.14518 -8.713758
-0.8535437 78.05359 -8.713099
-3.486169 77.13799 -8.710616
-7.637604 77.3663 -8.682489
-13.91073 78.93739 -8.315652
-15.17223 80.77775 -7.835824
19.24471 79.21362 -4.280131
16.09976 78.77518 -7.413686
-12.79966 108.818 -3.88798
-12.27664 109.0212 -4.34959
-11.6841 111.7556 -3.325285
12.85956 132.9776 -7.901105
-0.1184617 144.6039 -12.22922
2.262668 146.4519 -11.87984
0.910579 143.4117 -12.42006
-3.205627 143.4485 -12.44447
2.781609 143.2269 -12.47258
3.387858 138.2835 -12.59805
-0.3570566 140.6958 -12.67485
6.971581 144.1831 -12.43399
-3.928019 80.1844 -8.754626
-9.39256 81.20188 -8.717736
13.51055 81.16206 -8.365019
3.609699 140.8363 -12.70138
4.373476 78.06805 -8.714336
-0.1160064 78.99629 -8.724453
-3.820463 78.07913 -8.70062
-7.228098 79.61018 -8.698455
-6.964462 77.83723 -8.684117
-0.4979713 139.1074 -12.64673
-0.7473318 140.8578 -12.66691
-2.208724 81.58987 -8.940874
0.6792194 138.5504 -12.60436
3.045511 139.1604 -12.68218
5.438814 137.3528 -12.49626
-3.13587 136.5024 -12.27948
-0.9169164 139.7953 -12.67904
-6.640064 140.1584 -12.79054
-12.46667 144.1776 -11.38722
-3.16889 146.2187 -11.96555
-4.27196 146.9871 -11.84779
-3.254181 147.7322 -11.59165
-11.06896 118.2775 -1.116427
-12.18612 116.9041 -0.7087973
12.13187 119.7432 1.375893
11.87193 123.8847 -1.902439
12.34346 115.5755 1.44666
11.36964 116.3663 -0.9349216
4.73711 109.8581 -6.587199
11.27345 112.6199 -3.180981
13.02708 112.199 -0.8598362
4.329321 113.9026 -5.622049
13.1223 110.6076 -2.272372
14.73668 105.9742 -2.549811
12.24622 110.9303 -3.240776
13.59057 106.0439 -4.430895
14.67005 106.9942 -1.991428
14.58763 104.3098 -3.953579
14.90623 103.9558 -3.573223
12.84458 103.7797 -6.56384
11.17896 102.6569 -8.554952
12.01 106.2164 -6.015531
11.76729 106.8606 -5.867134
11.43265 105.7711 -6.709487
14.25628 103.6956 -4.870162
10.19206 108.1924 -6.203468
12.06622 111.7002 -2.913284
15.78203 98.38952 -5.28966
14.71207 98.5372 -6.896914
14.93919 99.99532 -5.853701
10.89348 107.2162 -6.319197
11.38358 109.7676 -4.72823
11.85501 102.1695 -8.264233
7.779145 109.1496 -6.476078
13.27456 99.69863 -8.070732
8.950497 101.0983 -10.5482
11.97684 102.2323 -8.125838
-14.16119 131.434 -2.136215
-14.05177 131.8327 -4.121774
-14.11334 131.1576 -1.877064
-13.89798 129.5484 -0.5808721
-13.79346 130.4673 -3.037136
-18.80661 85.68217 -4.613438
-12.69826 84.55078 -9.057922
-17.58617 87.79566 -6.051199
-13.63256 87.83238 -9.576448
-15.84911 82.257 -7.567068
-15.75938 84.52563 -7.732464
-12.06882 80.56675 -8.565722
-16.60814 88.04008 -7.143496
-13.40749 91.91781 -10.1257
-14.06865 87.05586 -9.13957
-14.74838 91.78054 -8.989175
4.145042 100.0837 -11.63653
-10.62389 91.59315 -11.70302
-12.43869 87.2594 -10.07421
-14.2133 84.69836 -8.557257
-12.5241 87.81541 -10.1927
17.50988 92.92148 -4.86509
17.03222 92.96043 -5.742545
16.13682 94.80012 -6.507779
17.87309 93.17043 -3.889664
15.03678 87.24746 -8.468892
14.69534 95.84792 -8.073516
10.79948 95.77274 -11.30585
7.747179 93.53117 -12.63953
12.14096 98.0763 -9.754718
7.849133 100.467 -11.20782
13.94051 93.1535 -9.542106
11.06195 101.8802 -9.00468
14.86371 94.30875 -8.331357
13.68784 95.35702 -9.278463
13.18014 92.22296 -10.23803
9.487235 100.3503 -10.63068
9.148385 98.56783 -11.41047
8.470692 91.01089 -12.29585
9.777921 95.8534 -11.82202
8.173714 96.58426 -12.21956
9.342114 100.5986 -10.59802
9.711519 101.7177 -9.92437
7.029455 101.9413 -10.76048
6.220821 102.8284 -10.42864
11.35287 96.54464 -10.84378
10.92114 98.3911 -10.53288
11.89779 93.11243 -11.06031
5.971976 94.45578 -12.82709
6.925467 100.1507 -11.51689
4.717164 104.1893 -9.728852
8.081434 101.298 -10.78888
4.927542 103.4223 -10.15397
5.649716 104.6288 -9.491335
5.083601 102.5545 -10.61642
3.664154 104.2186 -9.703409
8.823856 75.55978 -8.774106
12.00061 76.41038 -8.775215
13.73833 75.36276 -8.584862
12.38436 142.9582 -11.47414
11.95166 135.7206 -10.21388
8.364389 137.7239 -12.33775
7.948665 136.2021 -11.98052
12.24271 139.1101 -11.18917
12.19646 137.855 -10.87679
13.86191 139.6117 -10.30464
10.5919 137.143 -11.46175
10.35769 137.7781 -11.76227
11.19844 142.4049 -11.87409
-17.46981 92.69466 -5.065149
-18.00933 89.44067 -5.116755
19.03572 85.34515 -4.259453
-10.85442 108.1405 -5.845534
-13.08937 108.7326 -3.605161
-11.83911 108.3933 -5.035908
-12.94993 108.1822 -4.046352
-11.38806 105.6285 -6.837239
-9.47849 106.3466 -7.522956
-12.31222 116.8586 0.2817373
-11.56643 115.8196 -2.679855
-11.48849 116.074 -0.9176412
-9.541622 116.6212 -4.119531
-9.421515 116.6603 -3.501892
-9.006338 114.8267 -3.953311
-6.997972 109.1562 -6.585824
-4.866125 112.5543 -5.80969
-9.011898 115.5724 -4.51257
-6.193161 113.5571 -5.519883
-10.76381 119.0806 -1.63948
-10.45547 120.3975 -2.364014
-11.67222 123.6474 -2.101902
-11.69776 123.3655 -1.830948
-10.3847 123.5222 -4.034951
-10.06273 124.2222 -4.901809
-9.848661 117.7002 -2.829924
-9.984112 120.6314 -3.061039
-12.37035 125.3053 -1.990057
-13.07462 127.0924 -1.708749
-8.231737 117.9595 -4.116447
-12.71411 127.271 -2.969105
-11.05274 125.6467 -4.76592
-13.50478 127.3256 -0.2156527
-19.24886 72.03683 -3.974544
18.53366 76.1388 -5.353966
17.69294 73.8788 -6.418654
2.866841 78.21735 -8.717371
4.979348 76.4155 -8.747455
5.119814 75.049 -8.773695
-15.44071 138.6906 -3.406447
-15.19163 135.7134 -5.306147
-14.20178 135.3535 -7.963839
-11.98648 137.8391 -11.01634
-15.47874 139.6118 -8.500413
-12.95952 139.0031 -10.78318
-14.49055 140.0667 -10.06249
-11.05278 137.9406 -11.49662
-13.73683 140.066 -10.57359
-8.61915 138.8288 -12.48582
-7.454795 137.6498 -12.49087
-12.46199 134.794 -9.382768
-8.731301 139.9132 -12.52752
-8.526427 141.4882 -12.5456
-5.843916 144.4787 -12.38002
-8.175025 136.3389 -11.96444
-2.086647 140.2863 -12.69555
-13.77298 139.603 -10.45259
-13.37965 136.2058 -9.415627
-9.42845 140.3452 -12.37722
-8.379091 141.8023 -12.55786
-6.914569 141.272 -12.73831
-5.794815 143.42 -12.52567
-4.459779 141.9819 -12.64526
-0.7280678 142.7394 -12.50419
-5.971913 145.6232 -12.20911
-6.874276 145.1873 -12.26761
-6.907828 146.8889 -11.87215
-14.56393 133.3483 -3.699432
-1.974181 147.024 -11.72908
-15.05815 96.672 -7.291966
12.51198 82.09237 -8.576191
15.54888 83.37165 -7.789727
6.008615 78.15268 -8.708481
9.746964 83.60824 -9.134113
8.627283 143.8664 -12.32361
8.863336 145.0571 -12.07388
4.694344 142.1119 -12.64397
9.979282 140.3674 -12.22468
8.60581 142.6287 -12.46295
8.841662 81.22777 -8.765903
7.609173 79.13567 -8.689744
7.586201 80.48819 -8.738987
7.865585 78.15043 -8.700645
3.418654 80.1785 -8.770751
8.703231 80.25438 -8.704292
11.58457 83.1147 -8.889963
12.17213 78.19745 -8.663343
6.108214 84.69711 -9.743854
9.018906 78.82563 -8.679784
10.20915 79.88298 -8.65582
9.790136 76.58699 -8.755042
2.032861 137.4412 -12.46773
-1.852827 137.1379 -12.40475
-4.90963 137.4098 -12.48892
-3.998932 137.0358 -12.39687
-5.403956 130.9722 -10.50827
8.918329 134.084 -10.90856
9.563167 132.5041 -9.993777
4.426095 135.132 -11.9259
10.3841 131.0724 -8.83392
2.096946 135.3855 -11.99201
12.30097 130.0877 -6.530819
10.95728 131.7784 -8.838412
-3.547031 139.2711 -12.70244
-4.337449 136.5134 -12.28857
-3.325827 132.0123 -10.94152
-0.6477116 131.8907 -10.89455
0.2964751 133.649 -11.49728
0.3877896 132.0007 -10.93836
-3.869202 130.7373 -10.41883
-3.297482 135.4507 -12.01561
-1.817366 133.9086 -11.5815
-6.671723 132.8573 -11.06256
10.72608 128.9856 -7.439186
6.167261 132.1238 -10.89346
0.9355549 129.8259 -10.01071
1.919364 130.4992 -10.31988
-0.274335 129.9389 -10.06735
-5.196457 127.8887 -9.074409
-4.383415 129.4639 -9.852482
-2.271653 127.3031 -8.998415
-2.209888 129.8465 -10.03144
-5.242671 127.6951 -8.986912
-8.333903 123.1944 -5.706627
-1.67855 125.1601 -8.204272
-1.572543 127.4704 -9.061727
-6.996397 129.1897 -9.385467
-12.03255 129.843 -6.722775
-7.865566 135.7193 -11.80073
-10.06476 128.9448 -7.890305
-9.927911 126.1011 -6.213566
-9.099542 127.3837 -7.562949
-6.859052 126.6895 -8.137506
10.99849 122.6738 -2.653518
10.7294 124.3352 -4.173161
10.57719 123.2795 -3.668015
10.9068 121.5372 -2.17335
10.95444 127.6921 -6.377866
6.135887 122.2279 -6.388861
10.50676 117.1168 -2.140449
10.20254 114.8991 -3.079069
10.95094 104.3628 -7.822926
7.797489 105.2416 -8.772138
6.914726 105.2092 -8.991385
8.2073 106.3596 -7.952155
1.955405 104.6161 -9.472619
-10.33483 130.9529 -8.803415
-12.59487 132.0458 -7.612183
-11.46411 130.8292 -7.920543
-8.712695 126.7057 -7.386322
-8.605801 126.1406 -7.131038
-12.843 128.0447 -3.494881
-12.33303 133.3956 -8.657445
-8.869185 128.7083 -8.444372
-9.996738 130.6272 -8.849566
-12.38616 127.2248 -3.70022
-12.74505 129.2462 -5.006544
-14.75696 134.0414 -4.296607
-11.67798 133.7832 -9.425775
-10.46022 132.8338 -9.692263
-10.22218 80.80113 -8.677913
-12.73424 80.5671 -8.529841
-12.62977 84.50899 -9.078115
-15.63645 90.52976 -8.173611
-12.54905 89.38354 -10.52458
-16.33426 91.72784 -7.185501
-13.06558 94.55728 -10.03858
13.26848 91.87505 -10.20118
14.95131 89.6333 -8.82459
9.532585 89.28806 -11.68017
13.8128 89.03998 -9.661761
16.69836 88.25825 -7.039865
17.21352 87.99046 -6.50467
3.239892 91.54068 -12.5621
10.86996 93.11052 -11.6291
11.13878 92.19588 -11.51338
9.810431 92.90761 -12.0903
6.402739 91.58495 -12.62282
9.520153 90.52579 -11.95911
5.775017 93.53996 -12.80148
4.528549 92.17192 -12.68117
12.53642 92.20847 -10.66378
10.02608 91.43735 -11.9259
10.3018 90.67876 -11.72735
5.741292 86.00922 -10.41157
0.05942973 91.5148 -12.52068
10.28913 88.00627 -11.11566
4.680081 91.5773 -12.61656
5.384639 90.72184 -12.46817
4.088869 97.34933 -12.38928
6.31813 96.05704 -12.63059
-1.996358 93.56588 -12.73141
3.315957 98.4072 -12.1211
3.242615 95.88934 -12.61607
5.583006 96.37616 -12.6198
5.859007 99.71262 -11.7827
1.115244 101.035 -11.23602
1.561553 102.1521 -10.76226
7.097562 95.26602 -12.64797
1.913462 94.16038 -12.72985
-2.101141 100.0735 -11.6056
0.941429 97.34155 -12.35404
-11.75022 95.24409 -10.85637
-0.9651535 97.61838 -12.29689
0.6395261 100.7991 -11.32352
-0.4154779 98.68014 -12.0285
-4.750862 97.74979 -12.32174
-2.274708 98.21889 -12.1621
-0.1883101 94.95758 -12.68511
-10.77001 93.25808 -11.69335
-9.632093 95.50542 -11.94874
-11.81454 90.02684 -11.00349
-1.498836 95.32582 -12.66612
-5.489265 95.70849 -12.70979
-1.73119 99.27612 -11.86958
-12.04663 93.61149 -10.95212
-12.65927 93.24677 -10.56516
-5.091808 94.40833 -12.80621
-6.813116 87.28835 -11.15269
-0.3824924 94.12896 -12.72543
-1.19935 93.89039 -12.73984
-12.76795 92.94197 -10.51556
-15.32482 92.51597 -8.246072
-7.602325 95.0377 -12.57899
-5.373094 93.04633 -12.80912
-6.90782 90.36014 -12.34532
-5.91432 92.0253 -12.71996
-0.1584356 92.21002 -12.61026
-3.496551 92.4846 -12.69273
-4.545792 99.01197 -11.98708
-7.385535 100.2809 -11.37433
-10.05403 94.65166 -11.90701
-10.72011 95.99319 -11.32805
-8.693629 88.32324 -11.54385
-9.507059 86.48925 -10.59707
-8.424216 92.74249 -12.48325
-7.586496 93.96323 -12.68083
-5.32633 97.27919 -12.41868
-4.463099 88.91132 -11.85478
-12.25048 95.49157 -10.47649
-13.16745 97.20401 -9.174655
-13.59656 99.61572 -7.788815
-12.2317 99.91653 -8.969969
-7.085291 97.27417 -12.29895
-4.457119 90.65604 -12.41649
-0.4010172 88.48443 -11.6277
-8.575619 95.84475 -12.25152
-3.579932 95.31181 -12.70497
-0.4096216 89.49717 -12.0088
-12.35566 99.02561 -9.232532
-4.354913 87.40514 -11.17164
-4.549121 98.08894 -12.24155
-2.031139 107.1641 -8.09898
1.506416 106.6026 -8.411001
3.364598 105.6547 -8.879571
-1.96419 109.4319 -6.927888
-2.281471 108.5793 -7.318334
-4.089731 108.8385 -7.086627
5.558174 105.8145 -8.751395
-8.784634 110.7781 -5.56649
0.3869424 107.098 -8.140399
2.791242 106.9843 -8.179391
-3.082461 107.13 -8.087328
-6.532049 106.0504 -8.48562
-7.849825 108.1373 -6.944277
-7.408672 112.1313 -5.411992
