# .PCD v0.7 - Point Cloud Data file format
VERSION 0.7
FIELDS x y z
SIZE 4 4 4
TYPE F F F
COUNT 1 1 1
WIDTH 1669
HEIGHT 1
VIEWPOINT 0 0 0 1 0 0 0
POINTS 1669
DATA ascii
-4.197278 83.68297 10.27158
-1.549042 84.14236 10.22046
-18.35213 93.21799 3.859061
-16.37593 94.1907 7.378978
-17.22221 98.88585 3.1393
-12.83989 97.04665 8.902649
-15.81592 94.42906 7.834492
-15.28674 94.53636 8.300754
-18.47949 92.07065 4.466942
-19.24068 89.64346 3.995614
-18.74482 90.17464 5.236743
-18.74408 89.41192 5.683652
-18.31202 89.11501 6.705353
-5.243573 79.43034 10.07075
-14.77261 108.3559 4.767724
-4.971694 104.9559 11.68217
-3.82883 103.641 11.73553
-4.614142 101.5643 11.02457
-5.700089 131.4749 13.87428
-2.273498 134.6181 13.35273
-12.87433 129.6678 10.45665
-7.378063 136.0297 12.86638
-9.878766 143.3314 4.889107
-6.667409 141.5662 7.885476
-5.772274 140.9696 8.218792
-4.291036 144.8685 5.403746
-7.013443 144.5031 5.545715
-13.90786 73.90788 9.360122
-17.15455 76.4633 8.475061
-19.56421 76.52321 5.415493
-7.421636 88.39993 10.35678
-5.048755 85.96253 10.10831
-9.550752 86.71366 10.17363
-5.973489 83.77442 10.26609
-16.43885 97.01348 6.150158
-13.16229 94.91373 9.13774
-17.81986 91.51836 6.459315
-16.85809 90.314 8.138555
-9.647574 88.05444 10.23509
-15.9375 92.089 8.45425
-12.7107 91.17659 9.786411
-15.58374 87.4182 9.581396
-13.91113 111.6744 4.889422
-14.07271 110.249 4.697011
-13.58646 109.5665 6.359734
-12.39609 110.7721 7.451653
-15.23014 107.715 3.949816
-12.20649 108.2428 8.682023
-2.744953 102.4247 11.66426
-5.430166 102.8146 11.13635
-3.410626 101.2484 11.20516
-3.334001 116.2794 11.81569
-6.282065 130.2312 13.55085
-4.801476 129.4604 13.41078
-6.611708 136.1494 12.76271
-14.91011 77.24971 9.678399
-5.555928 91.52734 9.383324
-6.031898 87.53385 10.2475
-4.672179 87.11344 10.19416
-10.0153 87.83712 10.21326
-7.882897 87.4826 10.21432
-6.413018 89.98753 10.35799
-9.631973 89.08618 10.27575
-10.55809 88.71103 10.21796
-17.3032 98.23318 3.231755
-12.92673 95.77879 9.036094
-11.78804 88.60909 10.16502
-13.55115 89.31313 9.962765
-11.81435 113.0484 7.348656
-11.71576 113.2729 7.516679
-8.979001 114.3856 10.95702
-12.39934 115.7838 6.009106
-11.89914 114.7147 6.822276
-10.66224 110.1869 9.18536
-11.87835 111.1959 7.840011
-4.443623 115.312 11.71381
-2.985847 113.7722 13.08924
-4.642 134.2032 13.60715
-3.55547 135.6638 12.69666
-6.814453 134.6896 13.5063
-12.85734 89.81943 9.99186
-17.73545 82.11319 8.368574
-13.18871 83.76115 10.249
-8.946815 85.67005 10.17318
-13.39562 86.45875 10.21756
-15.02037 84.60524 9.952325
-7.665581 86.30919 10.14884
-16.4103 83.10789 9.351462
-13.79825 92.47833 9.456533
-14.05695 96.79816 8.448196
-16.06471 98.23997 6.301874
-16.17266 88.84959 9.034553
-13.2191 88.32398 10.09369
-14.05773 87.53567 10.06283
-11.6844 103.2632 9.213113
-12.64878 108.0303 8.366652
-11.95042 110.5813 8.057287
-11.7177 110.4187 8.332492
-5.304698 113.8137 12.58942
-9.261816 111.2001 9.664132
-9.569898 112.9572 9.330043
-10.07333 114.5919 10.31295
-10.25435 109.2005 9.658861
-4.317761 114.7624 12.76977
-3.59419 136.7206 11.84007
-11.12433 130.1682 12.3806
-9.176264 136.0504 12.68615
-5.378705 132.2711 13.97105
-11.33521 88.37984 10.18605
-7.186067 92.07168 9.163141
-10.49578 90.03758 10.15903
-14.58798 82.62673 10.09308
-14.08535 94.98527 8.868639
-13.90482 93.59491 9.196021
-11.04963 93.88776 9.382834
-13.17667 93.10571 9.460083
-11.63918 95.96339 9.236123
-18.65233 88.35349 6.32761
-8.398978 108.9565 10.48955
-6.260734 110.4437 11.25409
-5.349779 113.2204 11.46307
-8.788699 134.147 13.62846
-15.45621 82.44215 9.773294
-13.40446 82.04751 10.18853
-16.74672 83.62624 9.120713
-8.694614 81.37989 10.22089
-7.573315 81.93452 10.25723
-9.594079 84.40448 10.23851
-12.55453 99.74733 8.755588
-5.619148 95.13768 9.329835
-16.48827 85.1364 9.264566
-16.14866 85.98498 9.375202
-16.59173 87.14384 8.970433
-7.523679 106.2993 10.91964
-6.08363 106.6112 11.49762
-8.224623 107.3997 10.80115
-6.754506 107.3668 11.32126
-6.693075 108.6492 11.30697
-7.551453 113.5503 10.8521
-7.108629 115.4729 10.56978
-5.288443 109.3488 11.78096
-13.61785 82.63438 10.19438
-11.47221 82.21009 10.24116
-12.82398 99.33346 8.675455
-11.00556 96.07584 9.256448
-10.33557 101.5174 9.391693
-5.208874 107.1285 11.87455
-9.721396 115.0762 9.280572
-10.50912 114.3606 9.089471
-5.682524 110.4981 11.50534
-2.954134 110.7534 11.99406
-5.588632 112.5793 11.33961
-12.92829 81.27112 10.19594
-8.19176 82.12125 10.25738
-16.90518 79.11124 8.920314
-11.60995 80.26815 10.12258
-6.648508 95.91402 9.275578
-7.960873 96.53352 9.330304
-9.434259 100.7579 9.485255
-11.08311 99.19431 9.151956
-8.226797 106.7531 10.6729
-7.692156 114.8626 10.90213
-6.147604 114.8018 12.22237
-17.54109 81.95438 8.531816
-11.81977 80.7256 10.1618
-9.551009 96.20457 9.230789
-8.118654 95.25309 9.263042
-5.070599 93.49888 9.19452
-9.839457 92.78484 9.320255
-6.011942 91.25262 9.611504
-9.145045 99.57397 9.496218
-10.9492 100.0648 9.194912
-9.545733 102.3942 9.917364
-6.360778 99.98808 10.02816
-8.34239 99.04527 9.613803
-7.286949 103.9707 10.64383
-18.65372 83.64842 7.246102
-15.94164 80.53037 9.5511
-10.26414 79.5834 10.06784
-8.043077 78.81524 10.00666
-6.793316 80.47408 10.1617
-11.73143 92.96747 9.530879
-6.356099 90.98817 9.824121
-8.024022 103.5485 10.47406
-18.26835 82.28442 7.732566
-19.47799 80.18439 5.945084
-12.96987 82.42392 10.23272
-8.547204 92.46528 9.192548
-11.32243 91.67845 9.677625
-14.70524 101.7508 7.335382
-12.9226 100.2617 8.582038
-10.41845 102.0769 9.497252
-17.24193 78.93818 8.64741
-9.404402 105.9783 10.1934
-13.45069 101.7889 8.236628
-13.4494 100.1971 8.349182
-15.05868 99.95425 7.194897
-11.08638 105.4374 9.460651
-11.02208 103.7292 9.468744
-13.21019 102.9013 8.459685
-15.7699 106.0112 4.044023
-14.77728 105.508 6.731172
-13.60808 107.6955 7.404151
-13.91701 102.7196 7.997595
-16.07924 103.2051 5.113937
-12.84003 105.6093 8.650005
-15.97357 103.4658 5.232878
-15.19716 101.5101 6.874327
-15.39015 103.6229 6.324291
-18.92785 77.48135 6.640676
-18.67161 77.01457 6.973473
-18.51608 75.14962 6.900075
-3.918736 122.496 12.59473
-2.818118 122.3013 12.88544
-2.873106 119.3778 11.96555
-3.910917 98.7904 10.35144
-12.29124 121.4876 8.777069
-11.07842 124.9881 9.916229
-12.46623 121.3066 8.293921
-7.70378 125.7549 12.25964
-12.05466 127.1229 9.295128
-10.45948 126.5592 10.99976
-12.60507 132.0961 11.83449
-3.261058 145.2855 5.315208
-6.199593 144.5421 5.384843
-11.16378 118.7438 8.596249
-10.29369 119.6003 9.254927
-9.448446 121.5803 10.44393
-11.13493 120.776 8.600791
-8.758569 121.0027 10.75198
-9.319119 119.1686 9.925793
-9.346492 115.2577 9.519614
-7.257723 119.1151 11.23096
-7.936151 117.0361 10.43601
-9.279373 116.5807 9.913262
-5.105492 124.7159 12.57916
-8.138064 119.4738 10.70247
-7.671123 122.2402 11.40566
-6.378425 121.6767 12.02924
-4.449313 120.1422 11.94473
-3.991254 123.2963 12.54381
-3.066817 124.3957 12.70967
-7.91252 123.4749 11.26969
-6.040421 125.8936 12.61904
-6.512706 123.6738 11.77375
-8.84325 125.5909 12.02796
-9.439818 124.5729 11.56449
-11.01378 131.4846 12.92456
-4.689446 144.0765 5.852296
-3.737724 142.3292 7.203125
-6.477655 141.9505 7.538716
-5.460321 142.8387 6.658046
-5.148581 144.3951 5.544343
-8.870576 127.1621 12.51459
-17.08945 98.87476 3.82023
-13.24454 114.2007 7.039011
-15.39033 98.6028 7.07915
-16.18841 99.9901 5.699187
-13.02339 133.1966 11.41189
-18.18792 86.87521 7.478884
-5.664941 82.53733 10.28365
-6.593978 98.39328 9.871178
-4.18392 115.7178 11.73395
-2.808386 116.7641 11.83854
-6.637817 116.8337 10.79526
-2.854318 116.7645 11.83589
-5.341649 98.80048 10.12719
-6.549063 102.0358 10.69435
-7.54633 100.8663 9.944808
-19.50276 82.96269 5.830421
-13.6974 78.25784 9.934064
-12.57461 80.19653 10.11062
-14.45802 76.99695 9.703752
-14.97022 80.81535 9.949048
-11.01104 79.64645 10.07059
-14.19974 78.32311 9.92093
-13.31405 77.576 9.880149
-19.05652 78.16433 6.534094
-8.384718 78.07225 9.931672
-7.661685 77.82173 9.906029
-12.57212 75.36079 9.560474
-6.936979 77.4249 9.861734
-11.57778 78.19123 9.938976
-10.22836 76.35619 9.727298
-9.292298 75.9604 9.672504
-7.846124 127.0331 12.57192
-9.446721 125.3716 11.90052
-11.7267 116.46 7.406721
-4.291824 126.1301 12.65643
-10.78313 129.0259 11.83056
-9.928667 129.4737 12.6064
-9.823552 131.7401 13.46783
-9.807231 133.9123 13.43265
-12.54512 134.6042 11.4178
-10.60809 132.8968 13.25681
-10.83041 131.9649 13.10391
-18.18677 86.05397 7.580486
-10.54983 127.278 10.9766
-6.548299 129.144 13.23378
-7.760536 126.3533 12.41434
-9.634041 130.3054 13.10721
-9.130495 128.4323 12.77635
-10.06118 132.9447 13.46951
-11.78811 122.8551 8.72235
-9.453896 123.2745 10.77082
-10.99164 123.5792 10.55858
-11.80562 122.3388 9.528325
-6.59586 75.57648 9.618058
-7.753581 76.57274 9.756356
-5.563081 74.96216 9.52739
15.45515 101.1415 6.5504
2.571045 93.07504 9.06787
2.965561 91.07514 9.670513
9.166649 91.17653 9.637448
-0.3282134 112.8607 12.46044
17.70849 87.14574 8.002953
11.36932 138.9126 8.501674
1.209561 104.1337 12.14643
0.1111512 105.9023 12.30722
-0.2369121 73.05307 9.257345
1.048173 72.37289 9.160565
0.6775706 74.46484 9.461034
-0.005997495 75.89527 9.664689
-0.2879223 84.90624 10.12668
8.873666 139.2955 10.16857
-0.001808106 79.63995 10.10071
0.09096777 77.3675 9.856815
2.031372 78.91647 10.03082
4.795269 90.53502 10.00783
4.241786 111.6871 11.82901
2.117117 97.82468 10.28386
-0.270963 127.4133 12.97307
4.438284 72.87382 9.232158
10.5641 140.8474 6.877194
6.827705 151.0862 -0.820303
1.570169 146.9494 4.372087
1.027446 112.1481 11.89194
14.38091 113.1242 4.324631
1.126409 96.22863 9.841935
2.846283 72.56322 9.187973
2.373142 124.2606 12.42864
0.6590677 122.4258 12.57794
8.925979 99.71313 9.654846
13.61841 96.81844 8.690166
13.32178 137.1894 8.102491
7.900195 152.533 -4.302328
10.27759 140.5103 7.472497
1.794238 84.58772 10.16809
12.78739 73.8339 9.355803
17.16709 72.67155 7.878469
19.84648 74.11736 4.22393
16.72852 97.91505 5.200581
18.44164 72.70715 6.552669
13.85477 112.3987 4.135323
20.30495 74.41965 2.382432
15.90595 105.1257 4.428355
11.92231 74.85235 9.499771
17.68337 76.66061 8.07107
20.49385 82.95776 2.510131
19.77611 86.34834 4.359283
19.69575 76.11819 5.023617
20.20233 75.12107 3.216438
17.7707 95.82613 3.293902
9.813354 135.4846 12.877
15.19045 81.11745 9.871813
13.16994 135.6295 10.05191
19.59616 89.25327 2.561978
20.41478 76.6973 2.563859
11.9078 137.4285 9.76602
0.7263897 148.237 3.426058
11.60214 142.2475 4.974635
6.066219 91.48895 9.371374
0.6442859 143.1131 6.698938
2.682341 148.7706 3.285556
8.482322 129.5438 13.02935
12.81168 125.2987 6.71031
12.35307 142.9098 3.882039
19.70461 80.84884 5.50694
9.828196 149.1399 -0.2007206
11.41367 117.5177 7.543333
14.57925 77.48476 9.71638
13.21014 113.9793 6.032282
12.71677 137.9136 8.223294
10.63918 149.2907 -0.5744933
13.571 133.898 10.96266
7.830335 151.0824 -1.58493
9.862252 150.4376 -1.5388
17.88383 74.40424 7.543088
18.34451 91.27377 5.570682
11.96527 100.1636 8.955822
2.030695 111.8952 11.82036
14.72582 105.1363 6.932884
9.919937 113.8764 10.24417
1.175013 75.78031 9.648683
10.08166 72.46899 9.164501
20.01727 85.58033 3.764672
19.82425 84.87842 4.744596
1.674038 133.9315 13.69327
1.443727 140.5604 8.4788
0.1186303 137.3745 11.07199
3.001279 150.4124 1.709972
4.030346 147.9414 3.500041
0.9669108 145.0147 5.513433
8.376513 121.608 10.94456
12.79153 127.3606 8.318799
0.9744995 123.383 12.45453
3.678097 114.4492 12.96487
5.07816 150.9125 0.4285806
8.320312 149.1066 0.6286041
9.451967 148.6333 0.3621528
20.12474 83.82085 4.044517
4.024039 85.07717 10.11089
18.82918 74.24986 6.352412
19.36491 73.52078 5.146203
20.44414 76.42435 2.209632
18.9551 74.39066 6.149353
19.27459 76.63067 5.975822
9.851752 139.4546 9.005067
8.528224 142.6568 7.016151
12.30571 138.9284 7.729017
11.21104 142.4839 4.923843
9.32009 136.5197 12.27916
0.1969912 95.94363 9.768915
2.513623 94.06686 9.176808
1.792127 94.36176 9.21683
16.81549 102.2184 2.593619
16.57451 102.0217 4.2192
16.35613 103.0629 4.318349
1.248672 111.0598 11.84273
3.940662 108.0923 12.1869
-0.2674211 101.0687 11.46813
13.88436 108.6372 6.531665
12.64967 114.6931 4.250561
11.69844 116.0693 6.854982
7.150033 76.15327 9.690021
8.749323 72.97762 9.243363
10.62557 75.10046 9.54169
0.3438896 82.42463 10.30621
4.252963 86.11675 10.1174
19.83712 87.44203 3.2529
20.00756 82.3408 4.686738
19.06606 90.51968 3.888933
16.81892 93.97121 6.899242
0.9219314 131.9626 14.05455
13.10024 129.9592 10.39001
1.363634 142.9692 6.81509
0.2220069 138.2516 10.31238
0.1647693 140.5838 8.444107
2.942954 148.8234 3.19576
2.028659 145.8257 5.043075
12.87708 124.1878 6.26306
12.09515 125.2033 7.857959
13.31849 127.1372 6.994904
12.59861 123.8381 6.771133
-0.1136607 125.657 12.61901
2.11669 123.6275 12.34771
0.3872052 114.8236 13.22986
20.47728 79.52197 2.944274
20.06083 80.85296 4.57275
1.247119 83.89952 10.24079
15.16943 72.90527 8.963244
16.25702 73.41181 8.561832
13.7143 72.99508 9.219964
20.40216 77.87497 3.044716
16.91803 75.2877 8.530732
9.499919 141.9114 6.67468
6.710422 144.0118 6.116195
8.241527 140.0989 9.811983
11.47085 144.5244 2.960325
11.79635 145.5212 2.057617
10.77867 145.5125 2.394452
8.514479 146.8728 2.57338
9.6237 144.4234 3.985161
11.34911 135.466 12.05083
0.326414 95.5149 9.622536
0.9590992 100.3468 11.2351
1.360526 95.09709 9.447303
1.989484 92.04946 9.009714
0.538818 88.69645 10.50163
1.053978 89.25909 10.52193
15.60643 103.6032 5.92666
16.65563 98.97549 4.978767
15.13926 105.8537 5.932749
0.6025525 109.3316 12.21997
1.522576 113.9604 13.34421
0.8066412 106.7038 12.33548
1.407703 105.3643 12.27093
1.715749 102.816 11.86794
12.48061 115.5857 4.379794
13.11427 112.2731 5.39763
1.948335 75.24426 9.572033
5.766547 76.27254 9.708825
0.1573741 81.89722 10.28464
0.5369511 86.95852 10.21262
19.22722 88.59567 4.908161
20.4163 83.87975 2.59604
18.75726 92.11247 3.395616
18.04272 93.96149 4.253263
3.017336 135.2149 12.99251
-0.04962225 132.3272 14.10489
0.1231614 128.4891 13.25565
13.36178 129.7221 9.68952
12.84464 129.8446 10.68176
1.862912 137.7125 10.81781
3.29289 148.062 3.622422
8.151477 147.2915 2.534618
5.228276 149.0426 2.292599
4.462724 144.9814 5.300786
2.897653 145.8497 5.000699
6.546143 146.6566 3.784337
2.511071 147.3145 4.164412
12.32408 119.9021 6.535904
10.96735 122.7129 9.063041
10.23753 122.7098 10.42643
10.14882 123.2128 10.00129
10.93454 126.7963 10.1853
7.116316 122.3939 11.48003
11.18961 120.2522 9.711917
13.0467 127.5925 8.102815
-0.1474464 120.0705 12.73886
3.744548 119.5654 12.70588
3.815879 125.304 12.56034
0.06152317 115.6774 12.12065
8.907544 148.3186 0.9294627
20.35127 79.93698 3.565988
18.18747 81.06808 7.88693
18.15919 80.44365 7.896384
0.5374212 80.98639 10.2222
13.34217 73.07205 9.265429
19.48934 75.08626 5.195837
15.93792 74.74573 8.937917
16.69813 76.42663 8.778561
14.79229 74.81257 9.371788
9.588779 142.3655 6.114438
7.813374 143.0449 7.133419
8.472247 146.3506 3.12759
12.02192 134.5961 11.95723
9.977176 137.3962 11.23442
8.407755 136.8281 12.29026
7.300513 135.9457 12.94061
8.973577 137.9449 11.21482
12.85204 132.4745 11.6026
11.02149 134.2929 12.81466
10.57476 131.3243 13.06893
13.66475 132.0472 10.57827
0.5227015 94.05587 9.193971
15.49043 102.883 6.320689
15.78606 98.80938 6.555017
15.2361 107.8219 3.79672
1.566437 113.7957 13.29356
0.2558713 106.5049 12.32712
0.6190955 104.3411 12.17238
12.23301 114.8472 7.452043
13.95516 110.447 4.797723
12.34928 117.0108 5.594748
3.288476 78.75272 10.01299
9.479846 73.76043 9.35369
12.26102 84.06377 10.25064
17.065 87.80621 8.484118
17.73666 84.74496 8.24475
19.25686 85.35657 6.061123
17.49466 87.3282 8.176021
9.366915 89.56002 10.23525
16.86388 86.15948 8.920547
18.0385 83.27779 8.040953
18.72022 85.35593 6.969239
19.53626 82.9365 5.815321
19.00473 89.60375 4.950497
18.26582 92.32619 4.990666
18.33254 93.79115 3.139993
18.18528 93.07182 4.631602
2.664152 126.7647 12.84397
13.31551 131.9823 10.99796
14.64208 133.8473 10.44041
11.64531 129.6877 11.76387
11.75972 128.8645 11.03387
2.828475 144.3846 5.899359
1.450135 138.3894 10.21523
2.099828 137.9998 10.57827
3.102815 140.6586 8.433063
4.251708 138.4216 10.42375
3.477111 138.1877 10.52751
5.244886 137.1163 11.77071
3.929604 137.4514 11.22867
6.607326 138.8959 10.4637
7.679154 139.2211 10.70138
12.07276 119.7222 8.330871
11.76415 127.538 9.733929
2.07628 120.025 12.86915
1.974101 123.6994 12.35832
-0.2469956 116.3609 11.75753
5.534369 117.9862 12.06214
3.725046 115.4868 11.74086
17.20283 84.67319 8.757004
11.46977 75.7691 9.625046
12.60433 77.11582 9.804733
9.777671 76.59883 9.741814
11.92232 73.85638 9.349541
19.01516 77.57154 6.521083
5.888509 142.7635 6.931822
8.430539 145.863 3.686217
7.891916 132.2118 13.87723
11.30363 130.496 12.39323
10.73296 130.4274 12.69979
3.525595 96.68983 9.772678
3.767962 98.59299 10.24276
4.608963 91.17592 9.576402
4.931572 92.40614 9.128862
3.706969 93.61869 9.153952
2.112167 91.1657 9.605697
2.389915 90.22098 10.19543
5.523589 91.98483 9.21175
5.959922 92.35265 9.150784
16.10507 103.7469 4.727067
15.2806 100.1963 6.90799
14.14418 105.612 7.508069
16.53688 98.0761 5.586279
16.13779 96.96964 6.658071
13.52994 99.17499 8.358286
14.70037 108.024 5.289935
1.045202 109.6026 12.18114
4.598958 108.9845 12.03801
3.212735 105.4591 12.19271
3.359318 113.3444 12.68682
12.44827 114.8511 7.045388
11.39416 115.4344 7.608305
12.06192 117.3676 6.185049
10.58854 114.1734 9.05086
13.59425 111.5704 4.446133
13.48022 112.8846 6.592813
4.800292 77.88566 9.915517
5.994902 77.93419 9.919506
2.05428 79.98262 10.13194
4.033192 79.46127 10.08127
15.80031 88.32331 9.309132
12.74657 85.29436 10.25048
18.17142 93.36109 4.358899
16.27863 96.5847 6.627072
-0.3486063 129.225 13.46935
4.04603 142.3108 7.189618
2.259626 141.8905 7.532282
11.9919 120.9231 7.391065
10.76477 121.018 10.19338
11.56297 117.7047 7.312712
11.41565 124.5818 8.86233
4.050888 118.8073 12.25128
17.57154 80.12005 8.445928
17.30906 81.41114 8.710711
16.61748 79.14097 9.119564
16.78382 81.3564 9.078302
17.56144 77.32862 8.250824
15.82852 76.71951 9.298534
14.03305 76.77773 9.761178
7.617962 76.81593 9.779026
6.602274 147.315 3.230486
5.960968 145.2823 4.953502
3.268106 143.0661 6.734572
10.09549 132.2173 13.4288
8.638791 135.4841 13.14982
9.587349 129.7556 12.83751
2.690899 98.2515 10.33026
2.023038 88.04288 10.44544
3.32702 89.31508 10.49228
16.25603 102.3754 5.005363
16.81217 96.45009 5.69319
12.94873 98.4604 8.696503
1.841536 112.3604 11.8789
2.336993 112.6735 11.88865
11.50193 113.6973 8.532316
12.74701 109.3219 7.745703
1.281931 80.43539 10.17312
3.684511 81.65327 10.26801
8.04464 83.40206 10.26375
15.13838 83.65432 9.936481
8.281383 120.1105 10.69614
9.107445 117.8054 10.28964
8.163363 118.5202 11.32539
8.713428 118.1402 10.88731
4.712572 117.8797 11.88867
4.989327 119.6276 12.11957
3.890038 120.2467 12.23464
4.115969 121.5522 11.949
4.681835 121.7446 11.89587
5.694734 119.2094 12.09416
7.238724 120.3783 11.12563
10.52398 79.57986 10.08288
8.045229 146.7244 3.224453
4.835568 142.4869 7.055625
5.719976 143.2685 6.466274
5.420525 88.51054 10.5078
15.60598 87.72403 9.49393
14.99825 101.1107 7.120741
13.52856 100.5746 8.258551
13.36791 96.69628 8.825653
10.94646 103.3658 9.469256
3.894652 112.8743 11.83336
4.79091 111.5409 11.69932
3.748446 116.3009 11.73368
12.40166 110.6402 7.529159
4.194571 81.13842 10.22767
6.149151 81.83923 10.26337
5.118221 81.70948 10.26801
4.682185 85.42923 10.10512
2.116561 84.07009 10.22793
16.69667 83.56541 9.16756
17.98553 82.4834 8.107546
16.39124 93.57376 7.577985
8.077572 125.311 12.16666
13.5915 81.86189 10.16157
16.66038 82.12939 9.149275
4.625288 142.6527 6.92952
3.451335 88.15303 10.44752
4.915511 89.58308 10.40556
6.526327 90.95361 9.694094
13.39063 99.98876 8.394408
9.698434 97.97282 9.274095
4.87785 110.0481 11.86412
5.497497 112.696 11.75655
4.313681 114.5929 11.76783
2.232119 115.0625 12.16958
12.30924 108.6063 8.459477
16.71512 85.60916 9.05471
15.25961 85.45976 9.83805
12.89247 84.24328 10.2466
9.761816 83.58981 10.25783
14.81798 94.71827 8.544772
9.843041 117.4887 9.27645
16.05431 82.73077 9.562223
12.53628 97.31917 8.886961
12.34015 98.1376 8.910063
9.769796 110.729 9.523569
5.054082 114.7082 11.48389
7.480562 114.3339 11.54103
7.299006 115.3577 10.67555
13.92085 107.4772 7.123535
14.4695 104.5172 7.389469
5.706992 87.0146 10.21242
6.908701 84.0854 10.23828
13.57714 82.19988 10.16301
11.27599 94.26345 9.384916
10.66103 89.43359 10.17038
10.64198 90.64167 9.910048
13.35637 95.76299 8.979478
15.37386 90.88549 9.127801
17.38631 92.46267 6.73631
17.12399 91.17987 7.639364
9.143987 124.3309 11.64048
9.359537 125.0705 11.1274
7.457073 126.6928 12.59257
7.735393 126.875 12.59797
6.574155 126.3733 12.59147
4.735679 123.7794 12.22621
4.350744 126.0001 12.66272
6.884001 113.9553 12.10522
7.875809 112.1915 10.38007
8.112991 117.4921 11.05298
6.433686 116.5807 11.56561
14.45186 107.0357 6.559562
7.224389 88.68678 10.40078
7.706757 86.57085 10.15196
10.08423 85.02473 10.21833
10.01545 82.67462 10.25304
16.27231 89.39536 8.877356
11.67525 90.46684 9.90239
5.92301 124.2496 12.13276
5.696449 108.5714 11.68651
4.151225 108.6005 12.14525
7.100626 104.5702 10.79188
9.778667 108.8754 9.967957
9.164633 104.4457 10.06997
9.233661 110.1929 9.888531
7.345823 117.2442 11.71208
12.86879 108.7811 7.864989
11.12146 85.79047 10.19896
8.982537 87.82233 10.32915
7.40259 87.46477 10.28874
13.27784 91.92162 9.652611
11.1749 90.12085 10.03557
18.20709 88.87507 6.99204
12.09672 109.1334 8.493831
13.37273 104.6309 8.377744
8.995627 85.22112 10.19249
15.70748 89.16948 9.232225
11.10674 87.56337 10.2424
12.17415 87.04742 10.20908
9.90748 92.13097 9.446136
14.12356 91.11189 9.594049
12.27076 90.57109 9.893722
10.75304 91.51554 9.636041
11.12936 92.69463 9.511642
10.04774 93.74541 9.413992
17.98894 88.57278 7.374884
8.22674 108.5339 10.7202
10.38986 107.5769 9.833941
11.19964 110.6414 8.687623
11.11607 112.0395 8.250031
11.87257 112.791 8.837097
7.856451 106.426 10.91498
12.36741 105.9229 8.912333
13.06648 87.07845 10.18387
7.756789 93.67586 9.413462
12.29433 93.68094 9.468164
10.8574 107.4102 9.626288
8.471601 105.8557 10.54773
9.920642 94.83714 9.258348
2.789281 131.4408 13.97745
2.704237 134.2146 13.57258
3.408506 103.0987 11.69923
3.649943 104.7782 11.99538
5.817702 75.99242 9.670722
4.432732 76.12361 9.690769
2.090725 122.2041 12.33831
2.507061 124.7856 12.505
11.37979 128.6664 11.19374
9.340197 126.779 11.53701
9.532792 128.1527 11.99901
8.493005 130.8027 13.49186
9.692162 131.7364 13.52631
7.643353 131.0051 13.66545
4.865995 129.0085 13.28829
2.307514 144.0479 6.14928
6.735047 139.6176 9.926129
6.613183 135.7882 12.95974
8.810188 74.90568 9.512586
5.154701 98.54821 9.974319
15.14793 104.6546 6.459587
2.467558 105.6021 12.26581
10.36558 114.0089 9.272456
9.785757 115.9248 9.920182
10.67093 78.73795 10.00426
7.437125 141.8437 8.358182
15.52928 102.9889 6.231449
7.431697 117.9158 11.80484
11.80686 78.25546 9.944154
12.66036 78.92097 10.02463
10.00778 78.54949 9.983944
3.794049 86.62121 10.15269
8.221943 96.76703 9.453483
8.286061 102.1522 10.0561
12.28525 96.27779 9.079865
9.472226 99.42918 9.439829
7.148824 105.5251 10.96397
8.52986 101.0699 9.845344
5.161067 98.70111 10.00815
5.166182 82.12893 10.28676
11.29103 79.57973 10.08373
6.367741 83.19836 10.27434
10.47727 83.4436 10.25277
12.33255 79.15543 10.05007
14.22682 81.40308 10.10485
11.19942 80.23157 10.13574
7.418306 114.3574 11.20143
10.9968 112.5637 9.515894
11.81171 113.3472 8.706355
9.217731 112.4459 10.10829
9.286024 114.4865 9.403502
6.152104 126.1494 12.57385
2.129394 126.6234 12.81532
3.588196 127.4401 12.96883
11.08934 109.296 9.20706
9.01998 103.392 10.11498
7.9481 105.0261 10.52161
6.711468 104.7712 10.99909
7.479813 96.85583 9.507762
6.326008 96.36214 9.596595
5.324189 129.9095 13.50006
5.127303 132.8257 13.95506
6.338916 131.737 13.8648
5.353961 132.4669 13.97165
5.199976 131.8279 13.90808
8.024059 129.2394 13.03159
9.986142 79.7377 10.09583
9.612259 77.98178 9.918668
9.437763 114.1496 10.37873
4.606753 132.9267 13.9852
3.445843 129.4096 13.45254
3.757915 131.663 13.94773
10.8581 104.4604 9.518178
9.174603 104.6641 10.0681
10.28729 102.2521 9.527029
5.088359 101.6043 10.87276
8.369682 101.3965 9.835041
3.302581 100.3957 10.96088
6.250999 100.3457 10.43343
3.343103 100.9537 11.13117
6.366426 104.2834 11.04087
1.441511 101.5393 11.56246
8.829224 102.3441 9.938918
5.349544 102.6024 11.07267
12.08708 101.8329 8.94417
14.39623 103.224 7.582325
-1.155312 74.46071 -8.798103
-11.74558 75.37148 -8.782275
-13.89795 109.4423 -1.806288
-1.20333 78.4799 -8.686996
-20.01092 87.53041 0.3201372
-7.68599 117.2759 -4.39437
-4.44709 73.71745 -8.800663
-10.8924 74.34948 -8.788952
-17.04821 76.37721 -6.910204
-1.063819 87.49498 -11.20981
0.5872453 86.86776 -10.88872
-0.005311657 90.39194 -12.29888
0.5199928 77.80962 -8.707381
-2.586695 74.10358 -8.80067
-20.6599 81.10039 1.116385
0.01935986 97.36777 -12.31329
-1.363533 97.63337 -12.26277
-0.4416866 102.1407 -10.69793
0.1495383 103.2054 -10.18561
-2.666526 114.2546 -5.94467
-16.16443 95.72978 -6.05559
-0.4774331 109.9285 -6.896746
-0.8476018 111.3302 -6.482275
-19.2572 90.21259 -1.503576
-5.991867 113.5374 -5.422562
-8.115479 119.6082 -4.421151
-3.238225 115.4359 -5.790986
-17.06489 97.34033 -3.038067
-19.15409 74.26974 -4.302808
-12.97592 107.3776 -4.436123
-20.40301 77.04581 -0.7670814
-15.65403 105.9918 0.000948429
-20.10332 77.65092 -2.26333
-20.54599 76.97212 0.7145635
-19.65358 74.39145 -3.226999
-20.5836 78.32799 0.3708633
-20.31952 75.06362 -0.7644872
-12.96971 119.5775 2.837273
-18.45377 93.94902 0.2956364
-15.03383 103.6326 -3.607694
-17.86794 96.16896 -0.1093338
-12.90908 123.3638 1.760282
-16.90659 99.99903 -1.345893
-12.91762 121.4631 4.837907
-13.34948 124.658 2.974837
0.338162 95.65845 -12.61217
-15.44258 107.1944 0.6575561
-20.29366 85.85091 0.8290231
-14.34957 108.8052 -1.327244
-19.37143 85.29266 -3.648766
-20.41475 78.61037 -1.074481
-12.98359 120.8977 3.975707
-17.41707 98.38541 -0.3994416
-19.41298 84.1869 -3.72842
-12.66795 114.5257 0.7863808
-12.89025 79.17436 -8.509969
-13.34217 113.3379 1.438062
-12.90555 114.378 1.888284
-20.28012 85.88165 0.4528531
-19.46566 89.69022 -0.9221559
-17.2491 99.97139 0.89441
-17.01447 97.77355 -2.836547
-15.59059 107.1852 1.813936
-14.99777 108.8684 1.735162
-13.37237 118.1774 3.118145
-12.99841 122.215 4.332544
-20.18964 84.65766 -1.268557
-20.12664 86.01141 -0.8288397
-19.2003 89.65385 -2.300293
-17.80564 96.20135 -0.8384549
-16.36811 104.2214 1.358101
-17.22632 99.25877 -0.5298593
-15.0398 108.5187 0.9240995
-12.87717 115.2774 -0.2697014
-18.73493 92.90254 -0.1765118
-19.89738 88.04052 -0.1355678
-15.81183 105.4104 -0.05675271
-13.69362 111.9749 2.371267
-12.94587 118.5774 1.960039
-12.84544 120.8426 3.237628
-11.03552 117.9485 -1.122365
-13.16055 123.5748 3.160122
-13.11453 108.1349 -3.889751
-12.67975 121.6133 2.361607
-1.064212 76.54622 -8.751354
-1.96585 75.2442 -8.787268
-13.66911 85.32333 -8.90087
-12.72915 87.5785 -10.02476
-12.15089 103.6791 -7.24994
-6.277328 97.16348 -12.38706
-11.05065 118.8665 -1.115216
-13.32937 125.8773 5.738189
-12.70552 122.064 2.109751
-20.07592 76.61921 -2.183877
-18.25829 80.13493 -5.661152
-16.40589 78.29004 -7.289783
-20.25191 78.6211 -1.83503
-17.87517 78.44312 -6.063067
-20.19224 79.80839 -2.056987
-17.24611 79.65387 -6.559657
-19.7783 81.17895 -3.163566
-20.4028 80.48895 -1.257789
-17.15456 80.06242 -6.671522
-12.33205 113.5175 -1.88396
-12.18928 114.3692 -2.196772
-13.09474 112.2587 -0.8053676
-12.3971 112.8422 -2.013503
-13.74426 111.4832 0.638901
-13.66486 109.1128 -2.535071
-12.2543 111.1591 -3.10806
-16.95315 77.09218 -6.979423
-11.61384 76.85349 -8.756393
-15.64268 76.19868 -7.837368
-16.82252 75.03063 -7.184632
-13.50069 76.72593 -8.581525
-5.177579 79.37035 -8.666664
-8.839573 75.32886 -8.79045
-16.83766 99.55424 -1.981224
-19.07205 88.6092 -3.245338
-14.99147 101.5363 -4.939316
-15.29193 91.61685 -8.458065
-15.53599 104.8238 -1.567562
-1.447212 76.08827 -8.764874
-9.082269 73.77921 -8.788813
-4.469856 114.2176 -5.691347
-6.136005 91.73456 -12.64296
-8.360229 79.58789 -8.649267
-1.154862 101.0554 -11.17319
-7.417235 118.3311 -4.616727
-9.992725 120.6976 -3.085966
-12.41887 121.6706 1.229056
-12.73053 122.5986 1.702578
-18.52456 80.48301 -5.321124
-18.20658 82.97427 -5.648394
-13.79456 108.4547 -2.733427
-13.50318 109.3365 -2.634178
-11.61054 107.684 -5.562479
-12.88159 106.9194 -4.793828
-12.95034 105.9929 -5.222172
-15.25897 106.5397 -0.8413722
-14.59589 109.1421 -0.1616284
-8.529814 78.68596 -8.671945
-10.63222 76.48338 -8.766677
-18.94601 85.97102 -4.285013
-18.64556 81.57883 -5.151463
-20.20994 83.15084 -1.717024
-19.41894 81.67953 -3.941172
-20.03221 82.76675 -2.46998
-17.16659 98.12854 -2.032013
-15.86516 97.23034 -5.779799
-18.03143 94.8733 -1.437225
-17.72418 95.11855 -2.76479
-0.3547891 75.62955 -8.778092
-5.228906 74.28605 -8.797313
-6.044038 76.82419 -8.747499
-2.034926 113.4729 -6.075404
-6.845008 116.898 -4.785007
0.2745698 106.0835 -8.678008
-1.932368 107.8476 -7.743722
-1.797784 91.15768 -12.48075
-3.354588 92.67325 -12.71357
-2.135412 85.38892 -10.08773
-1.665594 87.38777 -11.15695
-1.086502 85.67355 -10.24149
-2.615036 82.32263 -8.970433
-1.182182 102.5216 -10.52364
-3.798247 103.4122 -10.11606
-1.938437 96.17413 -12.55166
-2.735677 96.73245 -12.45938
-1.064183 96.28262 -12.5251
-9.450223 119.4661 -3.296755
-3.714516 112.4711 -6.087443
-11.37533 121.102 -1.080544
-10.32834 119.3788 -2.321021
-19.92267 80.07178 -2.904972
-14.18695 80.78625 -8.16919
-15.6993 79.45133 -7.631747
-15.28383 81.67693 -7.824692
-13.40346 82.97734 -8.597621
-15.69528 83.04704 -7.667518
-15.89574 82.44558 -7.531203
-17.53663 84.6029 -6.215596
-13.24119 82.98065 -8.644003
-14.8847 83.97724 -8.182391
-16.2131 84.97006 -7.426812
-14.99225 85.00587 -8.235705
-11.91722 113.292 -2.800403
-6.647149 110.0998 -6.300698
-5.073032 105.5738 -8.936563
-12.58269 104.1125 -6.598129
-8.766316 74.14085 -8.791698
-11.00687 75.20724 -8.795635
-12.36105 78.43052 -8.616584
-14.60567 76.71964 -8.226828
-18.72258 82.01933 -5.04534
-7.390625 75.50696 -8.787255
-5.880825 77.17816 -8.735599
-5.503203 76.8664 -8.745668
-4.182712 77.90208 -8.706003
-4.641775 77.96909 -8.7033
-2.151831 79.96735 -8.683179
-2.19651 114.4405 -5.943365
-0.5173596 106.9011 -8.259795
-2.401993 109.1024 -7.154228
-3.590708 111.8958 -6.213436
-3.277033 113.5687 -5.980147
-7.928263 109.9274 -6.115105
-0.2246499 111.2849 -6.492443
0.523774 88.11588 -11.50295
-1.996343 92.76715 -12.69687
-0.6368914 81.36061 -8.808722
-1.044983 87.59975 -11.25979
-0.1502407 100.6381 -11.34022
-2.580124 100.9543 -11.23812
-0.1848543 93.3742 -12.72787
-1.956203 92.35363 -12.66133
-8.018612 117.6312 -4.235451
-7.677533 115.9721 -4.439603
-4.624461 115.7214 -5.567832
-17.22015 86.99747 -6.538165
-9.761489 109.2172 -5.900659
-9.797214 111.2653 -4.992449
-11.01194 105.6549 -7.078389
-12.81967 103.4523 -6.749305
-14.33177 105.2748 -3.786936
-15.59474 78.32395 -7.714075
-17.49249 79.3651 -6.346019
-12.17179 79.23735 -8.590275
-7.834382 77.19006 -8.736376
-3.647627 79.04298 -8.673306
-2.750881 79.73405 -8.678369
-6.192261 111.5636 -5.873601
-3.323235 88.69101 -11.76786
-6.80676 85.57749 -10.11425
-4.676138 87.54852 -11.26872
-5.2974 89.58758 -12.14841
-4.349871 90.4199 -12.35794
-1.92844 84.46243 -9.660441
-3.015125 100.2182 -11.53202
-5.32029 98.39375 -12.14452
-2.573193 102.8723 -10.36459
-2.341841 103.6894 -9.944705
-3.773088 102.1547 -10.74181
-1.515502 93.19472 -12.72677
-5.959944 115.9725 -5.12696
-11.3948 110.6218 -4.257678
-14.63438 105.907 -2.808896
-15.33731 80.56742 -7.770085
-8.53068 78.38235 -8.685457
-2.569891 80.75114 -8.719409
-4.511772 107.8048 -7.625258
-6.119037 114.7793 -5.17876
-5.887216 113.1079 -5.53966
-8.154529 112.9391 -4.912641
-7.097954 112.0354 -5.523606
-9.484337 113.2458 -4.176939
-1.961408 81.51228 -8.833862
-2.267766 104.8175 -9.344076
-7.37981 115.9971 -4.574132
-8.871498 84.12111 -9.320365
-7.989519 77.89846 -8.707631
-9.488397 82.8914 -8.931672
-3.870415 106.6257 -8.340171
-3.321091 105.0287 -9.233622
-3.300166 104.2428 -9.663395
-18.41243 86.5297 -5.101332
-17.66792 86.10787 -6.086234
-10.98517 78.98498 -8.656445
-10.36366 80.18657 -8.641601
-11.87235 84.70538 -9.313793
-4.59894 107.1424 -7.977158
-3.907209 109.0902 -7.074769
-9.963021 108.7321 -6.027989
-5.65763 104.2957 -9.655842
-7.477493 107.1975 -7.567383
-7.65694 103.187 -9.977676
-5.33829 105.4193 -9.020049
-6.630094 106.1887 -8.394977
-7.890124 105.9964 -8.275182
-19.1737 86.64421 -3.714684
-17.61447 88.05109 -5.98473
-10.54271 79.13007 -8.652318
-9.812277 82.23369 -8.783946
-9.598343 80.07729 -8.647022
-7.334192 83.05224 -9.047021
-2.880902 110.1076 -6.777889
-5.817851 108.0018 -7.387319
-8.795278 110.1696 -5.818013
-9.270312 111.1526 -5.219701
-9.075264 109.8396 -5.880295
-14.24454 91.4397 -9.43528
-6.945228 81.23586 -8.73112
-5.807157 106.9066 -8.011151
-10.30601 112.0857 -4.395988
-10.86391 113.1941 -3.628797
-18.5286 89.34332 -4.204154
-17.8205 90.30592 -5.216644
-17.20087 89.88508 -6.277466
-18.03853 90.61613 -4.709849
-17.69558 92.44152 -4.677091
-18.13193 92.21582 -3.826673
-16.01132 91.79505 -7.557817
-15.13667 90.65229 -8.659447
-11.62132 94.44538 -11.11003
-15.22177 90.18693 -8.595377
-13.25882 92.72888 -10.14427
-13.58179 91.87571 -9.97197
-12.40461 91.36722 -10.784
-10.58642 93.405 -11.76043
-12.65057 87.96051 -10.18057
-13.44335 90.11674 -10.05961
-13.97381 87.60268 -9.274868
-11.99224 90.55591 -10.98457
-11.22453 88.14693 -10.82437
-11.96811 88.85733 -10.69951
-15.66314 87.96175 -8.044843
-10.1008 88.85683 -11.42628
-10.53342 83.39732 -9.007859
-12.04124 85.95298 -9.755014
-14.2177 86.54662 -8.927501
-16.53914 89.29273 -7.168779
-9.198949 86.62373 -10.73988
-5.171812 87.97916 -11.48291
-3.106332 85.849 -10.32107
-9.438925 86.51878 -10.64359
-12.3102 84.99451 -9.30217
-14.31715 88.85446 -9.271517
-5.805076 90.45882 -12.41237
-7.575522 88.06147 -11.52448
-7.739458 86.27794 -10.57472
-6.537291 90.04272 -12.3076
-8.288446 86.50732 -10.71175
-12.05759 117.3342 0.3376252
-11.60107 117.0707 -0.5317517
-12.15751 118.1639 0.9220993
-11.04317 116.4828 -1.506051
-14.21245 103.0575 -5.308751
-14.74642 98.43583 -6.881988
-16.46624 99.31995 -3.241683
-16.59684 97.73692 -4.001165
-14.80126 96.1969 -7.806101
-13.88179 96.51621 -8.700984
-14.5278 95.48356 -8.345572
-17.58076 93.3354 -4.476163
-17.29809 94.44646 -4.494128
-16.5535 92.4162 -6.735753
-17.08519 92.95223 -5.68569
-10.92818 96.52337 -11.09538
-14.92867 95.18356 -8.014534
-10.92998 94.52713 -11.49904
-8.922925 93.31178 -12.39454
-10.10591 93.6409 -11.96762
-11.42385 93.95765 -11.28266
-7.37635 94.4355 -12.6911
-7.87325 91.81977 -12.50208
-15.2367 93.37467 -8.14486
-14.09327 93.75829 -9.280059
-2.091579 95.06199 -12.68915
-4.861098 96.47839 -12.55176
-2.581873 98.07408 -12.16914
-7.06034 96.51481 -12.4712
-5.335907 94.19437 -12.82408
-6.439572 93.17516 -12.79125
-3.796932 97.00723 -12.42917
-12.19831 113.2551 -2.415304
-11.83492 105.0121 -6.825508
-6.663031 106.0075 -8.516993
-9.331639 107.6654 -6.82133
-4.673296 83.06355 -9.113125
-6.019937 83.29711 -9.166385
-4.365405 83.92708 -9.40349
-6.202328 84.62207 -9.641363
-6.468204 102.1649 -10.72009
-6.609104 103.2579 -10.18187
-8.834259 103.462 -9.467049
-10.79652 102.0192 -9.124167
-7.864779 101.9145 -10.59655
-11.37237 102.0942 -8.695618
-14.55848 102.5902 -5.032784
-12.71174 100.7413 -8.178152
-13.14008 99.06823 -8.496098
-11.93348 102.8121 -7.891909
-13.80752 97.33442 -8.479062
-14.98456 98.00054 -6.791229
-12.87054 96.11707 -9.78458
-10.03586 95.52188 -11.75427
-11.4133 98.46134 -10.17712
-12.09538 97.30396 -10.07922
-11.95494 102.3111 -8.121007
-11.01939 100.2283 -9.787636
-7.400124 96.34806 -12.44487
-9.045385 97.70889 -11.67954
-5.460615 96.6296 -12.52411
-11.90177 99.39372 -9.465196
-14.04289 101.7001 -6.231128
-14.34852 100.9446 -6.223456
-16.40303 102.5053 -0.9495738
-2.965595 98.57032 -12.04922
-13.49384 100.9909 -7.209407
-15.92325 103.5511 -1.58127
-15.67046 103.8872 -1.997489
-2.475159 86.52589 -10.70448
-5.189877 85.58316 -10.15186
-10.00519 114.6554 -3.332764
-3.401702 84.84177 -9.806682
-6.235897 98.94373 -11.96017
-10.81828 100.7294 -9.719239
-9.245989 100.4915 -10.67362
-7.5055 100.6616 -11.21655
-9.552243 99.03419 -11.08593
-6.979958 100.3529 -11.44911
18.50452 93.81057 0.7772145
16.92116 101.2484 0.1203111
12.91218 108.9344 -3.694927
16.91722 101.7717 1.825279
18.3579 94.3063 1.346195
16.80468 99.26266 -2.311774
19.54638 89.76097 -0.107162
20.13904 84.39699 -1.691101
20.21876 75.67517 -1.49746
12.85957 115.587 3.039961
20.51233 76.42946 1.480583
20.19335 85.8981 -0.4475977
16.42575 101.3723 -1.868098
19.37305 90.63423 1.309568
14.5701 109.8449 0.1044213
20.43313 78.11935 -0.7482681
16.41302 102.8775 -0.5148909
16.47106 103.9283 2.495319
20.43486 79.65703 -0.9791126
13.0917 123.7397 5.164266
16.29226 104.6309 1.631729
16.05075 105.0535 0.5774692
14.14852 110.9483 0.1507047
20.58378 78.14178 0.2564145
13.00859 118.9838 4.203641
12.56512 115.3007 3.590657
16.71034 102.6878 1.277171
20.53379 82.75544 0.06663621
11.76832 74.17974 -8.801842
6.362183 75.64736 -8.777468
2.22258 74.24785 -8.802138
17.27145 99.73344 0.6492901
1.962472 94.42541 -12.73558
19.84011 88.4382 1.749935
4.444654 74.68291 -8.795711
15.40396 104.7619 -1.929235
4.179755 75.2942 -8.784154
19.29696 90.68884 -0.5150188
12.8093 115.3387 2.910882
15.53589 107.3756 2.690895
8.413643 85.75899 -10.20154
15.06466 108.6591 2.804601
5.862271 117.0028 -5.211169
2.92481 112.8226 -6.084876
9.636466 119.8904 -3.251232
12.02888 121.3337 0.251285
20.29136 77.31947 -1.490208
18.62329 93.39985 0.2595829
12.8568 119.0815 5.075181
0.9259636 102.9644 -10.30876
13.07584 122.9989 4.219014
12.79653 121.339 5.327683
17.47389 98.40507 1.840815
2.738583 111.7301 -6.306825
0.860068 99.04247 -11.88602
19.4773 75.44878 -3.764991
17.30405 99.5711 1.88334
12.907 113.7482 0.2743372
15.82314 106.2536 1.311563
15.07846 108.6259 2.043827
16.80233 101.7929 0.271607
19.56868 89.80637 1.512309
20.37215 83.8182 -0.7177186
17.01021 101.2895 1.100664
17.46387 98.61725 0.8467873
14.49182 110.1279 2.42295
20.48499 83.9859 1.567216
20.3899 83.35238 -0.8408697
17.03142 98.52005 -2.147805
14.18063 111.98 1.634405
16.80201 98.50333 -2.925028
16.93224 100.0587 -1.212017
16.58274 100.6298 -1.983134
16.00857 100.0042 -3.867366
15.52753 99.25343 -5.275059
14.42738 107.5189 -2.126248
15.40936 99.93323 -5.082276
19.37288 82.86478 -3.95957
1.168834 75.68689 -8.775697
6.392923 81.26772 -8.746467
4.511179 94.63749 -12.78073
18.42008 74.03154 -5.470787
12.57865 121.7828 1.725619
13.35349 125.8264 5.411415
20.52536 81.20164 -0.6420498
19.96921 78.31827 -2.61263
20.24001 75.25259 -1.220601
11.96619 119.111 0.8770936
6.682989 116.6586 -4.870776
17.96756 95.68929 -0.3176708
17.79686 96.20309 -0.8465634
17.90346 94.26711 -2.908337
15.98714 104.0949 -0.8179585
15.99921 102.6103 -2.128314
15.81269 103.3697 -2.005176
19.23607 87.72878 -3.207772
14.63383 109.481 0.3183885
14.16121 110.3696 -0.5261379
14.32839 100.4359 -6.476264
7.353697 73.91912 -8.806125
1.791299 81.32325 -8.799076
20.24753 85.48689 -0.4583392
0.6639516 78.33144 -8.690626
5.720676 116.123 -5.281582
8.778174 85.2668 -9.873691
1.979089 96.12881 -12.56294
4.957998 100.7455 -11.38823
0.7531281 108.6451 -7.381592
18.70806 75.53043 -5.107529
12.38053 114.1265 -1.364057
5.966419 114.8564 -5.243289
19.8065 77.33858 -3.108405
20.36671 78.32044 -1.226942
12.56392 119.4364 2.68798
11.97066 121.7633 -0.1576838
13.03651 123.2137 2.62322
13.16121 115.314 1.331931
12.60738 115.7591 0.1503884
18.11414 94.65859 -1.39248
15.7737 89.50611 -8.052035
17.49882 94.44455 -3.994041
17.05534 94.21805 -5.122698
16.99924 95.25177 -4.633985
17.90826 93.09492 -3.825065
18.24297 91.99564 -3.617639
17.00116 97.45848 -3.140967
19.44371 88.51066 -2.218049
14.47862 108.1105 -1.588972
14.3564 104.9974 -3.919952
14.78422 106.503 -2.095821
14.26215 109.152 -1.291217
15.74839 101.6706 -3.417309
14.86176 103.6698 -3.916307
13.09965 112.7448 0.1937691
15.79652 96.29341 -6.376233
7.702202 75.40005 -8.783833
19.40964 76.83598 -3.8214
5.78539 86.21021 -10.53099
5.49752 74.4099 -8.799512
2.525135 73.62541 -8.810092
2.054046 75.12138 -8.787828
2.714697 76.25264 -8.759736
0.4187587 112.496 -6.197453
2.332186 111.2819 -6.436669
3.605266 113.2171 -5.960052
2.421345 112.8061 -6.113762
0.7381145 93.61132 -12.73567
0.8339879 100.2742 -11.47521
1.054246 101.7122 -10.90193
3.595572 94.85899 -12.73769
2.518144 96.88897 -12.43985
0.6077873 107.1393 -8.124008
18.44858 75.20724 -5.516459
17.89116 75.34887 -6.113407
11.58975 122.0872 -1.190343
10.26152 119.3289 -2.43118
8.053542 115.8359 -4.305739
12.69096 121.4302 2.604114
11.56513 112.7801 -2.997097
12.83769 110.8298 -2.548041
12.65523 111.5738 -2.228528
11.43601 108.898 -5.112993
9.73936 111.6933 -4.76516
12.75566 113.2705 -1.299345
18.42273 93.93187 -0.2740822
15.50984 103.1287 -2.969283
11.13921 100.4573 -9.602506
13.99553 104.8189 -4.573254
13.09829 104.7992 -5.731184
14.47416 106.274 -2.874423
15.3844 101.9613 -3.996048
6.766718 97.21471 -12.37418
16.02243 76.00873 -7.630478
0.7372701 83.20584 -9.197309
20.31648 79.98277 -1.695716
9.603744 75.16884 -8.788795
9.959929 76.1417 -8.772073
6.650321 76.38762 -8.758939
9.481607 74.04237 -8.804153
8.009989 75.97748 -8.772672
5.271838 77.25204 -8.728896
6.866639 78.8895 -8.674989
6.6004 80.07352 -8.674044
3.41822 75.26591 -8.784194
1.280085 80.29819 -8.701203
1.046204 109.7474 -6.945984
7.160078 113.7247 -5.068397
4.72475 111.1534 -6.234472
3.528655 108.0974 -7.538223
3.590072 109.9129 -6.749078
5.116132 112.0988 -5.924263
7.11807 109.8492 -6.314583
5.436001 113.6081 -5.558611
11.58128 109.5048 -4.70214
9.670934 108.337 -6.338828
1.353199 90.29111 -12.27326
1.562582 101.0155 -11.20087
3.18081 102.5542 -10.54736
2.095974 102.1638 -10.70303
1.388723 105.1814 -9.148587
18.72912 75.8959 -5.077627
16.86926 75.02652 -7.134059
16.56791 75.38412 -7.329382
17.88723 77.53311 -6.115892
18.97162 82.07742 -4.652099
19.08813 78.35416 -4.5154
11.1089 119.9327 -1.186184
9.324446 119.8683 -3.548373
12.83837 114.2851 -0.298624
12.82025 114.0151 -0.4666517
5.258253 107.0926 -7.949892
14.13718 105.6661 -3.807231
12.40241 73.9965 -8.797251
2.241474 83.6823 -9.337459
3.080952 84.4659 -9.651029
2.306552 84.33293 -9.608242
0.7510062 86.50626 -10.69258
17.66402 83.52518 -6.201793
18.55473 85.99296 -4.956251
5.875616 78.10828 -8.694539
4.509837 79.47974 -8.675483
2.795274 79.27278 -8.673609
8.015297 116.2321 -4.234569
3.705294 108.3862 -7.375156
5.095894 108.832 -7.044082
4.6634 107.9625 -7.500256
3.526221 105.9159 -8.745463
2.973157 106.6429 -8.361768
5.922642 104.7117 -9.415153
7.977427 112.9661 -5.004303
7.626251 113.2407 -5.071997
12.33562 107.7871 -4.891357
7.717799 106.8419 -7.759408
6.350522 108.0206 -7.269448
1.632834 87.89738 -11.39995
2.009636 89.30171 -11.96501
4.350011 94.04705 -12.80477
4.902014 92.60096 -12.76755
2.851721 101.6436 -10.96081
5.078998 101.3598 -11.14384
6.877643 100.8741 -11.22324
2.704105 101.0474 -11.20503
4.968754 99.58096 -11.79773
5.710069 97.3615 -12.38051
2.926635 103.2577 -10.18348
3.863191 104.1222 -9.733706
19.87489 78.00597 -2.862647
19.34742 78.4938 -4.079102
12.18657 119.2275 1.585817
10.74476 118.3399 -1.674498
8.435311 115.799 -4.153053
8.918002 112.8605 -4.617044
12.17983 115.5274 -0.4808179
13.81227 102.083 -6.311389
12.98387 105.0578 -5.707332
13.61402 106.2732 -4.282426
12.57383 100.2336 -8.540352
10.12588 78.01962 -8.699327
15.9364 81.17083 -7.478536
13.1293 76.68044 -8.642142
13.51769 77.72479 -8.512501
4.573904 83.68484 -9.315722
3.845398 81.52311 -8.810746
2.388308 86.80939 -10.8599
3.867735 84.96267 -9.85457
20.09896 82.76814 -2.212801
19.51458 81.48199 -3.810544
13.92771 78.82626 -8.317936
17.26124 83.48194 -6.580578
19.36128 85.35452 -3.664206
18.40164 84.65803 -5.321128
15.56017 85.78829 -7.95371
18.36843 87.03453 -5.065481
19.36695 83.40075 -3.879164
6.110239 81.29568 -8.754979
7.155868 108.569 -6.876994
7.988229 107.0744 -7.547595
10.82004 110.4517 -4.781995
11.78712 109.0628 -4.746136
9.291306 107.9441 -6.699103
5.719027 103.3597 -10.18647
7.989073 106.5199 -7.881746
6.912294 98.33816 -12.07959
8.500383 96.97462 -12.04503
8.605446 98.33104 -11.59743
8.549474 97.88503 -11.74662
4.796515 99.91039 -11.6821
3.407244 96.4008 -12.54337
4.949745 95.78962 -12.70361
11.41414 116.6381 -0.8415949
8.753705 117.7205 -3.773319
7.991242 112.5809 -5.07874
13.08741 100.477 -7.924078
11.90906 99.26482 -9.523337
11.84301 98.41038 -9.881961
13.61295 98.91914 -8.031704
12.69762 99.77998 -8.630994
6.223634 81.95073 -8.840075
6.960896 80.85027 -8.71321
10.4746 81.80891 -8.728147
4.78707 88.29766 -11.61779
3.828708 86.33429 -10.60134
6.511201 83.51971 -9.204003
17.91991 82.09399 -5.980404
19.91164 85.22878 -2.18966
6.140409 106.6992 -8.127601
9.835825 104.1033 -8.633283
9.838619 105.7228 -7.717524
11.33283 105.2072 -7.098219
12.37682 102.6195 -7.5638
8.2739 104.1775 -9.258802
11.5166 103.6346 -7.795405
8.548527 112.3762 -4.962708
10.95164 108.5052 -5.628217
6.452385 96.26034 -12.58545
17.90272 79.02969 -6.070023
14.88268 78.71626 -8.007661
16.40977 80.81985 -7.207939
8.872149 83.23748 -9.028797
16.49933 83.00349 -7.125915
10.93537 117.2715 -1.557171
10.64393 116.3174 -2.188328
10.50008 101.5263 -9.563653
10.0054 103.1734 -9.048245
11.21236 100.0311 -9.727909
6.247204 91.91105 -12.70095
15.34454 83.63405 -7.876735
9.166515 83.98576 -9.250592
6.989493 84.35995 -9.504959
5.975443 83.9277 -9.368461
9.050995 82.75739 -8.923609
8.79273 84.13874 -9.322743
10.2414 82.67165 -8.854737
11.13979 82.09069 -8.74523
13.08499 80.48549 -8.446938
13.52153 81.84152 -8.436462
10.45234 79.53238 -8.642814
12.00212 90.78752 -10.99655
3.757742 93.75744 -12.78069
10.10466 95.54717 -11.71773
8.847307 94.31823 -12.36964
7.133544 89.91164 -12.19779
7.290466 88.86015 -11.89492
4.252463 87.99629 -11.46918
13.3608 78.59616 -8.480773
12.10416 94.63991 -10.7557
7.306481 90.71462 -12.41492
4.835967 93.90327 -12.82436
9.431675 92.425 -12.18631
11.19676 89.32034 -11.17781
11.84619 95.03275 -10.86669
8.213042 90.46663 -12.23382
6.800252 91.3416 -12.5774
7.982851 91.33485 -12.41848
9.960258 90.80943 -11.88057
9.684376 89.69627 -11.75685
10.3454 86.92363 -10.66141
11.2499 87.67361 -10.67956
11.4787 84.83967 -9.412427
12.36724 87.79841 -10.26348
12.10141 90.38027 -10.89739
17.86716 90.65591 -5.08531
16.894 84.60051 -6.887169
14.13411 88.24731 -9.318898
14.3571 94.1338 -8.933931
12.93822 93.21204 -10.34372
17.69108 86.36522 -6.045424
