# .PCD v0.7 - Point Cloud Data file format
VERSION 0.7
FIELDS x y z
SIZE 4 4 4
TYPE F F F
COUNT 1 1 1
WIDTH 1668
HEIGHT 1
VIEWPOINT 0 0 0 1 0 0 0
POINTS 1668
DATA ascii
0.2906834 63.20527 -2.734759
-14.15289 64.46532 3.411084
-0.254418 62.98311 -2.704294
-12.76699 63.15041 0.2715189
-0.8558922 64.31512 -2.883392
-13.37008 63.44151 1.229319
-12.63441 65.41909 -0.09866565
-11.21526 63.03218 -1.295672
-2.501662 65.12573 -3.003514
-8.237789 65.13963 -2.944189
-12.91346 63.10052 0.4909124
-6.848598 64.19135 -2.866938
-10.42558 64.67574 -2.039778
-9.237127 64.24048 -2.529747
-2.973759 65.38907 -3.039766
-8.571392 63.80274 -2.676113
-4.665895 64.92533 -2.974165
7.844735 99.49079 11.05603
-14.39171 67.87908 3.905617
-14.26888 66.29359 5.863349
-13.48679 65.59402 8.034835
-15.18909 81.34541 4.699437
-14.28317 65.4692 4.701178
-14.46199 69.47589 5.74716
-14.63558 72.07093 5.823587
-15.16682 80.78267 4.431962
-15.20232 81.528 4.655623
-12.86101 64.94697 8.836274
-13.25632 103.0492 2.864691
-12.50611 66.97762 9.592482
-10.02689 69.61004 11.53572
-7.509079 65.40647 11.01853
-5.5447 65.10696 10.98305
-12.54607 108.1668 4.011483
-2.208732 75.84614 12.3911
-4.22877 69.27891 11.76814
12.39765 101.3757 7.534508
10.05592 111.2544 8.653999
-1.410468 65.90885 11.14213
14.25224 66.09801 5.850032
14.18438 67.20727 6.519963
-14.3395 74.70071 7.614946
-14.17383 97.22149 3.106008
-11.19476 94.90189 10.05998
-13.5645 100.4766 3.084654
-14.76893 74.49848 5.261006
-11.96724 110.3364 4.455048
-11.42991 112.1671 3.251734
-14.05954 97.98535 3.64481
-12.2356 109.4774 4.041744
-13.10495 104.7885 2.45145
-15.35909 85.21529 4.070034
-10.7452 114.2012 5.915103
-10.05417 113.8004 7.670969
14.64349 71.93276 5.250735
13.45534 99.03223 6.408782
12.25025 109.4094 4.059298
11.69225 111.3001 4.167316
11.87672 110.5353 4.850389
-14.20889 65.57764 6.001415
-13.45652 67.26875 8.440214
-2.813549 113.16 12.68316
-5.017697 113.7101 11.92833
-15.36174 83.79368 3.377034
0.8071899 65.02016 10.97249
2.851122 65.04636 10.98159
4.185704 65.18634 11.01244
10.74779 68.89403 10.95054
4.979741 111.4296 12.07365
4.279078 112.6046 12.25151
-8.666736 66.99149 11.36237
1.725621 64.55305 10.88195
10.88076 64.6293 10.37896
-3.685521 109.244 12.85619
12.24798 64.43209 9.384858
13.76184 66.42235 7.751011
13.82653 64.39024 6.879653
14.1073 64.77084 6.085012
13.06268 102.5787 5.241958
14.01638 65.97453 6.783544
14.41073 68.76151 5.768724
14.58906 72.3392 6.128152
-15.00408 93.06497 3.227654
14.81615 80.02207 6.767985
13.90689 87.65138 8.930779
15.23286 82.18854 4.563828
15.31916 83.90569 4.53302
15.17368 92.00041 2.820836
-13.55043 100.5561 3.37289
13.38594 64.03122 7.840493
-2.113417 113.9596 12.79108
-9.399362 113.1449 8.750645
2.482512 112.1798 12.79687
10.67644 108.3967 9.173491
2.265442 111.4543 12.90022
14.41541 67.96832 5.291026
-11.19354 113.1479 3.706402
-14.51601 72.82912 6.537117
-14.73995 74.04667 5.634903
-12.06806 110.2183 3.321765
-7.004397 111.0399 11.11737
4.325894 68.98439 11.71392
-2.597749 70.41621 11.91351
12.9662 105.8844 3.385185
12.49592 108.486 3.931553
6.155358 109.7197 11.80111
-15.09109 79.76624 4.667499
10.60525 114.2275 5.73173
9.888131 113.9452 7.84716
10.81793 113.5168 5.621681
15.02615 78.97901 5.028154
-12.39224 95.65474 9.15656
14.77944 93.8123 2.318789
-12.70759 107.5663 3.317053
14.41918 72.06048 6.853147
13.59525 71.80859 8.879202
14.50027 74.53053 7.018412
13.30172 102.1557 3.996408
12.90292 106.4268 2.921501
12.87869 104.874 4.675933
11.69933 110.7725 5.419675
11.48762 111.5032 5.414573
-14.04492 66.64479 6.893301
-14.35272 80.54868 8.362662
-14.49404 74.39593 7.030453
-14.90987 77.90636 5.662502
-14.95496 79.14158 6.191185
-13.47456 84.40316 9.769711
-14.33515 96.73289 5.062272
15.39032 86.00928 3.506833
15.37126 87.01236 5.027192
-13.65914 99.8367 3.630934
-13.53086 100.1996 5.106984
15.07636 93.17689 4.568007
14.38962 96.04838 5.357893
-12.83952 103.3727 5.772447
14.9199 77.13884 4.647774
14.66483 72.46538 5.503286
13.75304 99.40606 3.182264
12.68394 107.2906 4.662248
13.25236 103.0161 3.411832
11.28253 109.6678 7.598011
12.28591 108.672 5.475368
-13.91133 67.25674 7.535951
-12.63058 73.44646 10.24205
-14.68456 72.90468 5.705248
-14.84266 78.15391 6.415267
-14.35767 76.38705 7.77619
-14.41061 78.82037 8.011352
-15.22421 83.09735 5.404497
-13.85789 81.21437 9.242668
-10.94347 80.68992 11.90165
-12.81252 79.4103 10.47301
-15.17913 83.56224 5.850563
-15.17205 83.45538 5.902427
-15.35018 89.91321 4.906715
15.06429 79.422 3.920161
14.7991 78.94548 6.538992
15.40339 87.48212 3.846325
-14.00737 97.46898 2.283551
-14.51314 95.97049 3.74051
-13.482 100.0874 1.86712
-13.29593 101.4494 4.979046
14.40358 95.97197 2.594593
13.96116 98.51904 3.815449
15.27935 91.54921 4.311886
-11.94333 108.4231 6.883589
13.47629 77.9799 9.632677
13.40175 72.5963 9.284087
13.88133 68.9502 7.989134
13.58982 68.8542 8.472847
13.10513 66.9734 8.903156
12.92482 72.22559 9.955055
14.306 74.18956 7.63609
13.37604 99.64194 6.075991
13.69786 98.82368 5.736347
13.33641 101.6149 4.485623
12.2719 108.4492 5.700102
10.5063 112.9686 6.91841
-13.25308 69.23962 9.071708
-14.77937 79.40112 6.907898
-13.67725 73.67234 8.970875
-14.13773 80.62882 8.827559
-13.78999 77.58936 9.088019
-15.37999 86.58131 4.679891
-15.4082 87.64142 4.346998
14.91539 81.14214 6.66691
15.09896 80.63599 5.417304
15.15951 81.11935 4.879811
15.36367 85.25338 4.402809
15.35029 84.37405 3.664949
15.24485 88.12504 5.788141
-15.15899 92.60461 4.22935
-14.21406 97.3444 3.875795
-13.91574 98.48915 5.324614
-13.47886 101.0419 3.647714
14.24502 96.18828 6.031606
15.06101 93.2376 5.219079
14.87773 91.66158 6.446814
14.4636 78.4407 7.567975
14.71539 76.63695 6.345152
14.46534 75.91787 7.262061
12.71023 103.103 6.338824
12.53818 104.8492 6.387868
10.61005 110.1757 8.489362
10.72824 111.3015 7.65053
9.492314 114.2777 8.426424
7.82838 109.575 10.97874
-12.35738 76.82739 10.86068
-15.35961 89.56232 5.446042
15.365 86.2886 4.902757
-14.86757 93.55672 5.689281
-14.73709 93.73791 6.170877
-14.57893 94.7664 5.654161
-12.50812 105.3905 6.35103
-12.66371 105.4114 5.718788
13.60945 75.77338 9.25529
12.54008 100.2243 7.739221
12.14698 106.7528 6.992154
8.794373 113.0933 9.359513
8.860671 109.8359 10.26169
-13.82678 76.54633 8.98873
-15.28646 91.04735 3.181614
-14.16959 91.41653 8.162
-14.06664 95.56516 6.909318
-14.4951 94.64582 6.273276
13.73078 79.08881 9.216572
11.80571 102.5518 8.265553
11.22924 101.7556 9.142205
13.88259 97.98729 5.913873
6.516247 110.9728 11.38902
6.626441 109.7236 11.57484
8.348475 108.5328 10.89731
5.605983 108.1347 12.27372
7.792973 109.0961 11.07866
9.687862 110.4737 9.399326
-15.30729 88.45123 5.615647
-14.99402 89.39323 6.69178
-14.72425 88.29305 7.466722
-15.27207 86.95464 5.709773
-15.27471 85.63013 5.423631
-14.80754 91.57851 6.734917
-13.01875 95.67132 8.549138
12.73199 79.97685 10.57032
12.06984 82.59311 11.14211
12.58557 82.14435 10.77661
13.08707 81.04739 10.23175
12.11126 83.77481 11.01667
11.05124 81.9888 11.85049
13.66926 83.13649 9.535964
10.95938 83.81223 11.68872
15.08024 84.14959 6.44157
12.8144 85.04156 10.40477
15.24708 87.53685 5.862868
11.0705 86.43838 11.44215
13.69681 77.40197 9.089334
4.661393 92.22041 11.19207
13.72634 95.76762 7.596128
7.326733 112.0042 10.69964
9.05486 105.7296 10.81866
-13.97285 85.62463 9.011209
-13.34538 82.83842 9.952653
-11.98565 84.66879 11.10361
-12.31328 81.83959 10.8257
-13.09863 86.36877 10.10799
-13.98528 88.6661 8.75328
-14.3206 94.82622 6.712891
-12.51313 97.71436 8.52107
14.39921 84.69263 8.363343
10.00294 82.57156 12.14369
9.403219 91.91935 11.0074
11.89547 85.34836 11.07943
10.99526 97.64518 9.740732
2.91721 108.0359 13.08584
7.003195 108.5136 11.60087
4.844389 109.7512 12.40101
3.18187 108.7295 12.98758
6.448571 105.1705 11.99695
1.142328 108.6367 13.14673
9.421673 106.6181 10.55449
-15.19379 84.84098 5.91958
-13.16645 91.27371 9.163458
-14.34665 90.56803 7.987406
-12.57536 85.54961 10.61301
-13.4981 88.20784 9.344976
-12.62454 88.64574 10.22347
-11.88341 87.7776 10.79321
-13.28031 97.07172 7.746824
-13.62614 98.18775 6.557143
14.31734 84.50468 8.556223
9.605445 84.84666 12.05171
2.787873 110.8891 12.82277
3.936825 110.3427 12.67132
3.962628 112.0307 12.40915
11.01848 106.9202 9.065857
9.558554 84.01093 12.15806
9.014774 86.83983 11.87365
2.626629 114.0148 12.69543
-13.37593 72.90421 9.361275
-14.20661 72.43384 7.602622
-13.99035 71.97382 8.063661
-13.64277 71.0751 8.730746
-10.90314 69.81959 11.26547
-12.8312 70.86441 9.952492
-9.758936 72.60783 11.96132
-11.5075 69.55877 10.85625
-10.99757 70.24387 11.26629
-9.915697 73.06742 11.95654
-10.38093 75.39394 11.99702
-9.983677 74.63996 12.01626
-12.66318 69.61285 9.875836
-11.48275 68.35291 10.66034
-13.19065 67.64206 8.902803
-9.834928 75.48625 12.14827
-14.06804 75.42624 8.433729
-14.19455 74.29362 7.966726
-10.41861 66.51234 10.95612
-10.28665 71.37466 11.69123
-8.95979 69.11958 11.73663
-12.84195 74.91484 10.34494
-8.377888 67.95497 11.60116
-9.705504 65.66637 10.93819
13.88708 91.02447 8.33644
13.51065 86.4086 9.570892
12.43786 88.86196 10.25639
13.74817 85.67397 9.284283
13.50287 88.56629 9.290017
15.39001 89.56618 4.78858
-11.16664 109.7636 7.79802
-12.46363 106.7057 6.047019
13.75623 67.32806 7.725642
11.92776 65.54554 9.873335
13.42976 64.66261 7.866086
-13.21449 77.40743 9.948829
-11.89736 78.61275 11.27348
2.44626 85.16589 12.14875
-9.542394 78.74223 12.31715
-6.970389 79.35534 12.51189
-8.854083 77.09715 12.40628
-7.055983 78.78544 12.5155
-8.877771 77.73918 12.37907
-6.649397 76.5972 12.42578
-7.507514 77.89689 12.48833
-6.108585 74.95437 12.31824
-7.228264 74.23756 12.25671
14.55942 93.8401 6.577089
14.82756 93.80869 5.805063
-11.08049 101.9086 9.186345
-12.07306 102.9177 7.838992
-11.04197 103.5281 9.235914
-12.52079 105.932 6.120286
10.70523 80.33223 11.91702
11.03028 78.13302 11.70178
9.566867 78.70226 12.29481
11.57557 77.85122 11.46124
13.7237 97.05049 7.045692
-12.587 83.47101 10.7845
-10.98703 82.22122 11.81275
-6.557545 80.35477 12.50403
-10.19402 81.65965 12.13911
-11.94039 84.12551 11.1812
5.809529 88.88339 11.60624
-9.514497 84.35847 12.13628
-12.77924 86.87785 10.25787
-14.30147 85.09283 8.514005
-12.43251 94.70222 9.416148
-13.45942 94.18068 8.4374
-11.87129 97.15161 9.266282
-12.51334 89.39087 10.13392
-9.75501 91.86182 10.99037
-12.0986 91.76602 9.99276
-11.81475 93.64783 9.938288
-11.76222 95.94601 9.642743
-11.82018 96.61643 9.399526
9.086684 86.86945 11.85729
10.43001 98.32008 10.02825
12.13326 97.24847 9.059014
11.02991 96.50324 9.886876
13.78525 96.75049 6.966004
13.48982 94.2327 8.369747
11.16127 95.99203 9.889051
12.82534 93.9683 9.122294
13.66894 91.60369 8.521571
10.83469 91.97807 10.65422
10.8281 91.44754 10.74546
10.32268 91.85719 10.80158
-9.593508 85.11477 11.9907
9.015969 93.10651 10.88026
10.76608 90.45433 10.94718
9.695654 87.47357 11.64202
12.14592 91.60844 10.09264
13.6798 90.15499 8.912779
2.585247 92.85839 11.20648
5.968924 91.12821 11.28906
7.024257 90.55471 11.35957
13.60902 92.16747 8.511303
14.56257 89.98718 7.584952
8.681335 93.15545 10.89476
5.848217 90.12994 11.43357
4.467746 91.81997 11.2379
4.009605 92.04029 11.22047
5.955743 90.64185 11.35865
8.62086 88.64377 11.59989
4.800602 95.39896 11.13099
-1.839689 91.28644 11.3211
5.771589 88.3402 11.68585
8.988576 85.97285 11.98834
4.672677 89.57312 11.51645
5.269092 95.43824 11.09575
-3.040651 91.42262 11.30887
1.338002 93.17621 11.22236
1.966067 91.37673 11.30447
-0.2594801 91.25728 11.32691
-1.478022 91.09419 11.34236
0.9974927 94.51582 11.33919
7.027977 86.33604 12.02225
6.003321 87.39719 11.84257
7.939189 96.0126 10.80448
2.235736 89.67525 11.51321
5.64692 93.79176 11.0582
7.959815 97.66443 10.83248
7.623019 98.48666 10.98202
5.520623 96.96092 11.14208
7.139625 96.64765 10.90141
7.441458 94.48658 10.9236
11.24547 99.16057 9.377763
6.191668 98.29414 11.19025
8.06001 98.27393 10.86494
5.117808 100.8092 11.85233
6.391508 100.5328 11.51027
5.516895 98.78606 11.38598
9.227584 101.7746 10.7201
9.359659 98.92134 10.50374
10.59187 102.0025 9.783976
3.176824 98.43346 11.69633
11.36309 104.1083 8.64609
10.22309 100.6933 10.06358
7.569352 104.5433 11.55859
9.773289 104.1753 10.45467
1.264253 100.6723 12.40351
0.4098591 96.49064 11.63931
3.362988 100.3849 12.07652
11.82783 103.5992 8.169116
9.802107 107.33 10.11974
5.173112 102.0721 12.08021
1.31846 102.3428 12.78359
0.1449324 99.4388 12.17199
10.60723 103.9995 9.627775
4.788072 104.2453 12.48835
7.357035 104.7473 11.64844
-9.286696 72.3981 12.05479
-13.41032 64.97884 8.034033
-10.91501 64.93686 10.44551
-11.94236 64.97641 9.76333
-12.98168 76.23298 10.20685
12.51534 72.24678 10.36104
10.71088 76.25498 11.84179
11.74447 63.69158 9.632877
-3.895008 72.77708 12.18561
-7.248801 75.17188 12.33027
-7.703087 73.30036 12.26416
-11.54193 105.3863 8.483858
-11.97525 105.1687 7.665174
-12.3356 102.4376 7.361805
8.282161 77.21931 12.44718
-7.075491 82.16305 12.45911
-6.801595 80.50866 12.50383
-6.226439 82.70034 12.40169
-6.300288 81.15713 12.50362
-8.479335 87.08128 11.90819
-10.65796 87.67149 11.44018
-9.407938 91.08393 11.14061
-10.11501 89.07412 11.31636
-7.473713 91.94142 11.13552
-6.12417 90.65321 11.35749
-6.036375 89.66548 11.51382
-4.708335 91.61451 11.26035
-7.240609 93.09969 11.02081
-8.866567 93.99648 10.79284
-3.833383 91.09657 11.32634
-1.379361 91.93428 11.26863
-0.2160565 93.61744 11.26449
-6.249454 93.94801 11.03321
-10.26462 93.86217 10.567
-9.357551 96.23708 10.54662
-3.86035 89.28531 11.57878
-2.868187 85.71293 12.06913
-2.500736 92.29914 11.23778
-4.123322 93.61761 11.1623
-1.510938 90.2616 11.44613
-8.002637 86.32257 11.95268
-6.142567 88.60664 11.68892
-2.501963 89.20002 11.58912
0.4521739 94.63691 11.38779
1.378368 95.10949 11.39047
2.10029 96.80325 11.55878
-4.658544 86.99454 11.89172
-4.062151 88.83618 11.64555
-10.14804 99.25155 10.11708
-10.06857 96.72328 10.30999
12.29791 87.92267 10.54028
1.103546 101.3323 12.57582
1.200788 100.3785 12.34692
0.3641926 102.3702 12.82675
-1.147952 104.8663 13.19458
2.233004 104.6045 13.05856
5.907089 104.8381 12.1912
3.023041 103.9257 12.8506
4.114007 107.6395 12.8592
3.554567 107.1804 13.01347
3.715789 105.6687 12.90701
-0.1485762 103.094 12.95386
-0.4933949 105.4917 13.23445
1.718626 103.4061 12.94169
2.431307 105.481 13.10653
-6.589896 106.0618 11.96736
-2.273002 103.5682 12.9019
-1.236051 104.5474 13.162
0.02547878 98.51197 12.01706
-8.79775 98.51609 10.62856
-8.460139 97.33916 10.73413
-8.679494 98.76503 10.67595
-4.198938 98.31255 11.52838
-3.30873 99.17561 11.83148
-1.184559 98.45729 11.94495
-1.950351 98.59081 11.88883
-3.241091 97.83683 11.5861
-5.570888 95.50188 11.08457
-1.997295 101.5024 12.53097
-3.221143 100.7808 12.20479
-5.263636 97.45954 11.25765
-5.614127 94.80666 11.07064
-4.698971 96.33857 11.21559
-5.744455 101.582 11.86331
-4.238731 100.4464 11.94285
1.614468 98.56748 11.92771
9.901145 73.08635 11.96187
12.64705 73.21167 10.34879
13.21647 70.65232 9.338979
7.490063 69.52986 11.81177
10.49103 68.1188 11.01013
7.20178 68.06667 11.56198
10.51425 70.77946 11.55934
10.2257 68.94138 11.18149
8.622721 71.04878 11.95445
9.354205 65.37823 10.96007
-5.955753 68.2132 11.61685
-4.272462 71.47175 12.04509
-7.127159 73.47461 12.25556
-3.856609 71.76348 12.0796
-8.559592 114.2423 9.609035
-7.06939 99.89229 11.28106
-6.04818 99.95013 11.51053
-12.64816 100.2119 7.553539
-12.23409 99.79054 8.29494
-5.511074 84.3361 12.25558
-9.42117 85.01665 12.03317
-1.697475 86.72346 11.93095
1.258187 85.66306 12.08124
-3.548796 87.75193 11.79884
-4.456831 89.18024 11.59482
2.954297 83.69052 12.31705
-6.022247 87.25032 11.88205
-5.600293 85.32453 12.13048
-5.417253 96.8346 11.17637
12.11804 74.82471 10.90054
12.64519 76.43507 10.60845
7.26592 75.72274 12.43445
9.407135 74.37009 12.17063
10.32296 75.47047 11.99785
7.563434 76.72132 12.47227
2.781953 73.08064 12.19508
8.023665 72.63754 12.15183
8.933531 70.36358 11.84807
7.825332 75.90607 12.45208
6.290959 71.93021 12.09004
4.851317 74.39722 12.31049
6.222785 74.006 12.28139
4.580226 71.3944 12.04182
7.472277 71.40652 12.04257
5.692203 70.4315 11.93148
9.040935 66.93367 11.28527
5.709421 65.98872 11.18237
11.28656 65.62647 10.32724
-5.525748 66.26215 11.18112
-0.4759279 70.64215 11.94342
-6.665231 68.63327 11.69063
-6.37592 66.77698 11.28628
-4.569911 67.79359 11.52319
-8.18552 70.36153 11.84754
-2.95085 73.41404 12.22709
-10.94093 100.7594 9.488268
-9.612855 104.2637 10.48467
-4.802476 83.33775 12.34861
-9.179691 85.56363 11.93251
-6.154208 83.83149 12.30824
-4.362747 84.59474 12.22349
0.9784549 79.72755 12.49749
-2.053365 72.86393 12.18147
3.95722 73.14515 12.20095
1.728293 72.64776 12.16045
6.015942 66.97565 11.38015
4.36871 67.95958 11.54993
3.612727 66.01638 11.17785
1.932672 67.03719 11.37805
2.883255 66.28624 11.23173
7.996472 67.18268 11.41321
-0.3179981 68.2232 11.59374
-0.9651595 72.16787 12.11743
-1.527 71.83231 12.08367
0.2111887 73.12472 12.20087
-3.162292 75.61046 12.37308
-1.941268 69.00755 11.72185
-1.468805 77.35667 12.4642
1.571095 77.92078 12.48304
3.420775 77.07602 12.46603
0.9388027 73.08894 12.19723
2.701235 74.61231 12.32065
3.157642 76.06658 12.42241
-2.239641 77.45729 12.46724
2.726856 79.68521 12.49252
5.103363 75.91777 12.42426
3.762547 79.91643 12.49219
1.449499 81.70303 12.45662
1.244954 79.33247 12.49635
0.4428393 70.28656 11.89829
2.061257 70.5325 11.93235
-1.931264 76.54862 12.43011
-4.220174 74.76929 12.31258
-4.48032 75.82929 12.38347
0.5608129 81.93781 12.44863
0.3907367 68.15739 11.5836
-3.272412 65.19775 10.99947
-1.945304 79.10107 12.50072
-1.567397 81.40262 12.47876
-5.824772 76.54778 12.42282
-4.401212 76.4435 12.41828
-4.606442 82.81535 12.39638
-1.442259 80.54266 12.50087
-1.81457 79.10772 12.50064
0.3501138 66.05204 11.17658
0.4179812 82.92189 12.38284
-3.04885 80.25034 12.50851
-2.078048 67.0023 11.36289
-1.493812 82.80515 12.39439
-1.546531 80.56516 12.50089
-10.96919 102.495 9.345812
-5.167968 100.5705 11.79464
-8.930717 103.3021 10.94269
3.684667 71.30831 12.02978
-0.2773163 71.35741 12.03043
4.153973 72.1406 12.11083
6.091451 77.18771 12.4759
4.559289 78.0815 12.48717
9.682916 79.49802 12.29376
9.586613 79.13413 12.31034
9.718521 80.77919 12.2774
6.248273 80.47893 12.50502
7.359388 82.10226 12.43671
5.368907 80.28188 12.50411
4.502909 79.6144 12.48474
6.140684 82.12137 12.43052
5.613647 85.73724 12.08341
4.873839 81.38642 12.46242
4.747358 85.91739 12.05748
1.22647 84.18777 12.25987
3.803778 84.18947 12.26901
-1.737085 68.59486 11.65895
-10.94317 103.2438 9.372923
-7.669777 104.3532 11.52915
-3.933779 101.8656 12.31167
-7.769031 103.2479 11.44806
-6.877189 100.9833 11.50031
2.821147 73.67419 12.24478
2.62354 86.19433 12.01153
1.981005 89.12763 11.58932
1.79776 86.50515 11.9658
-0.898119 85.95429 12.03928
3.466875 86.64198 11.9492
2.067185 86.86855 11.91465
0.3536605 87.03835 11.88901
-3.521242 106.0635 12.97518
-5.19901 105.9656 12.48741
-5.596371 105.2664 12.32316
-4.305019 108.2757 12.74207
-1.508241 106.9798 13.26571
-4.508775 108.5421 12.66859
-3.307475 107.5239 13.01932
-2.316774 108.1023 13.14679
0.9103827 109.3537 13.0976
-3.39971 108.7194 12.95122
-2.7104 108.5224 13.07138
-2.315526 111.7708 12.87008
-5.257552 111.306 11.98615
0.8797741 112.3114 12.89979
-1.795194 109.9039 13.04085
-4.425725 110.3763 12.4908
-6.557186 107.4981 11.92631
-5.027287 109.1309 12.41095
-7.049153 110.0968 11.29818
-8.058772 107.6916 11.18697
-11.17257 108.7353 8.256464
-4.299685 112.7602 12.22403
-6.879013 112.611 10.96
-6.878283 113.192 10.92109
-9.506909 107.4442 10.38005
-8.905685 107.8592 10.69235
-8.902489 106.1969 10.90779
-7.933078 106.8782 11.34505
-7.11832 102.8966 11.65717
-11.14691 106.4109 8.866452
-10.61897 109.6652 8.679284
-9.963153 110.2082 9.220276
-11.4285 108.8794 7.733925
-11.91709 107.7279 7.220469
-8.607647 112.1866 9.762643
-8.783829 114.3389 9.377283
1.453256 64.97968 10.96575
0.4965418 66.92623 11.35181
13.72353 93.59872 -1.219
-1.072961 73.61048 -3.907068
14.24858 65.18935 4.700482
14.08871 64.7434 3.089404
13.7758 65.28378 1.958275
14.46412 69.01488 4.617395
-5.872084 108.0484 -5.480114
15.19508 81.46972 3.259114
14.85723 77.54335 3.061458
14.35716 70.44063 2.958799
13.81268 79.24302 -0.6543766
-12.78697 106.0149 0.3776374
14.7825 88.59548 -0.4124279
-15.01433 81.77138 1.816276
12.78212 67.12 -0.05465163
10.24205 69.3414 -2.60543
14.39811 68.47546 4.021934
8.433054 68.63651 -3.305517
14.88182 79.68515 2.17208
14.36543 72.66518 2.4339
-14.15083 66.07147 3.117587
11.20384 112.8256 2.980687
12.22459 109.3339 2.174518
14.78847 74.83389 4.07783
15.23565 86.35471 1.435478
1.025299 110.6604 -6.064551
14.99362 90.64197 1.00882
8.743753 66.53647 -2.971528
14.65797 94.07716 1.997119
13.13444 102.495 0.3699471
-0.8972007 66.265 -3.152094
11.96566 109.5309 0.9959658
12.43225 107.6569 0.5254723
11.11514 112.8235 2.339297
-6.709276 68.24439 -3.396706
13.54396 96.58651 0.07078709
1.033522 106.8507 -6.605922
0.5549785 109.8473 -6.146327
-14.31869 69.23324 3.102164
8.931637 113.5578 -2.086897
6.598847 113.1264 -4.411691
-5.250826 95.91444 -9.862406
12.92503 106.2466 2.221347
15.14054 83.63078 1.658202
1.887149 111.8116 -5.952851
8.761436 108.3724 -4.247903
13.95043 69.62828 1.744729
12.87882 95.6074 -2.259857
-2.795372 66.11309 -3.129062
-5.307593 66.34997 -3.145595
11.19186 110.4409 -0.2674501
8.992102 112.3023 -2.263396
14.34538 68.36002 3.503083
13.10714 67.00225 0.4509673
-10.51398 65.86641 -2.094871
-12.56396 107.1113 0.567862
13.52787 65.00591 1.387084
-11.43662 108.881 -1.129567
-13.68762 65.75095 1.668495
-13.6126 66.51752 1.543818
-12.91775 92.68989 -3.265981
-13.90556 70.10993 1.522063
-14.33376 70.76507 2.785341
-15.07231 80.32945 3.028649
-14.05168 75.967 0.6821252
-14.02321 71.79243 1.523858
-13.63414 80.0043 -1.375748
13.13118 103.0379 0.4833236
13.91249 92.08761 -1.587355
-12.96259 104.6915 0.1097579
0.3788278 109.1117 -6.21121
-11.31728 100.6076 -4.526265
0.5429637 112.1168 -6.070605
-3.054955 112.2436 -5.808408
-4.403421 112.9614 -5.486405
-6.571329 108.8229 -5.026621
-5.724596 112.7085 -4.989271
-7.634442 112.1712 -3.87692
-10.77613 109.7156 -1.597496
-9.583635 112.4263 -1.844585
10.66135 112.3654 0.2975485
14.02287 66.50104 2.562318
-1.592262 72.32346 -3.730932
-13.39877 98.63548 0.5443051
-15.24786 89.98271 2.019068
-7.988791 111.8376 -3.630428
-12.16516 81.56647 -3.487091
-12.30279 108.7724 1.363174
-13.82679 66.00479 1.98694
-13.61309 67.63132 1.284213
-10.04861 113.0673 -0.9826761
13.67851 90.2381 -2.587766
14.56227 73.39542 3.095665
-14.84972 92.61153 1.702012
14.71695 79.81662 1.214288
15.37974 87.29631 2.621065
-14.37562 76.87505 1.370231
-12.98291 69.06802 -0.023527
-12.9997 103.4139 -0.1802388
-12.65865 103.7675 -1.465613
-13.28367 102.0334 1.497533
-13.59969 93.6444 -1.503112
-11.67545 111.0853 2.171647
-10.92291 110.1401 -1.045321
13.5842 68.76299 1.067192
14.55805 74.43035 2.691797
15.01161 79.77783 2.945181
13.92784 79.98402 -0.8459379
14.11848 90.95221 -1.523422
14.82175 76.09402 3.598922
-14.8977 82.3762 1.469293
-15.09181 89.44041 0.903608
12.25066 108.5024 0.833637
13.55427 99.24236 1.65533
13.55731 97.85667 0.8041537
12.7699 99.85235 -1.266554
13.40402 96.75443 -0.2472234
14.40482 93.49765 0.6609043
14.95412 91.66993 1.457372
15.28602 88.00503 1.792666
14.80268 91.96722 0.8959234
14.98891 89.05282 0.2972313
-14.62352 81.00523 0.6821926
-14.35209 72.25493 2.578376
-12.57639 106.9389 0.4247147
-13.22109 100.3782 0.4018439
-14.47606 92.15986 -0.12645
-14.08789 96.29916 1.638048
-14.66144 89.31367 -0.6840774
-13.4306 92.49899 -2.411301
-14.85661 90.20761 0.1478004
-11.26376 108.7168 -1.568652
-11.44093 108.594 -1.368047
-11.18906 106.6973 -3.020173
-11.80254 104.5672 -3.171283
13.5969 66.79644 1.439334
13.90886 71.13344 1.385818
14.55052 70.13401 4.49753
14.78498 79.03228 1.895459
15.12118 82.19764 2.283142
14.68507 81.76619 0.57834
15.29478 84.98029 2.335925
15.14947 85.61641 1.124937
14.48389 74.47514 2.397049
-15.23137 85.34356 1.570708
-14.76953 84.24024 0.07836998
12.87148 101.8067 -0.8410189
13.38503 99.8253 1.008579
12.42716 101.3548 -2.189947
-14.37312 76.25262 1.486301
-14.68083 76.90266 2.42899
-14.84404 79.30149 2.102732
-14.36534 73.72634 2.27234
-14.1802 94.71664 0.7965419
-13.1117 97.0174 -0.9604798
-10.59753 111.6026 -0.5493897
-8.684219 108.51 -4.227706
-10.29345 108.6492 -2.916644
-9.746092 107.8243 -3.852368
-7.111994 108.2416 -5.009252
-12.27627 103.3228 -2.469719
-12.6405 99.59069 -1.596648
14.48174 69.50552 4.399592
14.30906 73.07376 2.099689
12.52744 72.67263 -1.10038
1.759556 74.16129 -3.95594
14.28487 75.00302 1.480496
13.61238 79.6505 -1.224707
11.18801 79.61515 -3.775307
12.50243 75.02631 -1.512928
10.13492 78.54674 -4.16794
9.974109 79.86203 -4.570498
14.47622 76.44149 1.804736
12.47781 76.46287 -1.883796
14.66849 83.18638 0.02218393
-14.85658 82.13528 1.09766
-14.90901 84.87231 0.296628
-14.44908 86.34631 -1.147367
-14.11744 88.71906 -1.995316
-12.25919 85.84476 -4.339175
12.33813 107.3072 -0.3331601
-14.8327 80.5004 1.436946
-10.45217 112.8587 -0.2083634
-10.89986 113.5576 1.480283
-5.78845 110.2514 -5.060529
-3.495966 108.1662 -6.050096
-7.737432 108.9059 -4.506854
-12.96898 99.99396 -0.587014
13.10976 70.3419 0.1200484
12.16295 70.60072 -1.2481
13.5285 75.22272 -0.2464878
12.76688 81.78925 -3.001025
-15.33724 87.07776 2.256196
-14.00556 87.65714 -2.103257
-9.621219 111.8359 -1.967548
-2.50421 107.5083 -6.336498
-12.86494 102.7546 -0.8490152
-12.22018 101.3358 -2.639523
-12.15904 99.09886 -2.957073
13.65843 81.9487 -1.811923
-12.27174 101.4511 -2.524254
-8.811213 104.4849 -5.996428
-1.977468 110.9332 -5.988112
-1.313151 109.2308 -6.157388
-1.998735 109.4616 -6.085727
-2.678856 110.6086 -5.899635
-0.7201111 106.7326 -6.656125
-1.70212 107.7008 -6.362684
-1.960937 105.57 -6.955947
-5.371527 111.5701 -5.14933
-5.121413 102.8637 -8.089838
-7.301923 106.6468 -5.637765
-8.801813 107.3876 -4.701801
-11.1094 105.8385 -3.509725
-7.915055 105.889 -5.761662
-10.55683 103.6355 -4.780725
-8.931475 104.7008 -5.806576
-9.635226 102.4696 -6.151972
-10.39868 100.0817 -5.905343
-7.282059 102.6942 -7.582899
-10.42966 104.73 -4.578804
-11.88401 100.9585 -3.434236
-8.96207 103.5022 -6.336229
-9.332129 97.23303 -7.80391
-10.38773 100.7314 -5.823074
-8.976734 95.03523 -8.443165
-8.601009 99.29436 -7.916389
-7.189825 104.7286 -6.691988
-5.577584 105.0892 -6.852963
-6.636363 99.50145 -8.896092
-5.917376 99.27837 -9.151557
-4.416804 100.2512 -9.141249
-2.034213 104.4687 -7.405529
-4.743259 98.00199 -9.596181
-2.405318 102.3295 -8.339369
-3.32021 96.91922 -9.791877
-4.848729 103.9879 -7.539514
-3.570523 102.5438 -8.304759
-3.64387 97.84293 -9.671186
-4.517544 97.17928 -9.746955
-7.916105 97.6555 -8.768412
-2.607875 96.78321 -9.774223
-3.072997 95.52296 -9.90735
-12.05813 86.01239 -4.596442
-7.748645 96.99255 -8.955029
-3.138276 93.95361 -9.998888
-5.893945 94.61243 -9.882922
1.049672 104.4203 -7.449031
-3.399807 102.1268 -8.475531
-2.979066 97.67146 -9.674294
13.14193 104.6329 2.229348
13.0154 104.5181 0.3194526
12.96648 97.13821 -1.358184
13.84735 91.85279 -1.815932
13.08321 91.77641 -3.277409
12.93765 90.61922 -3.656544
14.37794 86.22771 -1.422475
13.23952 88.63114 -3.349856
10.21378 80.31411 -4.538358
12.55365 92.11616 -4.082388
11.57777 91.02595 -5.782747
11.391 87.53545 -5.705005
11.18079 90.0133 -6.365038
13.17585 89.58508 -3.410285
13.96679 88.08468 -2.315734
11.8221 93.59431 -5.078369
-14.20263 74.30153 1.486892
-13.23085 73.90624 -0.4559772
-12.899 75.27024 -1.071496
-14.19543 73.16201 1.967928
-12.74937 71.35414 -0.6410049
-9.855403 71.62943 -3.111316
-10.94031 72.28114 -2.486253
-9.991615 97.31256 -7.051179
-12.28126 99.23232 -2.625772
-11.62949 98.98467 -4.147094
-13.35542 93.26164 -2.223092
11.9357 109.1822 0.4874094
11.65897 103.9502 -3.451483
-8.974481 112.7467 -2.618118
-5.989008 111.2928 -4.884164
11.50154 75.67612 -2.582153
14.78288 86.18498 -0.3199493
13.48974 86.97646 -2.907476
14.15624 85.59244 -1.701641
14.04486 81.62926 -1.12703
-12.49538 84.28793 -3.79234
-13.30754 88.78365 -3.24271
-14.08229 92.54086 -0.9437794
-10.74268 93.94485 -6.739167
-13.78603 88.82886 -2.554148
-12.03004 88.47887 -5.011095
-12.90489 86.33459 -3.613921
-12.59662 89.02608 -4.232392
-9.280467 90.5378 -8.426035
-10.96939 86.45231 -5.902754
-11.46312 86.92294 -5.51822
-14.65833 89.01008 -0.7584379
-12.79761 91.28397 -3.81529
-12.39784 88.28398 -4.485577
-9.811501 83.99894 -5.600016
-9.823795 84.65409 -5.856935
-7.674231 85.38517 -7.267672
-8.165613 82.93569 -5.76198
-7.332591 81.11785 -5.482734
-11.16089 84.80598 -5.073405
-12.15537 82.90852 -3.85273
-11.9116 82.48644 -3.960727
-10.31238 81.46436 -4.797017
-10.03223 82.54943 -5.140869
-13.74849 81.49149 -1.327088
-13.66768 81.29961 -1.3088
-4.996652 77.15569 -4.490886
-14.13412 82.7271 -1.270179
-12.57275 80.24422 -2.818828
-14.48467 79.32917 0.7927817
-13.27653 77.8797 -1.260059
-12.42481 79.88663 -2.846755
13.74675 70.36644 1.150037
13.07765 82.39776 -2.720491
-0.6632248 111.2138 -6.074776
2.873958 109.2426 -5.95104
1.853033 112.66 -5.969464
1.573793 107.7379 -6.352739
0.4158414 106.9405 -6.603839
-0.5863301 103.2797 -7.913328
3.21801 108.2511 -6.051664
2.551321 106.4137 -6.605164
-9.207056 106.0675 -5.054101
-12.036 96.94212 -3.764969
-9.128802 98.53527 -7.711735
-9.107555 100.9013 -7.078676
-6.857804 97.38712 -9.261847
-7.188258 94.6235 -9.481449
-6.092825 92.40599 -9.935013
-10.84908 92.32253 -6.718167
-12.51498 92.79944 -3.968977
-6.492284 91.74838 -9.770898
-9.332341 94.43319 -8.198126
-10.43318 90.48552 -7.228503
-13.08252 95.88726 -1.62505
-6.098275 92.28201 -9.92177
-4.71786 95.29494 -9.955532
-8.569583 88.0479 -8.13445
-9.250117 89.4883 -8.383409
-10.56273 92.70745 -7.060117
-10.51175 93.73878 -7.060914
-11.0968 95.37434 -5.992397
-11.29814 99.42896 -4.693976
-12.74555 93.57819 -3.352624
-6.961912 89.80159 -9.482151
-8.009437 90.26941 -9.109272
-9.337196 88.67747 -8.00556
-10.83554 90.55534 -6.709571
-9.334337 87.13926 -7.281801
-10.69428 90.08597 -6.89943
-10.87469 88.17499 -6.484915
-11.21355 87.49337 -5.963585
-9.126555 85.5154 -6.65604
3.569033 81.19759 -5.66412
-6.291508 86.57394 -8.218407
-11.69278 94.43402 -5.111471
-10.96096 97.96783 -5.591383
-11.14381 98.31958 -5.215806
-12.25108 96.31749 -3.472393
-12.32445 95.26773 -3.638843
-8.795286 91.00568 -8.720172
-4.944812 105.135 -6.900935
-1.792841 104.0941 -7.56899
11.36571 103.2619 -4.010597
12.04902 96.61337 -3.775622
5.092533 100.824 -8.893637
11.62001 94.93788 -5.177098
12.61728 98.14099 -2.027792
12.40019 100.5615 -2.270851
9.77918 93.01334 -7.974713
11.56467 95.98371 -4.990383
13.39727 93.76638 -1.926763
11.72679 94.63177 -5.0401
12.96133 99.62846 -0.6248087
14.57694 87.16315 -0.93923
11.61775 85.4776 -4.930763
12.2735 86.69828 -4.491193
13.37851 85.92383 -2.963333
12.33352 86.12704 -4.329611
13.45872 83.59702 -2.457644
10.21804 88.36951 -7.228931
11.81773 91.35836 -5.408777
-12.2114 69.43636 -1.044454
-7.06773 70.08692 -3.534032
-13.56016 69.32963 0.9552244
-11.46918 71.05289 -1.930838
-10.40552 71.36998 -2.741081
-7.592238 72.08902 -3.688768
-9.765133 72.45305 -3.139438
-9.338875 70.42642 -3.1507
-9.090155 73.09501 -3.511236
-11.27895 66.90117 -1.652547
-5.550313 71.86647 -3.674052
-6.917564 70.89243 -3.598955
-3.887598 66.78059 -3.206668
-7.074317 66.21053 -3.122292
-8.5051 69.64175 -3.380151
-2.95392 69.32887 -3.438879
-3.711692 69.84606 -3.46023
1.069548 68.4061 -3.378458
-1.193843 66.59692 -3.190962
-6.189339 72.66738 -3.771617
0.1017604 76.00687 -4.225848
-1.355216 70.62025 -3.542596
-8.74616 73.36584 -3.650876
-11.04608 79.83367 -3.907678
-2.129838 73.75765 -3.917155
-0.4775424 71.25252 -3.604709
-6.224514 70.30583 -3.497769
-2.68399 74.33844 -3.980737
0.5840728 67.57723 -3.298171
2.548072 70.15897 -3.531978
-0.9783491 74.27651 -3.978611
-3.40259 73.06319 -3.817454
-7.397384 79.32491 -5.067012
-2.766953 75.43773 -4.134582
-0.4106033 76.83369 -4.295935
-2.606205 77.57726 -4.607599
2.210064 76.92583 -4.296729
4.742055 73.99852 -4.054219
0.2972244 72.08746 -3.705317
-1.457187 75.03304 -4.04461
-6.500133 78.56088 -4.893758
-2.014875 78.37568 -5.099654
-3.766458 78.40121 -4.944811
-4.370677 79.25822 -5.034952
0.8627394 75.62373 -4.144202
10.02221 73.8589 -3.169586
-3.035449 82.79214 -5.904103
-4.524568 77.98398 -4.793084
-5.107158 77.4743 -4.595268
10.17468 82.55179 -5.088834
-0.1238976 79.41992 -4.881
2.675359 76.64351 -4.281531
2.628107 75.28215 -4.045999
-7.829504 79.45565 -5.000794
-6.132764 78.12562 -4.785783
-8.019591 82.02198 -5.616734
-4.658542 80.38911 -5.435607
-1.074688 79.07148 -4.954003
-6.162548 82.60171 -5.900437
11.23723 77.01123 -3.034998
6.368609 80.65616 -5.470511
3.898464 76.64767 -4.305201
-9.351693 74.76612 -3.607441
-10.95799 78.61131 -3.637596
-2.492567 80.78725 -5.909735
-5.239375 80.6923 -5.889617
-1.093762 82.47453 -5.670737
8.809334 80.78043 -5.163441
10.89127 83.10904 -4.862622
4.225154 73.10013 -3.894573
-9.694183 77.37932 -3.988557
-9.834433 76.02291 -3.583692
-9.514174 76.21896 -3.794189
-8.573145 74.20374 -3.790647
-7.978173 74.83888 -3.980763
-10.61063 74.49689 -2.923939
-6.233541 81.73978 -5.573474
9.025009 82.57336 -5.491473
-6.389014 77.04079 -4.499604
-11.91727 78.57977 -2.99333
-7.227465 75.51955 -4.199322
-6.474239 75.81054 -4.248484
-4.855928 81.81102 -5.390088
-4.967092 83.33481 -6.155961
9.226673 80.42242 -4.952941
10.11267 86.38634 -6.508348
11.10641 80.62644 -4.10182
7.554795 81.67651 -5.617377
9.155801 83.17597 -5.596096
-5.859708 83.81028 -6.363291
11.9833 84.59483 -4.318375
8.307474 86.77124 -7.690787
7.515304 82.0758 -5.716933
7.915512 85.8356 -7.452199
7.996103 84.37789 -6.594482
5.263118 83.50134 -6.197598
0.9285219 84.11591 -6.631443
1.016325 81.29835 -5.760813
4.577236 82.90994 -5.986142
-1.349868 83.07553 -6.040411
2.184032 80.55074 -5.616812
7.865032 85.01762 -7.016762
1.184307 85.03433 -7.207311
1.421013 82.57865 -5.759374
0.4279632 81.70476 -5.6669
5.598629 80.94655 -5.540136
6.649351 85.28783 -7.339957
2.156834 79.40652 -4.861526
0.9680515 79.96319 -5.050117
-13.63997 71.53012 0.7477393
10.79556 108.109 -2.687073
12.40329 73.52171 -1.387392
7.151269 73.90097 -3.957178
6.006018 75.78034 -4.187206
9.428732 76.05058 -3.802074
4.112429 101.6492 -8.677935
-0.2341531 97.18854 -9.669402
0.3608221 100.6909 -8.881576
0.4313493 103.1289 -7.976849
4.940071 98.50916 -9.471041
4.089572 98.02 -9.600512
2.125436 99.26047 -9.306314
-0.4746853 97.38613 -9.6437
3.483358 100.7874 -8.94616
2.847346 103.1536 -7.993402
4.708971 102.0857 -8.464298
7.90777 102.1894 -7.414093
2.107872 101.8578 -8.516126
8.460236 102.6531 -6.950294
5.125905 99.78579 -9.198628
5.435037 98.07548 -9.514386
8.678547 98.20502 -8.188383
7.868112 89.90791 -9.085608
11.13552 94.07862 -6.141634
10.39157 94.27404 -7.171771
5.682495 99.27827 -9.200953
7.588087 99.33293 -8.531879
10.15834 90.69085 -7.595734
2.993095 98.39281 -9.532588
11.07837 96.62913 -5.730593
9.302782 99.63748 -7.221716
8.41291 99.30674 -8.029336
8.247458 99.5272 -8.093162
10.66165 100.2394 -5.597861
8.72834 96.3231 -8.469802
5.900136 96.86272 -9.666759
8.831618 91.58295 -8.762026
2.968638 96.35554 -9.811749
4.236977 95.48627 -9.934284
2.43764 96.07654 -9.83287
0.8021135 97.02495 -9.69804
8.466323 89.35863 -8.754129
-1.48096 95.46912 -9.881581
-0.1819931 94.16715 -9.945842
3.281209 97.43024 -9.704279
9.10944 99.80959 -7.376798
8.499956 101.6419 -7.265203
6.62321 102.0815 -8.091558
5.346612 106.0646 -6.337425
5.656903 105.6648 -6.514148
3.213248 105.4123 -6.923916
5.446455 104.7091 -7.099414
8.010285 104.6827 -6.395033
10.2715 104.3042 -4.959472
5.476708 106.262 -6.229189
7.858523 106.5004 -5.514546
7.700562 110.6332 -3.859942
6.01599 107.534 -5.573692
2.837135 108.4921 -6.075883
4.324189 110.6633 -5.474527
11.98421 106.542 -1.7784
12.48952 103.2368 -1.988926
11.85516 104.3572 -3.046036
8.375037 104.406 -6.288094
10.16768 106.6773 -4.049662
9.763885 108.0056 -3.749798
8.228206 113.1092 -3.008093
10.41444 110.369 -1.580872
9.117571 110.0543 -3.111965
10.33376 105.6788 -4.361397
8.992323 106.5983 -4.903846
10.76839 108.5264 -2.419376
10.06931 104.8661 -4.925412
10.479 101.113 -5.638424
12.68749 82.10016 -3.176315
-11.60726 67.02993 -1.347785
-10.33679 67.64941 -2.347776
-8.476521 66.76034 -3.076568
-8.702362 67.45033 -3.060149
3.109178 68.01475 -3.341944
0.09226168 66.97183 -3.235404
6.169657 69.66537 -3.497514
-0.6247052 72.5692 -3.773997
9.321829 78.78289 -4.485468
-6.110772 87.65342 -8.807116
-4.567587 85.97968 -7.91223
-4.183358 90.11828 -9.837981
-0.6805314 86.80447 -8.382277
-3.46575 89.39636 -9.606915
-2.001848 91.75892 -9.951834
-2.689704 93.35348 -10.01129
1.184537 88.56497 -9.261171
-4.271409 88.11139 -9.087015
-0.7841312 92.70167 -9.973475
-5.592761 84.10443 -6.537994
-2.125623 92.32161 -9.984663
6.200644 77.19909 -4.533916
7.127132 75.35261 -4.084433
8.563734 75.24377 -3.90161
9.465984 74.36622 -3.531531
5.026618 75.36545 -4.07212
5.94897 72.55237 -3.791357
9.205253 73.46288 -3.489589
8.754593 70.8015 -3.41096
10.51222 71.098 -2.6514
-4.893075 82.38651 -5.746435
0.9500514 86.02876 -7.898448
0.4235772 83.40511 -6.200675
-3.536453 84.17627 -6.609846
-13.2649 78.6927 -1.498454
5.737177 90.60024 -9.839561
9.939684 87.8523 -7.245432
10.83123 90.20898 -6.830224
5.298032 89.44114 -9.688108
3.916124 86.84888 -8.481972
5.270739 86.49632 -8.324333
7.081498 89.22645 -9.216584
4.764089 91.49792 -10.06221
7.686451 87.93438 -8.542861
-1.288394 85.55913 -7.570372
0.09468443 83.91385 -6.50489
-0.1059011 84.96539 -7.169361
-2.852402 87.06841 -8.567347
3.262264 92.43166 -10.0268
4.193588 93.58233 -10.04629
5.341412 95.35406 -9.905978
3.54371 93.77082 -10.0204
6.185613 92.63239 -9.903305
0.3555704 92.06847 -9.945122
1.673646 92.59635 -9.98812
7.663812 96.45602 -9.003629
6.187866 95.25301 -9.800468
3.277444 84.91089 -7.115355
-2.771764 84.24222 -6.669186
9.732222 94.70101 -7.83503
7.827903 94.10885 -9.22035
8.868402 93.49067 -8.668384
2.341345 88.04668 -9.095932
-0.9484656 87.82162 -8.913702
0.1218162 87.51761 -8.772969
1.296798 91.32118 -9.902576
2.356265 89.55322 -9.665309
-0.5078129 91.03014 -9.850518
-2.866778 84.74087 -6.996672
-4.050315 86.23162 -8.104637
9.379475 95.1643 -8.101397
9.803406 91.59605 -7.971962
12.34761 75.61527 -1.795154
9.797695 76.59786 -3.779917
10.79463 76.35292 -3.175586
8.775741 78.19299 -4.494762
-1.020182 95.84735 -9.843324
0.8598701 98.40959 -9.468198
8.922983 102.1828 -6.793868
4.959637 109.4202 -5.418267
11.12386 103.6514 -4.322455
7.691139 109.822 -4.124959
8.224307 110.3025 -3.596995
7.013398 111.8269 -4.144898
10.07552 111.7851 -1.242147
9.346469 113.1713 -1.547058
4.584348 69.81049 -3.507163
4.823852 69.30515 -3.462491
3.294328 69.2156 -3.451689
6.600062 69.97274 -3.527904
10.62467 68.16505 -2.222359
2.857014 73.47102 -3.950385
4.084648 71.1294 -3.62681
7.018671 71.6218 -3.709469
12.61375 70.69698 -0.6885962
9.72407 67.18317 -2.710567
8.102987 67.50771 -3.176608
4.604106 73.48873 -3.981039
5.316558 74.59232 -3.913177
13.06668 68.20946 0.2389109
10.36202 68.21558 -2.367153
0.7696158 70.88991 -3.583459
-6.489047 84.37424 -6.688481
8.935579 89.91635 -8.616718
3.021319 85.94556 -7.883378
-1.593231 88.2326 -9.099979
-0.771216 89.49127 -9.543447
4.792893 110.7425 -5.318704
2.967734 111.136 -5.795164
11.40586 67.64871 -1.61901
11.02697 67.43701 -1.906018
7.072789 67.12045 -3.249581
7.337245 68.63893 -3.400071
4.88833 67.02151 -3.239228
11.6049 125.9156 0.6088527
10.90591 128.6818 -5.401608
10.51023 132.8317 -7.695175
10.2864 139.6074 -8.320969
10.19618 144.202 -6.420824
-11.04222 145.6025 -3.435839
-10.32825 143.1159 -7.358443
-11.42271 127.0419 -2.829558
-10.98216 145.7057 -2.789223
9.344254 137.8762 8.373369
9.441753 140.7822 6.844341
9.311704 138.0377 8.310079
11.22707 125.8607 4.896801
10.75188 145.7552 -2.251587
-10.42176 130.4773 10.38779
-10.68958 145.8766 -0.2586487
-9.111734 136.7541 9.085713
-9.577086 134.4851 9.940932
-8.153432 145.1453 4.365878
-7.441911 142.021 7.109705
-7.981483 146.3252 -0.6533652
2.448067 137.4179 10.51278
7.740504 146.2751 -0.8915396
7.89097 146.1053 0.3056943
1.375574 145.4162 -7.418525
-2.107559 145.2345 -7.476741
-3.705519 145.5776 -7.345542
-10.96147 118.5589 3.741321
-10.10962 129.0992 10.20218
-10.54593 117.3655 6.38797
-1.528067 122.6563 13.45542
-11.02519 126.0694 5.726165
2.918438 134.372 11.91663
-7.860228 118.4749 10.65901
-5.701962 118.1067 12.02556
-2.980501 117.5587 12.82591
-9.999372 129.0436 10.38941
-2.183958 117.8979 12.97679
-10.16822 117.5333 7.430257
-8.597367 117.6295 9.839682
8.50496 117.4457 9.939549
-8.778133 135.8315 9.729415
-8.920864 135.3636 9.91188
-10.32872 145.886 -0.7861258
-8.440541 131.1098 12.08029
-9.29173 143.7757 5.19195
6.422781 118.4529 11.70674
-3.268075 136.5541 10.88145
-9.913085 118.835 8.063408
-8.404866 146.273 -2.559384
-8.443986 144.5175 5.117124
-9.139845 145.8474 1.76851
-2.590024 136.7979 10.82238
4.069631 132.5059 12.56439
9.288545 125.7867 9.793979
-10.35948 117.1913 6.941639
3.614776 117.4364 12.67168
9.429422 132.3694 11.01453
7.275199 137.2295 9.640903
10.79532 117.011 5.189299
-10.04533 131.2932 10.82252
-9.382071 118.707 8.975216
10.44043 126.2483 7.512665
11.2702 125.1391 4.719556
11.11409 125.6807 5.408562
-8.818561 146.1147 -0.3444226
6.645793 137.6039 9.648252
-7.844135 141.0001 7.472478
1.234042 117.472 13.03408
8.120881 145.6902 2.638961
8.589637 146.1194 -1.848539
10.07085 128.8173 10.14133
-1.420323 120.8245 13.29519
9.383867 143.693 5.19305
9.034581 143.3221 5.597278
-10.23713 130.3555 10.67481
-11.08338 121.4067 4.408164
-9.92637 117.4117 7.934085
-9.088781 118.1355 9.324993
-9.538027 145.9863 -1.509478
-9.722224 145.8825 1.300677
7.225128 118.3981 11.18296
7.06358 119.5829 11.4687
3.029134 120.5226 13.10322
4.307002 117.2768 12.46385
-11.14891 121.8521 3.9268
10.54183 117.7184 4.733571
-7.645413 140.7478 7.679416
-8.847197 143.5342 5.566883
7.498432 139.8073 8.219566
7.269826 138.0655 9.196901
7.059331 138.8273 8.87462
-10.4622 117.9545 6.666769
9.087008 117.013 9.184843
-8.939087 145.6864 2.681532
-11.06699 121.3086 4.541355
-9.15903 139.2501 7.781957
-9.687126 144.4363 4.548707
10.6912 123.1691 6.829631
10.95105 123.9249 6.022208
10.48332 121.3939 7.179646
10.74781 121.1281 6.083499
8.179204 136.4779 9.694318
6.880372 136.1841 10.33884
5.952185 139.406 8.9132
-9.775748 122.5696 8.924116
9.764105 120.8171 8.584194
3.527197 135.9612 11.15697
1.102372 135.1823 11.56385
2.386503 135.2722 11.55152
2.83318 136.7783 10.81222
4.119482 133.7049 12.14964
-10.82328 119.4614 5.285181
9.343299 120.6836 9.278083
9.540763 119.031 8.687083
4.667302 135.8054 11.09651
6.969836 136.1483 10.32793
8.962296 134.555 10.31245
8.415357 131.4584 12.00018
6.775599 132.4074 12.33224
7.183269 129.8123 12.67971
-2.12891 135.0343 11.64247
1.052355 133.3557 12.18103
2.287585 132.0534 12.59591
-10.81472 122.818 6.370421
4.447755 136.0388 11.00907
5.201244 132.4664 12.52652
6.014533 130.224 12.89299
0.646124 132.0813 12.50029
-0.589023 132.7472 12.34148
0.2901326 130.1898 12.84618
5.475352 132.6725 12.44084
3.38045 129.3299 13.00621
2.406566 131.4613 12.71717
6.619715 131.6078 12.59146
1.154066 128.8417 13.04295
0.313718 128.9016 13.02991
-3.009631 125.7934 13.33202
-0.01608314 126.9523 13.28343
-3.1108 128.5685 13.05358
-1.843617 123.9521 13.52227
5.718298 126.1546 12.72415
-3.800752 127.2763 13.10179
-3.364343 126.7815 13.19045
-3.302007 120.9749 13.12054
2.589959 127.9412 13.13527
-1.553147 129.0903 13.00666
-3.884589 125.3281 13.28006
-4.915877 124.8321 13.08943
1.145483 126.1545 13.39098
-3.628443 129.1178 13.00493
-4.445299 119.947 12.73765
-4.516934 120.1715 12.75203
-9.204984 120.966 9.523653
-5.275187 119.6267 12.41279
-6.636581 120.664 11.90793
-6.066192 124.728 12.61698
-2.405641 121.8753 13.33574
-4.620315 125.9478 13.05342
-5.83531 119.8071 12.19357
-8.378874 119.3271 10.26597
-8.728075 120.5688 10.08335
-7.811976 117.3377 10.56671
-8.389559 123.9471 10.86739
-6.899598 125.0608 12.13214
-8.316277 124.8366 10.96926
-8.036314 128.3755 11.99184
-8.349533 127.7536 11.55242
-7.425567 128.3777 12.30887
-9.034684 128.9446 11.54665
-8.229024 130.3596 12.26574
-7.047073 131.8529 12.43771
-5.151947 128.3156 12.92875
-8.591165 127.1218 11.11986
-9.495987 128.1889 10.67415
-7.309475 133.2862 11.78293
-9.224388 127.7811 10.75125
-9.178777 124.9331 9.902288
-10.60697 122.8544 7.025754
-10.60829 124.19 7.02184
-10.31014 124.367 7.774279
-10.68455 125.4315 6.754607
8.60911 143.28 5.840005
-8.799262 138.328 8.425534
-9.347024 134.549 10.08106
-6.376892 135.536 10.84335
-7.317243 133.6403 11.58441
-6.474592 131.1899 12.67694
-3.960378 131.3445 12.82678
-0.8123802 131.4895 12.62976
-3.64787 134.1777 11.96574
-0.8749819 129.5682 12.93954
-2.27935 130.9518 12.78505
-4.564107 133.2135 12.31736
-6.916761 134.5926 11.18562
-4.228669 135.6556 11.22781
-3.490008 137.1199 10.5616
-2.790779 133.2906 12.28916
-1.773498 135.2912 11.54059
-0.8574948 134.4087 11.84295
-5.390453 131.6198 12.74677
-2.321885 132.6158 12.4679
-4.376994 119.8606 12.7477
-1.945444 119.3014 13.12381
2.426687 118.5509 12.99748
3.943215 120.5739 12.93691
3.59594 121.0848 13.07763
4.058929 122.9781 13.28984
4.212065 121.8073 13.08531
5.050904 122.3692 12.98493
4.12365 124.7222 13.29728
5.124986 125.125 12.97809
4.043408 127.0486 13.09817
9.165924 145.326 3.458809
9.938385 145.8368 1.114669
6.738931 120.5552 11.83193
7.341765 123.638 11.84079
9.312905 122.5069 9.619728
9.673056 124.0013 9.120048
7.034971 126.0719 12.10411
7.646312 123.2678 11.59072
5.625695 122.1496 12.72514
9.945158 124.7175 8.57563
6.685086 127.1776 12.41757
9.069179 126.7425 10.3823
6.454349 128.5072 12.70307
8.462209 127.9057 11.5207
6.400409 125.3854 12.42811
7.000136 129.4216 12.70864
8.610529 125.2056 10.64687
8.898912 126.0408 10.40699
9.384686 126.7833 9.952428
-9.965693 120.12 8.083189
-10.15321 120.3384 7.725534
-8.953351 122.2838 10.10616
-11.00426 123.7598 5.786024
1.911601 126.0514 13.42726
0.1083795 125.5578 13.41324
-1.562891 123.5755 13.49732
0.371772 122.1281 13.39815
0.4567791 121.8279 13.37879
0.6652507 125.1389 13.45325
-5.669078 128.6644 12.89533
-10.41054 122.9103 7.535721
-0.8716266 119.8992 13.21943
-0.8555389 121.8651 13.38222
-1.94188 117.6199 12.98562
-0.5459766 116.9261 13.02749
1.526758 121.2272 13.33347
8.094876 123.1056 11.16563
3.320127 118.8731 12.87442
7.905129 146.2203 -0.8275138
-8.458017 119.017 -3.701478
8.991579 117.8717 -2.316143
8.854031 118.6561 -2.846337
11.40509 124.0826 3.30697
11.48868 124.864 2.479446
10.23611 117.3097 1.447779
8.329115 116.9337 -3.387577
8.115918 117.4499 -3.675592
10.39173 119.8088 0.8652632
9.638609 145.8558 -2.971244
