# .PCD v0.7 - Point Cloud Data file format
VERSION 0.7
FIELDS x y z
SIZE 4 4 4
TYPE F F F
COUNT 1 1 1
WIDTH 1664
HEIGHT 1
VIEWPOINT 0 0 0 1 0 0 0
POINTS 1664
DATA ascii
10.51523 65.49186 14.94957
19.65325 60.572 -11.50922
29.38634 47.46495 -6.346107
24.16981 51.7328 -1.380924
1.366125 69.3032 -21.90693
10.986 64.33142 -12.23212
11.37697 117.1512 -3.811811
-5.410012 67.20034 18.39765
-9.91319 64.85828 15.35742
19.69992 65.40458 13.38557
15.39409 63.36993 9.699697
28.35283 53.93436 2.886673
5.597369 118.0803 13.20232
-22.57971 44.60563 5.069079
-22.93079 45.69748 1.477287
-16.62633 53.85653 15.11092
-17.21759 63.42102 7.106529
-14.38907 39.34998 1.729699
-23.49495 51.83234 10.20218
-13.06456 117.3874 -0.1928491
-27.14228 63.74661 0.5540416
-15.75559 52.91505 -8.029258
-22.25098 52.87648 -6.213694
-20.75682 69.34711 -13.30555
-12.40584 68.11147 -17.03318
-12.73425 64.15743 -17.44213
-11.38689 118.1742 -7.860384
16.15948 64.42015 15.70776
16.83413 59.14481 -12.07266
20.86354 49.15791 -12.11815
-0.1270657 67.67003 -23.15448
9.26761 68.3838 -12.20023
8.779178 66.07848 -14.00933
23.00949 66.637 -13.36035
11.99666 117.1787 -5.113398
-7.367476 64.55271 16.42367
21.22296 67.75555 12.17026
19.78601 59.13381 8.536431
28.67571 54.97684 1.704973
14.37827 117.6317 8.676459
-22.85194 56.34581 1.118935
-17.826 54.36423 16.70998
-16.47441 61.81649 10.98513
-17.12805 58.93089 8.283529
-15.77787 59.36039 -11.32244
-23.18184 53.02835 -4.694347
-12.75002 69.12105 -14.95228
-27.89539 64.45488 -3.761296
-23.57615 71.61949 -3.470428
-12.51959 64.28817 -18.33891
1.440366 110.5725 -13.87389
15.20171 58.61765 -12.24174
23.78803 53.14976 -10.7516
22.57265 51.38619 0.8446549
26.13959 69.48519 -14.92568
26.05517 71.10463 -14.12145
-5.378658 68.22998 19.27337
18.94431 69.17897 13.37932
17.20927 69.72213 10.75932
-15.51475 114.5658 6.118853
-16.95722 51.87774 -8.110824
-21.29449 52.49758 -7.039626
-13.34042 59.70573 -8.663385
-23.76201 49.42248 -1.39235
-27.6099 68.10644 0.6861387
5.737044 68.09415 16.44055
19.77575 53.00165 -5.30137
17.00634 53.43947 5.819796
22.90817 52.81122 9.717318
19.7684 67.12326 -15.44338
-5.790916 69.62653 16.38601
-7.320291 66.55278 21.09349
28.6072 55.87457 1.490959
-14.69261 115.9057 6.320643
-15.84893 61.88486 -11.17327
-23.98025 50.46489 -1.048905
-15.83323 66.5935 -13.25212
-12.31298 118.0048 -5.190907
18.36324 52.11717 7.760384
-3.061547 69.89925 14.22431
27.85544 56.90368 3.522043
-13.89886 116.0355 7.148088
-23.58715 55.53113 -3.474657
-7.239262 116.2553 -7.166687
21.88562 56.15852 -4.970742
22.58125 47.97793 2.013916
21.21889 71.92016 -10.26597
20.76435 67.88898 -11.4821
19.24791 62.75141 7.936075
23.18153 55.55442 -0.4449183
-16.23813 67.11857 11.62067
5.191435 73.27367 13.5012
23.82472 52.18898 9.108658
22.88506 54.20021 3.145715
18.4188 57.5348 7.154116
21.12836 52.35563 9.863883
18.26017 62.21255 7.152076
22.4742 56.82292 2.167115
-26.13809 49.26131 0.3085749
23.46453 54.01365 -6.346171
20.23698 59.85914 8.392537
20.41117 71.18251 -12.2866
12.33996 114.7946 7.304019
5.44891 72.3216 15.1245
24.31014 55.06094 7.898238
22.33067 71.3541 -10.29303
15.18548 115.1338 9.449959
5.534472 71.5983 15.50509
21.78435 56.02094 -7.957109
17.50021 58.62551 2.388918
-5.766004 78.62727 16.22006
5.304615 72.84092 14.61918
21.79433 50.73798 -8.8693
17.22014 56.40746 4.847112
19.37069 59.31965 7.591488
22.68832 58.81158 -5.082363
17.23016 56.16885 1.253735
-12.55902 110.816 -4.832322
23.26771 59.09809 4.194691
22.6317 61.00736 9.111071
17.76632 59.61113 5.127782
21.70504 63.64875 -6.670031
22.81907 60.15763 3.319309
-11.65297 109.9806 -9.208026
16.41813 51.80983 2.524385
-8.859161 77.56389 18.64529
-12.22438 108.7819 -9.492772
20.41899 60.75491 -8.877847
-6.612755 81.50854 14.62898
-10.78956 106.7469 -8.741102
-13.99052 113.2361 -8.778855
21.88786 55.10434 -11.12008
-6.871648 71.2374 20.55544
-12.11953 111.3998 -6.919422
-8.247564 72.26668 19.96155
-12.39565 112.8604 -6.612452
22.01017 51.06975 -11.78886
-14.38207 115.8015 -2.728477
-17.92228 108.6727 -3.501591
-16.56089 106.701 -9.010779
-13.09041 108.0278 -9.926976
-11.16163 113.1928 -5.600312
-20.5807 35.65156 -6.03395
-19.36661 45.08682 12.78197
18.74356 40.67013 2.491457
22.03223 42.91314 -2.717849
18.98071 43.61591 3.033946
-1.859892 114.8707 -8.910752
-1.331099 112.2775 -11.42606
-5.568475 115.8449 -10.83372
-5.564071 112.3937 -10.24129
-4.973723 106.2881 -10.61028
-6.66005 108.898 -14.3509
-15.89222 115.1688 3.592219
-15.03127 118.0916 -1.518196
21.63136 42.69508 9.052639
4.540103 113.5848 -9.69835
3.487067 70.39925 20.02038
8.112814 118.9725 11.28862
-20.20721 47.26394 13.59156
-17.6695 47.77174 10.68926
-18.34793 51.37455 12.32777
-16.91134 59.40825 10.87865
-18.96452 58.87878 7.410572
-20.715 62.26299 4.194887
-20.98125 59.19152 5.097476
-18.5677 66.59036 7.482755
-17.26493 62.4288 9.937897
-16.94798 67.05845 13.1986
-16.88026 64.37701 11.20066
-16.73197 61.14652 12.12014
-16.82391 58.79801 14.69885
-18.79633 60.41328 16.95968
-18.77306 45.76733 4.343484
-21.42327 46.45275 1.867288
-20.57405 47.5569 2.600725
-15.69559 47.34212 3.640883
-18.11016 48.07335 4.57846
-21.23393 49.77176 1.753399
-23.41024 55.56686 2.826482
-21.30447 53.86826 1.521132
-23.07975 52.50053 4.033807
-23.79442 49.61565 3.469826
-19.00434 51.18435 7.796259
-23.01241 55.13837 3.717998
-19.16426 63.93339 -12.21398
-18.21893 67.21322 -10.29756
-19.07752 68.9538 -8.840421
-22.72016 67.22034 -5.311808
27.08796 64.78382 -8.275315
13.39941 114.8261 -3.081414
22.03229 43.14433 4.734414
22.72811 46.74786 6.202369
21.07372 46.24752 3.05507
22.30317 50.99796 5.363758
21.0916 47.82822 2.503214
17.56603 44.01682 -2.810272
20.38669 43.22321 -4.669782
4.782366 113.9089 -11.4439
2.753875 112.8335 -8.896256
4.908349 116.2398 -10.09252
5.64922 111.6271 -12.55115
6.347678 117.1442 -7.409379
-12.43904 115.365 10.08686
-10.47021 118.0743 7.703393
-10.85893 116.6384 9.573503
-11.66072 106.6002 11.84078
-12.9383 116.5652 8.443357
26.59967 54.0542 10.01934
-6.131869 118.9795 11.2129
9.871995 116.951 9.187618
-22.65108 54.52598 13.76204
-23.48095 53.14145 14.21703
-20.84844 55.65915 6.033514
-21.27798 56.07452 13.21115
-19.12404 58.21828 17.38027
-23.35224 59.09954 14.12966
-22.24006 61.20133 17.61324
-22.22999 60.4668 17.73656
-23.55832 63.13422 15.23245
-8.268702 115.4331 -10.88453
27.77248 50.48735 -2.611461
26.25841 53.52479 -2.096922
22.81941 46.66505 -0.7403207
29.05511 52.95895 -3.798594
24.44983 52.6348 -2.131716
15.6997 47.09274 4.751154
-0.6404114 70.82732 18.29937
-8.889549 118.6179 12.35148
14.79371 61.04716 7.575158
14.98464 64.23107 8.938714
-2.002727 116.116 13.50798
-15.42093 64.55641 14.56538
-14.65916 64.19749 14.48679
-11.21976 66.16589 12.12445
-17.86724 40.62973 4.630606
-18.86459 39.23428 -4.865154
-25.42157 32.07663 2.028293
9.382255 56.78838 -8.666043
13.57071 63.46489 -7.945942
25.756 65.03309 -16.38592
-13.38628 66.39137 10.22705
-20.83498 51.42607 -7.372108
5.81257 69.10134 11.55323
28.27625 51.33158 -0.9402838
13.70608 111.1172 6.819574
-18.26556 64.96472 5.214647
-16.87064 65.43207 7.849854
-16.54597 63.93274 9.023937
-26.57211 50.14467 5.005954
-15.32737 114.3265 -0.6649336
-24.28058 75.01354 -9.897164
16.15951 68.12067 14.8397
19.50026 67.92184 15.49612
22.88084 63.99905 -11.34551
23.14773 55.34717 11.09642
-29.60218 51.74926 4.376725
3.169509 110.0744 -13.31031
2.904105 108.6268 -12.56204
4.33832 110.146 -10.35807
3.349257 103.4258 -11.0712
6.446021 107.2701 -13.24726
22.25951 70.57226 13.99484
18.00851 70.48021 13.51489
17.14469 72.11767 12.49272
21.25161 72.50027 14.9548
23.16438 64.96976 12.02417
19.36574 66.7791 11.14689
23.46159 69.094 11.9679
-12.40951 56.97755 -9.327821
-19.33413 74.3083 -12.92854
-10.45622 66.80063 -19.61087
-9.422608 71.00163 -19.12663
20.42348 51.48785 9.705544
23.21625 70.49031 9.764828
20.39396 73.79839 10.26896
23.90892 79.25205 10.71466
25.84371 73.63635 10.93243
25.10935 81.57915 9.848391
17.45146 88.68984 9.291663
25.26458 83.65732 8.816678
19.21576 83.77903 9.92936
23.3762 86.4998 7.89934
-22.99876 37.95074 1.691597
-22.34058 34.72678 1.603175
-28.11413 54.71363 1.072118
-30.0185 55.23494 2.422034
-13.34866 71.80547 -13.2526
-12.71999 73.29292 -13.78439
-18.44006 74.79131 -12.93368
24.04617 71.7795 -15.29544
15.87127 67.14542 10.01111
16.52088 62.82217 6.563872
16.80915 65.09905 7.115178
19.37415 67.70912 8.40454
-24.10567 56.67042 -1.193069
-26.59346 58.9374 0.937973
-24.45263 59.63069 -0.9500979
-23.65205 65.29784 -2.285192
-25.08439 62.68288 0.2075247
5.151431 78.83698 11.77337
24.11822 72.62031 -10.52292
25.79455 67.54182 -11.20441
26.05765 68.45862 -11.09328
26.00877 65.39285 -8.087317
23.02921 71.92931 -10.33857
24.89974 74.79566 -10.32116
22.24494 80.45093 -9.085052
15.43358 111.2691 10.27867
14.11564 111.4653 7.18532
23.60781 61.16193 -0.6585265
25.09687 61.25684 -1.289791
6.278418 75.28935 17.32151
18.13046 64.17188 4.984329
20.34948 60.79634 8.41368
19.18311 60.67055 -3.213215
18.22011 64.09946 5.855512
17.88161 57.74646 -6.357883
-8.384164 72.82962 17.70855
-7.897264 71.69579 16.08147
-9.103718 79.34052 13.52854
-9.78878 77.53236 13.31649
-13.89019 71.1647 14.95572
21.53135 72.952 2.314087
-22.6494 35.9353 -2.55297
-22.61749 35.70198 1.848666
22.15181 44.11926 -2.602526
16.75289 41.39684 5.620634
-3.209899 109.1759 -14.35293
-15.79256 110.3679 5.157315
-13.91179 112.7757 -3.216506
-14.73188 110.4409 -3.829728
-17.40962 112.2995 -2.781323
-20.07822 107.7006 -0.4588167
16.17177 112.8514 -2.572296
13.90959 114.0282 -4.14925
13.85198 113.6696 -3.473574
5.9488 70.17023 17.81506
7.256641 117.4812 11.84047
-24.77244 49.86558 17.14019
-17.59775 51.61408 10.86074
-19.93979 53.92383 6.955706
-19.6755 50.00933 7.161371
-18.09493 66.46532 15.6364
-17.94028 55.78216 3.674591
-19.56644 56.14376 7.222391
-22.17162 40.63864 5.817555
-27.38019 41.78825 3.577859
-28.01753 38.19574 3.1218
-26.87694 41.13758 1.391869
-23.93899 45.61921 5.028328
-22.7352 46.12595 5.429966
-26.30871 47.29808 1.236715
-25.55724 47.93821 0.9618974
-24.90555 52.40752 4.377196
-19.14908 71.59402 -8.642219
21.2856 53.78193 2.158623
17.72634 49.91761 6.12584
17.4965 47.9511 5.57867
19.78045 47.36075 8.947478
26.03216 55.31626 -8.052663
25.95601 56.17146 -8.074052
21.63944 56.75141 -10.7678
20.18567 65.06203 -8.001013
22.97458 65.06501 -1.096746
22.84158 61.63434 -9.960808
20.80882 68.48122 -6.835937
18.08299 46.41834 -2.906612
16.90704 50.20304 1.448243
8.479446 113.0808 -7.433462
-6.890914 116.8719 13.90296
-13.45947 113.8626 6.979785
26.90814 61.30809 8.141212
-6.548935 116.085 10.58569
-23.48045 65.09359 14.49456
-21.61248 64.50164 12.70074
-22.80913 68.03811 15.87894
-20.44208 67.04384 16.84186
-22.6589 66.85532 -8.624669
-20.39251 68.34673 -11.71435
-5.518776 115.1951 -11.50719
-6.658245 111.4813 -13.68998
-8.289982 111.7437 -11.67252
26.46111 54.55821 -2.07761
27.1494 57.82454 -2.309925
22.25044 58.09448 0.03094156
25.65171 59.8419 -1.817558
28.6479 58.11397 -3.929188
27.40166 60.84188 -5.356199
26.31964 61.36041 -6.979612
-2.359896 65.71902 -17.60957
0.9637144 69.93943 -22.2046
-2.615563 68.50983 17.34257
0.3531844 74.21863 17.64878
0.7217486 74.03901 12.15091
-0.3582297 117.2336 12.9903
-5.198609 112.988 11.81721
-13.36008 65.05898 11.73722
-16.96078 75.64767 9.827729
-13.18648 67.61614 14.22855
-10.33187 69.8698 11.01072
-17.6145 40.12265 -2.915239
-18.09436 42.23545 -2.241361
-21.87332 42.12079 -5.407671
-17.0213 43.30379 -0.5589589
-15.89697 50.16512 0.3196459
-17.59065 54.65825 0.7201946
14.3656 69.88696 15.68715
2.121407 66.39366 -17.75536
6.509023 66.41422 -17.91326
23.31791 67.93173 -16.05867
23.0679 73.90755 -15.15855
10.05701 115.5732 -7.116443
-23.92706 62.61396 -2.884837
-19.4619 60.38723 -8.480188
9.252463 72.1805 10.92036
6.52161 72.84608 10.60271
5.65312 76.35905 11.25179
5.330796 76.94232 13.98172
6.198511 77.53915 10.70226
5.169484 81.39222 13.17921
14.93348 114.1543 6.043067
-22.58039 73.00889 12.36231
-19.22481 71.49599 4.572027
-19.4773 71.70498 4.674715
-16.33243 69.40175 12.37872
-17.09197 72.80046 9.159925
-17.91741 74.16858 6.388524
-15.83865 113.0556 -0.9035568
-26.0228 68.36991 0.7522202
-24.19355 71.69707 -0.4646562
-25.28788 72.63001 0.7669124
-24.64083 73.327 -10.65118
8.884551 71.31001 -14.16868
9.221546 71.96856 -12.14112
7.994819 71.88288 -17.49263
21.11484 73.9942 10.08926
19.75786 76.58924 10.28801
-23.79481 48.44603 7.428425
-25.30354 52.17343 5.39018
-19.86227 47.87166 12.92209
-22.13675 48.56256 13.06889
-18.93618 50.05529 11.61161
-18.96772 50.23098 8.985972
-22.18802 52.66764 12.49392
-18.69125 52.85855 10.11469
-25.01292 68.71326 -3.08079
-28.04056 72.33308 -1.348781
-27.71484 73.71703 -0.3969554
-20.26244 73.06561 -7.55602
-23.4577 76.37938 -3.054894
-2.11632 102.2352 -16.8243
0.5853384 103.8298 -16.27675
2.842115 103.3551 -13.75538
-2.630051 98.71932 -17.37419
0.3659814 93.63015 -18.75986
2.404516 92.55334 -17.74286
-3.505131 74.85564 -18.60778
18.52735 62.14427 -11.79184
15.76221 70.31792 14.57688
19.68498 69.3578 15.52178
17.59309 71.98447 14.21261
15.33971 77.97264 13.07845
18.13663 76.71653 14.23252
20.75683 82.49823 13.52093
21.21994 76.93223 12.2215
-13.14789 65.04852 -9.257545
-5.853194 75.2106 -16.06996
25.12195 75.36581 -13.26362
-21.70212 45.39235 -5.415838
-22.72453 47.96883 -1.6067
19.96484 69.43552 -15.26336
15.89467 71.60596 8.235562
18.15707 66.12826 7.962495
18.2866 70.25951 7.713828
21.04707 68.56254 8.925398
-28.19465 54.13236 1.038847
19.85017 75.62656 -11.47736
20.03131 74.33115 -12.09916
12.28189 111.117 11.99507
12.05746 110.199 12.37215
14.50041 109.7404 9.271735
17.47839 107.2246 9.260833
16.13322 110.4854 7.959034
14.12329 109.8662 7.545689
3.375672 79.96978 17.84081
4.049749 80.86132 19.05491
5.686081 86.19164 10.68828
4.446263 82.74647 13.1471
6.692925 82.1711 16.16132
18.22428 65.39589 5.309656
18.10274 66.01866 4.361219
22.01219 66.99421 8.659456
23.70005 65.10456 7.567342
22.38482 64.86742 1.834112
18.11583 69.96616 2.103499
18.82071 61.6776 -2.709325
17.94019 62.26308 -6.616091
-11.81125 71.25478 15.93359
-13.73283 75.58344 15.65175
-13.83827 103.2813 -8.493623
19.27975 41.85477 2.469207
18.50605 43.27408 3.27964
22.17991 49.57367 -0.1962655
-15.13831 115.4871 3.566693
-13.74934 105.1807 -6.038527
-18.41687 112.6967 0.2633576
12.68262 112.2356 -4.726083
14.89881 110.8461 -5.696845
15.76866 110.5146 -5.291788
13.71618 109.0463 -3.355647
14.27207 107.3378 -3.99325
4.496618 72.9229 20.08748
7.235248 112.2145 12.3371
4.008482 96.8875 16.0976
6.697407 111.3826 14.41777
12.07303 106.2342 13.02124
10.5248 102.753 13.21644
8.529855 107.904 9.848537
8.703015 112.8401 10.00722
10.57292 101.5731 13.23503
9.072954 102.5537 10.47706
-18.48833 54.53538 4.042725
-18.10391 59.19942 11.65053
-19.4492 43.60188 8.070119
-18.60126 44.75294 9.802675
-23.18314 51.6702 -2.120237
-24.20168 49.0849 0.7648155
-20.37523 48.77207 6.927996
19.32513 42.96161 9.395856
25.66972 53.83136 -8.682868
22.55256 58.13715 -10.50687
8.823694 113.0007 -7.799264
10.90008 111.9371 -9.964928
11.28836 109.1742 -10.89882
9.838842 115.2533 -10.10908
-6.704673 113.0878 11.30022
27.32672 58.85228 4.646535
-20.00363 66.79461 12.08246
-19.08691 67.29596 11.80008
-18.51854 64.92208 8.224484
-20.6225 68.87063 11.95202
-17.97837 68.24084 10.35148
-22.73049 72.28813 12.59929
-18.74266 67.78398 7.812456
-17.98728 72.16376 10.11859
-22.22549 77.40161 11.42634
-19.28934 72.21838 -8.48841
-18.27615 69.39495 -11.70506
-19.30886 74.69482 -8.327485
-7.318709 108.7955 -14.36757
-8.844241 107.1827 -12.77453
-8.133458 103.7728 -11.24852
-8.757633 108.0387 -13.56378
17.3586 112.6874 1.637964
22.6692 53.23803 -0.5410437
24.57002 67.5264 -7.844762
-3.710032 68.70224 -20.01484
-2.186944 70.92922 -22.3066
0.6926959 72.54179 12.92114
-0.714938 75.95175 18.11785
0.3372774 79.03281 17.53108
-3.784745 74.27256 12.18321
-3.247178 81.65579 13.46786
-6.340957 80.56543 12.52882
-0.2498124 112.581 12.60553
1.652719 111.6124 14.44158
-2.912976 112.2011 14.38454
0.1334919 109.0058 11.18583
1.031295 115.0531 11.83653
-10.13762 71.62333 9.874574
-18.4376 57.63177 3.465716
-17.70885 55.07574 0.5960228
22.48978 75.15332 -15.01926
-20.93508 64.126 -7.059408
14.78724 109.79 6.713669
-17.49187 73.20327 9.265938
-16.93831 73.00229 11.33646
-16.20749 69.40046 10.50806
-1.983674 69.21281 -13.30407
17.67033 71.7513 10.5673
15.83117 70.22145 7.705315
16.61557 77.97025 9.205874
-21.96943 60.60529 11.28414
-23.36174 55.53537 8.827342
-21.47071 76.85556 -5.818007
-26.79836 75.03705 0.4921742
-0.6812317 107.7842 -10.22428
-2.4555 106.4448 -13.44449
-2.935688 103.5319 -14.49574
-3.059103 95.27319 -16.18586
-3.094584 99.7003 -15.5065
-2.076059 98.64896 -11.58333
-1.598504 100.1523 -11.02545
-1.835024 93.46584 -12.29273
-2.687457 101.5399 -10.96207
-6.288144 100.2729 -15.69869
-3.468357 102.8017 -10.88578
-5.404361 101.6993 -12.6962
2.648429 106.4351 -12.81558
2.672284 100.2275 -14.48883
1.424533 102.7005 -11.94243
3.293943 99.40039 -12.10195
2.342228 99.04948 -14.43152
2.420521 90.03045 -15.79669
2.405115 89.79012 -15.76734
6.662464 104.036 -13.9687
21.5509 76.62286 12.59582
17.80379 79.46059 12.81042
15.48751 79.22135 12.94063
-17.28847 109.3494 6.003195
-18.23687 108.1506 4.999154
-15.83194 109.9214 5.894397
-15.55283 105.1783 4.690809
-18.42599 60.83454 -7.265989
-18.55682 63.48645 -7.195788
-22.53865 77.99005 -11.96001
-11.6671 77.66986 -17.15431
17.14967 77.83221 11.54177
25.82415 75.83876 10.406
24.3112 75.79003 11.30801
18.80176 86.76898 9.583731
19.4069 86.82716 6.20355
21.96233 81.25527 9.349173
19.07942 91.45692 8.130706
-22.83198 47.17321 -2.342133
-28.92099 54.42096 4.692754
26.79487 59.2205 8.862806
26.59302 63.68002 8.878525
-22.41285 67.71695 -4.423748
-27.48445 60.45117 1.311456
-20.86468 59.7653 -6.82546
26.80428 70.80499 -8.847696
21.69577 88.29716 9.464377
14.31856 106.8887 8.102032
3.360136 76.56026 16.25021
4.201349 80.50256 11.88628
23.45831 68.97241 5.603223
18.47644 58.71724 -2.737508
18.24079 56.24315 -2.860783
21.49494 55.16511 -3.064083
22.02737 59.96985 -2.597361
10.73672 61.01141 -8.245635
14.65626 62.52073 -7.62327
16.90684 59.20938 -7.364181
-14.12988 102.32 -8.681388
-13.70468 110.7871 -1.443145
-15.96966 106.3693 -2.142544
-16.72318 107.1823 -1.187702
-17.44929 108.8571 3.096717
12.61865 110.0095 -7.248708
15.56024 110.8192 -5.1228
15.70898 106.8983 -7.312594
10.26123 111.6291 -7.608988
15.95726 107.5281 -5.995819
11.4327 106.9955 -9.551118
11.40767 106.9547 -8.750504
12.48725 101.7169 -11.93809
12.91658 99.25873 -12.66973
14.49197 103.2895 -6.870206
16.78534 105.8098 -5.158936
13.84441 103.0468 -6.921124
17.06824 101.655 -6.529152
12.8715 106.5074 9.1738
-19.59805 59.2243 7.125421
-18.45432 60.93902 8.416257
20.44627 49.29756 2.016062
18.73834 55.14497 3.579648
20.9412 71.06049 -9.155438
10.67663 113.1922 -8.571641
-18.09571 77.64981 9.845792
-17.9996 79.17779 9.630068
-21.16027 76.71439 -9.606952
-20.16 74.11274 -11.56336
-21.27979 87.79419 -4.52862
-6.937892 110.8494 -9.660529
18.74887 110.3006 1.063461
16.07746 105.014 1.842367
15.71403 112.5272 -2.043503
15.58302 107.2161 1.76761
15.7838 114.538 -0.8113258
21.85759 60.19974 0.502835
21.49241 59.76483 3.269222
26.94018 63.88485 -2.23511
-1.483578 69.73076 -16.27062
0.361569 70.56668 -22.52077
-2.391156 73.56966 -16.94896
-3.603406 73.4269 -18.87123
1.107254 73.16842 -21.66842
2.136862 69.36234 -18.28578
-2.221117 80.87995 17.07815
5.911932 114.9499 14.44696
3.972587 113.9337 15.4776
1.118622 112.2962 11.41349
1.085937 118.6317 10.01499
-13.29879 78.71957 10.81791
-13.52267 67.79397 11.62005
-19.98454 50.30639 -3.412582
5.38799 70.99538 -16.76055
13.35709 76.1515 15.70049
10.18089 71.87549 13.87859
10.58793 78.73576 14.95449
16.76022 111.5232 6.709377
-21.45983 78.43462 14.39754
-17.25438 75.82635 9.088879
-16.74678 78.79642 11.05464
-16.78749 77.05405 12.28866
-17.1594 75.32234 14.0909
-17.13188 80.69363 14.37947
-17.31957 80.79186 8.450319
-18.37883 76.10085 4.992022
-13.81143 77.35223 11.74097
-12.67412 76.95768 10.15247
-11.04139 76.93828 9.531533
-11.95059 77.55231 9.775951
-14.71641 82.35483 13.00604
-12.67887 74.87361 12.93859
-11.95589 82.88316 10.21714
-12.7725 81.48274 10.44685
-13.73233 77.62487 15.61917
-14.23186 78.64272 15.23654
-10.71314 83.58423 11.10743
-15.30523 85.68168 13.38317
-11.59712 86.24642 11.80645
-13.05512 83.11196 15.04182
-13.25659 83.5512 15.12433
-12.1507 85.55286 13.9739
-13.99857 87.7475 14.73872
-8.922337 79.84177 13.65421
16.68888 73.7767 7.404244
-19.0873 54.69973 11.7175
-23.81682 90.02906 4.776586
-19.17791 58.88995 8.323963
-21.24525 58.25217 5.94653
-24.21068 56.96543 4.222851
-25.46405 56.87149 3.425392
-26.67119 52.34291 2.20873
-19.99654 56.08956 7.236327
-25.62556 57.36583 0.9582325
-22.98018 48.32645 -3.474808
-25.92876 58.23978 2.188636
-23.05415 49.52244 -3.136506
-23.36289 58.21639 -1.504701
-23.12664 55.32959 -2.665217
-19.57142 50.40341 -2.985439
-17.14706 52.63639 -1.954012
-23.30846 57.86505 8.248349
-23.37843 62.63163 7.329201
-23.18849 62.14915 8.24786
-24.68723 81.47743 -2.47554
-22.05567 81.32893 -4.262885
-22.03685 86.46162 -3.507612
-24.83904 87.26495 -1.229149
-24.37535 88.03301 -1.738904
-23.32575 74.57286 -1.354869
-25.40858 77.84979 0.8523546
-22.8979 79.63901 -0.5043064
-23.68487 79.50785 0.5492788
-18.69058 82.04366 -5.669936
-2.488217 94.33263 -18.30014
0.2581613 94.37867 -13.62838
-9.189927 97.38499 -16.4152
3.178777 102.4742 -11.29797
6.149226 104.2193 -14.17791
7.779675 102.96 -11.91188
2.294348 90.1524 -13.21697
20.01725 64.61161 -10.99328
23.22206 67.64442 -8.992469
23.45426 66.37302 -9.064653
23.56087 73.31944 -8.073857
23.55365 76.53046 -7.544005
20.52577 76.00018 -9.344974
19.37649 79.16054 -9.677322
19.25459 70.2172 -10.92908
18.2996 69.64834 -11.51808
-16.60221 102.4253 4.994294
-14.94225 104.1303 6.805332
-16.04957 100.701 5.76414
-16.63219 110.1369 6.532269
-15.71832 62.24871 -7.429442
-14.56716 64.21665 -7.934811
-14.27505 65.31355 -8.136066
-23.04178 65.01237 -3.796848
-15.71789 67.77834 -7.753565
-21.43409 70.7764 -5.118764
-15.82234 71.88927 -7.784145
-22.69839 66.67905 -4.1774
-15.38061 72.70858 -8.015802
-18.37626 76.02284 -6.363634
-6.690067 69.63776 -16.91609
-4.066192 73.45265 -13.8259
-0.9634417 76.01569 -13.20125
-5.009461 78.04323 -15.06412
20.20844 76.38246 10.68624
21.95697 72.9155 11.11104
22.70781 87.93406 7.789072
16.48766 69.44588 -15.4508
15.61098 76.1721 -15.88462
22.0803 80.47213 -13.97636
24.13909 77.5405 -11.50808
24.09542 78.40841 -11.44413
21.63145 82.7858 -10.73864
-25.89072 68.2482 1.253282
-27.69457 63.55902 1.665819
24.77635 86.93246 7.88509
19.08449 87.13629 9.947229
15.1104 101.6136 8.561371
15.23729 101.1432 9.689816
3.8705 75.23454 19.58156
3.705307 72.98039 14.17829
4.278802 79.49723 13.25386
1.140293 78.6272 11.17497
4.00459 85.86659 16.12445
3.877903 88.38564 17.25133
6.461985 84.84713 18.59336
1.883258 86.2123 11.09494
4.477828 96.36665 14.00211
3.980743 93.48959 16.17142
6.033722 99.5228 17.70188
1.342978 84.63506 11.48632
0.8815702 82.5656 14.31653
22.71996 72.75087 3.504252
22.36199 71.8213 1.320433
23.31842 67.99007 7.806454
25.20615 68.94065 -0.9950507
19.24028 68.74312 6.807741
23.46604 70.40697 6.014346
18.22506 69.28278 3.433986
22.22129 59.25927 -1.00774
22.21561 52.58263 -2.54057
10.86929 62.15581 -8.342506
14.43086 67.81378 -8.395069
19.91648 67.46774 -4.591932
-18.52011 102.7887 -7.860177
-17.94401 100.9338 -8.205165
-16.48948 102.8871 -8.674637
-15.23509 106.5442 -4.62787
-19.95054 104.5531 1.430254
-20.439 102.1902 4.132082
-20.0125 97.2449 -0.7702187
-18.88722 101.8252 4.715008
-19.11529 102.19 4.69168
15.12006 111.3745 -5.533931
14.8788 105.1464 -9.158814
16.02416 103.5724 -8.867429
13.83237 104.3062 -8.701056
15.58376 87.08758 -11.30501
17.44465 112.0007 -4.091623
19.55417 104.5699 -6.544831
16.46485 103.4342 -7.412818
17.68476 100.7327 -7.182679
21.66722 98.81576 -5.868091
19.1455 100.0166 -7.26191
13.47221 100.6661 -7.736701
17.06353 96.36009 -9.631295
18.95347 97.07219 -7.666633
22.47129 95.51907 -6.474076
13.46782 102.6147 9.346005
13.25862 98.92014 11.40684
13.24317 97.44021 11.05561
15.14488 99.28841 10.59343
16.23878 102.0014 11.51384
8.079836 102.6234 9.941811
6.00871 100.0835 10.90363
-20.82842 64.51728 5.596787
-21.66856 65.78207 4.461745
-18.16914 74.26135 8.94822
-21.26195 63.78167 5.083508
-22.62551 61.06644 1.296058
18.98996 52.34209 3.118099
26.02984 69.19819 -5.775329
23.83324 71.79221 -7.702866
10.16736 105.1733 -11.16278
10.90491 101.4271 -12.02429
-7.775578 111.1686 15.38496
-6.215382 109.0058 11.75626
-5.971117 108.5084 15.66403
-18.10301 81.12655 9.150496
-17.5606 75.51647 -10.66211
-17.3128 78.41151 -11.30162
-11.34792 104.6453 -9.169703
-17.87826 102.3427 -9.083048
-16.88849 104.4324 -9.499628
-8.639309 100.7209 -12.58919
-8.947902 103.0162 -13.25414
15.85921 111.2009 2.706677
19.62967 105.3591 2.974689
18.90462 100.4523 -5.239411
15.71831 112.1528 -0.1769631
17.12871 106.231 0.6318282
17.46884 100.5683 3.076111
19.6888 107.6863 0.4960193
26.5246 64.04524 -2.043486
-3.45264 77.87667 -19.45462
-2.811687 80.54739 -12.50951
-1.771021 83.1018 -15.81621
-3.406325 83.52637 -17.88061
1.055641 80.61033 15.97498
-0.8314924 82.78405 17.72897
2.127247 114.3986 14.63583
-0.4553922 105.0913 12.64992
-15.90193 66.41066 -10.97029
9.715405 80.78552 13.36953
8.747888 84.1473 11.26747
11.1789 82.44643 15.13744
12.60632 84.33528 15.25069
12.40358 80.94476 15.51693
13.72922 83.23515 13.26982
-18.02563 74.91971 14.1161
-17.62061 78.86517 8.953834
-20.42987 77.85352 14.79486
-17.80296 78.04367 13.30904
-18.86287 78.36713 7.249639
-14.77749 88.37199 12.01313
-11.43606 90.02084 11.4906
-8.633326 78.5434 15.85933
-10.77034 84.87894 12.71081
-6.280957 84.98525 18.02088
9.093549 76.61671 -14.74649
6.595072 74.33046 -17.41697
11.45912 75.60131 -13.58505
-20.32416 61.93662 6.650307
-26.18607 50.35814 0.9601954
-25.12432 59.39032 0.4678212
-18.49245 55.64294 -3.613938
-25.24221 54.29919 5.496206
-28.85563 58.82719 4.565266
-26.34261 61.7785 5.374295
-27.96293 64.6382 4.90757
-21.38794 75.72749 -5.990087
-19.70421 91.39393 -6.534619
-22.35312 73.81991 -4.230612
-20.67507 78.94717 -6.079829
-22.10728 74.08669 -4.577364
-20.23916 78.32879 -6.735325
-3.135106 87.8278 -18.09027
-1.452294 91.66875 -15.2731
-0.7024173 90.88145 -14.84085
7.170522 105.7122 -12.26319
10.65011 102.374 -9.525996
5.225301 92.83365 -15.05445
4.860809 91.85737 -14.73243
8.763871 91.82874 -14.17673
8.694628 92.96062 -13.43668
8.79949 92.13765 -13.35945
8.056653 98.27821 -14.38094
11.60631 101.7668 -10.37273
8.715652 96.39624 -14.08785
19.32409 67.67666 -11.08528
26.02222 73.35189 -7.94594
20.64359 76.76163 -9.115761
-17.11841 104.9758 10.99969
-15.73104 106.8939 10.63861
-14.11314 68.86581 -10.92006
-14.6351 80.59453 -9.231976
-17.63718 79.0414 -6.541354
-18.0649 80.77773 -6.195195
-5.767162 78.21783 -16.06362
-8.66476 80.01149 -18.20675
-0.5717331 83.36967 -13.04055
21.05127 82.48768 12.38812
19.77254 83.53424 14.06103
15.58629 86.97652 11.91406
16.804 86.26781 12.89836
16.40853 87.94877 12.4499
19.50897 93.90154 12.57578
13.99358 87.05906 12.05631
20.22806 91.2422 12.10007
16.61347 92.56433 12.24247
13.49081 93.45333 12.58053
13.35247 93.53896 13.21119
16.69388 97.53768 12.06319
7.081746 93.85041 10.13222
-14.65189 79.8772 -11.91494
15.94824 74.00966 -15.56721
23.51708 68.11581 9.676152
-25.76146 70.30976 1.344865
-23.15525 74.12445 -1.222949
25.68502 78.11256 -8.30039
22.97014 81.44413 -7.220516
22.37987 83.03236 -7.337932
18.77137 84.59364 -9.209886
18.72421 82.78625 -9.559958
15.89187 84.38392 -11.57736
15.71207 96.85571 9.277511
4.663373 88.94059 12.94474
2.920729 86.15935 10.98971
0.07164121 89.11288 17.20403
6.91602 88.14279 15.2105
7.533506 92.00871 16.53711
6.110485 96.41596 18.09174
26.36021 65.51998 -0.7569131
26.70312 67.60379 -0.209878
26.29932 75.61125 1.893168
27.46534 61.50794 3.877691
25.71503 75.73116 0.005241468
25.92891 74.91359 0.1303017
23.95903 78.36526 -0.6502341
25.59478 74.46433 8.297864
22.32653 79.49234 3.347273
24.22871 77.28111 -0.6031021
22.25591 77.95959 9.247293
22.73826 70.75591 9.110394
21.09089 73.78156 9.151975
23.09266 79.3769 -0.2415468
17.87461 77.59916 6.760996
25.41384 81.17266 5.06534
20.47056 74.25941 9.097314
18.94308 77.07855 6.600784
21.04306 80.58737 7.965588
19.40879 72.04955 6.644307
19.56718 75.84306 5.733507
22.3353 71.4156 1.893273
18.10024 70.4743 0.6519985
18.47379 69.9848 -1.181534
18.37218 69.27499 -0.596199
18.38717 73.88251 -1.588275
21.5631 70.13979 -2.337123
18.36619 78.88406 -0.4843899
18.33106 77.06967 1.124967
21.65691 66.47665 -0.7806138
18.37605 78.24227 1.97709
19.33891 77.39542 4.881775
18.2681 80.22343 -0.1402942
20.5194 83.06681 6.323568
19.64665 65.7066 2.937196
22.00357 74.44094 7.767527
22.20428 85.34853 4.999674
22.11274 84.33241 3.561524
22.11268 80.7627 1.682028
22.15279 81.84805 3.125463
24.92287 82.38865 0.3351852
21.89263 86.72649 1.249398
18.6048 50.59121 -3.639365
-15.67071 101.7745 -9.788536
-20.20184 96.44772 -8.786021
-15.81532 110.5723 -2.703607
-19.34086 110.1923 -0.269205
-16.64505 108.5296 -2.96434
-17.37984 104.0275 -1.774845
-17.16642 108.0992 -4.314597
20.66879 100.6623 -7.126924
14.8793 96.8184 -9.873718
16.7632 97.94716 -9.389279
6.621086 103.7462 13.68365
7.641356 102.2681 15.8792
14.49746 105.0279 9.411901
14.42127 107.6788 9.151453
10.35643 95.32256 13.40178
6.544087 94.65572 10.20935
-19.92771 70.68266 6.516969
-19.12864 70.28769 7.420266
-22.32946 69.34252 2.362518
-21.87456 71.74755 3.800738
-21.59958 61.51692 0.9597026
19.11249 54.46071 3.05556
18.68685 57.96531 4.004516
18.53017 58.12145 4.853574
22.51413 53.73364 -1.965342
26.35615 70.69061 -3.612393
26.88031 63.40002 -5.696995
26.92589 67.62956 -3.85218
25.71029 66.13747 -1.607612
-10.00925 109.8252 13.74734
-10.04864 104.5335 12.21098
-10.46786 103.1316 10.92405
-10.09857 103.783 12.47275
-22.72338 78.77155 12.96065
-21.91854 85.23054 10.33772
-22.19629 84.13905 12.25795
-15.96108 92.85335 -10.21589
-9.052322 101.613 -10.50755
-9.924935 94.67561 -16.31085
-9.723961 95.28429 -16.32157
-11.73565 93.29705 -11.46391
15.88801 105.5651 4.182375
15.31043 101.3478 -4.833045
17.6592 106.3442 -3.362949
20.19941 99.10677 -4.126335
19.92911 99.13854 -4.949172
18.91843 105.5261 -1.630632
19.58772 100.4957 -2.727573
19.13943 104.1536 -1.693739
17.81602 93.64036 -4.857205
13.32077 97.44493 -9.20013
19.23535 94.03011 0.7354708
17.70514 105.5504 2.522916
23.32934 68.95548 -1.029962
21.92339 71.04431 0.1096934
20.09274 75.53767 3.032127
-3.083203 82.21054 -19.50536
0.546652 77.84499 -21.37569
-0.227732 87.37141 -13.27662
3.267828 104.1507 16.05793
2.212079 106.0791 11.80287
2.786337 103.063 12.30631
8.617575 87.33533 10.88122
6.008245 91.68939 13.84126
6.960263 94.09784 17.66668
-16.93907 83.24454 11.02227
-16.85861 86.1021 7.442524
-16.87623 83.59705 10.16951
-16.95389 86.36475 6.110456
-17.02478 86.30998 10.57146
-16.84621 87.90914 8.902775
-15.69959 86.34886 13.80719
-17.17612 81.96088 10.70729
-19.05234 84.87666 6.30157
-19.20891 81.95597 5.580265
-12.62706 92.5349 10.08879
-13.92976 93.41476 11.77229
-14.91321 95.57047 12.66888
-12.23987 97.96867 9.879196
-13.73971 98.58119 9.829664
-13.52043 100.9975 13.56483
-14.80599 102.0359 12.74091
-13.96399 96.23302 11.81218
-11.3456 94.61245 12.11538
-9.655663 98.8091 12.57995
-5.579275 79.95107 17.93572
-5.947336 81.02536 18.4701
-6.994033 84.36225 18.55791
-9.045231 83.45953 18.41072
-9.629349 85.06275 17.09157
10.4823 78.22197 -11.45353
11.50045 77.64147 -13.30521
11.53552 78.01478 -12.62495
-22.85096 62.63988 4.397828
-23.86482 69.87905 0.1724095
-23.57187 63.74667 -1.695843
-23.06136 60.54685 -3.63053
-23.17392 63.65865 -2.971171
-18.81549 57.85405 -1.045883
-20.51491 62.49166 -5.609258
-18.82208 56.84515 -4.079525
-18.14832 63.57895 -0.7780424
-17.70034 62.91855 1.227314
-18.71496 62.65737 2.716183
-20.9418 62.37785 0.9156665
-20.57956 70.7092 0.8413333
-19.18277 70.20418 1.225101
-17.50534 72.49237 0.2827423
-18.11019 66.43553 -2.532615
-26.75115 67.02889 5.423096
-21.39178 75.86168 -5.979009
-22.56714 69.73452 -4.513448
-20.08349 74.34417 -7.21428
-18.14255 71.87043 -9.198833
-18.04655 81.61197 -8.899689
-17.19123 80.02493 -9.648546
-2.479443 89.84884 -18.93907
-2.965585 87.03899 -18.93897
0.1005946 93.23987 -13.30123
-8.996325 95.43102 -16.89512
4.081906 88.52291 -13.86252
2.344489 87.48889 -18.47063
1.800461 86.79695 -14.35635
3.215694 85.22117 -13.74962
11.75151 96.56435 -12.23989
11.71278 100.5848 -10.31517
13.77417 69.05382 -12.76478
-18.01933 101.7794 10.38455
-15.67187 72.47779 -10.77128
-17.64028 73.39812 -9.615366
-18.51593 85.14901 -5.546931
-18.19945 85.7535 -5.739859
-8.166219 80.32896 -18.09328
-6.695642 84.99635 -17.09697
-5.627164 86.64026 -15.89998
-1.112362 78.48586 -12.79391
-10.57328 84.70364 -17.33267
-8.936363 88.90332 -17.62725
-9.165052 86.71571 -17.7542
-12.7733 79.58138 -12.41372
-11.25496 89.13611 -14.76976
-12.20688 83.87253 -12.46177
-10.52862 76.56592 -18.45708
-11.28155 89.02962 -12.21573
-5.197164 88.16226 -15.24563
-12.1077 81.13162 -15.50117
-15.73199 79.19664 -12.38151
-3.052421 89.93938 -12.71008
-11.91892 81.98717 -15.9152
-1.23762 90.85334 -11.93036
-11.17179 88.81714 -14.17486
-2.745921 88.08444 -12.32588
19.86164 85.08339 11.59875
16.68989 87.91803 11.82606
12.93222 73.94565 -17.36976
14.39744 76.97006 -17.07762
11.7763 68.07979 -13.95446
13.16785 66.95712 -17.95023
11.80227 71.5257 -16.21506
-24.75491 75.18692 1.253881
-19.17231 78.04759 -5.690526
-21.13883 78.20656 -3.944617
23.0899 82.56087 -9.009203
12.88214 69.23171 -8.673268
15.95204 75.85271 -12.43385
17.49577 90.60096 9.649691
4.004281 93.25264 12.00497
27.35779 66.4026 3.071959
27.80507 63.41322 2.553798
25.35608 82.40037 3.767117
24.37375 82.57353 7.378097
24.47916 86.64982 5.185034
20.1857 82.3777 6.88197
19.90408 74.38548 6.804122
19.7518 71.66496 4.96952
21.79261 73.73058 5.453878
20.08554 77.61032 1.944272
21.25838 77.25054 -1.625528
20.88023 76.7108 -2.2707
22.79293 79.83886 5.466795
11.44198 66.18613 -9.005339
13.08923 68.51482 -8.709129
10.89117 63.57959 -11.76138
16.91198 64.70333 -12.2964
10.61428 68.75521 -10.1898
-20.39257 95.37038 -8.932426
-17.01817 106.51 -3.651657
-15.69424 103.9045 -2.866166
-16.73023 98.79261 -4.049074
-14.9506 104.1036 -4.839926
-16.4373 93.70518 -6.529194
-16.81298 97.09518 -6.960081
-17.71889 91.95684 -8.027971
-18.883 91.21309 -4.298182
-20.1958 88.45118 -2.834584
-21.37616 86.50657 -0.7920691
-21.14967 89.37894 -0.4058257
-22.85671 85.97716 1.529548
-19.74138 96.54254 -1.536575
-22.60666 90.39124 1.966881
-20.85904 100.7394 1.586942
-24.19794 88.55891 3.527107
-22.78701 87.68211 1.676998
18.92984 87.02704 -8.689713
18.48798 90.67339 -8.37672
20.16829 85.79115 -8.129932
16.38944 96.37263 -8.684004
17.2483 99.4027 -9.446653
6.079851 111.1451 15.65215
10.90221 97.23169 13.86811
6.085461 99.66164 13.07282
22.05573 52.17639 8.014834
21.89912 58.00333 7.522434
22.31273 61.50569 6.389061
21.87494 66.18713 3.318229
19.90943 63.65017 6.80337
20.84714 69.80176 6.316065
19.36007 62.41415 6.456295
22.13152 75.10796 -8.22648
25.79516 71.60466 -5.748607
-8.883898 110.59 14.88155
-6.985355 103.5279 16.80263
-9.970164 103.2199 15.51451
-22.61347 81.3615 12.24834
-18.66113 83.37192 13.03228
-21.34833 88.12362 12.13365
-17.21315 87.11003 9.964708
-18.98605 85.67625 6.537987
-20.23837 81.74261 -11.98065
-21.17097 80.46874 -9.086201
19.53139 107.9695 3.961065
18.04667 107.8149 4.367143
15.91808 113.5238 3.452748
14.9541 110.8603 4.450523
14.47149 113.2085 3.258838
16.96559 115.9105 3.843737
19.63992 96.68671 8.582589
22.14554 97.31709 6.33988
21.98043 98.75314 6.246957
22.29793 89.17887 9.322166
19.90715 105.1236 6.652788
17.66008 98.48795 7.492401
19.07906 99.29392 8.298929
19.66047 102.669 7.699141
21.56256 92.3532 7.001955
17.67686 95.54029 8.347152
20.42519 91.68145 9.129624
19.36718 93.32705 -5.871608
20.25936 89.01057 3.125108
20.18793 100.3684 0.4818912
21.67408 96.85029 -1.642968
20.59504 95.5118 -2.765003
18.8779 100.9438 3.271413
0.5153608 80.46393 -20.91745
-0.4883282 81.67431 -21.00839
2.389143 83.59549 -16.8386
2.06437 81.24864 -15.02481
2.350863 72.31647 -18.73655
2.131677 73.08649 -17.12124
0.2688031 101.1193 14.0403
3.500076 102.8633 15.45194
5.013858 86.70477 12.63339
5.616705 81.08996 11.0146
7.377153 88.967 10.35554
5.092977 88.89799 11.84211
7.352603 95.90824 16.96126
-15.38308 91.20691 12.78365
-17.44597 92.42323 13.21659
-17.18521 89.82427 10.11957
-16.68191 95.25298 9.101324
-13.89036 88.63149 14.71019
-13.8122 100.6471 9.711725
-16.69396 99.74738 12.15341
-13.41416 104.7269 10.72125
-9.839777 104.5501 11.20782
-11.26798 106.6196 10.87674
-10.56273 95.59641 11.61262
-6.96347 85.58064 13.99703
-9.177073 86.41003 13.70492
-2.558129 85.70671 16.55222
-6.751616 88.25223 12.69675
-7.194112 90.43287 13.96944
-0.487091 87.64689 17.48886
0.5768709 88.61697 16.59138
-18.79564 65.7782 -3.778119
-19.57124 67.38301 -5.056637
-18.4323 74.3811 -4.203709
-27.14839 73.81888 3.079645
-26.65265 75.41572 2.815838
-19.61475 84.883 -7.68123
-19.70752 91.76038 -6.46874
-22.11054 71.04411 -5.056
-17.71302 69.7565 -9.675206
-20.01188 83.5023 -6.845979
2.070151 82.894 -19.43581
-17.66059 104.8581 10.20166
-14.9037 82.96363 -9.087858
-15.81966 84.10482 -9.655849
-18.15898 81.25241 -12.64396
-14.94003 88.40704 -11.79798
-15.88843 84.56334 -12.20376
-14.23995 88.23108 -11.59258
-4.124504 80.81184 -13.67094
19.87436 90.50697 11.60186
18.79202 76.66462 -13.76336
12.03416 72.26334 -16.65479
19.67812 80.49435 -9.898179
19.3748 81.41136 -10.9152
20.30418 83.81148 -11.02121
20.52309 90.84144 -8.14292
18.09321 90.63621 -9.09556
15.17041 73.2622 -12.7885
4.389011 94.30159 12.85676
4.155855 96.53529 12.42546
2.153744 96.97642 11.33512
4.463014 104.4146 17.26763
4.23895 105.8705 16.92379
23.66813 87.69522 -0.01617778
22.06157 72.89262 4.014119
20.81021 73.83932 -2.729736
-19.23662 107.4111 0.5070805
-18.89053 105.4781 -0.4283742
-19.53468 102.4736 -3.589547
-18.34764 85.30959 -8.080439
-22.53829 95.57734 3.684958
-19.65866 97.51569 5.749762
-19.97076 94.69805 6.532071
-24.82251 85.69307 3.529489
-20.97367 85.88516 8.233019
21.98061 87.6252 -7.100077
20.5307 91.60285 -7.267897
15.25103 90.66833 -6.965416
14.28367 85.54459 -11.88072
17.82283 98.7348 -9.305752
10.75048 96.79514 13.78695
-20.31746 81.16855 1.163562
21.30668 81.83956 -6.442422
-1.752399 98.06874 16.51469
-9.120308 99.91304 17.06371
-18.25426 81.77361 9.099236
-20.79546 94.10767 10.53238
-18.30495 90.60449 6.195954
-17.7193 95.08228 5.259188
-16.31715 92.09632 8.393772
-16.90232 92.64011 5.408411
-18.51818 101.0728 8.820138
-20.22401 91.9231 11.63617
-19.87533 86.56836 9.419716
-22.32068 84.70712 -9.883956
-20.07834 85.34089 -9.744062
16.85506 103.9548 8.005116
15.72197 103.9759 6.484722
18.04828 102.8044 4.305915
16.30015 94.8156 7.496836
16.24104 99.60163 6.068779
19.20265 102.9107 4.19766
20.54804 106.1324 0.8731356
21.8684 100.8897 0.1565588
22.38813 98.08839 0.05569199
20.01324 100.6471 2.158814
16.44397 95.00093 10.77532
18.59756 93.80698 10.84216
18.82801 105.6097 -1.280141
18.7129 97.34423 2.035804
20.08599 98.91069 1.048142
19.2175 95.46625 -1.281175
17.61349 96.88595 2.701278
15.03113 91.33781 -6.894504
20.16066 86.21642 -5.994703
-1.001136 82.27465 -20.7986
3.695209 79.24281 -14.46762
0.6631655 98.75877 14.56807
0.8146433 96.3182 15.31866
7.604971 97.92439 14.94012
-11.85073 93.12865 12.80351
-9.510662 89.06464 12.65527
-15.18111 103.7549 10.77453
-10.36596 104.422 10.68851
-9.340667 85.5973 15.37813
11.46216 83.38463 -14.80554
11.43576 85.33009 -14.92937
14.56014 85.67372 -14.99758
11.6529 90.50483 -14.3381
14.8989 81.49418 -15.88788
11.73142 89.02113 -11.73655
-19.6869 76.7997 -4.311175
-24.47492 67.1647 1.220913
-18.6718 63.88676 -2.431056
-21.71431 76.81975 3.212301
-17.24219 74.24196 -0.1358137
-20.97234 77.98725 4.70258
-18.57085 80.77511 -3.932662
-19.53716 76.39975 -4.36701
-24.25711 75.94218 0.9979109
-24.95372 77.75459 6.274629
-22.02103 82.99056 -0.5559439
-22.89739 83.60073 7.31663
-27.11662 72.69186 5.145153
-23.02287 74.57861 7.559663
-20.14212 77.87205 9.48215
-19.90452 93.8408 -5.673569
10.51868 82.34416 -11.3799
-18.33262 93.25603 -11.19506
-14.74109 95.12074 -11.7849
-15.46001 97.4732 -11.53785
20.7776 81.74731 -13.77133
23.24107 88.80318 -8.317428
21.57736 91.75491 -6.79726
12.64411 71.94262 -12.44984
21.74722 86.32613 7.902032
21.91715 73.84512 5.26567
12.02904 71.61249 -9.156869
-23.37104 92.9068 -1.468936
-23.10468 91.48358 0.7205319
-23.69634 89.94242 0.5835696
-21.28544 93.28093 -3.490039
-18.5381 98.87712 -6.249801
-20.24503 95.52396 -1.71571
-19.88223 92.7937 -4.978699
-16.98436 99.17597 -6.560341
-19.86655 95.88278 -3.467181
-22.58133 97.93683 0.1099088
-18.53636 103.4584 -4.772696
-17.68772 102.4973 -5.692851
-18.1249 104.5667 -3.212733
-19.28995 100.1149 -2.623225
-18.70807 87.37885 -5.161487
-16.91164 88.99734 -7.058027
-21.51354 84.95634 8.118353
-23.16516 79.31381 0.4588916
-25.76517 81.78414 4.102855
12.81802 85.82545 -9.819133
16.83298 85.5089 -7.028035
12.99051 83.47324 -9.228035
26.06334 73.41542 -4.021671
24.52859 76.47485 -6.247621
21.46841 76.70361 2.061272
21.70088 82.5845 3.67961
19.90225 77.37341 3.269292
-14.47585 104.4463 12.37334
-20.31082 86.32896 9.413404
-19.48841 88.46436 1.110472
-19.63405 96.76296 10.19561
17.3415 96.38585 5.758662
18.25329 97.08408 3.787825
19.0209 83.39569 4.402823
18.17512 93.93177 2.260304
17.07646 98.0215 -0.1840936
19.74925 89.31521 4.750958
19.083 92.35976 4.357277
18.15341 90.93186 2.106199
18.07313 93.55844 -0.9506658
17.10807 87.35654 -6.684493
0.4891364 101.1446 15.02706
-18.26849 97.66426 10.78572
-10.24681 92.57426 14.6471
-9.780466 88.1426 16.54288
-7.023185 98.00475 17.37782
-6.493102 101.0463 16.60515
-6.461459 101.6707 15.87457
-10.27949 93.81089 16.1134
-10.07489 94.51523 14.48347
-6.683108 101.7472 15.13355
-9.81914 98.66939 16.5405
-0.03740855 93.94855 16.7851
0.4622267 94.1236 16.33215
-6.585182 90.89678 12.49948
9.524415 88.50117 -12.15864
-20.55675 74.68228 -4.384484
-17.91626 67.74168 -2.886824
-20.9921 83.40828 2.508124
-19.84493 83.45224 1.043929
-18.5722 84.54179 0.2554055
-20.85084 85.714 -1.608741
-18.46812 88.99759 -2.67047
-19.45633 83.38804 -3.659813
-19.23379 90.22327 1.091209
-22.65977 84.64507 7.407629
-22.4891 74.01521 3.418007
-19.46925 69.59597 7.790749
-19.57861 79.15992 -8.245992
10.02701 82.20885 -11.70643
12.93863 96.48851 -13.88109
15.07321 92.48541 -11.48514
15.29636 98.12926 -10.61981
19.23272 96.57392 -10.75992
17.77015 99.13783 -10.67275
19.43207 97.98965 -9.542302
21.03535 88.89263 -12.22469
19.28248 91.7396 -10.4628
16.97986 82.29858 -12.8568
14.60045 86.13539 -14.49609
21.81248 83.91171 -13.18349
19.78764 87.62381 -12.79792
19.24277 82.27048 -13.40535
13.1404 98.39423 -12.19243
-14.6359 98.26788 -11.34569
24.08772 84.71813 7.09254
19.86978 82.24561 3.41338
18.54885 83.48104 -1.8811
20.12407 87.69588 0.2133256
-19.27041 96.91291 -9.754
-21.07231 91.36765 -0.7773044
-19.95395 99.0583 -4.092099
-18.58865 91.22997 -7.070546
-20.34488 86.95634 -5.510568
-25.09758 80.47694 6.070492
11.95831 76.29457 -10.46698
-19.05344 78.2979 7.536062
25.45926 77.34987 -2.923728
21.88726 80.69723 0.1795321
23.66628 87.66016 -2.78975
-12.79318 106.623 12.69454
-12.43168 111.1744 9.168283
-20.491 99.67313 8.263359
-19.97237 101.7841 7.822123
-18.89657 106.4828 5.861144
-18.91558 102.4746 8.417516
-19.68521 103.4433 7.182268
-18.01278 96.29904 7.200767
-17.32594 100.5399 1.638604
-21.13166 90.20827 9.018029
-17.65146 100.6649 2.985154
-17.90234 97.31901 6.206007
18.17154 101.5912 4.550002
22.69757 97.91436 3.647615
19.24406 96.10916 5.141819
23.74311 93.77692 2.247679
24.1414 91.32343 1.68881
19.0693 94.40272 5.611203
21.70423 89.0375 4.455486
22.36226 89.28998 0.03674151
21.31334 94.45136 1.927286
21.60959 90.17609 2.187727
21.62388 95.28691 0.3625205
18.28572 84.85205 -1.278188
18.04398 88.29646 0.1600253
16.49996 85.79352 -7.269226
13.70154 81.41222 -8.527073
17.72347 76.72588 -6.613447
8.745379 79.76157 -16.2343
7.282997 83.46925 -16.70741
0.03368941 102.5992 14.03113
-1.812817 109.8701 15.16661
-4.127379 110.7617 13.26735
-5.328053 97.96397 12.00168
-6.493236 96.34526 12.47113
-7.103518 101.1314 13.70207
1.469278 88.27908 11.43447
-4.576749 92.42598 12.21679
-3.799685 90.74259 12.66837
-21.19949 74.02461 -4.132548
-22.57092 77.96332 0.4616561
-20.97982 73.36578 -4.410496
-20.76134 70.84045 6.037783
-19.9011 67.85929 7.13361
-18.9709 66.39757 9.075068
-19.43162 62.3424 7.842449
-20.45287 68.05058 10.68938
-21.77074 71.10529 -4.137846
-20.03735 81.97929 -3.750488
-21.85892 81.9837 -0.3777802
-19.42905 91.38844 1.602004
-19.27184 94.02633 2.330603
-18.09903 94.3828 0.4081653
-17.56702 90.35159 -1.895108
-19.84911 78.65587 9.28805
-20.99857 74.13004 9.939206
-20.07706 87.56244 -6.946308
-16.49561 89.65208 -10.20683
-16.02643 93.80344 -9.061132
16.18138 89.36943 -11.80386
20.41792 86.63487 -0.8442598
-17.88674 84.91541 -11.90234
-16.84885 89.58147 -8.900558
24.37787 78.52428 -5.890871
-16.00363 108.1817 4.420267
-15.39852 109.244 4.069211
-17.32017 97.8495 -0.779569
-19.15006 96.50879 -0.6866838
-19.47353 95.68594 1.986847
-20.12766 92.47022 0.1936163
-19.96183 93.45616 1.074554
23.76287 90.32723 0.2684551
19.37374 81.35468 -4.628188
18.33376 83.41576 -5.615813
20.69771 83.51518 -7.328024
19.78512 79.96513 -7.021234
20.78999 81.07639 -5.413799
23.43407 79.3924 -6.230424
23.1188 79.01514 -6.514596
20.73107 78.14951 -4.294919
25.24537 79.49151 -3.890064
23.60378 87.54077 -3.394689
20.7583 90.51725 -4.475987
20.52256 91.8597 -4.606371
21.3474 83.22849 1.534184
18.30514 77.87446 -6.115044
-4.007073 102.5118 12.3432
-4.904109 103.3327 11.87281
-3.678511 106.7366 12.94411
0.1010868 85.84512 17.28304
-22.49068 77.34937 2.248246
-22.37608 67.79747 9.724353
-20.1807 63.96427 11.27988
-20.96749 87.40524 0.7695507
-18.36356 89.16768 8.217369
-20.1108 79.97911 6.363934
-20.74766 85.18063 4.267158
-21.85374 78.43446 3.602872
-19.91323 75.79064 7.074159
-15.54009 96.55862 -8.891661
19.96128 86.32882 1.350247
-18.90019 83.83271 -11.45773
-17.53479 104.4651 1.655622
-18.52779 100.9147 0.8022342
-17.11363 106.2276 1.808682
-20.39803 89.83578 3.076671
21.43194 77.26947 -8.019968
20.37935 73.11214 -6.455007
18.40589 76.55015 -6.059993
15.87484 75.69128 -7.732009
15.5298 71.97998 -7.800782
23.10756 84.26066 -1.002868
21.3264 87.8499 0.6364562
-20.77485 87.921 -0.6074418
-22.44769 78.93301 0.8073079
-20.37662 77.22471 6.297867
-21.02106 80.89255 4.604351
-17.11416 82.1273 -10.68227
