# .PCD v0.7 - Point Cloud Data file format
VERSION 0.7
FIELDS x y z
SIZE 4 4 4
TYPE F F F
COUNT 1 1 1
WIDTH 1657
HEIGHT 1
VIEWPOINT 0 0 0 1 0 0 0
POINTS 1657
DATA ascii
6.113681 101.0338 10.60387
4.452326 101.6977 11.14874
-4.620638 22.51291 7.837819
-3.769598 20.15783 14.81082
-4.049109 27.13741 13.75301
-4.315849 17.51725 9.803785
-4.432653 29.28346 9.167006
-4.00608 26.5217 13.95291
-4.448111 35.10836 9.901855
-2.453828 26.77247 16.14406
-4.984527 31.96973 7.542485
4.656861 73.61096 8.860029
3.886998 60.97674 9.442555
-5.480286 56.16226 8.104272
-3.812884 54.56192 12.87542
-6.116335 41.07653 6.567613
-5.677907 41.31504 7.024972
-5.352264 44.53119 7.632987
7.888376 62.60719 6.718874
9.800078 23.08244 5.565949
10.67692 24.46507 8.928617
-0.04590092 107.2561 12.34869
-3.112767 25.34861 15.55201
-4.050297 57.01809 11.93654
-4.018385 60.57516 12.06268
-0.2233672 60.51035 15.13319
3.271775 51.59911 12.17704
2.875228 42.86086 13.74035
2.400089 44.3892 14.46527
1.978112 45.76184 14.9345
2.631175 43.52141 14.1661
3.512583 43.60542 10.92954
3.423282 38.87578 11.73237
2.617727 34.69672 14.65809
5.616123 35.77475 5.226315
3.470129 36.45884 11.40235
3.541946 33.41146 9.15317
3.594317 33.61712 8.4123
3.498047 31.77084 9.29958
7.408442 31.40705 4.603844
8.824591 30.29616 4.989493
3.649774 30.43007 7.865296
3.465277 23.6167 11.11164
-3.749111 23.34923 14.73049
1.033774 25.27693 16.67408
-4.265508 34.66543 12.25161
-6.819533 33.89164 5.753929
-5.766809 36.21659 6.665101
-4.56038 37.87875 9.278233
6.351967 68.52756 7.239563
3.845965 66.47632 9.945732
2.497729 66.7065 13.16453
2.735836 64.18719 12.93086
1.926949 63.16677 14.02222
2.313019 56.02107 13.96885
3.69572 58.36616 10.00959
3.383892 53.93492 11.59323
3.191075 54.66135 12.32595
1.552545 48.51524 15.09902
3.823343 62.41985 9.699784
5.685866 60.67075 7.054788
-3.354553 54.08168 13.89122
0.7290701 57.3159 15.14611
-1.149751 56.89343 15.3107
-2.614178 57.19188 14.51703
-2.367281 52.88229 15.02217
-3.134017 50.7264 14.39663
-4.281262 50.3863 10.89044
-1.791164 47.11617 15.54891
-4.246079 49.92305 11.12715
-4.709808 51.40767 9.277925
-4.117358 46.39192 12.32997
-3.517906 43.5126 14.22985
5.639173 19.50628 4.035096
3.450922 23.20572 9.345016
3.348921 23.93721 13.14851
9.268226 24.30794 4.941908
-0.5734862 108.9342 12.24796
-0.1636943 39.37055 16.20023
-2.788887 37.83692 15.30149
-3.33485 35.78626 14.78187
4.429152 28.29675 5.843267
3.472745 26.34215 10.20429
4.681007 28.04061 5.458875
-3.128332 32.50827 15.25873
-0.2289265 35.17411 16.44905
-2.381796 35.94112 15.70703
-0.04847382 30.3005 16.67546
2.659676 27.03008 14.8904
3.358319 67.46535 11.38022
2.897148 74.66622 12.28891
3.942649 76.56257 10.25609
-1.929924 48.77502 15.4308
2.128297 24.37101 15.81523
4.111788 25.90497 6.111255
4.600294 22.57667 5.120893
3.41485 27.12255 12.49081
5.264698 71.71989 8.114566
3.784423 70.64648 10.24746
12.32402 147.8608 0.574675
14.5837 133.6922 8.288858
10.94052 113.6721 8.037749
15.18492 79.88677 10.45481
12.2157 151.0108 -2.477358
14.02962 129.5204 4.194219
16.90583 67.25761 7.99287
10.36781 119.7518 9.22531
9.264767 122.0652 10.38091
13.92527 129.3493 5.669158
11.18868 147.8335 0.6957682
12.36023 139.5407 6.51834
12.78274 120.8521 4.40018
10.0779 149.4569 -0.5344562
11.82972 146.8796 1.378605
12.1702 144.9888 2.646683
23.0439 31.98334 -7.068433
14.13683 110.9725 2.514573
12.62596 136.964 9.137739
15.60014 106.9584 1.355844
18.81962 12.4844 5.487254
21.63537 12.63259 -1.163133
23.3088 17.20376 -5.575575
20.03664 63.10468 -4.57395
16.70177 56.04778 7.958298
11.87535 141.3032 5.627542
22.7797 22.7501 -8.008885
12.81884 132.5166 11.56063
14.35026 100.8621 8.062621
19.59913 90.5637 6.696606
22.75111 16.22766 -2.213596
10.66145 117.6597 8.536136
25.3526 29.05252 9.787708
11.10482 125.8277 8.944153
12.78131 135.0823 10.86226
12.97008 131.5396 11.33419
11.68818 145.5538 2.494297
17.42212 15.01015 14.93709
16.60053 12.35479 10.1778
22.98715 29.74309 -6.805563
22.05666 14.33733 -1.459123
18.90924 92.2608 -0.6298453
15.28003 89.29325 9.618221
15.03271 81.26222 10.82082
12.69707 113.3646 5.352398
13.1699 105.6766 8.451239
10.50037 115.0844 8.389236
12.27191 114.9687 5.619977
16.62295 54.94734 12.51868
12.19875 125.805 7.66466
12.64216 128.5017 9.376041
13.21567 128.6523 8.01545
16.18029 12.66642 8.246314
17.43711 29.99246 12.34122
16.75545 12.75714 4.755714
20.41338 17.78753 -0.1277407
16.89759 101.6061 0.3050758
12.84229 102.4113 8.663221
19.90181 87.24014 -1.153111
19.89684 71.82712 -3.639346
15.55749 107.2429 2.756704
16.6575 102.9348 3.4079
20.26937 64.96277 -3.445112
16.21733 61.00512 11.42094
12.21607 120.2039 6.726188
17.65705 25.42191 13.21945
17.01999 22.30091 11.21716
16.57281 43.68891 10.6235
17.16355 29.61732 11.58336
23.05741 32.70089 -7.417021
24.65205 16.85284 5.034573
22.85213 26.91355 -7.866994
18.36271 94.85209 1.706654
19.02236 95.03237 4.491905
15.36575 98.24622 7.541125
15.42437 86.25112 9.902691
15.18992 74.99296 12.1415
15.29854 70.26618 12.76587
20.88607 51.17946 -4.442899
16.25335 22.14044 7.795393
16.15936 13.63959 7.796632
16.99632 39.40134 13.32904
28.06348 14.13998 8.122716
22.84031 39.96436 -5.148667
20.25063 13.38441 5.498672
20.11059 15.0921 0.03170383
18.97432 13.68469 0.7580817
20.15917 86.74731 1.209248
15.53638 101.889 6.506673
15.04827 92.4572 9.219796
15.15658 78.10817 11.08249
16.57676 73.99947 8.742581
15.55979 68.9595 12.38567
20.37259 59.65777 -3.921094
16.59328 51.64495 11.20819
16.77147 30.99162 10.7031
17.21447 40.20126 12.82606
16.95608 46.49714 12.7377
26.91297 17.02815 5.946075
22.88486 39.43177 -6.838744
22.23202 42.30874 -4.095346
20.73703 47.95329 -0.4730597
20.9658 47.12751 -0.7041954
23.07829 24.14211 -6.111959
16.60853 17.58304 3.016537
17.46263 100.2098 3.519774
18.53798 91.02394 6.741183
20.34956 65.84228 -3.125129
14.90535 107.1017 5.651025
20.45556 56.14568 -4.439388
20.90358 52.11852 -3.888697
17.15376 26.72197 11.57457
16.64674 48.45589 11.11148
21.26249 48.86748 -2.791102
19.6756 89.34856 0.6152376
16.91345 94.46174 7.010494
20.21388 66.96088 -0.3742255
19.85661 58.34958 -0.1445888
20.76244 57.85093 -1.699421
16.63778 53.84895 11.79682
27.64557 15.35066 7.127669
22.38907 28.58813 -1.74453
20.91554 49.57367 -0.781628
17.37876 18.37337 2.076306
19.67649 91.97328 6.094878
20.26048 71.7113 1.117833
21.0582 49.60836 -1.200575
20.65524 48.29144 -0.3889872
22.21504 23.14418 -1.511065
20.05454 89.84406 4.686069
18.23454 94.60734 6.317094
27.46961 18.72328 7.261263
18.24643 20.00827 1.336098
17.71042 98.1059 5.488378
23.3333 15.81684 5.152058
20.8409 39.0004 -0.1291699
17.81093 98.226 3.024183
24.50794 18.01179 5.062781
23.28556 27.14568 -4.602237
18.11102 98.49593 4.302001
19.41154 63.94792 1.84269
18.03655 44.67171 2.208093
19.6844 65.96175 1.719363
17.92548 43.45169 3.998374
19.64761 57.64787 4.753023
15.99376 76.95374 9.602743
16.15193 65.02223 9.570032
16.43525 65.95015 8.567073
18.68348 67.83484 7.451459
16.80983 70.63589 8.274465
16.246 59.09997 10.23192
16.14416 14.86484 8.346048
16.65871 18.64591 10.60789
16.23343 25.20675 7.882608
16.84283 21.10794 7.066931
18.09037 19.14476 6.684908
19.61687 16.55301 7.199429
21.42351 16.53959 8.340721
23.26299 24.29788 -3.854313
20.65845 80.88557 1.088916
21.33338 84.17419 5.487385
20.50314 78.29007 4.541918
16.23852 27.39716 9.423771
20.85853 42.27315 -0.2499313
13.97478 107.4302 7.090138
17.31629 35.21551 7.052285
18.34332 51.05978 2.253119
22.12216 49.08662 5.148185
22.05218 55.39293 5.156735
18.17484 48.14812 3.620687
23.20143 60.89888 5.561806
21.85263 45.69169 5.150621
21.21001 56.42223 5.134155
22.52718 33.99316 -2.223432
20.76981 38.06117 -0.03424035
20.68488 31.47423 -0.106929
22.80183 39.52866 -4.503683
17.39572 83.49464 8.637592
26.65656 18.89437 5.721381
25.46111 21.55858 5.21816
24.51948 24.37494 5.140294
25.78015 25.84631 5.445508
20.99545 45.11409 5.146831
26.87667 26.13783 8.714537
24.73091 27.22666 9.987609
24.87814 22.68935 10.164
26.93774 18.14156 9.763839
25.76943 19.53876 10.23389
16.10437 43.35325 8.904726
19.42326 17.29759 5.550133
23.0646 22.7454 -2.807488
20.184 64.55061 4.838899
20.61101 42.74533 5.150185
16.76925 62.22115 7.913213
17.57602 59.36522 7.409246
19.30696 56.03926 7.573962
16.3975 48.56047 8.127052
16.58589 50.28769 7.897567
16.55251 69.04529 8.434142
16.64962 36.51854 10.44996
20.42918 87.26019 6.932701
20.4132 78.45516 3.467177
21.33048 76.5442 5.193915
19.8045 30.39204 7.402317
20.92256 48.47622 5.086873
23.27124 39.1842 5.19903
20.46479 43.46437 5.140094
24.7971 44.45834 5.774765
22.52984 44.98186 5.159297
25.13301 49.40228 7.250223
19.98667 35.03333 0.4527759
21.5389 83.98966 6.089377
18.53284 87.32783 7.210421
18.8169 80.53231 7.486017
27.43644 16.73723 9.297173
16.31657 40.00149 8.053083
19.60045 64.89446 4.151289
16.36823 79.08874 9.337638
18.52108 46.95781 7.171442
19.84399 51.0566 7.688655
22.62816 63.44056 8.521984
22.43092 76.00964 5.827726
17.89401 33.52444 6.929399
17.90749 40.58967 4.198974
19.11153 37.95933 5.040224
18.2604 79.08794 7.831578
16.75399 78.47121 9.012661
18.11232 24.65432 1.482046
18.26973 25.87972 5.241803
21.23312 25.6593 5.385985
17.09845 25.05264 3.918782
18.15887 21.14758 5.225706
16.96428 22.91177 3.003628
16.9123 22.81482 3.593435
17.42448 49.78573 7.316045
21.80417 42.36344 8.726004
21.78425 46.86911 8.743128
22.24895 46.89169 8.999757
19.54515 49.27243 7.510349
23.73235 64.67251 6.588924
23.52223 69.21439 7.234826
23.20915 69.85463 7.71446
20.31477 74.6574 7.656715
22.74098 70.39671 5.854096
18.9501 78.11877 7.337194
22.72887 74.50645 5.982327
19.04418 70.05019 7.488298
21.68574 34.73983 5.233416
18.15061 31.55268 4.938741
21.24146 28.39244 -0.6050743
19.11412 31.13586 0.9289519
20.9636 31.39259 5.308861
20.27441 28.63356 5.381998
20.76844 29.32897 5.349215
21.53233 26.87717 5.326885
24.3738 33.55068 5.224338
25.40954 35.56134 5.83588
25.15543 33.59507 9.548036
25.69329 42.61224 7.771525
23.57288 45.10867 9.289434
21.96953 39.44424 8.810281
17.65114 38.76533 7.069221
20.30523 39.06788 7.812034
22.48405 36.03156 9.152824
20.03164 73.65237 3.930641
19.83262 69.53348 3.081181
20.14819 70.79414 4.525345
26.15012 36.31025 6.650459
25.22448 31.049 9.704981
23.16712 32.78363 9.563191
25.40094 40.51427 6.053019
21.12023 29.30058 8.279654
23.9457 25.87662 9.977934
24.37601 24.39807 10.12855
18.83057 29.59945 6.940553
18.24931 29.12091 6.843965
22.20908 25.97854 9.074429
20.46054 26.37964 7.784882
23.24495 37.42199 9.459507
22.31474 41.96251 -4.13193
24.20461 57.4365 6.228886
22.14303 58.1111 8.768214
21.6163 56.90118 8.576611
21.74423 59.91581 8.571435
20.39075 58.83883 7.992773
23.93159 53.55327 8.810992
23.14956 55.50587 8.993746
23.72843 55.0392 5.506997
24.55593 38.68986 5.490489
25.05221 50.75723 7.307523
23.48928 49.1996 5.275228
23.09206 52.16736 5.23245
-17.15174 15.28516 5.378368
-17.92052 13.2782 5.739951
-25.28461 12.94457 8.364322
-11.87239 12.82314 9.23702
-7.975396 111.0948 10.32536
-11.31962 35.05626 7.99185
-14.6739 133.2633 8.069803
-16.84673 29.19986 3.321706
-16.21809 13.56266 4.581355
-17.62157 13.68569 5.61202
-10.93134 144.474 3.679349
-11.1774 42.61191 9.341874
-9.415003 126.6094 10.48381
-8.460378 114.2506 9.772107
-15.21692 102.5336 6.936126
-11.18781 137.5176 10.1835
-10.54529 70.47773 9.798289
-9.366696 85.59206 9.332044
-7.97303 118.1712 10.41327
-9.255197 103.8114 9.969695
-9.230066 109.3234 10.05862
-11.90521 136.6973 10.36102
-12.24385 119.5464 6.457843
-10.68388 105.5663 9.659934
-11.42857 146.7687 1.572669
-10.00791 131.7705 13.36079
-13.10952 137.6526 7.42901
-18.70231 12.23386 6.057135
-11.95668 11.38846 16.93086
-10.00368 150.9941 -2.659135
-10.47556 11.51834 13.22747
-10.58475 67.77884 9.682381
-9.025715 91.30978 9.105854
-14.99183 102.0433 7.318723
-8.003869 108.3004 10.71166
-8.203298 117.3388 10.15111
-10.01256 115.6858 8.822606
-12.26629 130.7191 11.73198
-12.1364 131.5211 12.10756
-9.015727 121.3152 10.46127
-13.81462 137.2714 6.403539
-20.35249 12.97469 10.98937
-16.43016 18.78608 4.397844
-22.36053 16.11063 7.23039
-11.21757 24.86657 10.48412
-11.74072 21.08281 8.906236
-10.24738 15.13292 13.61034
-10.76774 53.31562 10.3974
-19.8774 65.70718 6.66446
-8.745022 93.6207 9.120198
-18.93281 90.35575 5.722112
-10.54703 97.76939 9.708953
-14.08013 107.2196 7.048249
-11.90599 109.6686 8.455171
-9.449702 118.3489 9.664236
-13.3026 129.9325 9.991599
-14.82146 132.5492 7.082547
-12.05805 122.3018 7.591936
-17.05537 33.53946 3.856378
-19.82559 13.50308 10.06129
-23.57295 12.3076 7.551318
-26.49635 12.20496 12.67787
-18.37188 14.85214 7.95588
-11.59828 18.5263 9.705494
-10.79642 54.11662 8.71844
-18.64641 62.56257 5.083097
-19.19889 72.44866 5.387469
-18.47621 61.19352 4.407776
-19.55468 80.12584 5.951442
-9.649428 94.04001 9.318172
-15.51574 94.91383 8.3658
-14.71347 103.7248 7.215554
-9.978102 111.2565 9.280364
-10.72559 126.5606 9.466195
-14.24133 131.6992 9.206105
-18.67864 14.24548 8.347068
-11.1591 44.53125 9.305639
-21.17688 15.382 6.905161
-17.10043 30.47778 4.510451
-14.01316 15.11545 11.59054
-11.54903 29.7187 8.452947
-13.74742 14.56169 15.41767
-11.17818 17.87541 10.88445
-12.20265 14.50896 16.69047
-10.30996 62.76484 8.354012
-10.38566 71.13433 9.24147
-10.62903 64.08242 9.278486
-19.46206 77.92899 6.219518
-21.45461 65.12022 7.404096
-18.66522 61.14676 5.396782
-20.62574 77.85455 7.317292
-18.05746 96.53735 6.632514
-18.15205 30.43663 5.667362
-11.51646 32.7117 8.987564
-10.3829 43.15915 12.05573
-18.79108 23.06075 6.191569
-13.99194 14.38044 14.00634
-12.12186 17.11303 16.57357
-10.41046 59.96163 12.53716
-18.15795 46.42175 5.202702
-19.39034 73.49782 6.267888
-15.71497 52.80235 8.456739
-11.30083 83.27116 12.05078
-11.39584 105.3344 9.386669
-18.02476 40.37357 5.188541
-10.3346 36.73689 12.55085
-10.7873 41.91389 10.7675
-16.98091 18.30814 5.177423
-19.35563 27.76505 6.463118
-15.2063 13.43003 6.770673
-10.55015 52.19936 11.2865
-10.33221 61.07028 11.8039
-18.21433 48.51946 5.162966
-21.48477 77.92118 9.048872
-18.65467 42.57034 5.858442
-10.33358 43.20373 12.42955
-10.31667 43.92427 12.36164
-12.77961 54.13803 14.30814
-10.64591 61.12357 13.23809
-10.90755 73.54671 12.34939
-21.5585 70.56657 7.638087
-14.24945 45.88819 10.70314
-10.51697 64.22851 10.95071
-12.20534 64.05643 13.87252
-22.82146 50.93607 7.877262
-22.15367 66.00385 10.2687
-11.70738 47.24348 14.82208
-11.34825 70.36529 13.19352
-21.15102 81.12566 8.200862
-11.7622 44.02161 14.93433
-11.23378 69.22262 13.13769
-13.59464 37.2452 14.68181
-14.29011 64.64629 11.92119
-14.54118 66.85269 11.01883
-14.17538 34.51808 12.88834
-13.98003 43.08802 13.62072
-12.9941 45.7233 14.78858
-13.90532 72.52343 12.32812
-17.31415 68.47169 8.816759
-14.08748 45.55301 13.13673
-14.79365 48.23166 9.010505
-18.68815 69.83698 9.585623
-15.53137 72.44245 9.364835
-10.37136 53.18251 12.19961
-14.54521 73.15905 10.95312
-14.31253 50.45026 11.11746
-14.6484 50.0348 9.331008
-20.05064 87.99633 7.868158
-11.43989 101.4103 9.513125
-11.23883 106.6681 9.489654
-22.18524 63.81524 7.838471
-21.53135 61.66299 7.379937
-10.86131 89.64551 10.94623
-24.38107 21.23822 7.974209
-15.20814 16.46478 7.000706
-14.44432 15.27044 7.652535
-19.43844 49.64425 6.310873
-10.67788 77.2596 11.45489
-21.72189 18.83617 7.105309
-19.37701 13.57782 9.317574
-14.48609 77.8005 10.80207
-11.75724 74.43951 13.17316
-13.07091 83.04571 12.43999
-14.66558 76.37914 10.5294
-16.99118 77.78104 8.942566
-21.24732 76.36726 9.715911
-10.52281 52.78817 13.47353
-10.36145 30.32572 12.72577
-10.94032 49.02602 10.03348
-21.3276 64.75971 10.86359
-15.06235 46.47729 8.541882
-20.16283 71.50992 10.34219
-21.40673 75.31699 9.623868
-13.90557 56.71759 13.20312
-13.16715 58.86881 13.85006
-14.1226 61.82532 12.60059
-14.22495 49.40288 12.29272
-19.49898 48.30419 9.993491
-19.06046 44.549 9.424817
-18.20167 95.90036 6.561931
-13.54672 93.13577 10.69489
-11.50661 92.29335 11.06276
-22.07525 14.6484 13.16419
-15.85866 98.47289 7.559445
-24.05014 21.52936 7.856296
-13.99005 19.47542 10.50644
-14.13808 22.59558 12.62495
-14.11174 19.7214 12.69845
-14.15954 25.08507 12.86315
-10.27184 26.30788 14.40359
-13.65187 16.29193 15.6887
-16.11805 24.75321 7.160091
-19.0764 21.41267 8.919488
-13.03985 29.08929 15.58126
-11.54918 24.63651 15.92151
-11.44657 23.26668 9.946855
-19.90754 21.22238 6.622297
-23.23462 27.82376 7.652119
-13.65952 85.88139 11.9175
-14.78469 89.10363 9.868644
-18.74618 89.10011 8.833671
-19.81513 88.81816 7.874552
-17.02789 85.23843 8.94239
-16.81346 84.40884 9.106827
-15.88785 16.03845 6.669835
-10.64705 30.61677 14.93823
-22.15835 72.07144 9.325629
-17.96978 53.18719 8.523787
-14.80266 54.04534 9.438059
-15.10344 59.8034 9.231731
-15.15066 63.58944 9.298583
-18.54649 53.1495 8.955269
-16.72144 93.79063 8.23544
-23.2803 54.15004 8.393085
-22.68192 59.96276 10.65746
-14.18243 96.34972 9.220787
-18.15665 15.71439 7.711388
-10.26851 19.35599 14.66738
-11.06001 23.38151 15.72255
-19.70886 34.65656 6.555601
-20.05459 36.37831 6.71541
-22.91943 34.81213 7.59662
-20.176 86.96455 8.31357
-14.18632 39.0854 11.21143
-14.1726 40.64373 12.59861
-15.16959 62.15296 9.159361
-18.24552 61.32185 9.051184
-18.33894 54.22857 8.804171
-21.46908 34.21638 12.30264
-14.88157 45.07103 8.728843
-22.65669 63.6723 9.971213
-19.05 61.68313 9.682123
-19.58526 27.4134 9.859235
-20.5081 17.61591 11.26773
-19.794 21.71479 10.10212
-14.40075 28.00344 8.525001
-15.17255 27.49054 7.568573
-14.12525 29.42369 9.29541
-13.68866 28.63604 14.99885
-12.77272 33.25032 15.56513
-14.00189 33.49398 13.87182
-14.18117 35.3461 12.3371
-24.06766 51.08884 9.721593
-22.44116 49.50467 7.609111
-24.35761 39.09801 8.690407
-24.23721 41.62525 8.569518
-21.66303 45.77962 7.309115
-22.17545 45.58557 12.06402
-24.75247 40.75352 10.3745
-14.12882 33.87212 9.612261
-16.00666 35.01137 7.539525
-18.80844 58.97051 9.417774
-21.90851 59.35289 11.08477
-23.25089 57.35485 10.36768
-16.67346 66.40168 8.673537
-19.65656 28.95462 9.989317
-19.013 25.99441 8.955916
-25.18022 31.14014 9.175979
-24.48205 27.82451 8.292625
-16.49031 29.30153 7.255076
-14.92438 29.21675 7.851337
-19.89107 29.90263 10.37072
-22.42678 32.1661 12.82228
-20.52058 36.2909 11.2824
-20.2405 33.41104 10.90282
-24.15656 43.23604 8.609008
-24.23298 45.51746 8.967308
-25.61749 26.77198 9.738269
-25.16461 24.20682 12.70379
-25.02091 36.25766 9.738287
-20.63114 40.28079 11.36547
-20.36406 40.56425 11.05662
-19.71048 40.0629 10.23411
-18.6259 42.74194 8.898706
-22.66172 36.81879 12.5274
-23.70602 35.63956 12.47799
-19.30095 38.58023 9.652344
-24.69031 33.07061 8.710148
-23.75714 32.50791 12.66064
-25.4002 27.06253 11.95192
-17.22936 33.75269 7.549208
-16.88106 39.19249 7.577654
-16.8224 42.03757 7.719122
-25.84202 23.9317 11.5552
-22.74818 20.99951 7.420723
-25.60257 18.87426 12.90455
-26.22951 16.87961 12.50218
-25.40943 20.27759 12.9244
-26.2284 17.2544 10.16108
-24.1795 24.07082 7.959733
-14.6692 68.64527 10.60907
-23.55072 25.08721 7.705949
-12.52655 124.7414 -1.055829
-17.87822 94.85143 -2.584378
-12.47506 114.3413 0.2339119
-14.12197 110.7078 3.6687
-19.11618 60.03847 -11.2654
-13.97127 145.5686 -9.865229
-13.94413 130.8791 -2.949769
-12.3846 117.0675 4.388483
-13.61744 129.5809 -2.481927
-12.18834 118.0042 5.972967
-14.14969 133.9432 -6.819875
-12.28227 116.2609 5.163564
-13.77318 127.9076 3.676481
-13.65195 146.8235 -8.323849
-15.51293 139.5894 -6.845307
-13.14634 106.7577 -4.597271
-14.63324 109.569 3.41733
-12.95413 149.6503 -9.253322
-14.20949 144.4242 -9.368455
-22.89146 15.93086 -11.25586
-28.11585 13.16044 -2.466989
-20.02709 12.66968 2.468362
-14.08231 130.2439 0.1524364
-19.4744 69.20451 3.930098
-18.91387 90.52975 4.47107
-17.27403 95.46314 -3.894877
-21.35829 17.51645 2.517581
-18.92153 63.98328 3.910329
-14.30568 103.9174 -4.674456
-13.28257 112.9162 2.115369
-18.42537 68.33025 -10.8905
-11.88983 119.279 0.7378594
-13.1452 124.225 5.210366
-14.04521 129.6684 4.855263
-14.6298 132.3562 3.193123
-14.35449 143.5894 -9.571903
-13.15939 14.06646 -9.152784
-24.51959 13.26271 -6.738554
-20.62879 18.74962 2.368666
-16.81015 16.2809 2.492274
-17.8672 97.34762 -1.035773
-15.83154 91.05465 -9.017297
-16.61963 75.04613 -10.63351
-15.05955 108.1001 0.3157634
-12.48981 113.493 -0.6438304
-20.74639 65.42126 2.225142
-12.63931 120.2249 5.09257
-11.22693 116.1905 -1.397789
-13.43165 125.38 2.211858
-14.15813 130.5788 0.2316551
-14.80316 134.0421 1.193261
-14.88163 134.5624 -2.620494
-15.16052 27.90253 -12.32578
-16.24406 14.93059 -12.8003
-13.12942 26.553 -9.958898
-18.78603 24.84258 2.236317
-25.02699 15.82336 -0.2379436
-18.62915 91.56255 4.567474
-15.0978 97.23125 -6.994731
-16.37916 91.53462 -8.303277
-17.63978 80.37483 -9.690763
-14.22544 106.913 -2.93259
-15.03518 102.2625 -4.467951
-19.45716 71.86558 4.682193
-16.4037 68.90967 -10.80838
-16.06341 58.84317 -11.17421
-12.08741 124.1802 -1.638417
-14.68147 133.8226 -4.243149
-17.6154 17.28946 -13.68991
-13.91013 35.65574 -11.56115
-24.52135 15.30382 -7.480884
-25.40067 13.54596 -0.5908912
-17.42826 33.07583 2.782911
-23.98329 13.23077 2.880981
-20.17825 91.76811 -0.5001723
-19.69918 86.72801 4.437583
-18.18988 90.92117 -4.348138
-15.89432 97.03891 -5.850349
-19.87818 82.12163 5.06016
-16.26593 85.67522 -9.633832
-13.19633 112.0189 -0.6247051
-18.47592 53.29336 3.022069
-15.41821 61.28762 -10.69751
-14.42436 132.608 -2.18471
-17.0299 15.95666 -13.34171
-12.8586 36.09217 -10.73479
-14.70605 29.28333 -11.96043
-13.62199 36.82879 -11.35594
-23.96247 16.62189 0.8923474
-17.68505 43.9656 3.215511
-20.46512 91.56394 0.04162579
-18.22214 91.17258 -4.137569
-17.16178 98.8665 -1.582576
-20.18036 76.18456 3.609692
-15.14871 102.7885 -3.914365
-19.4528 56.92246 2.578985
-24.46422 71.53413 0.5664401
-15.11945 45.41267 -11.69362
-15.00737 21.41181 -11.86503
-27.44457 19.20917 -2.204835
-17.70118 44.0513 3.198842
-29.6305 13.77678 -1.911274
-17.48937 97.10713 -2.06295
-17.49462 98.56901 -0.8832743
-20.3168 74.01159 2.985895
-18.33234 75.5657 -10.02371
-19.15549 66.45251 -10.42528
-15.93547 103.4765 -1.593474
-21.93762 60.80877 2.052154
-21.0905 52.00527 2.210108
-20.12552 71.64388 3.004462
-17.69015 55.08689 -11.89313
-13.61152 37.40307 -11.33029
-24.82393 14.84282 0.008955755
-19.98951 36.97162 2.296829
-21.83865 35.96008 2.447612
-18.56016 90.35845 -3.731385
-17.2321 100.3552 2.537573
-22.83222 77.13399 1.645675
-24.57738 57.71799 1.886313
-22.40107 70.06206 1.83862
-18.86626 74.67568 -8.72582
-16.3418 54.24565 -11.64277
-16.12791 25.06474 -12.96758
-22.60368 35.61524 2.513017
-27.40296 30.68651 1.69393
-29.61719 17.99746 -0.1173775
-19.04009 72.14549 -9.632489
-18.81075 67.72308 -10.68349
-19.41959 75.29171 -3.830143
-23.11142 66.56809 1.848427
-17.52859 40.89705 -12.61843
-27.91848 17.21314 1.900938
-16.29632 65.27444 -10.95509
-16.07844 37.30795 -12.57844
-21.93189 28.92471 2.4512
-23.6835 18.72917 2.765265
-25.59382 60.59917 0.8187487
-16.52177 64.31333 -11.10151
-20.16836 31.92363 -12.27502
-25.09901 37.01667 2.327576
-25.49775 18.65466 2.690112
-22.41199 15.20659 2.791433
-26.98394 32.35572 1.925367
-27.19167 33.49855 1.71059
-25.42286 30.44078 2.491361
-28.07273 29.05696 1.240555
-27.82857 37.33238 -0.8668475
-16.24585 58.27561 -11.3123
-16.9098 19.96596 -13.40302
-24.41427 18.04072 -7.499876
-23.80279 17.10847 -5.094732
-17.62865 86.50458 -6.321752
-19.00261 86.02264 -4.227644
-17.91951 87.6542 -5.644642
-29.64205 17.98749 -0.2520476
-18.16393 77.68499 -6.447104
-22.92327 49.39988 2.18844
-25.53524 52.95963 1.680274
-25.18391 48.91488 1.948752
-16.99822 43.82042 -12.48049
-19.99152 45.50192 -11.60203
-18.07946 47.80903 -12.30532
-20.53938 39.1192 -11.50941
-19.36651 37.63577 -12.41835
-16.83224 46.47106 -12.26685
-20.79524 16.26502 0.1320922
-19.39018 76.44054 -3.94361
-19.03502 78.52094 -4.662368
-18.55349 78.47771 -5.361902
-20.36896 77.90527 -1.608717
-18.83301 67.21556 -10.77125
-22.44142 35.31311 -9.194221
-26.92423 40.97762 1.506032
-27.20966 45.65181 -0.0333246
-19.87233 20.79934 2.25656
-20.1972 26.28519 2.296364
-24.19597 24.61399 2.70017
-25.97946 29.58598 2.40633
-27.2599 26.21807 1.929076
-28.4196 27.52999 -1.428755
-28.25617 33.45826 -0.7355638
-18.79412 58.05602 -11.49202
-20.50696 57.93757 -7.086782
-19.00475 61.50189 -11.20242
-20.5897 51.11304 -10.54279
-19.91688 54.39076 -11.03467
-20.72736 50.06366 -10.46354
-21.26987 52.65582 -8.209609
-19.97408 55.74663 -3.750072
-19.33947 61.04702 -10.97116
-18.87796 79.15722 -4.872768
-19.65746 81.62685 -3.475021
-21.86212 85.72746 1.245991
-28.04252 20.9124 1.705649
-21.70242 44.26726 -9.386083
-22.09358 41.01783 -9.02596
-24.22927 17.29425 0.7046736
-23.9038 72.84457 1.349557
-23.65546 75.25137 -0.6341016
-19.60313 62.31472 -10.52778
-25.03448 62.66858 -0.9533177
-25.30252 44.62044 2.042181
-24.10289 46.16265 2.202096
-25.11928 39.74023 2.21042
-24.18378 37.42116 -0.1780989
-25.92433 41.88393 -1.634678
-24.03205 42.59676 -0.4918318
-24.54331 20.21043 2.765256
-29.07067 19.95263 -1.749184
-19.85436 55.47813 -2.37806
-16.68094 27.09329 -13.23467
-18.7525 20.62176 -13.55438
-20.23315 23.82198 -12.70526
-21.18369 20.93645 -12.33213
-23.29237 19.06673 -10.39794
-22.8627 23.97773 -10.35423
-23.90123 22.50422 -8.434317
-23.07265 20.58451 -3.718162
-21.98623 86.40175 0.601831
-20.38746 80.94436 -1.714567
-21.88812 86.79279 0.7625547
-23.98745 19.94361 0.9455818
-27.2704 18.44182 -2.122654
-29.56317 16.79348 0.3504452
-23.33444 34.75617 -5.951534
-19.91391 29.17621 -12.57173
-22.13641 32.39569 -10.18744
-23.50113 31.64619 -6.973935
-23.78136 28.20527 -6.353697
-23.66859 27.49756 -7.861351
-23.48027 29.00634 -4.338327
-22.5732 17.66497 -3.157458
-22.01195 20.36161 -2.304906
-21.81894 26.4121 1.163946
-21.84276 74.31396 -0.9510368
-19.91772 63.32294 -7.451251
-20.0163 70.26946 -1.816838
-20.45164 71.96021 -1.506992
-19.16049 71.05135 -4.122915
-18.96407 68.04489 -5.076397
-19.16999 66.31495 -4.149206
-22.39021 64.90934 -0.9985289
-25.70779 58.74775 0.9404998
-26.04278 53.65257 1.24318
-21.59198 40.90412 -1.388285
-21.64507 41.67916 -1.798689
-23.16088 45.96463 0.09009161
-22.46238 41.12777 -3.964803
-22.69706 40.71411 -5.006415
-22.43267 43.21795 -5.780702
-22.33077 44.06699 -6.032636
-29.26284 20.67582 -1.310044
-20.82449 51.15026 -4.473326
-19.81646 57.74796 -1.82513
-20.10725 59.30772 -6.136318
-22.27418 59.76719 -0.7401436
-20.45115 64.26263 -1.07986
-24.7028 55.33077 -1.38365
-20.4163 50.12065 -0.8195239
-22.1581 49.09621 0.09414871
-24.24481 44.85728 -0.8196518
-25.58148 44.72715 -1.58177
-26.98541 48.90723 0.2802441
-26.79409 49.95034 0.7132263
-25.86084 46.83985 1.835548
-23.39383 45.15788 -0.02593254
-25.41301 49.70807 -1.558124
-21.2834 45.28091 -2.794457
-21.14165 49.54912 -4.685226
-20.75754 44.85242 -1.074548
-18.66542 27.40547 -13.17055
-24.80676 26.07492 -0.220327
-22.21661 32.47908 -1.802841
-22.03371 33.44341 -1.429747
-23.11584 32.93951 -3.646199
-21.22657 28.95159 0.2208654
-21.62036 31.92536 0.9092344
-26.45443 31.57878 -1.900036
-24.58183 30.73179 -0.08163037
-22.7674 25.39627 1.374655
-27.30008 25.41458 -2.067044
-24.25643 29.73445 0.4399137
-24.20623 29.12096 0.5357721
-27.65258 20.98043 -2.147173
-24.49619 27.08372 0.1603548
-21.34107 21.16771 0.8630978
-19.4879 63.22038 -5.656687
-21.22119 60.94678 -0.6256548
-20.79759 67.08835 -0.9784401
-22.05139 46.47622 -6.904714
-22.24224 37.05352 -1.854109
-22.28729 27.12671 -2.410411
-22.55989 82.461 1.270344
27.62918 22.56603 -8.759523
11.4297 13.57628 -10.24247
24.1179 15.09707 -10.15444
13.90074 13.68529 -15.4885
11.6908 150.3424 -9.045089
14.89595 26.71459 -16.78543
12.94172 146.4506 -10.89104
23.54077 26.37216 -9.083723
23.07911 39.79809 -7.873904
22.02581 48.89211 -7.205282
13.6208 145.4491 -10.94561
14.39431 47.06048 -17.21841
14.56954 109.2931 0.01048344
12.91869 39.99028 -14.33823
13.0434 113.0244 0.6594114
10.85219 123.1031 -3.166293
18.69721 93.91418 -4.753134
11.71953 82.69034 -11.7521
11.80655 110.3748 -4.024407
19.64319 14.75337 -13.39958
14.08539 136.7077 -9.034771
13.98095 129.1316 1.13599
13.6912 126.8794 2.932114
15.4841 137.634 -6.55746
14.85824 38.69244 -17.12906
14.26097 15.32438 -21.51526
14.95945 134.815 -4.002912
14.29584 132.3673 -3.805137
14.29284 136.5171 -8.615918
15.07657 28.54695 -19.03503
12.81185 16.78991 -21.2338
22.12801 75.90239 -4.236824
13.97145 98.62643 -7.801805
18.21132 97.85109 -2.855347
11.00069 108.8715 -5.412069
10.65387 111.9052 -4.086291
12.13671 124.3993 -1.714829
14.20826 131.2663 -0.9725624
10.40918 116.5842 -2.326226
13.64572 134.802 -8.281534
14.62505 133.7225 -4.749253
23.3527 14.08916 -12.09836
25.10628 19.87312 -8.751595
26.27496 17.36884 -2.337147
14.9637 27.42301 -19.37235
13.75862 23.62339 -20.60415
15.18197 17.04124 -17.76435
12.90622 63.9463 -16.44133
22.02207 67.21346 -5.081589
11.42995 95.86381 -11.27281
18.74 93.30163 -2.26242
12.59834 99.52077 -8.805872
16.50551 102.3165 -1.241071
12.49689 123.5832 -0.1088718
12.18007 125.6297 -2.724099
13.94305 129.1273 0.4406533
14.09733 132.6067 -5.248587
11.50637 116.489 -0.6564808
12.6379 121.7621 1.996419
25.16745 35.11894 -7.518741
25.617 14.17779 -10.97659
25.3273 19.46064 -3.280802
29.67327 14.8191 -4.008958
12.65327 29.75316 -19.74681
14.03187 28.98533 -20.10225
14.01507 57.03331 -16.58425
22.06779 57.59355 -6.557551
20.53275 75.09212 -4.941588
21.43076 64.12812 -5.902766
19.77988 82.19097 -4.011423
11.70496 88.91618 -12.35994
15.84545 96.32783 -6.296044
15.52928 105.696 -0.7883888
13.23374 123.9883 3.97064
24.83205 33.68236 -8.16631
12.71427 35.39537 -19.22794
24.92838 15.9177 -4.742785
25.06737 19.16046 -6.341703
29.58147 17.1275 -4.110792
13.21205 16.3312 -9.866076
14.62662 30.72132 -16.28966
15.12714 19.84885 -17.33808
14.25106 24.10883 -20.35777
13.96307 50.00621 -17.63931
22.43571 56.20227 -6.54409
12.29087 72.3743 -13.20113
12.5647 77.72038 -14.01071
19.84439 70.59327 -5.001639
23.25382 63.73159 -4.402462
12.56862 82.78168 -9.922062
14.28784 95.95224 -8.493093
13.53905 110.3675 -1.711946
25.25517 33.49591 -7.38527
24.51379 42.31012 -7.381196
14.51884 44.15382 -16.71058
25.14518 19.38483 -7.049897
28.37572 15.07212 -2.259924
18.82787 15.43705 -13.41323
13.23065 64.89735 -14.24963
23.24839 53.86974 -6.286547
12.3364 75.85849 -13.18935
21.65561 71.86021 -4.925129
11.81301 81.16073 -12.45161
14.23977 96.97722 -8.172994
25.19953 36.00774 -6.944667
24.95154 39.32315 -5.925056
14.86559 38.36736 -17.42275
13.9341 48.89936 -15.34274
25.13323 32.69829 -7.739222
15.16656 14.38177 -11.22493
11.35342 17.08485 -11.15302
12.1043 61.02175 -13.16275
11.28645 59.6054 -11.06009
11.9934 75.28311 -12.67381
24.85262 65.98312 -5.735286
13.82756 103.623 -5.498864
14.7928 37.03653 -16.6395
14.00517 44.33124 -15.44709
11.2957 19.25 -10.82488
13.00287 52.96645 -14.17832
23.19366 59.21745 -5.172317
23.58728 68.08004 -6.677917
14.93167 34.68196 -18.22946
12.37552 45.0681 -13.7027
11.4968 66.90661 -12.01389
23.54136 56.87881 -5.120568
23.72773 55.05099 -5.315782
24.48999 70.07327 -5.074135
11.34988 48.38522 -12.41508
13.19067 70.17648 -9.427724
22.11671 83.83691 -4.42619
11.76718 44.91159 -13.02385
11.51816 71.48677 -11.82799
11.47271 43.50802 -12.59746
17.90383 65.24979 -9.073204
17.57158 70.11095 -8.650282
11.85341 42.21914 -10.37327
14.33099 45.07622 -10.96428
11.6189 46.96675 -10.35801
16.7641 71.77547 -8.928628
12.47715 49.41063 -10.02106
12.78346 53.6007 -9.918478
15.9025 72.16714 -9.19396
11.73365 53.85905 -10.34633
18.62543 76.18933 -7.123046
11.34453 51.91779 -12.04829
17.6209 50.77415 -10.83529
12.78018 54.26896 -13.94257
11.81088 56.79387 -12.83254
12.69837 55.5901 -13.85676
12.44542 110.6865 -3.17436
19.81402 93.10736 -2.991178
21.74158 61.58881 -6.09869
23.7991 60.19642 -4.044611
26.73821 14.73664 -2.094902
12.24553 18.21328 -9.947005
15.16735 16.94752 -11.27791
24.38821 47.27003 -5.621749
13.52697 81.85166 -9.441651
25.09064 20.70547 -3.676034
22.31218 14.84583 -12.52031
14.51032 79.60307 -9.220769
13.83728 78.67902 -9.338646
15.65923 84.04893 -8.717615
18.05205 77.40255 -7.323575
19.3069 78.68565 -6.645794
23.24803 76.91654 -5.469785
15.76426 100.873 -4.069764
14.43481 33.20313 -16.07825
13.83502 51.09645 -15.18076
23.14986 67.32925 -6.950572
11.9557 41.09977 -13.38996
20.93635 74.98593 -6.764341
23.70165 72.97091 -4.258398
17.34952 63.29717 -9.632873
12.1784 61.75371 -9.9409
15.91564 65.2842 -9.652194
16.21233 99.22836 -4.433595
16.1912 98.70753 -4.700092
15.39565 95.14944 -7.414516
28.93854 16.71868 -7.779817
25.56024 21.505 -2.987693
12.68892 20.32632 -9.917353
22.38328 23.04164 -11.81627
11.2444 19.14253 -11.23987
18.46637 23.29234 -12.96903
11.48684 22.83453 -12.25143
16.82715 22.58947 -12.83888
16.83915 24.196 -12.85903
16.27188 27.90806 -12.51682
18.508 26.24153 -12.79092
14.23288 23.29084 -15.89057
12.82593 24.44936 -14.23295
15.12878 28.68771 -17.70293
14.07217 19.42317 -15.6764
25.07133 30.29781 -4.190751
25.86469 30.18312 -2.857407
14.17812 91.94771 -9.495754
16.54312 19.37145 -12.63351
14.00874 38.22523 -15.55962
12.99559 39.26958 -10.75205
17.28377 59.94493 -9.997308
19.43499 63.78223 -8.292686
20.09687 62.69636 -8.13481
18.46123 95.22808 -4.385512
23.87049 55.70968 -4.60169
25.80486 58.98007 -5.9501
24.92376 64.09507 -4.038125
22.03582 19.10391 -12.29489
23.67881 21.40647 -11.39202
26.35558 36.5633 -2.916757
25.30808 36.40439 -3.433913
25.49306 37.40076 -3.253489
15.52198 90.64853 -8.34373
15.29918 89.73195 -8.677002
18.36026 87.1545 -5.949167
20.7185 90.16119 -3.92504
19.74566 89.03674 -3.108928
26.87729 50.7598 -5.116004
13.8444 59.18656 -9.790285
21.94238 60.81445 -7.82521
22.96003 14.81515 -12.22248
20.46684 25.10587 -12.3665
21.35196 19.18597 -12.56221
22.41992 21.79623 -11.90551
14.03827 28.62946 -10.974
20.37159 32.29488 -11.7301
15.96898 28.81196 -12.39871
12.03821 33.90422 -10.18352
11.87499 36.30057 -13.17951
14.17587 36.09941 -11.62552
13.12866 36.77189 -11.00851
15.12042 38.78639 -11.84507
16.24731 37.38918 -12.12216
17.72832 34.39762 -12.29075
19.76304 31.96787 -11.97807
17.103 59.07411 -10.12417
11.50011 38.03602 -12.73679
16.46599 40.64118 -11.88424
12.25826 38.42926 -13.73874
20.54698 41.0139 -10.75395
22.61942 44.30025 -9.574618
15.27963 71.29117 -9.310849
15.32556 46.85437 -11.15098
15.72671 46.5293 -11.27041
19.12048 49.90269 -10.27827
15.31454 54.44638 -10.49713
17.71037 55.96915 -10.23363
18.21984 56.93824 -9.88303
18.35504 54.99969 -10.06414
20.27891 60.33218 -8.357432
24.57721 57.75433 -7.186375
24.59366 55.00076 -7.473559
22.42318 54.55398 -8.354225
26.34983 53.04457 -4.093948
19.0315 45.8504 -10.79708
19.75565 46.5015 -10.39495
21.87086 46.82093 -9.49776
27.16539 47.52859 -5.217728
22.83801 52.19778 -8.513174
26.83462 48.75121 -4.229669
24.57349 46.97033 -4.329727
25.58879 39.90335 -8.777034
19.38818 34.75234 -11.86593
15.9161 54.13729 -10.6479
26.17723 41.94314 -3.264807
24.69684 42.20492 -4.151674
25.83702 46.76094 -7.659768
24.70508 36.09465 -9.758459
27.51781 43.38584 -5.519887
24.89938 34.66671 -9.827892
25.70132 38.29521 -8.831365
23.27986 32.78422 -10.64445
28.46546 32.05737 -5.155933
26.92348 39.5015 -7.267457
27.62635 42.16045 -5.340063
25.706 30.4471 -9.674075
27.53012 28.18762 -8.046322
28.085 35.43806 -5.736325
28.50444 30.86047 -5.645642
26.89496 25.17033 -2.487791
27.14992 27.03818 -2.635874
28.92441 25.45922 -5.770947
28.72921 26.97345 -3.979025
29.24871 19.38713 -3.657893
29.20339 18.61688 -6.89337
26.85301 25.58743 -9.212851
28.25346 21.02541 -8.140641
27.48932 20.83454 -9.12058
24.39562 24.22476 -10.87075
23.71478 26.6751 -10.96794
20.76735 27.7371 -12.01472
27.81471 24.50417 -8.256253
-6.354296 22.54456 -9.793998
-5.994299 38.6736 -12.24864
-5.520621 56.74964 -11.20449
-14.76437 66.21458 -10.16428
-13.25975 142.4028 -11.18861
-5.370134 89.0145 -12.68242
-12.07414 150.3312 -8.919338
-3.15486 86.77316 -11.27263
-8.858627 53.09417 -18.25256
-10.49125 60.72039 -15.54621
-2.214526 112.4362 -5.934664
-9.795767 149.6437 -9.987103
-6.878119 109.8967 -6.795028
-5.565828 70.72523 -13.6463
-12.90493 64.80919 -9.612758
-13.98053 63.70181 -9.880546
-6.086589 76.84158 -14.43361
-10.91647 13.67677 -7.772188
-12.08186 36.01764 -9.873116
-4.944264 71.90825 -11.44344
-12.35732 109.927 -3.774148
-1.337803 136.3546 -12.11381
-5.382226 24.20683 -17.43524
-13.66169 95.91754 -9.143457
-12.66724 104.3721 -6.410165
-5.080026 87.54301 -12.44115
-11.86387 102.9828 -7.864021
-12.00191 143.7121 -11.54836
-4.672166 110.6806 -6.629811
-8.476679 113.8863 -4.438653
-7.137395 113.675 -5.01029
-0.9362105 125.6043 -8.391254
-7.765119 15.34642 -9.37113
-9.607368 150.6198 -9.134171
-5.864308 31.00981 -9.135385
-10.17614 16.78282 -21.12794
-12.32103 51.17919 -9.458961
-12.94118 64.28756 -9.613515
-13.22582 75.86175 -9.762868
-3.359104 87.87233 -11.49063
-3.570283 80.56583 -10.70496
-4.872856 103.2716 -10.24623
-13.00539 100.827 -7.844876
-1.19299 140.4194 -12.5171
-2.400373 136.4479 -12.15087
-12.80666 134.1221 -8.734595
-1.444829 113.8429 -5.752014
-3.703521 110.494 -7.413229
-2.979752 123.7883 -7.732389
-12.44481 127.949 -4.408182
-10.34092 16.81322 -16.43499
-5.991755 148.5793 -11.32865
-5.94812 29.34471 -9.14561
-6.256512 27.99946 -11.86739
-12.48421 40.28255 -10.15853
-5.464729 46.74546 -9.877715
-5.487863 59.50111 -11.65827
-13.77254 65.78584 -9.791938
-5.325132 62.61087 -11.27041
-5.161151 76.77049 -12.47097
-14.29304 90.11084 -9.543318
-13.66437 97.58302 -8.55629
-11.72452 94.98328 -10.95025
-8.436884 95.81228 -12.40475
-13.2335 103.4698 -6.308969
-0.99177 145.9753 -11.94919
-5.258822 139.0627 -12.6901
-12.96139 144.7583 -11.17622
-4.495964 131.7136 -10.79943
-8.964764 110.6761 -5.813905
-8.441203 123.5833 -5.832084
-12.42324 127.6525 -4.150208
-4.694444 127.1567 -8.825911
-8.505261 15.68174 -13.95354
-8.682975 146.4234 -11.74881
-9.429167 145.9637 -11.7467
-8.306437 147.358 -11.50562
-6.12956 32.89785 -12.09626
-6.04274 31.93304 -12.80059
-6.359644 25.89195 -11.28888
-5.984484 18.94079 -13.83512
-5.311874 17.96924 -16.96947
-5.786557 21.39067 -19.54966
-10.02903 36.05406 -8.837144
-5.963307 40.41373 -11.00714
-12.21029 51.04156 -9.415541
-5.231283 58.92535 -10.50037
-12.86557 60.46061 -9.576805
-5.446224 65.87621 -12.80215
-12.75773 77.76215 -9.773786
-13.75065 88.29206 -9.768134
-5.912165 92.10588 -13.06915
-5.689607 97.89354 -12.30291
-10.24763 98.17301 -11.01739
-12.29505 101.6556 -8.137563
-8.508389 136.739 -12.02885
-8.892159 141.8573 -12.45308
-2.457094 134.4688 -11.68694
-6.722903 109.7422 -6.850489
-6.336323 115.6162 -4.971675
-3.989793 119.3412 -6.141273
-10.19797 127.136 -6.709765
-8.513443 124.905 -6.502454
-6.309131 141.358 -12.75823
-5.558908 27.82709 -15.37027
-5.379501 23.90004 -17.37981
-10.64997 37.46315 -8.902944
-9.431457 45.50545 -9.701475
-13.61621 49.91487 -10.17259
-5.567233 57.65609 -14.07874
-12.3258 62.78633 -9.562064
-5.58391 67.15661 -13.85302
-11.68436 78.89597 -10.26071
-10.75881 85.08717 -11.61689
-7.287913 92.56744 -13.54564
-9.656696 102.6432 -9.505666
-9.19285 99.37914 -11.11924
-9.63826 110.448 -5.737543
-5.558024 112.8153 -5.58522
-10.10761 124.3997 -4.985404
-11.86625 27.84114 -9.000472
-5.408988 25.14347 -16.62627
-9.588697 34.3007 -8.861044
-5.906615 42.24694 -12.32674
-7.179912 54.78948 -17.88218
-5.565161 85.47475 -12.9378
-7.777875 96.6907 -12.33008
-3.252572 119.7733 -6.347414
-9.912101 34.30667 -8.781826
-9.07353 41.08428 -9.675848
-7.593683 63.35238 -17.25385
-5.625957 64.5213 -14.31732
-6.90616 105.2466 -8.943835
-6.784329 98.27779 -12.12432
-9.041811 134.645 -11.10202
-9.416465 18.33504 -8.126762
-8.366805 33.75907 -11.54875
-5.728951 38.67213 -13.89521
-5.621427 58.16042 -14.72599
-6.517531 60.49549 -16.66192
-7.651163 98.23817 -11.95479
-7.961595 23.81412 -9.875854
-9.007925 39.94419 -12.91077
-5.811971 41.83722 -13.16202
-9.046833 55.84456 -17.94751
-8.86756 129.249 -8.70381
-7.617959 17.16978 -11.5548
-8.426094 60.61041 -17.55846
-8.555877 62.58135 -17.42241
-5.686884 39.56376 -14.0739
-5.474195 39.54272 -16.02261
-10.48415 63.81398 -15.03708
-5.578806 42.82726 -16.50985
-9.439814 56.19113 -11.36795
-5.580408 42.02202 -16.81778
-6.310263 48.28379 -17.86081
-9.742636 58.45148 -10.70152
-10.22714 56.53386 -14.34312
-10.49781 50.83059 -15.47002
-9.258816 50.67376 -12.55148
-9.059826 118.7338 -3.560838
-5.814746 122.0786 -6.471564
-12.0466 66.48921 -9.652834
-9.667359 86.4517 -14.12038
-10.20688 85.79613 -13.04529
-5.921694 20.68816 -14.02792
-5.774931 46.98719 -10.80268
-13.36936 73.25355 -9.739572
-6.211205 71.08462 -15.33425
-5.618322 75.77999 -13.72978
-9.946031 68.32411 -16.02955
-10.03605 71.89032 -15.63856
-10.34307 66.31834 -15.51589
-10.1649 69.5528 -11.85606
-10.31443 67.27395 -13.84836
-9.712061 78.64998 -15.12171
-10.24225 74.04735 -14.75504
-10.67062 76.1093 -11.04081
-10.95495 83.77898 -11.26852
-8.635983 80.24992 -15.43475
-8.731374 82.19907 -15.18203
-8.02354 144.0271 -12.38051
-4.900034 120.2303 -6.119101
-11.05274 21.86911 -17.68235
-7.772094 23.66437 -10.53122
-9.231627 48.1224 -10.33787
-10.52295 25.50087 -8.375941
-5.948624 42.72551 -11.53278
-6.984705 65.27319 -16.66479
-8.363416 35.95104 -10.75742
-8.648623 38.31965 -12.1513
-10.87733 38.80431 -17.23963
-8.490204 53.57019 -18.29359
-10.69903 49.13137 -16.88973
-5.721594 50.74034 -16.27307
-6.707327 49.43403 -18.12803
-7.669491 46.69698 -18.87123
-10.39386 57.67343 -14.84758
-12.14279 92.34637 -10.98333
-9.406959 91.71952 -13.29861
-8.958111 89.53597 -13.98237
-11.61399 73.8013 -10.00676
-8.976438 67.93706 -16.74214
-9.984096 65.77744 -12.13058
-10.87432 66.30859 -10.04319
-9.808318 23.61213 -15.15683
-10.87704 21.27679 -17.18703
-10.48812 23.00749 -20.21397
-9.028617 24.18193 -20.9871
-5.47474 25.99109 -18.12528
-5.632668 29.22585 -14.94539
-5.558247 30.07342 -15.29268
-5.402438 30.42724 -16.94391
-5.430027 31.33913 -16.62568
-8.008543 31.06413 -20.33079
-6.275867 39.35984 -18.65869
-10.84268 38.88714 -16.59887
-5.648314 40.17106 -17.33273
-9.432988 41.72345 -19.07743
-10.30259 35.62601 -19.06724
-10.50788 36.1561 -15.74757
-10.56927 31.20876 -19.19259
-10.09112 25.40973 -15.43323
-10.57979 42.6081 -15.63716
-9.137355 35.05795 -19.8724
-9.621246 44.69563 -18.66843
-9.556975 24.87338 -14.7469
-7.95931 27.01144 -20.73896
-8.719229 27.86086 -13.33945
-9.397232 43.14522 -13.43247
-10.29778 28.00186 -19.93892
-10.73151 27.77094 -16.51859
-9.509403 42.79848 -13.66685
-8.7932 44.40628 -11.41933
-8.974704 47.6146 -11.86749
-9.939267 22.10252 -8.178676
-10.55986 52.7455 -15.77475
-10.96536 33.71405 -17.416
-11.14839 91.77581 -11.51092
12.01561 15.88913 -19.86558
11.82912 19.01945 -18.83331
4.632475 128.2659 -9.323116
7.041906 15.62844 -11.51077
11.65335 58.02713 -15.98776
5.732459 107.2544 -7.769767
8.431726 86.98509 -12.68339
10.00563 92.03787 -12.87149
7.167745 21.35688 -11.48582
9.995264 97.58813 -11.40498
8.746331 121.5889 -4.608218
10.51113 138.602 -11.86845
10.18723 126.2541 -6.14316
-3.770943 72.00587 -10.05713
-3.750857 69.49442 -9.891612
-1.062873 102.6598 -10.55263
-5.465206 37.96048 -9.066805
11.78944 19.1935 -18.53853
-5.196111 41.19834 -8.978269
-0.7570898 112.6874 -5.75091
11.21856 146.2448 -11.28907
-0.8178139 122.1123 -7.559276
-0.2970689 129.8782 -10.03007
-4.440466 42.7229 -8.486846
0.1254438 66.64605 -11.55341
9.740324 139.8381 -12.26358
0.5415791 83.39206 -11.53111
9.004756 88.16178 -12.82562
11.14044 148.2577 -10.53971
1.955678 147.873 -11.47913
-1.143188 109.2212 -7.300823
9.413189 122.6115 -4.551293
8.466172 113.1302 -5.797224
0.06875624 132.0214 -10.88595
-1.955298 17.83614 -7.981795
1.859919 145.8267 -11.97565
11.52033 16.49446 -15.89051
12.102 24.62104 -19.15479
6.417536 15.84009 -11.95738
11.63143 40.53878 -16.34277
12.66533 48.95946 -17.78033
-1.755043 78.90395 -10.31561
-1.350044 82.16076 -10.61189
11.34723 85.4128 -13.73456
-1.807453 101.2891 -11.18218
9.368031 148.1346 -10.95315
10.33859 101.9514 -9.473189
11.95632 134.1823 -9.437651
7.909589 112.1185 -5.875049
0.4338787 118.7136 -6.222912
0.6006613 116.3376 -5.802953
1.679859 130.3143 -10.21385
-0.7225698 17.06692 -12.67375
-5.787028 21.3236 -8.25471
10.73107 17.12699 -12.98351
11.76739 24.03486 -17.05735
-4.545514 40.42163 -8.464091
12.69285 43.66552 -18.26113
-3.671394 56.99144 -9.08814
11.74852 52.04928 -16.20545
11.52648 70.40757 -15.2468
10.39785 77.05333 -13.88716
-2.545276 91.34381 -11.96258
-0.6600145 95.47871 -12.10328
7.754792 90.97443 -12.63107
11.39196 144.2722 -11.65572
7.956856 102.1298 -10.44914
9.182327 139.9276 -12.41975
6.637554 143.5592 -12.53016
12.32148 134.7528 -9.475264
7.193512 105.7515 -8.593818
3.444057 114.9838 -5.675815
7.04706 113.1986 -5.388724
5.225028 114.0647 -5.397197
0.9188643 131.2938 -10.61691
3.707828 133.5677 -11.44723
-4.780465 29.44938 -8.049442
11.89808 32.06159 -17.33446
2.481524 17.2006 -16.34893
-4.239097 45.27607 -8.620621
12.08413 48.6241 -17.00094
-3.088184 55.54065 -9.005445
12.30368 57.15737 -16.72328
12.12129 53.11523 -16.77445
9.488534 69.70673 -13.04677
12.02602 78.29619 -14.59936
7.733587 92.85905 -12.66025
-0.2396862 87.87431 -11.18294
3.496519 145.4955 -12.08013
1.173885 102.9779 -10.3758
6.908498 103.9115 -9.765939
4.767687 143.0025 -12.5098
2.127688 110.2173 -7.177723
8.331207 119.2505 -4.229895
2.601106 118.6131 -6.15243
6.547742 115.0293 -4.95364
7.339196 112.5139 -6.349531
7.429235 132.6796 -10.84437
-1.954223 29.35576 -8.382762
11.43163 33.08595 -15.41718
-3.313239 44.11367 -8.454549
-3.798564 50.12566 -8.720198
-2.1175 37.20141 -8.617578
11.2154 45.09973 -15.04116
9.447407 56.86712 -12.72009
11.01237 53.07124 -14.78794
10.38159 76.16057 -13.90664
0.8464218 96.10683 -12.11524
8.82044 144.3325 -12.22189
4.794588 102.558 -10.6049
4.000216 107.3755 -7.889923
5.239205 121.2779 -6.369033
5.339249 109.1876 -6.774798
5.67473 17.8032 -12.86444
7.977069 22.09561 -11.3245
11.53167 32.5736 -15.75395
11.27839 23.63892 -14.64071
-3.080397 34.93417 -8.104568
-0.5440372 63.63263 -10.61395
10.89545 55.11716 -14.61047
5.649696 143.4174 -12.51736
5.693883 139.1487 -12.74596
4.98108 125.5262 -8.089253
-0.4913203 19.23646 -14.28158
11.39028 27.98716 -15.10269
-0.5972513 39.88486 -10.89907
11.80197 46.38377 -16.59285
9.838926 54.90826 -13.06516
6.95225 92.855 -12.75426
2.958781 106.8365 -8.248053
8.846758 127.15 -7.588588
11.52396 29.85138 -15.61486
-1.227616 57.68692 -9.867862
1.756613 78.63893 -13.18174
4.692467 122.9303 -7.515707
10.1632 29.76655 -12.62809
11.39424 50.19482 -15.53448
2.211369 76.71915 -13.63299
-0.06010551 57.94201 -11.77816
3.125483 76.7906 -13.96958
8.910984 65.00137 -12.6474
7.583255 71.18801 -12.40115
-0.2559606 75.41921 -10.9493
6.040524 73.50929 -13.01426
7.847288 73.27884 -12.45925
0.2154874 72.67912 -11.539
1.056949 70.80589 -12.97416
0.4356925 67.53514 -12.12256
