# .PCD v0.7 - Point Cloud Data file format
VERSION 0.7
FIELDS x y z
SIZE 4 4 4
TYPE F F F
COUNT 1 1 1
WIDTH 1675
HEIGHT 1
VIEWPOINT 0 0 0 1 0 0 0
POINTS 1675
DATA ascii
5.270558 116.4445 11.84444
16.65773 47.84335 8.087231
17.74345 28.94935 9.095614
3.079249 117.7391 14.3229
11.44657 114.2449 5.508183
5.267143 10.40013 25.31019
11.13919 113.4953 6.223992
18.38848 79.39427 8.626576
17.29447 63.7975 8.215803
14.90608 106.2681 4.384208
17.81376 94.17658 7.743679
20.98723 7.17656 10.74776
-12.20878 110.286 4.636275
-3.470409 114.596 12.71564
-10.53389 113.4281 8.585773
9.103909 114.3132 10.87073
-17.27437 9.668745 10.44846
19.21166 19.70184 9.942512
-13.03111 103.0303 7.241273
-11.55359 112.1589 5.350942
-10.49531 112.0141 9.289858
-4.377891 114.2232 14.71039
12.84985 112.8387 10.87393
12.26388 111.0243 7.906536
-15.80825 6.554797 9.188902
-28.77255 7.337418 9.916768
20.14486 17.45638 10.45515
21.72597 17.50222 11.28776
-12.26972 109.0766 5.088596
14.89237 106.1272 5.59041
-11.70321 110.7579 5.647344
5.100944 108.6371 12.73069
10.14732 112.2833 8.993496
-17.89202 7.098385 10.67563
-15.33677 20.38494 5.817151
17.68804 43.13646 9.170424
22.58975 25.85856 11.93246
-16.3753 88.68295 9.88358
-13.08384 104.7138 5.514931
18.2029 91.86558 7.314741
12.85157 108.1989 6.735065
-0.1184953 113.6245 16.08801
-9.524447 112.7942 10.77523
-15.02351 11.70058 7.805938
-14.64826 37.2098 7.979374
-27.83522 6.885223 9.784597
-32.19322 8.637486 13.03026
8.785765 8.019765 30.70693
18.78092 31.3477 9.866718
20.59009 16.81995 10.67351
-8.553761 6.880807 22.03946
-12.97882 105.8838 7.089544
-14.71028 91.76825 7.193522
16.47924 96.55966 4.425355
17.52314 79.29703 7.013756
-7.225681 109.473 11.7478
-3.101448 112.6474 13.70141
-14.9529 15.13331 7.777225
-17.62067 10.0976 10.60686
-14.90971 28.3985 6.572708
-15.46102 27.02036 9.461952
-23.85623 9.777879 10.14995
-31.04627 9.441347 17.79291
19.06492 32.56764 10.04854
10.64983 6.022123 13.56993
18.4094 24.7736 9.525034
28.56675 11.73483 19.38317
-15.10661 71.39635 6.333081
-14.66229 58.73759 6.848487
-14.98533 5.393762 24.24944
-14.77921 89.57082 7.263208
17.91652 92.3271 6.71745
16.46834 95.98971 10.14724
17.31541 79.98875 6.509871
-15.48701 10.15186 8.9176
-14.69463 49.59006 6.915477
-14.78245 36.87441 8.645103
-24.92986 11.94958 9.938823
-16.59863 7.064148 24.19826
17.96037 58.58432 8.909197
6.713969 6.285018 28.40444
9.46986 7.232382 20.64418
17.60999 7.710068 17.87199
18.65669 30.30025 9.779112
19.73398 21.73081 10.26478
22.90711 11.64569 11.8099
-14.46634 76.77288 8.322225
-14.63847 57.83688 8.824415
-8.369712 6.337822 21.9077
-18.85237 8.169841 23.86089
-14.36455 92.54262 7.454066
17.35271 71.45785 7.980505
16.41957 61.31328 7.192943
-14.66512 103.8967 11.29177
-14.56454 51.40536 7.270316
-14.83968 28.12302 8.073762
-17.86494 28.59563 10.92389
-15.49161 22.7911 9.385844
-29.33166 7.280763 19.69363
-22.81286 7.690421 22.80653
17.15458 49.40197 8.507594
11.12813 9.563774 30.85543
10.47159 9.940888 22.07264
22.36396 24.96531 11.75845
28.16204 12.73457 20.08406
-14.51395 73.16312 7.265061
-15.76919 63.02386 10.24684
-9.386935 8.164624 22.56806
-2.197235 8.831256 18.7611
3.416843 9.370806 21.19699
-14.53432 81.78226 7.976354
18.4523 91.31745 8.401434
16.90419 60.15067 7.830122
18.02905 76.07737 8.709661
-12.02308 105.8095 11.88031
-14.24434 104.5061 11.07322
-14.99428 20.21712 8.127035
-15.99614 21.66625 9.957907
-20.46729 9.403467 10.8401
-24.23088 8.146091 22.25598
19.48687 36.44822 10.30772
13.13441 7.643442 25.42799
8.154412 7.954237 16.35618
28.47667 12.74554 18.97345
26.87016 17.01496 15.05479
-15.22925 10.47455 24.13493
-11.67649 9.634634 23.62345
15.58117 98.62951 9.045573
18.13536 61.7562 9.070556
19.02213 84.54162 9.116843
19.94884 78.66018 11.51779
-13.8561 112.2481 8.088592
-16.82665 104.9505 10.35662
-15.28973 22.06396 8.996423
-18.22111 22.29752 10.93478
-22.26761 10.79205 22.75206
-20.42147 12.82725 23.18564
8.194756 11.25786 30.19563
8.869194 7.873839 19.8256
15.86603 10.71808 15.93837
24.52284 15.54794 22.3659
26.4165 21.33512 15.00569
-15.14653 72.08667 9.746006
-6.242252 8.575594 20.47678
-14.70548 77.49603 9.25241
18.83812 86.4235 8.676642
19.99538 78.1265 11.6503
-18.19073 14.47097 10.84188
21.53145 46.87154 12.16968
12.67929 11.92204 25.17038
19.71962 8.867796 20.6176
21.4743 15.09549 21.99362
24.81869 18.91648 13.20324
-5.778513 11.6217 20.12887
4.879844 11.27601 24.17162
20.10938 60.64687 11.05299
-15.9358 110.3626 6.272983
-15.84899 12.97267 9.512451
-26.381 15.9719 9.829342
21.34638 46.48195 12.01144
10.1714 9.295108 21.67605
13.14359 12.37758 13.8221
12.0261 13.75446 13.44588
23.42011 25.744 12.50193
-3.794656 11.92275 18.99529
5.619382 17.02312 26.94739
-21.03537 12.79846 23.00109
11.65746 14.94605 29.93662
11.66687 12.41523 30.25928
9.875568 20.9344 29.96102
14.3658 11.66162 14.53629
27.37223 20.69624 18.12531
20.9089 15.01649 21.74287
26.45795 22.0285 15.18897
27.04023 21.77197 16.40478
-2.278562 10.83192 18.6324
6.52738 12.32303 28.47867
-15.32956 106.517 6.389663
22.01766 51.73492 12.96022
11.74431 18.89943 29.08109
24.03823 30.57818 13.28508
27.26291 18.91636 16.10445
0.5528403 15.55744 18.50637
-4.703466 19.42198 19.23667
20.60859 75.0927 13.27547
-14.16159 107.3712 6.958108
7.946033 13.68697 30.02953
9.398327 20.41038 30.08733
28.23924 13.80181 17.16031
-17.62747 67.55062 10.54782
5.244713 14.92348 25.66372
-12.95234 112.279 5.581704
6.427978 17.92194 28.52468
24.68932 26.87021 13.64969
-9.037146 15.15582 22.58366
7.380466 16.72962 29.56287
14.14928 13.84324 14.49426
19.41872 78.08057 15.83537
4.676378 21.0994 24.43644
-0.5985947 13.98582 18.36813
2.289412 17.1702 19.38386
-3.574357 16.19874 18.68242
-2.571273 20.27652 18.10109
4.844052 15.24396 24.33475
-2.120843 11.89536 18.52634
4.452257 20.46457 23.48425
-0.2616 10.57034 18.64998
4.307069 19.01741 22.78348
-13.8199 113.7924 5.260117
0.1354873 114.7911 15.09729
0.5018352 114.5002 13.01372
8.016634 110.1493 13.42261
6.392874 112.4652 12.96369
9.390893 106.677 12.86778
5.545453 109.5843 12.98504
7.161784 106.844 12.86476
-6.364735 113.7885 16.40771
16.09329 100.4852 6.67485
-7.638345 109.6221 12.77064
-14.63587 90.50954 9.649231
-20.32717 94.06777 8.933536
-29.43124 8.925187 19.45109
-30.85237 14.05623 17.25606
-29.73495 18.8004 11.15178
18.70477 58.24379 9.629689
21.28109 59.20913 12.59484
26.01527 17.10741 14.12533
-17.26758 60.05738 10.68681
-15.03662 63.54102 9.597975
-24.12856 51.41652 9.995233
-20.07406 58.66005 10.28946
-22.52455 58.87513 9.761726
-22.44995 57.47956 16.56282
-20.54478 60.92199 10.05128
-24.83653 55.96113 10.2696
-20.84605 52.45586 10.3475
-26.38938 56.30356 12.34706
-21.16476 53.30041 10.24786
-18.32989 48.51759 10.91278
-16.95866 54.28104 10.73459
-15.70684 55.42256 10.15886
-22.51163 66.11266 9.518744
-15.54541 51.40392 10.01165
-25.35415 61.46642 14.31922
-23.05241 56.755 16.57622
-14.99034 47.63387 9.277477
-24.84524 56.50531 15.9595
-14.92735 103.0589 7.769083
-16.15571 101.8582 7.340143
-13.87829 96.4342 7.137949
-15.89789 86.36217 10.13434
-18.65958 88.56298 8.751743
-21.34353 82.81606 8.913177
-18.18317 85.70855 9.382372
19.51674 69.61229 10.53879
-17.11005 37.91265 10.78237
-19.6867 29.33577 10.98588
21.89653 33.46183 11.77104
-14.63705 64.61128 8.987147
-14.66948 46.97319 8.491094
-25.52208 10.28159 21.53384
-11.9137 12.21967 23.72943
-15.09297 13.77249 24.06805
15.89135 99.63475 7.518659
19.06655 85.96644 9.509758
-22.88722 26.53189 10.34793
13.00768 10.90792 25.77655
-15.4984 76.95454 10.11459
16.23467 99.89837 13.17641
21.4294 48.95545 12.12615
24.66086 17.76604 13.02221
-21.94601 76.11192 9.205776
8.044507 9.885594 18.11108
7.914119 10.51763 16.8442
12.71687 18.63185 13.73857
7.636566 13.65792 17.29462
8.04538 12.3937 18.75627
7.259899 18.98502 16.50669
13.9516 13.78529 14.34894
10.3197 12.33413 30.75956
22.91103 28.82281 12.29596
21.04741 19.01599 21.79994
17.95194 73.47617 8.840401
25.67791 26.91559 14.82182
26.61992 20.99482 20.27878
23.50245 19.8962 22.13357
8.512705 24.74835 29.74195
8.504736 25.80672 29.651
11.47554 22.65775 24.41056
10.53164 27.33198 23.22659
9.796003 26.34737 22.28172
6.097242 28.15244 28.24263
4.480803 23.26636 23.78637
10.80071 34.52489 26.94846
5.333319 24.74813 26.83722
4.670693 29.4171 24.86893
3.963886 24.72156 21.84115
3.604948 27.31765 20.75344
5.613011 31.28151 27.62078
1.945949 20.72001 18.85832
3.491898 20.21865 20.70732
9.623706 32.48159 28.6729
25.86348 27.05335 19.82252
-7.304177 111.9337 11.38408
-8.261579 111.3485 13.04397
9.439898 111.6702 10.56961
5.0772 112.3354 17.25841
-28.64444 11.56279 10.0447
-30.10089 14.99418 11.07122
-30.62028 16.63385 11.83151
-31.39986 16.12218 15.39165
15.71923 101.2963 11.65791
13.46092 104.7681 13.31929
-28.24989 13.53091 19.79375
21.49773 57.5403 12.67441
25.4051 13.42176 13.40355
25.9924 12.72436 13.79607
-25.04305 61.64197 14.67566
-26.79521 53.705 14.01753
-16.86929 50.23756 10.72616
-23.3104 45.47687 10.03578
-23.37974 42.69613 10.09174
-19.30552 42.41324 10.90242
-22.59224 44.14151 10.17006
-25.87327 45.93961 10.59151
-27.32183 50.30183 13.48487
-25.61701 43.3867 10.31787
-27.69004 44.00798 12.17715
-26.63518 45.63305 16.68967
-23.20271 43.20681 18.52533
-27.99268 36.44702 16.96269
-27.47916 42.64205 16.22971
-28.49017 39.71011 15.00235
-17.86722 104.9982 8.598194
-17.60889 99.37556 7.354712
-19.23702 98.78334 8.208242
-18.41201 94.72307 7.975407
-18.94395 97.65802 11.3316
-16.95257 101.494 11.64528
-21.66021 85.05384 9.266579
20.87764 72.98781 14.20001
17.94753 92.58183 9.839504
-18.312 29.67216 11.0042
18.69323 85.83257 14.32433
-18.30445 75.48059 10.1287
-21.57347 73.99149 9.279573
-23.38878 78.09603 11.50101
-23.66424 76.46554 11.72569
-24.37373 71.37292 11.43285
-24.32538 69.97842 10.69207
-19.75558 73.56761 14.5008
21.06087 68.13815 13.14364
20.99192 71.05885 15.23444
16.63738 61.31255 18.69757
21.41411 64.53697 16.81802
21.91354 63.2986 15.54076
21.60907 63.20565 16.97954
23.67458 44.76722 14.70196
22.93 42.51267 13.3008
22.64065 34.44027 12.3526
26.11026 29.68912 16.76118
-18.27674 74.31697 10.20549
-26.77707 15.08905 9.804615
-24.49494 19.58032 10.01821
-28.49679 19.76406 10.39605
-22.71771 18.74307 10.42109
-25.00572 25.12459 10.0045
-20.5399 19.77172 10.88091
-27.75431 26.40661 10.4304
7.599459 15.40161 17.95671
17.70518 14.18363 18.6693
21.50698 19.52456 21.95577
4.06918 30.32037 22.1532
4.616477 30.34319 24.88078
-13.11814 27.95385 23.8298
10.06975 33.25788 28.20928
24.11289 27.71383 21.29228
23.20204 23.26731 21.93711
-7.116959 112.6059 15.25462
0.2365992 110.825 17.9819
3.443559 110.61 16.59056
0.2706287 107.085 17.19331
1.919894 106.7287 19.75036
0.3038792 113.5369 15.22233
5.832641 109.871 18.33846
6.901505 110.304 15.43109
6.844048 108.3998 18.2934
-31.0723 16.62546 16.24352
-30.68646 19.23046 16.38562
-27.82839 24.47688 18.87772
-29.93428 25.32406 12.46119
-28.81199 21.91619 18.36624
-25.75905 22.26652 20.34092
-24.74349 24.5819 20.59729
15.44797 103.7596 12.3929
22.69719 56.60245 15.78135
23.20249 52.05037 15.55652
-24.80625 67.84221 11.32363
-18.31035 65.8986 15.49951
-25.9905 51.74697 10.96116
-27.22099 40.73546 11.15643
-18.02482 103.1409 10.10369
-21.53011 89.00433 10.98738
-21.11101 88.89837 11.6663
-18.76984 90.18736 12.49928
-19.17435 93.1627 12.13382
-19.62455 89.61082 12.47724
-14.94247 96.67055 12.03349
-18.18497 97.74928 11.82127
-13.55071 99.57335 12.35445
-11.80001 94.37939 11.89922
-15.25375 100.7434 12.55669
-11.85629 104.3287 12.86826
-14.99288 99.53123 12.58837
16.88 95.33405 11.37713
-19.69816 30.8358 10.99587
-21.96568 34.67945 10.52471
-23.14099 29.65471 10.27028
-21.55481 36.05907 10.56314
-25.99062 28.90914 10.10146
-26.56928 36.08455 10.46499
-25.93064 35.43483 10.23375
-18.39614 76.13473 10.05653
-22.36498 65.25652 15.44211
-21.65118 67.82653 15.19562
-22.11075 67.98917 15.09628
-19.22038 69.66957 14.99141
-24.37798 69.61924 13.15651
21.09275 69.50471 15.69026
23.51161 47.30684 18.30647
24.68301 40.87513 17.26916
-18.37617 71.19107 10.32055
8.925777 18.94577 13.83032
7.660342 17.62317 18.63375
8.613474 23.65584 20.5572
8.815607 21.29825 20.80058
7.937365 20.64979 19.54078
7.420116 27.75455 19.23762
6.975212 22.76844 17.08259
17.87876 16.12058 19.08572
11.08305 30.91205 27.285
3.359409 29.18839 20.14317
10.15619 36.84918 27.54696
15.48532 24.36919 16.68008
25.93949 30.43154 16.49287
22.91679 21.83542 22.06354
18.22442 89.52161 13.83581
16.44393 89.2237 15.86783
12.00843 82.89725 15.25235
-1.861277 108.8416 14.53545
6.505775 105.615 12.72854
-27.67324 24.3778 18.99727
13.3623 102.2181 13.76578
21.07035 56.55807 19.01881
-19.44439 63.08939 15.93258
-24.72192 38.8905 10.11846
-21.2294 85.95653 12.36273
-10.07336 83.96027 19.13101
-11.52485 90.61627 12.71536
-10.44065 90.58795 13.69792
-8.734063 111.6516 14.8488
-8.557095 107.5169 15.6192
-8.605228 102.5124 17.55174
-4.896669 110.2744 15.95395
-27.49191 29.69163 10.49996
-29.53642 31.56709 13.31129
-23.21838 77.57141 12.35006
-20.59118 75.24687 14.22494
-20.07956 66.03785 15.50743
-14.70622 72.33475 15.11672
24.39843 42.69238 16.26857
24.55951 41.0907 16.34114
24.25026 41.56366 18.65034
7.074875 25.43858 15.22748
7.572498 22.21118 14.85077
13.47538 21.64918 14.35707
15.53718 21.1222 16.44302
14.49798 26.20586 15.6291
-6.946093 21.12633 21.0958
-5.585439 25.80312 19.97862
0.08366176 28.28822 17.46308
7.020495 38.1881 28.38064
12.75957 88.39914 15.58489
10.06159 97.23874 10.68786
17.8528 83.37153 16.08128
10.72733 100.7972 10.3325
14.52926 97.61869 14.79052
14.34737 96.39838 14.99739
12.58793 98.99873 13.63876
10.74266 99.39065 10.51094
-16.90716 62.17159 16.34937
-14.72074 89.79378 12.25157
-8.332849 103.0435 15.39352
-8.048509 109.1619 13.57182
-7.812489 110.3972 16.72236
-5.002872 102.8494 18.17378
-30.0284 26.5463 15.68145
-29.66758 31.01213 13.81796
-8.745564 24.49033 22.60439
-7.716592 26.28729 21.92852
-17.8849 24.45237 23.10276
-13.41987 21.05995 23.92768
-17.02275 22.91224 23.42289
-22.65108 17.4533 22.07176
-18.4779 21.25845 23.14619
-18.91133 61.55115 16.17028
-14.38583 61.94204 17.89619
-15.90396 64.34783 16.27725
15.69829 55.86343 18.26112
16.65026 69.09641 18.29558
14.60541 70.63377 17.49856
12.77376 69.97931 16.08299
14.69723 74.7868 17.40817
24.28709 44.08965 17.21639
23.48531 42.6598 19.42574
10.82122 30.72993 23.95842
6.220406 35.18967 17.02682
10.19966 33.12263 23.10049
15.54744 17.38337 16.10594
14.85609 20.21749 15.57041
15.4829 21.93723 16.47814
12.19989 25.97764 13.70651
6.639487 27.47938 16.71566
9.471323 28.94962 13.24019
7.228726 30.67263 14.32251
6.405873 31.25462 16.61859
8.829152 28.07862 13.41556
6.235202 34.64267 15.91188
6.280686 37.56647 14.96826
7.968025 38.77883 13.29832
8.573917 34.54529 21.12535
3.473711 35.62946 20.18349
4.136741 37.50917 24.12203
3.494143 38.39589 20.33837
2.476475 39.41558 18.1727
3.942264 37.45238 22.67352
16.51519 27.35323 18.31028
16.91211 23.64374 18.49356
25.82804 31.66696 18.2693
11.23911 100.7884 10.53848
6.39628 102.6637 12.59697
4.199531 101.9714 12.75543
-27.52497 17.96815 19.79476
-25.39666 16.01789 21.08837
-24.51138 17.28572 21.37233
-15.36656 59.01435 17.83183
-8.625077 102.1331 16.44732
-8.418838 100.1488 15.47017
-8.689314 99.54939 18.11162
-24.71657 37.02597 19.06038
-21.61459 35.00584 20.092
-21.04794 38.58923 19.60315
-4.400453 27.48084 18.87462
-3.220891 25.81482 18.08329
-6.192647 30.98895 20.65455
-11.37664 27.46005 23.69837
-9.890378 26.8634 23.25303
-3.318361 32.7594 17.87286
-8.036713 29.99392 22.25854
-16.00416 60.63685 17.00876
-12.38974 71.83508 17.69835
-12.61983 70.50235 17.71137
17.2247 62.71716 18.8418
19.68718 55.89861 19.54391
22.15057 58.62293 17.34609
13.75943 61.52871 16.63236
22.40957 50.58178 18.98444
21.52569 49.45914 19.75045
22.2114 55.15863 18.2836
24.4098 38.46945 19.11368
13.57156 30.56314 14.94672
11.16614 30.96205 13.39989
7.239894 36.59134 19.57604
7.079124 38.27451 19.39452
8.011868 38.20767 20.58889
10.65751 38.79027 24.84682
10.53456 39.21772 26.19804
0.1164372 24.58413 17.7507
7.16158 105.6304 18.45626
4.927209 107.6709 14.83537
4.056975 104.6322 13.79385
5.267703 100.9601 15.64244
4.445708 98.68686 12.19357
5.488945 99.62792 15.9797
7.458204 100.1345 18.60981
6.072088 104.0836 19.87695
11.17473 99.0773 11.10426
-14.0015 57.8974 19.48576
-7.918129 98.09818 19.19925
-2.997358 103.98 13.29486
-4.929006 107.4608 15.04852
-4.173314 101.96 16.27991
-1.771434 101.881 12.85575
-4.965871 108.6764 13.82459
-0.6014777 104.8971 13.56811
-2.489391 106.3668 13.6895
-2.50707 109.0007 14.55203
-26.34836 27.12729 19.55388
-26.7026 30.07176 19.01919
-19.94558 41.3473 19.39223
-0.2705343 34.4482 16.97068
-2.319068 34.81668 17.27828
-6.729655 30.97796 21.19868
-5.755682 29.26803 20.15079
-6.333663 35.1655 20.78297
-9.74966 34.0004 23.26966
-15.04682 27.50095 23.64635
-12.18507 68.96157 19.11044
19.06349 33.87794 20.64454
20.47686 39.59557 20.86704
21.58 30.83319 21.46229
21.54076 31.97514 21.39629
21.13708 34.9584 21.18658
23.64551 32.29713 20.91492
17.25885 40.5382 19.46197
17.18321 47.81586 19.37441
15.81219 27.76338 17.43308
9.882864 34.41417 22.78948
8.082355 43.94947 13.10937
12.55482 52.96707 15.04982
9.870292 45.35506 13.11019
13.39802 46.62349 15.61333
13.88046 44.65797 16.06717
15.26395 48.21966 17.78053
8.242012 46.23833 20.97347
7.973925 41.58518 20.45934
6.759475 39.72317 28.16986
6.755419 34.57595 28.53948
9.855357 41.87371 27.00008
17.38872 35.0644 19.55716
13.63251 34.96186 15.28713
11.14674 39.02863 13.53475
16.10009 37.238 18.33871
15.50342 42.11633 17.84439
14.57529 45.98811 16.91944
12.29193 44.15548 14.48256
25.58523 33.7666 16.73951
3.972006 99.74255 12.86131
4.314021 95.9473 15.23124
5.835259 94.44265 16.66831
4.942905 91.45944 16.31644
3.762531 92.15453 13.778
11.23044 94.17333 12.75161
-17.62653 55.96946 17.3215
-9.425268 93.59436 17.62764
-6.783716 93.74479 20.04223
-4.836005 101.9176 18.17014
-20.16156 31.4114 21.20587
-1.883069 39.32013 16.86636
-18.36814 26.21919 22.83255
-22.59522 27.75901 21.11185
-25.16158 27.37068 20.13807
-18.05352 28.64903 22.60019
-19.1754 32.14075 21.49833
-15.47787 72.06368 14.87389
-10.26855 75.95096 20.53787
18.08852 58.26616 19.31698
17.66171 53.85948 19.43472
15.00169 50.50589 17.56854
9.895158 43.07299 23.14969
10.03119 46.31105 23.70808
5.559199 45.55765 16.39455
4.636827 48.23435 26.13815
4.363657 42.86506 25.60964
4.756466 39.97802 26.32762
3.829676 45.67414 24.08675
3.565486 46.96807 22.35143
8.509947 49.48392 27.09023
7.149379 48.31474 19.69279
7.574947 48.04712 27.52346
3.96507 51.61324 24.92927
5.089242 49.59209 26.42659
6.97122 49.35932 19.52497
9.565821 53.24392 23.48987
14.80027 56.13184 17.46904
4.17326 37.4762 24.31364
15.62679 31.44779 17.46481
12.31394 30.75453 13.95201
16.9916 45.59045 19.27299
7.418375 92.89468 19.51775
6.942882 102.5917 19.39883
-9.876627 87.90575 18.58162
-3.280707 92.26591 16.3709
-10.30113 87.59853 15.58548
-10.17033 80.64746 19.62901
-18.07788 80.22043 13.5934
-19.29532 83.64436 13.25334
-17.97143 82.71484 13.32432
-10.5973 80.93195 18.45862
-15.04399 77.86944 13.887
-15.66776 74.90202 14.29968
-12.14699 78.49474 15.63764
-11.19768 78.93379 17.16257
-3.251756 88.09756 16.44471
-7.519929 90.54166 20.21439
-3.781755 89.28809 17.73975
-4.350896 87.66167 18.77033
-9.464012 84.73182 19.90132
-9.950506 78.92908 20.44301
-0.826075 99.73736 12.77377
-18.16023 35.76045 21.24294
-21.16853 32.25385 20.69676
-16.53894 36.2216 22.06897
-24.16259 30.88122 20.10032
-8.171726 36.17904 22.54147
-8.393569 39.41651 22.74636
-13.10282 31.28857 23.7526
-14.0186 34.42543 23.47708
-10.11872 79.83158 19.91326
5.900635 49.4648 14.30667
9.395302 54.03036 12.96281
5.123276 54.69756 15.60487
5.589016 50.57341 26.76206
12.05333 57.51965 14.7533
9.284697 58.4201 12.98059
6.076715 90.06046 11.51981
8.47454 90.89227 11.80176
-12.90985 53.6382 21.58431
-10.00589 57.0883 22.74428
-14.05658 89.05808 12.32826
-10.71299 78.24815 18.87029
-1.223486 98.42352 12.87241
-1.288718 96.00003 13.05409
0.6308255 94.38706 13.26765
-14.72306 35.7569 23.11628
-8.435821 40.42377 22.77926
-8.488828 44.65455 22.83663
-2.841627 41.56245 17.24587
6.845133 55.96991 13.06608
4.988395 55.8398 16.01094
5.425795 55.95795 17.6119
8.378869 57.0249 21.31677
5.210564 55.63065 15.02252
8.757181 43.03893 27.75724
6.725851 53.6484 19.33433
9.316725 52.43739 22.61235
9.855956 85.73376 13.36658
12.30183 89.35267 15.13945
6.193881 96.34432 21.31418
6.602555 94.67232 21.26909
5.093973 103.7043 20.29812
1.471165 100.2069 20.50539
3.221932 54.69228 21.93738
-8.470922 75.22789 21.58363
-3.544891 85.12268 17.40403
-2.29388 87.06357 14.72117
-0.1190759 90.95683 13.24161
5.52605 89.16123 16.93386
1.168923 93.04079 19.79257
1.518409 93.92344 17.43202
1.21955 91.64215 19.50333
4.367654 94.04771 22.27399
1.289161 97.14717 20.43004
-11.29785 40.56238 23.51409
-1.616548 42.23 16.592
1.319149 43.87395 16.89821
1.90087 45.91893 17.14395
3.335145 52.24065 22.29364
3.358477 51.08892 21.16672
3.044525 51.35895 19.01834
-10.68141 37.3961 23.52146
-13.0935 40.59191 23.2465
4.789659 60.01337 16.33148
6.315693 62.38073 12.96516
9.647973 52.63846 24.88509
9.300006 51.07276 26.05715
3.88699 55.25269 24.67375
9.435937 84.27201 13.2267
5.034275 88.84521 11.87859
6.769733 81.3926 12.30542
3.727911 81.87328 13.87641
4.187693 80.91875 16.12749
5.7041 80.85225 12.27485
-10.41767 54.12345 22.86456
-8.09512 53.96984 22.6393
-6.841259 52.76253 21.79795
-1.513378 87.69746 13.93854
1.29208 88.6013 13.9275
0.4073142 83.65018 13.79563
1.67638 87.63631 18.31973
2.09921 87.35795 15.19121
-2.707087 77.90828 15.51328
-3.242066 79.55553 16.46046
-4.344589 80.55917 18.92038
-6.277385 74.31896 21.13651
-2.713143 72.64624 15.64372
-0.259004 77.85622 14.15623
-0.2313202 72.50405 14.49676
3.955737 91.98697 22.60068
2.804286 88.15438 22.53192
7.488494 88.8448 20.65948
2.748947 89.32722 22.39717
7.256435 85.91447 19.47354
1.675702 86.96317 18.90992
5.728558 88.94113 22.97712
6.71054 86.54543 22.81314
7.336316 84.19041 19.90742
6.101804 84.19662 18.06946
6.846284 83.80515 19.05152
7.522618 78.86908 20.68203
5.998945 87.55702 17.6113
6.703502 77.93701 24.26714
5.401475 77.57989 24.65843
6.422348 76.08921 24.66759
6.619009 77.20647 19.22141
1.199534 101.1756 13.39945
-18.75831 56.05381 17.04408
-21.78779 42.85604 18.77654
-20.71453 42.56879 19.0085
-21.06322 44.96271 18.54479
-20.16198 45.75761 18.57069
-16.5526 44.02502 20.49425
-14.6247 41.25519 22.48054
-6.796311 46.01504 21.6526
8.25923 54.46779 21.05216
4.386603 91.00678 15.73671
11.21035 81.31284 14.76351
18.81807 80.85265 15.80571
14.58474 78.86559 17.15672
14.02314 82.0528 16.77633
16.65593 78.53298 17.35209
9.387589 78.20006 13.55291
12.4349 78.89861 15.98827
12.35074 73.50543 15.94536
15.23163 84.85394 16.68484
1.183783 97.06808 17.55916
-1.070322 58.39849 15.45235
-5.295129 71.79067 20.26118
-8.995252 63.21895 22.40256
-11.52575 62.14756 21.53884
-4.835902 81.29137 19.64802
1.365502 80.8569 14.5561
2.167283 83.76131 18.53588
0.2139204 68.65551 14.81116
-1.44837 66.92724 15.05361
2.269831 68.01661 16.48768
2.294283 70.86762 16.50817
2.763664 71.6228 19.14816
2.776416 83.32298 22.75311
3.649316 80.33688 23.7551
6.20518 76.84438 24.65277
-19.01747 47.40853 18.56718
-12.35327 45.08992 23.10924
-18.9978 49.98838 18.0902
-9.761342 52.17902 23.01193
-0.002191063 52.42097 15.82508
-3.769343 45.24535 17.90897
-4.88968 46.28092 19.25594
-2.911757 56.98374 16.52851
4.278233 56.67481 25.3567
-3.495997 50.9253 17.41265
0.7282864 50.78017 16.10651
-7.39842 48.01067 22.19619
-4.62082 55.46305 18.88413
-5.090133 51.97346 19.63351
-12.1168 50.36987 22.66741
1.360964 56.74537 16.11123
-0.2259467 53.52679 15.70863
2.163579 56.1035 16.90399
3.194777 55.47821 20.9977
7.126151 57.36769 26.59182
4.810961 59.54275 25.82871
6.207688 58.43155 18.86373
4.155895 75.97553 13.64724
4.668166 73.22333 17.08558
4.272071 71.55475 16.05077
-3.964314 75.00825 17.95594
-4.393191 70.33109 18.74625
2.604436 73.51336 19.77332
2.452204 79.65171 16.74423
5.843332 76.01026 18.40112
8.054701 74.13593 23.38085
7.297299 70.60708 20.49382
4.639861 71.28799 17.0625
4.777618 64.28061 16.90011
4.670739 62.7837 16.30633
8.657837 65.93791 22.81505
7.28768 69.52116 25.17406
7.5133 59.471 26.26281
8.837638 61.25031 22.55158
6.417359 61.30696 26.30724
5.831896 62.38407 26.14388
6.834003 63.56337 19.71516
8.721785 57.66887 21.82968
6.392465 67.91789 25.64857
7.598729 65.78394 25.49624
3.32027 57.21387 22.72678
3.529513 58.56721 23.78545
3.024184 66.0088 21.51104
7.877674 70.33794 24.44481
7.030616 70.40508 25.20042
-21.81426 49.41074 17.77278
-24.41873 53.72958 16.63133
-19.51338 53.97728 17.27944
2.384594 60.55739 17.0407
6.53856 57.38881 19.21104
10.77508 72.47129 14.48699
13.36868 67.36073 16.528
9.676893 71.82058 13.60656
11.56798 66.57322 14.8124
10.87025 61.58802 13.9526
11.77666 75.59429 15.60785
9.922908 69.49882 13.64735
-10.9567 67.97667 21.18593
-12.71629 68.29313 18.36105
-8.764978 69.06156 22.01736
-6.441746 61.69784 21.49462
-4.012297 62.37844 17.85526
-5.777063 64.27612 20.88855
2.886139 67.60419 21.1359
2.576156 77.77305 22.13004
2.612015 74.56628 21.52138
2.78078 71.38145 21.65323
4.061032 67.85051 24.73303
2.973793 67.48222 22.25927
8.135835 61.8563 21.15757
-25.79013 52.5147 16.01593
7.88511 64.94846 12.67411
11.106 65.58225 14.33664
-10.96379 72.22698 20.43833
-9.892736 63.78358 22.15149
-7.943386 67.83318 22.07002
-3.162762 70.37081 16.23118
-4.702055 66.33727 19.26084
-3.579489 61.58621 17.19391
6.108832 72.37978 25.24693
8.176403 29.25394 29.29714
0.5386444 104.3962 17.28254
-24.05954 71.80168 12.91782
-18.97684 17.07168 23.30625
-18.54781 16.76079 23.43738
-23.52328 48.35749 17.72514
-24.77317 46.38837 17.67925
-25.47421 50.17414 16.733
-23.84374 49.01846 17.56517
-20.64676 86.24688 -0.03036691
16.24953 7.765894 7.170667
16.80996 27.40226 8.324914
12.39622 112.782 4.515869
-8.597344 111.1276 -4.283353
10.66584 6.933946 -19.27027
15.86452 25.95415 7.237093
1.842779 113.5657 -6.336064
15.85232 52.54176 6.884665
16.40986 45.75627 7.87352
-12.2018 110.6854 0.8318623
15.99111 63.35482 6.484232
13.69765 113.9118 3.213973
9.300573 114.2002 -1.211903
1.118864 113.3697 -4.877965
13.65381 113.5013 0.2191327
-3.958044 114.2041 -4.237157
-29.68722 9.385232 -3.608039
-29.77462 9.508417 4.215546
-21.58931 7.323003 3.477993
4.271306 113.2704 -4.915565
4.501553 114.6375 -5.207739
0.07935963 111.9015 -4.372802
-11.09122 113.5739 -2.500015
-8.384956 112.1311 -4.334512
-13.08 114.0219 2.937334
-15.78822 81.57473 5.581975
12.97402 114.2109 0.5027197
-9.342347 113.9216 -2.265849
11.44603 114.0401 -0.4197101
3.960512 111.6095 -5.845098
18.61495 11.23765 9.401369
13.2728 109.7502 -0.09516023
-13.26466 114.0988 2.027209
-10.16668 109.8689 -5.028616
9.95295 111.7169 -2.119753
4.298752 112.7948 -5.571613
26.23946 65.16051 -4.175013
-16.01947 11.30902 4.788301
-15.85141 85.53212 5.434935
11.49867 112.4797 3.788764
-10.85467 109.7658 -5.269736
-7.496785 110.0599 -4.009974
-8.065508 107.055 -5.644998
3.393925 109.7315 -7.730887
15.44207 45.04003 0.6700117
-14.27838 14.37062 -15.10272
-16.34129 19.59176 4.633597
4.631036 7.339719 -20.80815
-21.29941 63.45431 4.497828
12.96523 112.0596 4.546652
-12.5029 108.8575 -0.4542831
-7.72762 110.1675 -7.024554
6.398259 107.5983 -9.662142
15.68657 10.45085 6.448564
14.93284 28.81809 2.632585
18.3802 8.446092 -1.10841
30.04499 9.034105 -8.80469
-30.49319 10.19702 -3.14098
-15.66154 17.6136 5.265001
-17.3633 11.21132 3.844483
12.74643 108.0604 3.372923
14.98379 76.05449 3.272384
-14.36735 102.2582 5.287029
-10.97038 112.1212 -1.519123
3.552553 107.4642 -9.650415
16.40631 14.60745 7.536351
15.88817 29.8876 7.332917
14.92833 19.99047 4.683927
21.40244 9.212659 -0.8345183
14.60086 46.91763 3.087878
-15.53724 8.96237 -8.27878
-32.56716 11.4424 -0.1549923
-16.21349 25.36548 4.880107
-17.24816 21.63435 4.151804
-21.64952 12.23963 3.63645
14.06422 101.254 2.223623
15.27443 100.6369 3.333979
16.34638 78.34798 5.287648
-16.57657 57.28034 5.176198
-16.05644 88.34435 5.170557
-14.76435 109.0346 4.196432
10.65478 112.3793 -3.056902
-9.385179 105.2861 -8.477382
5.559287 107.562 -9.138436
1.189196 104.7158 -8.222704
14.81906 11.67244 3.121847
14.98971 26.63549 5.350078
15.06969 58.78584 5.111642
33.53372 9.836703 -3.083546
-15.75944 9.042139 -7.812544
-18.7211 38.61309 4.207536
-15.334 48.96719 5.856339
-22.1955 9.833085 -3.994704
-18.29196 16.26453 3.684168
7.022364 7.743034 -20.34166
13.45505 104.8008 2.799675
15.74535 74.26083 5.218596
-18.57782 60.14255 4.686164
-18.92313 72.12664 4.6804
-15.92289 98.28578 5.471566
-16.28419 108.4298 1.150377
12.22339 109.4153 -5.304831
-4.430495 106.9115 -6.924723
11.02419 108.9221 -6.100637
15.49529 30.65281 6.755073
27.65009 9.613418 1.500669
33.42736 10.00252 -4.080495
32.43257 13.18585 -0.6088002
32.52115 10.40403 -6.091855
24.76377 10.47582 -12.15379
-14.84566 8.12606 -11.99576
-16.67448 42.28738 4.840805
-18.6723 31.12728 4.057709
2.782346 8.503872 -21.26041
16.71874 8.918744 -16.84651
14.93539 93.13339 2.53728
15.74835 77.09676 4.625085
16.27043 80.52325 5.177028
-19.50018 69.58874 4.672904
-18.27001 83.4997 4.468395
-17.77064 94.59557 4.429283
-19.76167 96.10387 3.107571
11.39287 107.8383 -6.469331
12.7122 106.7414 -2.693407
-4.554732 109.445 -5.97679
1.003712 108.7281 -6.121807
14.82447 13.09525 3.874341
15.86604 57.8125 6.599318
15.79745 47.30791 7.047546
31.50736 13.24923 -6.972673
22.18775 8.371983 -13.74193
-23.53919 11.13579 -3.915727
-12.86797 9.596355 -19.06956
-17.44534 54.14466 4.780213
-24.27972 9.438596 -3.975733
9.024691 11.31164 -20.16165
0.5205048 9.708293 -21.5944
15.04277 98.2443 2.808978
14.78924 70.62622 3.099705
-16.01075 62.5732 5.501506
-19.59731 77.32191 4.489964
-20.65989 92.78645 2.914836
14.79393 108.6386 -0.9356058
-2.563582 113.1355 -6.633478
15.06954 11.66258 5.094429
15.39727 57.17321 5.864152
-19.59942 10.1733 -4.42922
-13.55443 9.683393 -18.02984
-20.53534 52.03627 4.428309
-28.04153 16.23437 -3.632914
-23.77682 13.64806 4.114567
8.080427 11.56103 -20.44044
14.88032 68.30403 0.7494857
-20.33017 62.37111 4.579175
-19.43634 58.8113 4.579367
-22.55488 55.14134 4.384102
-21.93411 56.70474 4.429138
-20.29893 73.1972 4.498856
-13.31219 108.3436 0.6870452
15.95813 110.7743 0.3455295
8.1457 106.389 -7.461089
-3.75321 105.9894 -7.634046
-2.046137 111.3487 -8.439565
14.89478 25.81592 4.632636
26.68829 12.65426 1.251434
21.85121 11.2399 -13.92904
-6.782859 15.79002 -21.86269
4.094694 10.52111 -21.04269
-19.12637 67.31609 4.752314
-21.92913 73.3363 4.073949
-18.0386 71.987 4.799617
9.224919 107.4449 -5.440752
0.9967731 105.6787 -6.941571
23.76319 22.57169 0.1410566
14.55827 55.98234 3.111576
-14.97994 10.5314 -9.805274
-17.52304 31.65392 4.309473
5.946098 13.57451 -20.5523
-23.34532 58.55328 4.137901
-13.49842 107.8659 2.207373
18.41232 105.5411 -0.05517074
-3.98255 103.8292 -8.740821
-2.929379 104.887 -10.3013
15.53254 21.45718 0.7287985
20.3026 13.29812 -14.86526
-19.53721 30.32331 3.975971
-15.17856 106.299 0.7431046
-14.48627 107.0581 -1.717293
-4.202417 102.3965 -9.392554
15.30305 18.57034 1.156581
18.50281 14.60102 -15.96284
-17.4334 102.6474 0.4830131
-3.984735 102.9597 -9.297812
17.89542 18.02823 -16.26574
21.50665 14.31669 -14.07293
-6.751782 18.85381 -21.77351
-0.4244721 103.7827 -7.374867
16.22435 17.8823 -0.1033027
22.29741 17.88936 -13.37186
12.74753 109.9816 2.168673
24.78346 18.3076 -11.73122
17.73734 14.84005 -0.9394519
12.51208 114.044 3.698414
18.59496 18.28644 -1.169153
20.13756 10.46702 -1.142548
24.85179 14.98316 0.5755974
26.41121 13.24922 1.176964
26.46765 16.62847 1.165578
28.27217 16.13047 1.445089
29.34007 15.47959 1.330701
29.72077 20.56481 0.9141684
29.73708 20.22305 0.9276232
23.74463 21.84393 0.1196555
30.36442 23.41347 0.2323874
22.66338 34.38728 -0.1130485
30.46103 25.54045 -0.1100231
30.89456 28.30459 -1.34177
25.64834 23.93177 0.9345971
-1.222515 113.9935 -7.011769
-11.62236 110.8156 -3.976191
-16.69899 24.49351 4.499772
-23.41821 36.49355 4.45802
-24.53193 24.66581 4.485638
-20.30851 33.95428 4.104391
-22.95506 23.11125 4.223945
-22.6858 20.96721 4.127926
-26.65482 25.54309 4.44911
-19.81892 15.61808 3.54848
-20.75965 17.72713 3.701683
-21.78794 19.92723 3.944288
-26.29898 14.2158 4.470118
-26.12411 16.18966 4.491483
-8.884156 106.5758 -5.077596
8.829866 103.7517 -10.35483
15.05267 42.66206 5.809959
-18.07654 50.83147 4.551819
-21.23034 44.80356 4.337573
31.3538 18.31743 -6.294511
32.71663 15.77688 -3.877016
28.9963 13.65911 -9.223728
27.19908 18.66566 -10.10061
14.46499 100.5723 2.592711
18.92859 102.1779 1.172979
16.59715 101.151 0.9372891
14.1819 98.38844 1.895841
17.65692 97.39213 0.6388624
14.54356 95.30573 2.16867
17.27324 94.745 -0.1819416
16.89338 90.99624 -0.8959852
14.73092 93.07177 0.2006321
21.54783 89.72129 0.2766397
22.33233 91.86333 -1.007352
15.02176 82.0517 1.778256
16.15959 77.49428 -0.8948435
15.86359 83.97437 -0.8971145
15.9245 73.60321 -0.6124703
19.13425 72.76676 -0.6699471
15.0562 64.92079 4.505294
-17.72745 102.4192 3.651709
13.26294 104.9237 -6.846907
14.70927 103.5668 -5.726248
14.41505 104.4347 -2.093587
15.31158 101.8635 -1.406412
7.548161 105.136 -11.28758
23.91247 13.25861 -12.58311
-21.34636 79.96274 3.916124
14.64012 55.3928 2.432489
3.89502 15.91622 -20.16798
3.848706 17.32489 -19.94205
1.000928 19.30894 -20.008
14.58134 112.3685 3.240407
-16.2438 10.70401 -6.814032
-13.63738 14.14279 -17.38827
-8.421332 8.443675 -21.71313
14.7318 15.23816 -18.10848
15.59196 13.22164 -17.57936
-25.37283 60.22612 2.540659
-14.46469 13.34883 -13.97515
-14.41873 16.09212 -12.82004
-14.56185 16.15436 -10.51518
-18.74904 14.99123 -4.432377
10.82563 16.96252 -19.85923
6.613139 17.9104 -19.9844
9.68553 19.38495 -19.98077
14.30752 17.64754 -18.43527
16.82686 20.26706 -16.95506
17.25825 21.75697 -16.63164
19.03955 24.74052 -15.26005
16.91082 22.19823 -16.86613
-7.129547 100.0803 -10.5204
-8.843281 101.4327 -11.08146
-12.06339 96.65946 -11.10128
-12.29488 112.6047 1.312501
14.80304 29.82576 3.590343
24.93042 17.49007 -11.69566
22.34852 19.1429 -0.571073
32.59362 16.20338 -1.973917
26.11788 24.93128 1.072511
-29.71408 21.44876 3.410138
-29.83226 25.14351 2.838478
-26.7407 19.82649 4.523654
-30.09216 13.77659 3.875845
-9.360209 104.0714 -6.734214
-10.3584 101.4123 -7.633024
18.16234 35.14112 -1.207857
14.67255 42.65947 3.540976
-19.61262 45.15297 4.301148
-21.99821 46.99117 4.387786
-24.02648 45.64882 4.31228
-25.32563 41.23406 4.200628
-24.37711 49.48867 4.135488
15.1848 32.81269 2.308057
25.92657 21.25001 -10.74553
19.92942 93.60085 -3.634002
21.00168 95.33265 0.2837426
21.26959 95.85844 -1.879309
19.05731 88.73479 -0.0006724403
14.63781 66.52636 1.869458
-18.22912 103.0793 1.561581
-18.01167 103.3681 2.819304
-14.87804 102.9681 1.390368
15.85326 104.0467 -0.927959
7.286438 103.8107 -12.05345
15.41022 13.23559 6.019372
-32.17478 14.41409 0.9404904
-31.21329 18.16432 2.226902
-31.2061 19.26105 2.041203
-29.93681 19.15279 -2.549345
-29.54702 18.40185 -2.885496
-29.31973 14.25688 -3.352839
-20.36262 95.0286 1.583736
-19.62233 91.45985 0.2832791
-20.25439 95.34701 2.082176
-21.06534 87.28815 0.4038815
-20.60336 85.58577 3.922892
-22.33603 79.49675 -0.06814804
-18.05426 96.61918 0.4406334
-16.09822 100.2941 0.928144
-23.15187 74.59175 -0.1465869
14.72596 59.43559 4.037901
-29.67669 20.46168 -2.58645
-26.45975 23.74784 -3.518577
-29.28608 22.00594 -2.675073
-27.65023 25.78764 -3.152294
16.37108 70.52238 -0.8501904
17.33101 67.75475 -1.050757
16.04794 65.88306 -0.5653169
14.8939 66.1986 0.8397577
-11.20785 14.61157 -20.38562
-14.24431 19.93808 -11.94228
-14.54926 22.86015 -8.536046
-14.94239 27.22364 -6.787252
-20.10591 29.3028 -3.321371
-16.51335 18.49448 -5.655495
-15.5801 22.23487 -6.34022
-21.20771 26.12027 -3.376354
11.33385 14.19907 -19.59428
17.5989 24.24705 -16.34574
-24.30643 70.45906 0.7739746
-11.03401 114.027 1.492758
-5.727567 96.68813 -11.65694
-4.586054 95.08009 -13.56326
-8.729692 93.2622 -13.27947
-2.192598 102.2026 -12.02256
20.85827 24.71502 -1.028934
18.68109 28.03631 -1.246634
23.25412 22.66718 -12.40977
26.93656 14.22971 -10.60569
-23.04516 33.34956 4.415812
14.86133 35.2851 2.942157
15.45371 35.47255 1.538366
18.78104 36.244 -1.250444
15.54919 39.4825 0.7499945
14.6433 44.43307 4.047619
15.97204 44.87238 0.00787181
17.27757 45.95735 -0.8608525
19.15036 39.22131 -1.207072
29.78383 37.75628 -4.438273
-23.75598 39.51252 4.425157
-26.02935 34.79978 4.282565
-17.12865 36.11868 4.518538
31.31689 25.88286 -4.215097
21.07785 96.95587 -1.465171
21.75742 92.60251 -2.732488
18.22778 94.26632 -3.704741
17.359 95.5789 -3.3575
15.49677 95.56499 -6.754475
15.75361 94.51637 -7.534881
13.95247 95.59174 -10.85704
15.49365 98.11342 -7.078743
16.18067 92.18144 -7.498625
16.97934 89.55154 -8.23945
16.54245 90.72639 -7.940591
19.1471 81.66626 -0.4645146
22.50107 79.39554 0.2726308
22.87983 74.21977 0.311522
20.37673 85.25817 0.2479219
-21.31801 85.42104 3.475389
-21.44627 86.47555 0.4449638
-18.62236 90.14452 0.4430854
-14.97444 83.54245 -0.275233
-18.23934 77.85681 -0.3449054
-21.62799 71.65804 -1.263121
-15.04878 101.5626 1.033415
14.70809 58.11344 1.774478
16.53603 56.66008 -0.6995782
-30.09392 22.17239 -1.991578
-5.771769 16.9439 -21.90771
-1.756314 18.516 -20.97575
-3.252863 19.20489 -21.35561
-0.9171957 19.02127 -20.60589
-3.604417 15.71247 -21.79948
-7.111126 12.79865 -21.83906
-4.698123 12.02099 -21.9755
-3.621373 14.20001 -21.90005
-8.892938 20.89315 -21.32172
-13.66171 20.56594 -16.62194
0.6828417 21.88043 -19.7035
15.1855 68.70528 0.2150727
-7.51244 14.08281 -21.77463
-17.12521 18.23443 -5.119047
-23.22381 22.62364 -3.549361
-19.38481 20.78671 -3.854183
-19.17715 27.22581 -3.572322
-16.25211 32.81964 -4.574948
-21.00726 28.7743 -3.30931
7.012444 26.75737 -19.30792
15.24083 24.04856 -17.98472
20.98246 30.81204 -13.44477
20.79931 27.75753 -13.78541
20.03768 30.12158 -14.21944
20.854 27.21007 -13.78165
24.41611 22.98803 -11.61404
23.05853 26.33027 -12.26777
27.51906 20.10648 -9.745992
13.43031 24.73781 -19.01364
-0.4935081 97.4834 -9.091154
-2.414819 94.52071 -14.23586
22.18832 33.84699 -0.331938
18.10307 32.69015 -1.207015
22.81449 21.5148 -12.7817
19.19399 43.769 -1.09918
-23.70499 34.79127 4.475022
-26.53996 32.31091 4.241101
-25.90541 46.35614 3.703509
-27.00114 48.76627 2.448801
-27.5589 41.91542 -1.401935
-27.30483 38.45455 3.466439
28.64254 23.18991 -8.574004
30.61953 26.94183 -5.596881
2.641736 99.2231 -13.19202
14.5169 102.1466 -3.997624
21.93806 84.58978 0.2917435
21.25369 90.03413 -3.931038
-16.24085 93.36514 1.509192
-11.69861 96.16979 -11.67199
-15.27328 96.3493 -3.429797
-14.76418 86.11662 -0.5212813
-18.14036 72.7078 -0.87233
18.24726 59.3875 -0.9869179
18.78534 58.75014 -0.979
-30.10737 24.77059 -1.472769
-9.733969 24.10381 -20.90933
-11.41404 26.55707 -19.70369
-10.1224 25.16252 -20.69306
-3.033019 33.0363 -19.67004
-8.716117 29.07922 -21.10506
-13.9969 25.27303 -11.36399
-0.9472754 23.50853 -19.99878
-2.786696 29.34842 -19.99759
-3.617628 30.47828 -20.26711
-1.567066 26.19447 -19.83606
2.531633 32.69501 -17.81804
20.09231 70.12487 -0.3075934
-21.40082 26.74174 -3.360193
7.551594 23.15544 -19.57991
21.28173 34.28934 -12.95149
-21.72373 69.01941 -1.50671
-23.92872 63.98154 -1.189078
-26.87546 47.79879 -1.099098
-24.46386 65.79712 2.773476
-24.70994 64.0769 -0.5288231
-23.45787 61.71025 -1.751197
-3.361415 88.71589 -15.2489
21.88004 32.0473 -0.5105588
-10.95351 99.94883 -8.383977
-11.85234 97.64796 -9.461981
-26.30492 36.89486 4.104681
-25.20281 59.33902 2.926562
-25.98666 58.88295 0.5578976
-24.67727 58.03191 -1.525031
-20.72104 55.30393 -2.336771
-26.49246 55.0181 1.712746
-25.52057 53.31447 3.356964
-26.14137 50.76672 3.145228
-28.23938 40.91872 -0.5856717
-28.48372 40.99434 1.059818
-28.75107 38.59246 0.7946678
-29.40897 32.30008 1.98585
-29.39473 33.06603 -0.6081631
-28.8345 28.55345 -2.252511
-29.96342 30.13603 -0.02229749
31.19198 27.91857 -2.187719
28.42673 27.89706 -8.215517
22.09498 91.25485 -2.844411
19.18188 87.06453 -5.23039
21.2811 88.13252 -4.28312
6.876151 103.3894 -12.41933
14.13255 100.1745 -8.658051
21.08412 81.28671 0.3542033
24.23359 74.16943 -0.2870305
-13.50303 97.79204 -7.468948
-14.22076 81.13543 -2.271708
-16.13138 73.83011 -0.8549486
23.85017 60.65977 0.5392032
-13.96961 26.61962 -10.90495
25.32493 66.81924 -0.3645837
25.12393 68.42909 -0.3722927
26.34346 56.83422 -0.07154853
26.75219 62.55243 -1.701092
25.88587 59.26625 -0.04072725
25.04756 50.05329 0.7522436
26.10402 64.79525 -4.68596
25.58849 65.27459 -5.477966
22.01202 70.93728 0.4022139
-27.67655 29.34869 -2.859398
-22.81414 31.70448 -3.265387
-17.69602 32.50837 -3.762518
-27.06149 47.86794 -0.8396909
-11.53357 101.072 -6.66186
-30.23027 26.7234 1.793479
-21.0285 59.56488 -2.146907
-29.2765 30.91335 2.557275
-30.6348 25.39141 1.250082
19.30871 85.55671 -6.124087
2.843076 98.8711 -13.33623
4.406375 98.2111 -14.00122
1.802661 95.38967 -11.70569
1.490984 99.53694 -10.74601
3.196926 94.72505 -13.96503
3.721256 90.1968 -14.53601
6.101205 93.22318 -15.15989
5.267436 96.28392 -14.49888
5.577598 92.46709 -15.20084
11.56857 92.09534 -13.89635
11.23856 88.45401 -15.20358
3.014818 88.99818 -13.17118
8.328077 103.605 -11.49123
9.505642 102.7352 -7.759017
24.19523 79.83496 -3.830507
-14.60149 96.01649 -7.911013
-14.96233 90.92235 0.600322
-14.95834 91.2234 -0.7532777
-15.99297 92.2945 -4.585465
-15.36524 91.99496 -9.165309
-14.10318 30.06127 -8.589307
-13.54311 25.43902 -16.21743
-13.8485 28.76253 -12.49253
-13.91582 26.14547 -12.78667
-12.48755 24.90925 -18.55809
-13.67005 30.74088 -14.4609
27.21993 59.05758 -1.9141
21.04165 48.42216 -0.5120341
19.35597 56.16943 -0.8483936
16.97473 53.11487 -0.8188029
14.58511 51.56393 2.909559
25.56819 71.98021 -2.09437
22.8907 68.64983 -8.230808
24.26396 69.09547 -6.553557
25.25938 74.32092 -2.745934
24.61185 78.89063 -2.336677
-26.52058 37.73124 -2.650799
-23.97879 38.52694 -3.125684
-19.96462 36.42682 -3.051494
-15.48882 34.42525 -5.136157
-15.54406 37.19446 -4.809006
4.681537 29.8093 -18.44699
-22.73585 50.50387 -2.65112
-4.896043 89.66358 -15.46651
2.807367 86.78023 -11.93509
0.4884653 89.28022 -9.953454
-7.177984 87.47203 -15.61776
-9.311764 86.64368 -15.24188
-11.10591 84.28917 -14.70293
-12.32745 88.15796 -13.1793
-11.49248 79.15527 -15.21514
-12.95877 85.60741 -13.04095
-4.529734 80.79472 -16.44433
-10.61975 77.81088 -15.97729
-13.5252 82.19882 -12.93784
-8.835989 80.078 -16.40593
-0.3482379 92.3427 -11.48852
-22.55738 58.46093 -2.186416
-24.52303 47.36623 -2.615081
-19.50766 51.63185 -2.440327
-23.2645 48.38393 -2.730937
-17.94704 48.05833 -2.715351
0.7763643 95.77142 -9.225377
9.788481 96.66723 -13.36084
9.656805 98.15077 -12.61121
8.969717 103.2821 -9.419784
-15.28924 97.55904 -3.584927
-15.85885 89.11261 -5.457263
-15.09308 85.00425 -4.85203
-12.73515 95.12023 -11.19201
-14.49933 88.09467 -10.81228
-13.74928 32.58062 -10.61456
-13.70336 32.9188 -11.82183
22.6316 49.08464 -10.48945
16.8565 54.99624 -0.7658933
-21.74517 37.11074 -3.091986
-17.56856 37.36356 -3.465017
-20.93694 38.91544 -2.996735
-18.31325 40.29513 -3.055474
-15.2154 40.87101 -4.822561
-13.48581 40.36974 -11.69997
1.162388 30.28609 -18.26524
2.018353 32.33236 -17.87438
-7.312198 33.69928 -21.02302
5.175767 32.68263 -18.41374
6.466756 29.46254 -18.95762
7.155935 41.14443 -18.43999
5.503027 36.06948 -18.11434
1.424698 36.98341 -17.27459
10.83909 28.79596 -19.62009
12.75794 28.74225 -19.2126
10.92673 27.19729 -19.66675
12.0094 26.10774 -19.48181
-3.356712 89.2873 -15.17094
-1.100112 89.48075 -13.17497
-0.2940041 83.17739 -11.20105
-0.5293586 82.33961 -11.49212
-0.01608511 80.55523 -11.3547
-3.4874 77.68055 -15.88143
-3.368777 78.48174 -15.72672
-15.99591 89.62279 -7.501869
-14.77725 86.69352 -1.540527
0.3685074 90.97181 -9.832299
-22.50383 50.76022 -2.640954
-20.70512 47.87729 -2.653639
-22.79667 44.79652 -2.890444
-0.3565319 92.897 -10.87074
10.66732 87.18802 -15.6149
12.85404 90.98089 -13.75134
17.48279 84.13992 -9.315841
-0.7409862 75.11472 -12.34317
18.16672 81.22932 -8.261536
14.35406 86.39869 -13.68231
15.63295 83.62264 -12.72205
16.00043 77.90487 -12.49728
17.39748 75.82921 -10.77702
17.83086 75.92983 -10.33541
-13.68577 35.39497 -9.751274
-12.70614 32.44056 -17.67762
21.52083 55.60908 -0.02359348
23.41028 50.01696 0.5394185
19.37883 52.8528 -0.9228252
17.00666 51.93162 -0.7843344
23.29706 76.18533 -6.386059
24.20897 77.58373 -4.640216
22.58803 78.42158 -6.545854
22.86248 84.55088 -4.619339
23.70988 84.85963 -2.540049
-15.52902 45.086 -4.016438
-16.35943 46.45728 -3.39011
-13.8898 38.4775 -7.573539
-13.72257 40.92562 -7.816619
-13.44297 42.76497 -10.57622
-13.5649 37.2143 -12.01323
7.067598 25.73353 -19.34193
-1.718499 92.62132 -13.97092
-1.98413 86.61569 -14.22255
-3.139152 85.75387 -15.43524
1.885743 78.71725 -11.87181
2.420558 73.70915 -12.99997
-4.106205 78.31178 -16.31915
-15.15419 91.35201 -9.51975
-0.2614485 95.25835 -9.576676
-13.66232 54.31065 -5.647318
6.883702 88.32674 -15.99212
10.09158 83.06667 -16.38891
4.369527 85.20005 -15.19606
11.63813 80.5334 -16.27445
3.736448 80.28146 -14.41209
5.245842 78.72652 -16.07242
3.510995 76.98298 -14.07627
3.141345 76.26326 -13.80628
16.24195 73.95847 -12.83613
12.21523 75.22077 -16.81291
19.12169 75.58099 -9.505857
-13.36287 42.00324 -14.50373
-12.92692 41.68877 -16.5379
-11.40781 35.14626 -19.31579
23.51952 48.02397 0.5537201
21.18814 75.09636 -8.440902
-13.53041 45.30108 -7.78035
-13.44901 43.99037 -8.956628
-13.38093 49.55474 -8.028169
8.0379 36.94904 -19.06545
9.162286 38.49142 -19.25968
13.11016 34.38345 -18.94244
14.83488 34.22766 -18.05726
13.63721 37.06913 -18.63008
18.10436 36.90649 -15.40423
20.84194 34.99191 -13.24248
20.45631 35.5056 -13.51717
26.83623 28.46125 -9.458443
21.75781 31.7455 -12.78554
26.21801 37.7345 -8.911815
25.60371 31.24572 -10.06959
25.19862 35.72091 -9.907912
25.04183 41.20553 -9.42601
28.60927 37.64697 -6.606448
28.82197 35.05608 -6.763733
29.62183 38.60001 -4.556681
27.946 42.72443 -6.553559
29.68696 40.27147 -3.339674
-14.78863 83.03467 -4.96752
-14.48167 80.73965 -1.323715
-14.62755 78.51408 -11.18383
-15.21406 81.97118 -8.568752
-14.72984 77.47928 -8.974514
-16.70753 55.59401 -2.511182
-1.237011 99.84709 -9.261619
11.10807 72.32613 -17.44705
10.67991 75.11605 -17.27901
7.284192 72.15667 -17.43809
-2.635558 68.75952 -14.6943
19.44403 75.12913 -9.476456
21.13121 78.23193 -7.652929
-11.91176 34.2698 -18.82497
24.16594 43.50652 0.66299
22.5248 39.86874 -0.01268203
23.67703 40.29178 0.4508205
30.73115 30.84941 -1.734656
30.88564 30.5364 -3.163158
30.25319 30.85368 -0.6779898
28.94318 33.3278 0.3886681
29.07983 36.22315 -0.08385079
