# .PCD v0.7 - Point Cloud Data file format
VERSION 0.7
FIELDS x y z
SIZE 4 4 4
TYPE F F F
COUNT 1 1 1
WIDTH 1662
HEIGHT 1
VIEWPOINT 0 0 0 1 0 0 0
POINTS 1662
DATA ascii
9.818807 87.40678 -7.165731
4.203989 108.2184 -6.469263
-0.9292647 110.4575 -6.24911
5.137761 105.6571 -6.567951
13.11731 66.65319 8.817605
2.54552 103.8898 -7.662124
12.82775 115.5398 2.007025
11.85775 116.5766 3.236306
1.561979 72.03855 -5.246508
0.7474626 61.93802 -2.542432
1.893954 66.47629 -3.135993
1.436917 114.2298 -7.409636
5.069023 115.51 -4.92704
0.1754006 101.1377 -8.856979
12.21104 99.50979 -2.845952
0.6655492 76.37518 -4.439438
3.776848 79.46506 -6.265581
1.817338 86.41656 -8.305741
2.077557 99.94247 -9.213434
14.34644 66.56232 4.754865
14.29274 67.14334 3.550344
13.56429 65.22293 1.447388
1.537547 108.1199 -6.61524
11.64779 115.6563 2.234392
10.88552 117.1071 1.810414
10.63748 114.7835 2.775814
10.77628 65.33556 -1.865806
3.459048 62.63912 -2.638606
7.990352 62.73784 -2.570879
-0.6155578 113.192 -6.933366
2.879145 113.9155 -7.200046
-0.3552355 102.1496 -8.514797
13.62026 96.26513 -1.182902
15.43842 77.18188 4.286039
0.9640868 77.86201 -4.498049
1.346934 80.03735 -6.559924
1.977761 82.57899 -5.787353
15.05919 88.45749 0.5460189
1.219302 90.41643 -9.943989
1.143448 94.57313 -10.01677
14.63097 71.71744 5.326971
11.98129 111.4335 2.811095
-0.5091842 110.3536 -7.36736
8.663407 116.3518 -4.121354
10.56763 117.1726 2.796566
10.44178 115.7316 2.411178
10.22068 62.81247 -1.981981
16.01313 75.94094 2.073886
-0.2745126 69.32761 -3.294633
1.102033 66.4048 -3.125561
-0.5238773 112.5217 -3.845756
6.789757 113.7944 -5.164192
12.37651 109.201 1.317133
13.28232 99.79755 0.5882828
15.16945 79.93208 2.355787
16.46621 81.46582 0.6008786
15.652 77.1823 4.453916
1.442486 78.34836 -4.688105
5.072539 76.68781 -4.711156
4.88643 76.43848 -4.62276
3.255174 79.73303 -6.610343
1.399721 73.91665 -4.023221
4.728242 74.58801 -3.767349
6.011391 74.33944 -4.366051
2.757066 83.38855 -5.679652
1.009273 86.06234 -7.984965
14.62661 96.57175 1.256717
14.95522 89.21272 0.2966492
14.62954 93.60516 0.9122748
13.82177 92.69482 -1.560012
2.003585 87.54882 -8.974797
0.75472 87.90233 -9.165172
-0.1227214 98.93906 -9.466221
14.68903 72.98302 4.223181
13.49185 110.0873 -0.2562948
2.077587 109.4668 -7.541666
0.5773045 103.4963 -7.972477
8.170526 114.2856 -5.382672
11.53228 115.0239 -2.076354
9.794237 116.0901 -1.701584
11.58047 111.9857 3.315313
10.8893 113.9767 1.462443
12.96807 65.21852 0.4084922
14.88854 74.75354 -0.3942653
0.502546 71.70767 -4.957324
5.603747 64.51202 -2.901515
1.614839 69.66059 -3.308185
-0.1580286 103.0908 -8.163947
13.22149 103.6122 -0.3666708
12.89585 99.48041 -0.9122714
12.71038 99.26744 -1.522458
15.24497 76.58844 2.824208
15.36618 86.47106 2.2232
0.5167619 72.11574 -5.332458
6.63517 78.92038 -5.095577
2.021662 85.1376 -7.166992
14.77911 96.08116 -0.277715
13.9353 86.76841 -2.233381
13.87364 95.25109 -2.328094
1.784663 91.71494 -10.08067
2.227449 100.5254 -9.040131
12.25165 108.8255 0.9293128
3.267595 105.0767 -7.003247
1.738803 104.7664 -7.158212
5.743155 113.5621 -6.31143
10.94743 116.7863 0.2690436
9.103806 116.8205 -0.5757379
10.81646 112.4077 0.6658905
10.06849 63.62212 -2.128139
13.42791 66.08585 1.096975
14.20078 68.95237 2.674882
14.00075 73.12626 1.317889
5.920243 73.19267 -4.785163
3.37459 69.19215 -3.347449
2.617893 67.82473 -3.241637
1.62043 110.4855 -6.004942
12.80924 104.5602 -0.9198827
12.7189 107.5898 -0.1433801
13.4484 111.0951 0.8343884
13.17239 111.2088 1.103821
10.79567 104.0727 -4.619967
15.49332 78.45751 1.996986
14.92006 77.35905 1.593852
15.31533 79.96994 1.061819
15.33515 78.30122 1.559805
2.196781 73.17326 -5.419695
5.061759 71.86504 -4.677726
5.115968 80.2355 -6.748992
5.376688 79.27857 -5.664695
2.969025 84.88888 -6.986481
14.35801 94.70692 0.5194089
13.70433 90.72151 -2.463346
4.189352 100.7504 -8.990663
14.46887 68.65123 5.516654
14.56825 71.71329 3.715534
3.407311 108.1271 -6.455163
8.917569 114.8037 -3.188272
9.614612 115.5132 -0.1384804
9.776707 67.49427 -2.645777
5.858008 69.85818 -3.490739
6.728441 67.65557 -3.298726
12.06653 106.5843 -2.024039
11.64932 107.276 -2.324964
11.01705 111.0727 -0.174222
15.3591 83.95781 3.949325
14.6037 75.45717 0.3686402
14.80403 74.3642 -0.6669251
13.41896 71.1839 0.3470888
13.88564 76.0032 0.1278549
13.39828 73.69031 -0.9719415
6.845486 78.1705 -4.726515
5.411459 83.88956 -6.310475
5.144311 81.2749 -5.765945
6.440797 81.65174 -5.63656
7.007643 82.47945 -5.803222
7.817567 79.43943 -6.478096
10.40057 93.85139 -7.288553
13.25291 94.6603 -3.495548
2.230446 101.2954 -8.80032
4.240814 96.86476 -9.800457
2.045631 95.00132 -9.978173
12.96556 71.01926 -0.3163794
3.681607 110.2824 -4.594835
2.749531 104.243 -7.450063
3.516318 115.1656 -5.302047
10.35434 116.216 -3.119761
9.423261 116.3014 -0.03387191
9.610602 113.952 -1.772867
7.966935 115.56 -1.803798
8.364094 112.3837 -2.894859
7.284614 67.15874 -3.210682
3.333288 70.18126 -3.390453
12.69876 104.4984 -1.196929
10.55927 110.8861 -1.161535
13.87798 76.36105 -1.682703
16.21974 80.89781 0.3259713
6.075392 77.51702 -4.591483
12.29716 92.79884 -4.376711
13.65545 95.91398 -2.130634
11.34298 97.09493 -5.172064
2.096054 103.3846 -7.946407
14.23221 67.80277 6.521588
4.173018 104.5928 -7.246034
9.326108 66.11256 -2.718733
5.507037 71.07441 -3.561124
4.010402 66.47207 -3.137575
1.591716 66.6954 -3.155157
0.4778461 64.20852 -2.870042
12.09505 107.9804 -1.377326
13.18762 74.43334 -1.644171
13.59742 70.84751 0.7647911
14.4008 77.92812 -0.2774089
7.030215 83.44859 -6.071214
8.852373 85.17646 -6.67786
12.71604 85.43707 -3.7751
5.98699 86.22729 -8.079346
6.843913 86.41774 -8.06559
7.909965 87.78919 -8.33057
12.17004 96.9576 -3.464288
3.772267 106.0548 -6.527699
5.276508 105.4425 -6.680547
8.811985 114.3199 -4.297515
7.749449 115.1822 -3.799679
7.453518 74.24063 -5.078748
8.264797 72.96778 -4.055909
6.809979 71.43449 -3.658328
11.26881 108.7623 -1.860461
9.801299 112.2975 -1.285951
9.251888 111.676 -2.206544
16.03957 82.29059 2.012699
14.96878 82.26046 1.347734
11.75254 96.76412 -4.420563
4.859478 99.46285 -9.297404
6.015252 94.79139 -9.860456
7.877388 107.0687 -5.293319
6.939857 110.9982 -4.035394
6.739542 74.47306 -4.575994
8.530877 70.72381 -3.480031
7.145933 67.14443 -3.223331
7.48596 68.92974 -3.466773
11.35775 111.0582 -1.923568
4.93951 87.45496 -8.855623
7.929389 87.00056 -7.98909
9.006119 92.39883 -8.618678
4.475743 98.17259 -9.587482
5.584693 95.26654 -9.898212
7.181122 95.13616 -9.441824
5.00579 114.1188 -4.969907
9.536856 71.75484 -3.251603
6.574155 105.5733 -6.390645
11.65943 88.21893 -5.495765
7.660959 89.55528 -9.156681
7.281363 91.95493 -9.575583
7.984209 92.38354 -9.329868
8.621802 93.09641 -8.867435
5.38882 110.3022 -4.511944
6.9372 114.081 -3.106473
5.614184 114.5377 -4.678188
10.30326 70.57619 -2.699527
10.48071 109.1599 -2.915286
6.454762 91.31426 -9.77145
5.738953 88.92445 -9.478248
8.651554 95.98041 -8.582763
8.956695 94.7064 -8.502623
4.936243 100.6231 -8.982799
6.349044 106.5644 -5.919578
8.239737 110.4516 -6.10183
2.4479 113.141 -6.416745
2.844972 112.9829 -5.922974
10.34038 78.08658 -3.772601
8.866693 74.85988 -4.388501
12.30188 71.15548 -1.164974
9.99229 70.21271 -2.857053
6.80646 97.67933 -9.227993
9.085027 98.73512 -7.686684
10.67162 98.93359 -5.860475
8.059925 99.39907 -8.228241
12.29546 101.452 -3.362665
8.353841 101.2578 -7.518342
7.948534 104.067 -6.714611
5.465581 101.0214 -8.779072
8.812447 108.2 -4.472677
8.234108 108.9249 -4.918269
5.118037 114.2913 -3.832575
4.996708 113.8576 -4.039763
3.900566 113.2034 -3.899177
2.862751 113.4643 -4.618088
8.079719 78.18968 -4.699161
11.24912 76.48459 -2.911274
13.70703 83.65312 -2.11007
3.777656 92.00495 -10.10411
2.441233 91.97585 -10.09522
8.836965 97.77586 -8.141541
6.492882 103.2758 -7.649492
3.945719 114.6115 -6.989882
9.741181 78.55427 -4.012642
12.05585 79.54381 -4.555206
10.18441 81.00609 -4.99507
12.31852 79.82678 -4.542314
12.13085 87.01694 -4.712389
14.47243 84.56347 -0.8754374
14.51962 81.58051 -0.1561775
13.10488 82.69827 -3.26033
11.55876 103.7878 -3.679299
8.431629 108.7957 -4.634109
10.06165 103.6366 -5.420825
12.8759 87.23767 -3.750379
11.95726 89.32794 -5.209232
12.53481 90.71377 -4.312937
12.50627 83.42799 -3.595623
12.51936 104.5794 -1.625756
11.64711 102.914 -3.671931
12.1945 103.1214 -2.766627
12.082 101.237 -3.749563
8.258557 105.8505 -5.968256
10.77803 109.5926 -3.691124
10.49824 108.0737 -3.342582
0.9602628 110.5361 -4.500878
7.511481 108.8872 -5.327909
1.527664 112.454 -4.272236
10.61689 110.7237 -2.567428
10.59689 110.982 -4.115307
6.182458 109.7397 -6.6383
9.285246 110.738 -4.157723
6.463608 108.7117 -5.991359
14.73865 88.52006 -0.5270113
14.27009 88.45026 -1.757648
15.26458 85.89007 1.555282
14.48929 83.98309 -0.6799217
12.95974 73.34174 -1.275724
3.203645 109.7258 -5.06938
12.10771 94.70864 -5.282599
12.7628 94.04126 -4.203291
11.09052 91.62726 -6.467736
11.4672 90.34959 -5.995164
9.499748 93.16611 -8.203357
10.59416 90.1284 -7.088117
12.24414 72.38146 -1.403084
13.26345 71.07959 0.0995404
10.12407 83.07885 -5.256177
11.29953 84.12966 -4.768147
12.33156 81.2327 -3.369708
3.296635 110.1832 -5.686141
11.16207 73.02074 -3.446985
12.46255 73.25928 -2.837686
11.50584 72.26389 -2.198314
10.66859 76.77456 -3.382196
10.81595 74.7173 -3.729427
13.22687 78.74782 -1.75233
12.83745 74.78308 -1.360117
15.26345 79.87061 -0.1374996
12.95905 77.08726 -1.635507
14.65934 81.17267 -1.855404
14.83284 79.9846 -1.881645
13.02228 80.35959 -2.956128
12.99632 91.15594 -3.541146
9.917541 101.7346 -6.108063
14.38599 74.33128 -1.099202
2.834317 110.315 -4.599288
3.754472 110.4467 -5.962884
1.233168 82.01979 13.24469
3.393558 95.94192 12.14524
13.79253 103.1182 1.63297
11.49297 116.2131 5.85374
4.582121 76.58003 12.29666
2.107325 85.2758 13.55261
2.116509 84.38933 13.60997
3.730926 104.0289 13.03913
4.19495 113.7789 12.68547
14.74427 95.55531 1.888821
2.511201 105.4634 13.89419
16.55442 83.07275 7.053886
2.828225 113.0765 12.97891
13.33327 105.4687 3.117653
3.665051 95.94003 12.49515
15.42422 85.01841 4.646244
9.312044 68.78743 11.58782
2.81778 103.7384 14.17145
15.43002 88.81993 2.954932
2.690019 82.08886 11.94072
3.270953 111.3408 12.96245
16.76715 83.72552 6.448754
12.73435 115.3602 6.152859
2.71295 98.99105 13.02052
7.911434 108.8939 11.19222
8.561579 99.62906 11.26903
5.651641 89.29583 12.00935
14.61629 92.26815 7.05695
13.38741 101.7278 1.754323
10.4419 92.38811 11.06781
12.93838 115.3257 4.818695
2.819346 88.03727 13.13387
2.237983 84.18679 12.49179
3.750437 76.7542 12.71135
6.783882 109.7223 12.16571
3.198606 112.4377 13.16832
14.59542 95.86436 4.608469
14.44044 72.25933 6.826497
10.14736 68.41283 11.3244
9.398561 115.735 10.9626
11.53099 114.6974 7.503771
2.975272 87.3407 12.63695
14.66808 82.41628 8.009432
15.41022 83.4334 6.177628
14.36474 97.12655 2.114047
4.519191 83.82304 12.22024
3.181043 85.26124 12.09222
5.121964 78.39393 11.95281
8.661016 113.6115 10.34835
3.09683 102.2747 12.8687
5.826578 111.1274 14.08294
5.590546 102.1333 12.10346
8.406631 71.5949 12.09319
14.3258 74.03203 7.537045
10.26228 71.23475 11.67016
11.9056 114.7413 8.269709
11.41864 112.5797 6.033502
3.998612 91.40572 13.55938
3.456154 89.41162 13.55495
3.491382 87.27304 12.5104
16.90391 83.43768 5.176971
3.652329 94.68462 11.29363
15.93302 86.05614 3.988307
15.37173 90.35036 3.451791
15.18291 96.62418 2.388248
2.093354 82.91808 12.03856
4.392718 83.31591 12.66983
5.285882 75.07325 12.26057
6.057318 74.59274 12.10549
8.950589 115.8166 11.13433
3.543877 104.811 14.51913
13.46138 109.4569 3.301103
3.917489 111.0837 12.75077
3.889288 99.89494 12.22114
13.52704 103.0989 2.034207
9.902716 71.60767 11.80484
14.89793 77.79005 7.217871
10.5568 115.1238 8.425512
10.35173 115.5674 5.703063
5.955643 89.89904 13.43404
4.114617 89.21438 13.66139
4.817444 88.21527 14.19458
4.721211 87.28279 12.94278
17.11971 83.00438 5.966191
15.95297 84.08681 8.873717
15.16378 82.19037 7.17623
15.47914 79.91466 7.70358
4.429415 95.71247 12.2531
5.945842 91.78167 11.58047
6.34432 95.06985 10.97774
4.395435 94.20628 12.3805
16.03791 86.94878 5.605743
15.41076 93.75638 4.749051
15.03446 92.84498 5.710515
10.62121 95.71822 11.50975
15.25727 91.77546 5.195232
3.083117 97.50953 12.13979
4.788338 99.0894 13.01556
3.479987 81.52827 11.93052
3.51045 82.19241 13.52907
5.991085 75.29704 12.04565
5.670806 78.58155 12.53529
7.548079 113.6816 12.4568
7.862016 113.3993 11.55638
2.236437 106.1821 13.51077
2.48305 101.9981 13.14
13.7969 110.216 6.53113
13.08792 106.6372 3.25841
2.734309 109.1756 14.23666
3.738734 109.0253 14.96148
4.230797 108.6274 12.81811
3.279995 110.4342 14.65892
4.844666 100.2159 12.09671
13.79561 99.14027 3.206697
13.96325 103.9443 4.395348
14.15904 73.58257 7.99014
9.288358 115.6356 8.286655
11.17696 113.8289 5.552472
11.02741 112.8716 7.891485
13.59802 110.9127 5.437115
4.977361 87.81904 12.72207
4.810457 86.12416 12.47425
5.761375 95.74664 12.11664
6.457405 95.87271 12.62661
15.23209 87.44933 7.15508
14.95997 84.59254 7.753279
14.7101 96.35143 4.190225
14.93809 97.24532 4.488663
15.53441 93.75824 3.620283
15.51497 87.58479 4.115708
3.142595 98.35858 12.65774
4.66296 82.77872 13.7141
4.635117 84.69038 13.04815
5.347381 113.0078 13.21181
3.775707 102.3232 13.34374
12.55707 109.3611 4.477718
13.6015 109.2351 6.408967
12.36207 108.8282 8.350409
12.45886 107.1773 5.853582
5.264376 112.0119 13.08585
3.841396 107.1161 13.77948
5.941638 98.62882 13.21324
6.13769 98.8314 13.01514
4.780434 101.5297 12.36125
6.697776 102.3776 12.58457
4.512297 104.116 12.9488
4.514906 102.6358 13.08934
13.01329 102.1959 5.633385
13.4341 100.4095 1.731206
10.48003 116.6148 7.449136
10.25079 114.7921 6.818294
9.417106 114.7874 8.237191
5.880026 87.29253 13.83417
7.051592 86.72115 14.14214
9.367172 88.10174 12.58859
15.64613 79.73757 7.707992
5.944624 94.57724 10.886
15.31851 83.57893 6.920234
13.2503 91.58319 9.192006
15.35719 93.77418 3.020322
4.96651 98.13561 12.32004
13.70001 110.133 6.982442
13.67789 104.5113 6.71208
12.76154 105.179 8.326184
11.97664 106.1895 7.698743
5.497876 109.765 14.04663
7.827207 97.36375 11.04244
8.325508 98.81303 12.5457
7.234011 98.22859 12.99244
7.389621 100.3742 11.27611
8.04063 102.0027 11.53852
7.472714 102.2039 11.87738
12.22771 103.2303 7.565902
12.31941 102.4188 7.232809
10.34469 102.424 9.999287
13.25985 102.9216 3.340526
8.535501 112.5978 11.09462
14.44321 86.00528 8.255177
12.87904 92.25454 9.423033
15.07035 95.22099 6.823232
6.826832 95.81778 12.31067
7.155429 94.86784 10.86258
8.19246 93.22681 11.70644
9.037569 94.35056 10.75462
13.00517 108.8872 7.470367
11.56458 108.7524 7.61846
6.329308 100.1948 11.57009
11.95701 103.9474 8.062904
13.02248 104.0423 8.587725
13.17818 109.8879 7.955689
6.1278 95.39886 11.23789
8.182828 94.33659 10.79534
6.278516 108.2063 12.81309
8.659077 100.1023 10.85935
10.61066 102.839 9.752571
8.962782 94.96691 10.69127
10.45825 93.94798 10.50216
11.49167 95.67503 9.933332
4.743735 109.4896 12.87713
6.845561 110.8805 12.95543
9.488681 99.53007 10.85366
12.054 105.4358 8.886137
12.09164 108.7267 8.59829
8.769603 93.06239 12.8279
12.67919 93.20835 9.445169
12.60661 95.06932 9.203415
8.396253 110.7747 11.85038
8.856418 111.7416 10.96554
9.251088 99.29602 11.68183
12.08268 109.8034 9.534434
10.48129 108.2406 9.7321
10.72 103.5195 10.81106
9.287396 92.80979 11.64068
7.765657 108.0636 12.26011
9.111173 109.1154 11.34058
9.397463 111.8158 10.76638
9.74762 99.42583 11.28407
8.877198 103.931 12.35611
6.914001 103.85 12.21392
13.58398 90.77164 9.050076
8.562589 97.18804 10.79204
10.68024 107.9814 11.96175
8.168077 106.9643 12.18478
6.705127 105.6791 12.02615
9.312413 110.3841 10.15474
12.76645 110.0812 8.393151
7.291534 105.7376 13.06595
9.894415 91.69071 12.43569
6.06784 92.44759 11.79902
7.912994 91.1909 11.35452
10.89387 91.31147 12.37013
5.388836 92.55341 11.65372
11.02168 88.58349 11.14003
13.68994 88.25867 9.144703
5.821408 91.05956 12.53029
8.825141 90.76528 11.36864
10.86175 88.84641 11.78682
13.17613 88.33131 9.715346
12.41946 89.54759 10.23654
14.1196 88.87463 8.578691
10.04738 74.35354 12.74838
9.584429 71.72438 11.89641
11.92121 69.10512 10.48052
13.33786 72.10016 9.459065
16.50927 83.8734 5.981491
5.846279 113.0129 11.76556
4.871249 111.9943 12.65921
7.043426 113.2205 10.81865
3.828354 104.1352 13.79582
6.15554 105.4772 14.32469
5.226834 104.8817 13.85562
7.987813 105.6945 13.15904
6.746675 108.2263 12.31322
5.758466 106.5493 12.77728
14.35234 75.27824 8.095935
6.017053 90.8571 13.50317
8.003305 78.68802 12.54351
9.920166 75.42274 12.94244
3.535503 109.8611 13.67154
15.52001 88.62959 6.946724
14.46394 90.57162 9.592395
14.19594 91.92004 8.012405
11.82275 110.931 6.757394
13.63758 110.6992 5.859095
13.96099 98.55782 4.828897
7.040791 82.11474 13.01884
5.209627 84.00939 12.69423
10.5027 83.68781 12.7834
8.294351 86.78584 13.76599
6.8669 84.0553 12.68159
9.921802 85.66113 13.56322
8.332481 84.3413 12.29638
8.696232 88.06427 11.71838
8.810797 86.81043 13.09297
7.228522 87.80424 12.76503
8.332952 81.62173 13.47722
7.06885 90.4171 13.52306
15.0925 87.85867 7.688249
13.60175 99.62281 5.547204
11.76772 99.86681 9.129783
12.51946 97.90927 8.535507
12.72332 98.57218 9.069136
11.20792 97.16402 9.70184
12.10829 98.76647 10.4218
14.11198 97.0958 7.267787
12.81738 99.02185 9.656192
9.857763 100.2998 10.36671
11.80306 99.45552 10.47776
5.272913 106.6525 13.2208
13.58144 91.10935 10.83804
10.74052 108.7701 9.199812
11.2274 109.1993 10.87167
11.11744 108.084 10.52297
12.30629 79.99702 11.02441
9.256437 74.61776 12.63181
13.08804 73.77885 9.874448
10.41862 75.78419 12.09493
12.47684 74.03394 10.54734
12.57444 72.46822 10.70475
5.152584 79.58105 12.64835
6.251329 80.45078 12.82648
7.092769 80.70499 12.39824
5.760909 81.08143 12.70836
8.546715 79.52337 12.4938
9.031347 81.24773 13.24835
10.63088 79.19746 12.83989
11.36121 78.34998 12.09647
11.58047 79.52338 11.51626
9.263762 82.01212 12.35422
9.283263 76.7355 12.45292
11.86497 79.16415 11.32724
13.88245 77.90302 9.017632
12.69077 80.3266 10.78872
14.25248 80.47187 10.28737
13.03852 78.23476 10.28357
12.83493 77.52337 10.73535
11.54809 84.5112 12.70502
12.28588 75.60249 10.84992
14.25199 75.80828 9.083409
9.687904 83.93494 12.53057
13.83185 81.9345 10.88067
12.36541 83.13886 10.95883
14.512 86.03524 11.07928
12.99941 86.92516 10.53137
14.48161 86.69686 10.50435
13.30234 84.32952 10.11585
15.66024 83.54195 8.4008
14.42606 81.77455 8.329421
14.63621 81.06661 10.11454
7.088922 112.864 11.368
7.690056 113.2559 11.26688
4.443756 104.5729 14.69937
8.461711 115.7283 10.097
11.23061 100.8917 9.226619
12.18664 87.36192 12.36545
11.33027 86.82067 11.61331
8.654348 90.15376 12.59577
13.18424 87.63401 12.06236
12.46526 87.63938 12.45788
12.98544 87.19394 10.08034
-15.28268 86.79676 1.809221
-11.38471 117.0548 1.809567
-2.655911 69.14781 -3.32282
-4.320766 79.34325 -5.184767
-7.043405 62.55255 -2.634689
-3.031787 64.81384 -2.951326
-2.493492 67.59574 -3.156284
-12.57991 113.7529 2.281596
-1.674067 70.73053 -4.049835
-5.524536 62.22305 -2.586965
-2.785528 110.1356 -5.963558
-8.291971 61.75557 -2.463914
-0.7800167 115.0286 -4.743099
-1.232208 99.66045 -9.31576
-0.6949642 95.36996 -9.957135
-9.837593 61.83343 -2.019296
-2.900106 115.4555 -3.896504
-5.296473 61.56433 -2.48755
-15.5927 83.07603 2.493806
-13.41872 65.60559 8.15649
-0.6211476 115.2663 -5.83547
-10.83041 115.5523 2.691315
-15.08443 74.1515 6.285929
-12.41576 69.73959 10.1831
-15.24169 81.78081 3.091334
-14.29006 74.26382 1.775745
-12.19197 116.3652 3.726198
-13.7698 66.99409 7.681567
-11.58144 115.5207 0.1103479
-11.63694 117.2153 2.443841
-14.00815 103.5199 1.177075
-1.550878 79.22613 -5.27775
-12.59607 114.0452 5.03968
-5.847838 110.1225 -6.650908
-4.59518 91.89075 -10.04844
-7.42646 64.91261 -2.968621
-4.232959 114.2825 -6.781292
-0.2765703 115.218 -6.07914
-6.00802 114.4573 -3.482199
-14.69537 73.14082 5.635706
-12.94038 67.29837 9.219313
-12.78755 69.71819 9.748854
-12.22552 116.2697 2.612541
-12.52419 116.7182 1.808206
-15.15606 83.86142 0.7231288
-0.2969882 87.98616 -9.231025
-1.167585 73.55978 -4.026857
-2.111549 99.82272 -9.279655
-13.3113 101.2496 1.234858
-2.437764 71.49556 -5.111265
-1.774153 67.15217 -3.138103
-13.54071 65.33494 1.409506
-9.801494 62.62892 -2.060316
-11.33854 117.2144 0.2399767
-0.4941028 115.0693 -7.005758
-1.3556 115.2172 -6.861294
-3.730159 112.7587 -5.730054
-7.253571 114.5552 -3.17829
-14.31134 66.8951 5.666405
-15.99039 73.82401 5.56048
-12.43955 66.26597 9.583868
-13.89732 67.8913 7.661244
-12.32414 116.5344 4.164105
-11.93803 116.0369 1.626982
-15.28984 82.30186 2.878361
-15.24394 85.80093 1.431034
-0.7904378 85.0723 -6.978265
0.4531008 79.2522 -5.783134
-1.091012 77.76572 -4.36539
-1.873189 93.84155 -10.0773
-14.57812 92.64688 0.9320326
-13.6145 97.84332 0.2801111
-3.215356 103.2894 -8.024775
-1.337816 69.16586 -3.271298
-3.856282 70.01264 -3.595458
-4.034547 64.25058 -2.878518
-13.64679 109.5135 2.457788
-9.527312 115.3649 -1.520844
-2.409422 110.2794 -4.832548
-2.2437 114.9873 -7.005019
-2.714269 114.8676 -4.853111
-7.274932 115.4288 -2.619319
-14.13099 63.68344 3.75597
-16.72775 74.96692 5.463318
-13.98038 69.55083 7.714887
-14.8322 76.42497 6.029449
-14.39938 67.76487 5.316921
-12.70182 114.0075 3.680739
-11.29966 115.2322 0.9995946
-14.77297 84.08014 0.1134245
-15.14893 81.09478 3.220191
-14.69779 79.57015 1.294395
-15.0596 87.59989 0.342279
-14.34371 90.15617 -1.778827
0.2798052 85.21537 -7.176184
-1.012993 88.41782 -9.39974
-2.757154 77.65835 -4.520274
-3.446049 77.13007 -4.305702
-2.020898 75.84631 -4.496157
-4.470309 78.06489 -4.916909
-2.508017 80.80486 -6.67718
-4.575815 91.59425 -10.02861
-1.581372 92.31598 -10.10443
-1.697555 98.29826 -9.591222
-13.7973 93.71556 -0.9570569
-14.17621 93.02345 -0.1089394
-14.05818 92.43731 -1.063343
-14.16554 95.87084 -1.117093
-14.10086 96.46384 -1.984867
-2.284866 105.4325 -7.124517
-4.000313 66.54149 -3.110993
-12.51127 111.018 3.942525
-12.71669 111.1755 1.49388
-10.12643 116.4862 -1.983998
-1.150114 110.6217 -7.115861
-3.059338 110.1024 -5.191647
-1.855777 110.2181 -7.606058
-3.526313 105.2545 -7.385395
-3.697797 110.8945 -4.950602
-2.18528 112.8908 -4.650036
-7.668379 114.8717 -2.495722
-14.22268 71.84392 -0.2468094
-12.51763 68.02026 -0.5074318
-14.22575 65.19122 3.632602
-14.00472 70.89943 1.65917
-15.14604 74.32788 3.803729
-15.5971 78.69324 5.22169
-12.03406 116.4823 0.002651799
-13.70011 84.73606 -2.323778
-15.82335 79.88546 2.663715
-15.17958 86.29799 1.039414
-3.695284 81.40303 -6.336183
-3.405277 86.83475 -8.511285
-2.992268 80.15321 -6.556206
-5.980548 77.64987 -4.813381
-0.6362599 83.43035 -5.660102
-4.555762 74.60953 -4.052828
-1.936347 89.51691 -9.750063
-5.022263 95.50538 -9.845399
-0.5406566 96.18546 -9.874774
-2.832331 98.89009 -9.475298
-3.04675 99.6431 -9.323952
-13.60735 92.88666 -1.885767
-12.84724 98.22605 -1.425256
-13.34358 101.8983 -1.046751
-2.419006 104.7093 -7.58837
-13.69497 104.223 1.405456
-12.66003 109.7872 1.374345
-13.32101 109.9041 3.646219
-9.760935 115.7179 -0.3948685
-4.960081 110.059 -5.713051
-1.388411 109.8453 -7.670205
-9.614863 114.8095 -4.131933
-7.813119 65.43539 -3.011891
-14.59961 71.39536 5.400688
-14.3813 70.18822 3.104971
-15.6176 78.53729 3.319129
-13.86857 111.9342 3.958153
-16.0361 79.85434 3.505315
-14.0228 78.83339 -0.2974692
-14.45922 78.15021 -1.186718
-2.281402 82.32096 -5.904558
-6.782676 77.22574 -4.577669
-6.991908 76.57416 -4.371978
-11.2307 77.94517 -3.97871
-9.882396 80.35262 -4.805447
-4.477831 95.97231 -9.875589
-1.324917 102.3439 -8.417054
-6.268776 100.1104 -8.854191
-13.60688 89.23108 -3.089851
-13.1336 94.25977 -2.707803
-12.74608 92.88525 -3.590247
-12.75867 93.79534 -3.415745
-11.00334 93.19476 -6.491334
-13.00102 92.42245 -3.268055
-13.14788 101.6998 -0.1629043
-12.41718 99.69408 -2.238952
-2.340396 103.0848 -8.139227
-4.069397 106.5447 -6.27351
-12.64722 108.0451 -0.2940131
-13.33646 112.0459 1.725125
-11.93998 110.9787 -0.3357813
-11.79912 109.9313 0.9284621
-7.296238 110.3555 -6.10481
-5.625034 111.5877 -4.116579
-13.44873 69.56161 0.6863171
-13.5708 67.58989 1.205152
-16.00536 78.60548 4.227966
-14.68008 77.34494 1.441017
-12.75087 114.1521 1.391431
-11.80374 112.9503 2.897431
-11.14648 116.5439 -2.146642
-11.2897 116.0273 -2.335787
-14.14934 83.91149 -1.470349
-3.827988 87.95853 -9.136943
-4.174374 79.699 -6.185819
-3.479638 82.52415 -5.812595
-6.11502 75.88264 -4.352733
-8.15625 74.35424 -4.290208
-1.664225 101.6593 -8.689707
-12.92507 100.1856 -0.7369351
-4.8331 104.6843 -7.402099
-7.20254 107.6629 -5.496901
-4.72636 112.2863 -3.915729
-12.68579 112.3161 3.50581
-8.959888 116.1965 -3.069216
-8.073424 111.5201 -3.129738
-7.188045 115.3536 -5.488814
-14.59741 84.56833 -0.5198495
-9.729736 76.75555 -3.857749
-9.37298 77.89518 -4.752387
-5.056284 93.50386 -10.07794
-12.77734 105.2436 -0.4885525
-9.857899 112.445 -1.136072
-9.835892 113.7869 -0.8404081
-12.34899 85.96963 -4.29226
-10.99901 75.16505 -3.538913
-4.893893 73.69002 -3.740913
-10.32715 113.527 0.3407456
-9.695943 112.3344 -1.441814
-11.79473 79.63832 -3.365419
-10.9027 74.78164 -3.532798
-11.61757 74.84724 -3.070512
-13.82463 78.28454 -1.529425
-4.236693 112.9712 -4.491405
-6.656234 113.1877 -5.947968
-9.43736 111.0011 -2.855933
-13.2319 82.64487 -2.558258
-13.3357 74.90333 -0.7418388
-13.24242 73.99446 -0.3954657
-12.64779 78.76431 -2.595046
-5.473385 112.6717 -3.800699
-8.735724 113.7001 -3.368196
-7.147218 111.909 -3.627683
-5.720261 113.0288 -6.101036
-14.52458 75.86913 0.03086743
-13.37556 77.96567 -2.370146
-9.510455 113.5982 -4.485444
-12.93038 77.44637 -1.696207
-13.36075 68.60896 8.817281
-9.960072 64.5657 -2.31255
-10.28454 64.6882 -2.124498
-4.360776 67.71546 -3.181766
-11.73524 65.28841 -1.12185
-10.69952 66.54742 -2.0422
-4.425656 68.10836 -3.201176
-9.950248 66.02056 -2.42608
-6.316492 69.79325 -3.50219
-6.651029 69.91625 -3.52426
-8.796215 69.80235 -3.294623
-8.437395 70.70546 -3.482648
-10.00799 72.31809 -4.166468
-13.35738 69.09335 0.5751154
-12.50188 69.92989 -0.752304
-12.45454 67.53927 -0.5300874
-11.58114 68.94231 -1.641543
-8.260294 71.87009 -4.589807
-11.41662 70.69817 -2.093315
-10.6449 73.0617 -3.648081
-7.182892 70.64518 -3.824594
-5.655176 71.46815 -4.855674
-4.786593 69.98835 -3.579765
-5.723899 114.8477 -4.390135
-6.362401 115.8786 -5.488585
-14.44998 69.28683 5.871906
-14.45601 68.45113 4.432249
-14.93019 76.87021 4.057417
-15.70015 74.93162 5.229671
-3.548437 88.29478 -9.323771
-15.12136 74.17591 3.096137
-12.00038 113.8439 1.058355
-11.29852 112.9468 2.62309
-12.91724 111.8202 0.6690506
-10.0022 113.0282 -0.5890608
-10.06969 111.2008 -2.224654
-11.14963 109.2167 -1.836078
-11.35388 110.7387 -0.19046
-11.7981 67.7068 -1.289477
-14.77307 73.16686 1.407486
-12.16796 72.67464 -1.779956
-13.74846 71.0431 0.9557444
-12.62146 73.18567 -1.105906
-12.03752 72.3489 -2.756715
-11.27131 72.64984 -2.656764
-12.90995 81.50797 -2.724808
-13.08253 80.15144 -2.13632
-12.44895 79.86789 -2.840369
-7.106026 80.65763 -6.172212
-11.06939 81.99606 -4.459119
-10.46388 82.34831 -4.974675
-10.25432 81.28143 -4.820632
-7.827756 79.29976 -4.952366
-8.425185 77.60718 -4.980167
-6.653328 82.92902 -5.841009
-7.437038 80.65205 -6.12907
-8.30267 83.89839 -6.144704
-6.960785 84.23762 -6.532495
-3.512362 84.57098 -6.498958
-8.447144 82.73895 -5.673313
-8.00601 100.4282 -7.96543
-6.675379 98.07114 -9.204661
-9.197422 94.39629 -8.337882
-11.52921 99.88995 -4.197808
-4.064668 92.47314 -10.10702
-5.106677 92.0957 -10.03533
-7.152155 108.1048 -5.098225
-10.46351 110.4904 -3.945323
-12.39026 109.0802 -1.52378
-12.81463 108.2119 0.6675899
-11.82164 104.7625 -3.164496
-8.300397 110.8183 -4.839142
-11.45205 64.58317 -1.25513
-8.724042 74.24191 -4.12213
-6.612948 89.44976 -9.496644
-4.918357 86.70705 -8.426948
-4.945075 85.02982 -7.038939
-7.057226 88.25585 -8.94464
-7.589514 88.12099 -8.659555
-9.135247 90.16406 -8.462815
-8.646746 87.79347 -7.992254
-10.08097 91.12321 -7.675108
-8.427006 88.86164 -8.612
-10.81858 91.9143 -6.80522
-12.34781 89.77054 -4.602564
-9.428562 86.5787 -6.948021
-11.52933 89.88287 -5.864787
-11.39189 87.59874 -5.847025
-11.57498 90.33183 -5.809444
-15.12935 72.47084 0.8028711
-6.253746 84.64062 -6.733419
-12.90697 101.6842 -2.564017
-9.821367 99.00617 -6.967275
-10.50052 102.63 -5.211512
-7.144433 99.89935 -8.584502
-6.104199 104.2531 -7.251329
-10.66183 99.05817 -5.839833
-12.36917 104.3709 -2.087794
-10.41535 103.2679 -5.197493
-8.280265 95.37559 -8.830478
-9.699412 97.45962 -7.448982
-10.34059 101.7331 -5.669495
-9.606181 103.1938 -5.941377
-8.236384 102.468 -7.19527
-10.92639 93.56516 -7.288548
-10.72313 92.8485 -6.94573
-8.4105 102.8273 -6.956653
-11.55557 100.0347 -4.269822
-11.43242 103.1574 -3.997746
-6.553988 103.118 -7.69145
-10.64407 97.02046 -6.328284
-11.12553 103.8784 -4.244993
-12.02347 102.8275 -3.157626
-10.25951 92.88561 -7.541396
-10.16299 108.7822 -2.986194
-10.96609 108.2753 -4.079737
-11.66982 107.2688 -1.958321
-10.73584 106.4525 -3.662982
-10.88892 107.4542 -3.555316
-8.857278 111.0152 -3.181751
-9.70302 86.3417 -6.699106
-13.23882 96.25873 -3.09528
-8.638713 105.922 -5.529116
-10.26652 106.277 -3.999561
-11.15988 96.4733 -5.633541
-8.829939 109.1413 -3.953015
-6.822777 106.0594 -6.622993
-7.156086 106.4816 -6.568585
-14.41327 74.83086 7.812551
-9.65626 77.17591 12.2679
-15.43203 86.06783 3.470516
-5.517733 96.07404 11.51499
-4.380702 76.66531 11.85886
-8.174079 109.5144 12.72931
-9.752347 68.554 11.45575
-2.568607 112.8152 12.87342
-2.439786 82.77618 13.92635
-15.96406 80.2943 5.918651
-10.60788 114.1878 5.811079
-12.23113 111.519 5.32104
-15.15382 97.84973 2.315707
-12.009 116.5706 5.9968
-7.84206 109.36 12.60031
-7.663682 92.21664 11.21216
-2.495801 81.32538 12.25884
-13.44556 92.82504 10.01165
-13.99051 72.74137 8.329429
-6.357687 107.3549 13.05771
-3.758759 86.24831 13.64877
-13.83187 79.59876 12.30545
-3.757321 93.43231 13.0343
-1.436029 110.3912 13.98775
-9.726475 104.1578 10.62379
-3.805413 113.9452 12.38936
-1.52457 110.4535 13.07837
-2.607282 98.53468 12.66102
-8.945404 69.99623 11.85947
-2.861506 95.729 12.71726
-15.52687 82.8643 3.659766
-11.92519 69.58871 10.56072
-11.1225 70.37547 11.19808
-12.65991 114.1634 6.50991
-7.817611 112.0073 10.3723
-10.84891 116.0836 4.571941
-10.8162 113.5194 6.25686
-13.19064 102.3248 5.689524
-14.40109 74.49613 7.579107
-5.153162 77.23338 13.20157
-3.623341 82.71338 12.83783
-3.534586 114.7304 12.62005
-1.981086 110.9374 12.97179
-14.84086 77.12469 6.164953
-7.31439 91.89804 13.17668
-14.76609 94.07539 2.617804
-3.787088 97.46806 12.48634
-16.12002 76.66773 9.426064
-10.18091 73.57455 11.97952
-5.514441 75.71657 12.42875
-3.357751 103.2593 13.49076
-10.45757 116.2871 9.269933
-12.76581 114.5736 5.380239
-13.54564 100.1674 2.680297
-3.91922 102.5818 13.89751
-3.204269 84.7993 11.93805
-3.966541 77.39395 11.72688
-4.705173 77.74612 13.11843
-2.229418 83.39462 13.88576
-3.981486 82.22929 12.81961
-6.996055 80.9212 12.33348
-5.184027 115.422 11.6915
-3.807826 111.8269 12.67898
-4.397364 108.7738 14.15164
-1.719369 108.6578 13.9934
-16.52596 79.58887 5.417097
-15.24899 76.12076 6.859335
-3.846594 90.4432 12.5964
-15.43548 86.00143 5.172966
-15.43393 88.30634 3.001996
-4.683128 93.30772 12.93367
-4.550248 94.4758 12.43252
-8.520301 73.90941 12.63777
-11.91492 111.1755 4.842328
-3.437417 103.5461 12.87678
-10.61626 116.2417 7.885965
-10.58555 115.0215 4.908546
-13.39453 112.8706 6.737473
-13.86138 98.89215 2.411538
-4.71806 98.67222 12.28629
-3.585434 86.72795 14.20756
-15.31104 77.2804 8.347163
-6.098441 75.10122 12.50641
-4.481976 84.17078 13.05564
-6.986823 113.7217 11.02789
-7.511614 114.7791 11.81424
-3.408662 108.3316 14.59554
-3.28914 106.5666 13.36495
-15.86611 84.01865 4.344678
-16.04212 80.14447 7.301864
-15.6169 80.67339 7.288132
-15.2926 80.72145 7.373079
-14.63727 77.91653 7.156059
-5.112843 87.93113 12.27532
-4.831896 85.70625 12.26866
-4.42552 90.03286 11.64189
-3.733909 90.33119 13.19696
-14.79982 94.83717 4.426137
-15.46507 89.79501 3.809069
-15.96173 90.95308 3.829167
-15.4596 92.46046 4.861588
-15.936 91.13136 2.693972
-3.981625 93.52204 11.85144
-5.71302 92.31765 12.90172
-6.996869 91.16644 13.57344
-3.560642 96.45766 12.68978
-15.21617 97.73329 4.178485
-12.3351 111.3634 4.939342
-2.040334 103.8958 13.63659
-5.51414 105.5229 14.04644
-8.535131 102.5577 11.96503
-2.688379 105.0559 14.85859
-13.54175 100.4567 3.870079
-13.31065 100.9563 5.391384
-13.30878 101.7177 4.777426
-3.270412 99.37802 13.30057
-7.11908 99.89403 12.33311
-4.617979 96.57881 12.42203
-4.471431 97.66469 12.13021
-3.286695 100.1556 12.24571
-15.07944 77.09665 8.11552
-15.10205 77.54613 8.94256
-5.713564 78.11433 13.57165
-8.385693 75.10558 12.68634
-6.997063 75.77184 13.1404
-10.90202 73.42093 11.60474
-5.84288 80.99277 12.19893
-2.220651 105.5267 13.47799
-4.60386 109.2821 12.99633
-5.066628 110.771 13.36958
-15.11841 83.61485 6.287506
-15.36588 88.35239 5.422112
-14.35442 91.3792 7.88803
-15.39728 87.10021 4.507859
-15.44818 88.59564 3.314744
-7.061067 90.59179 12.25406
-14.51314 98.49029 6.445328
-12.97329 101.5479 6.226918
-12.61033 72.97583 10.38537
-13.9597 75.61185 8.748555
-3.74994 102.4626 13.28952
-12.83061 106.7485 5.347488
-6.670085 97.63801 12.83448
-6.722326 96.84441 12.88519
-7.380692 74.62218 12.82126
-12.60934 76.65692 10.67233
-5.559029 108.1576 13.13103
-15.44531 85.90308 5.276731
-15.33578 88.28844 5.565379
-14.87163 87.58797 7.146403
-14.51095 96.02477 3.670357
-4.099375 91.50503 12.40443
-8.347846 91.62268 13.05338
-9.332634 90.2485 13.44974
-6.908834 89.78957 11.59799
-7.367917 90.42929 12.38317
-14.23 97.34893 6.035728
-14.35218 96.8331 5.24895
-3.347004 102.2605 12.64434
-7.243117 98.5687 11.75175
-7.177622 96.69267 12.68564
-8.416384 97.48483 12.44115
-9.222262 96.15683 10.98511
-12.98764 78.79575 10.5391
-10.77077 77.96348 11.99785
-9.325566 79.51583 12.45231
-8.620827 84.61761 14.24185
-14.88351 78.30466 11.08025
-12.82033 77.32396 10.62859
-14.95674 78.77191 10.77722
-6.710882 85.2962 13.58878
-5.67722 85.68115 14.82363
-13.51874 83.53735 9.932849
-14.51208 95.81883 5.602502
-11.53765 75.20066 11.37976
-7.557543 79.46603 12.45682
-13.45503 76.19736 9.531763
-6.384324 109.4887 14.19784
-14.73499 83.40644 7.581019
-13.34993 83.63524 10.98432
-14.58784 95.20107 5.805323
-5.91812 82.86812 13.55743
-14.75884 77.5481 10.88917
-9.577863 110.5723 12.27949
-14.00671 84.59092 8.936935
-6.04173 85.31161 11.83792
-11.61942 81.12545 13.78491
-5.909278 112.3805 13.00242
-10.32304 89.68668 13.07015
-14.17551 82.12276 8.816967
-12.16766 94.77666 9.593684
-14.18323 76.30822 9.535849
-14.587 87.02136 8.917794
-6.659117 110.7597 11.73753
-13.34162 86.31156 9.794945
-13.87712 97.37582 8.290127
-9.202943 110.2105 11.76633
-14.25059 94.33057 6.832938
-14.09269 95.4931 6.948933
-13.27936 92.41132 9.395357
-12.35176 95.52374 9.268492
-11.80585 90.57761 10.42694
-9.780087 96.62214 11.87521
-15.34467 92.49677 7.257336
-9.974015 92.62716 11.15095
-12.99408 96.99259 8.556531
-11.24684 100.5151 10.24411
-9.11095 100.0379 11.66061
-10.63463 98.26826 10.1008
-12.7724 97.22392 10.28327
-11.79389 97.44937 10.74111
-9.124763 112.0349 10.61434
-8.155212 110.0525 11.47255
-10.03557 114.682 7.10063
-7.911276 114.178 9.915069
-9.384574 115.0621 8.244328
-6.074 110.614 11.86638
-7.049468 110.6934 12.31361
-9.885657 113.4652 7.893724
-15.33648 78.45679 5.678994
-10.76906 111.6277 7.871172
-6.2012 101.321 13.14126
-5.31658 94.5761 13.15296
-13.21084 109.6628 6.64605
-4.007787 100.2559 11.99229
-15.16193 81.65004 9.863565
-12.92168 82.22435 10.67399
-12.02456 83.28194 11.25775
-12.24511 81.76751 11.04802
-9.010419 82.0899 12.93727
-12.64196 81.73666 10.79683
-12.95713 81.11141 10.44658
-11.62018 80.51381 12.32784
-13.37405 78.85743 11.03771
-7.086099 108.0223 11.88597
-6.663655 106.1666 11.99867
-8.17885 107.439 13.19385
-5.337783 106.7739 13.30822
-5.826452 106.8466 14.02031
-8.912685 108.3566 12.25116
-9.734064 108.5166 12.19438
-13.70974 103.8005 5.545672
-13.02623 102.4631 7.688631
-12.14492 104.7245 7.674966
-12.38347 105.3804 7.815365
-12.30678 108.3044 5.920506
-12.40302 106.4186 7.259994
-10.12116 89.28947 12.51321
-10.74788 89.25642 13.01454
-10.64953 88.82183 11.78758
-11.59933 88.56177 11.38962
-11.47775 89.10524 12.73917
-12.0224 84.70373 12.53602
-12.28322 86.32246 10.70736
-10.72356 84.73702 12.88452
-10.12615 84.91113 12.27193
-11.12169 85.5159 13.08823
-7.194189 85.81936 12.06142
-5.763414 89.36726 13.24865
-10.60444 82.95417 14.06039
-9.604775 82.83807 12.23178
-7.8625 88.17976 12.23717
-5.698057 89.19575 12.04529
-8.570874 84.20612 13.61001
-5.776592 85.38361 12.9975
-8.931879 82.55539 13.30243
-5.877011 86.92033 14.21027
-10.81446 81.09808 13.86203
-6.316317 85.96209 11.8806
-6.640802 88.6836 12.36738
-13.07069 79.81779 13.00457
-7.600982 84.42042 14.68715
-12.66983 81.09332 12.62276
-6.11414 93.25832 11.49027
-7.002545 93.94426 12.30509
-5.839993 96.41988 12.08615
-7.508635 92.82408 11.2219
-9.069102 94.56661 11.5005
-10.90678 93.7567 10.36604
-12.14642 93.30589 10.96073
-10.58227 93.08036 11.47718
-12.60876 90.20564 9.981611
-13.06008 89.40598 11.11161
-9.152903 91.897 11.04373
-13.62892 89.09566 10.59687
-11.16538 91.09653 11.58349
-14.22209 79.41302 11.52692
-12.59455 87.3774 10.51868
-6.721628 101.3926 12.11139
-7.511829 100.9631 11.71697
-9.129223 98.96117 10.97115
-13.55356 100.5397 7.473337
-13.13314 102.6999 7.647358
-9.72456 99.02245 10.62616
-11.01829 102.4867 9.354179
-11.09064 102.4044 9.347702
-12.30122 103.8511 8.638886
-11.38089 100.8078 10.57741
-9.886545 101.0064 10.88522
-11.55221 99.67828 9.012102
-9.920829 103.2845 11.24313
-7.890796 102.9321 12.16145
-10.44364 104.8002 10.88091
-8.046353 104.136 11.47475
-10.68735 104.358 10.22259
-7.092071 105.4452 12.20848
-4.639984 102.2802 12.33349
-6.664969 103.7988 13.14012
-7.330418 104.7399 13.50218
-7.553482 105.158 13.04575
-7.829424 105.4564 12.67243
-8.522074 105.9255 12.11608
-10.03019 106.1564 11.49282
-11.13906 113.0875 7.420402
-12.09498 112.9125 8.92706
-11.94718 111.8023 8.154769
-7.944948 109.963 10.83919
-9.566796 110.631 11.04124
-9.727324 110.343 9.482894
-11.95172 111.6162 6.787119
-10.23715 110.0096 9.239586
-7.438418 110.9204 12.04367
-4.335948 110.7728 13.60185
-5.28436 111.804 13.3265
-4.781921 104.1782 12.85436
-7.207856 92.52718 12.29671
-10.66967 91.27879 11.81619
-14.32018 98.01672 7.871709
-5.891895 100.8506 11.81697
-9.443047 107.1639 10.60068
-11.19419 108.7854 8.715308
-10.84945 108.5771 9.010187
-11.93061 109.3225 9.302245
-11.80156 105.3587 10.157
0.12004 117.5986 -4.413643
-0.3307043 119.6129 -6.462979
-3.087035 116.2038 -4.022666
-9.173897 138.1774 -8.607068
-0.1229348 130.0247 -8.14289
-0.4759639 135.8172 -9.1931
-0.1353839 141.5627 -8.742026
-12.37915 130.0972 0.8949945
-0.4135131 150.9119 -4.829329
-1.601288 150.4513 -4.859834
-3.934621 150.732 -3.236923
-12.9108 133.2411 -5.781218
-9.109956 116.1054 -0.5469111
-12.582 130.6619 0.4931152
-12.19521 129.8786 1.612535
-11.83276 128.5829 2.319369
-14.13417 133.7231 -2.846489
-6.85405 147.0671 -0.7016814
-0.7753205 147.5366 -6.383428
-0.1010531 150.4699 -4.996119
-0.027081 149.7711 -5.282094
-9.966052 118.1757 -0.447302
-11.66881 126.408 0.8848452
-12.75269 130.6982 -0.4549902
-13.02495 131.4522 -0.8171728
-13.20054 131.373 -2.420731
-0.8303714 125.0206 -6.343914
-1.729133 118.5231 -5.870315
-3.801654 131.8633 -8.692868
-2.09683 143.8109 -8.010372
-3.29398 149.8924 -4.438484
-6.290836 147.5765 -1.020624
-4.289316 150.1312 -3.199423
-11.53531 118.0372 4.895481
-12.44835 121.3119 3.659225
-14.23111 134.1096 -3.754353
-12.45435 129.5557 -1.799681
-11.44053 130.965 -6.216267
-11.37753 129.9025 -5.619937
-0.5354408 118.2469 -5.253251
-3.305538 118.0855 -5.192154
-2.245284 126.3452 -6.743223
-10.72219 137.1119 -8.165318
-1.123869 144.6903 -7.657169
-8.824018 145.9154 -3.879486
-0.3214159 143.0666 -8.271567
-4.586998 148.8872 -3.896286
-9.094525 116.9451 -0.5494087
-12.0955 124.183 3.274061
-11.47739 127.5178 -3.26957
-11.68974 126.3862 -0.01942277
-11.67416 123.1724 1.380728
-14.13626 134.7836 -5.624157
-2.172904 119.8603 -6.179022
-0.4671736 129.302 -7.863679
-1.748049 125.2016 -6.391757
-0.67214 138.1361 -9.232282
-1.203243 136.3636 -9.21184
-10.73452 142.8822 -7.402401
-4.312351 144.8829 -7.474254
-3.571563 148.1451 -5.740361
-7.114365 145.9501 -5.435145
-10.21599 117.6799 1.805859
-11.87367 127.5138 -0.6886289
-11.62726 126.8481 -1.940505
-11.37076 127.8399 -3.949109
-9.620781 133.3441 -8.198468
-8.239706 134.337 -8.786362
-11.26255 122.1951 0.825857
-10.44006 118.5159 1.878586
-1.118058 121.7892 -5.913873
-5.922302 127.988 -7.078335
-0.6555695 127.9823 -7.355109
-1.031296 133.6444 -9.01388
-3.436116 139.6481 -9.212756
-7.049104 145.4364 -6.147285
-9.726766 141.652 -8.172963
-3.301564 141.5648 -8.868834
-3.13174 143.9495 -7.963736
-6.614857 146.314 -5.255527
-9.854587 118.0519 0.1919801
-9.119626 120.1961 -2.477047
-10.60205 127.8083 -5.141592
-10.41534 130.4348 -6.873938
-11.00111 126.1171 -3.094182
-9.621491 132.2248 -7.998317
-8.070399 129.0084 -7.396173
-10.89497 119.0981 2.949688
-0.4785232 124.4356 -6.100833
-4.483118 120.6133 -5.455917
-10.84176 141.318 -7.953084
-1.664732 139.6623 -9.145912
-2.114608 138.8171 -9.222995
-4.645401 144.8501 -7.453876
-5.031841 140.0685 -9.255834
-4.140369 148.8749 -4.450877
-8.322422 116.526 -1.840447
-4.980679 125.9219 -6.476506
-9.182169 121.1948 -3.736522
-7.583838 130.3007 -8.157446
-7.107592 125.7634 -6.029958
-9.619448 136.2498 -8.430785
-9.863346 136.8056 -8.379346
-9.732037 131.2845 -7.659085
-6.572086 145.1192 -6.767406
-6.986776 141.5259 -8.771873
-4.176037 125.0848 -6.251637
-9.347134 140.4843 -8.514769
-7.142648 132.8786 -8.89207
-2.912892 127.6176 -7.145561
-3.19834 127.9098 -7.240295
-5.303275 140.4022 -9.210177
-9.919255 139.6089 -8.409329
-5.650116 124.1328 -5.840454
-9.271148 134.4428 -8.47368
-7.958281 131.8456 -8.561741
-6.165412 135.2794 -9.194576
-6.247295 141.3449 -8.939006
-6.491345 139.273 -9.257661
-6.708347 132.9847 -8.924573
-6.562882 131.5521 -8.610394
-7.530998 136.6585 -9.035019
-4.806012 137.7286 -9.273004
-6.651591 116.0365 -2.971532
-2.604975 148.4525 -5.822417
-10.77366 119.2512 1.253327
-8.664354 124.902 -4.933792
-10.93562 120.1868 -1.107214
-10.6758 121.8256 -1.297041
-8.847208 120.4485 -3.489655
-7.944433 125.2439 -5.325262
-7.906822 124.4009 -5.396238
-7.910055 121.6327 -4.576724
-10.27925 123.9692 -3.137631
-9.321956 124.8474 -4.611714
-11.41058 126.6004 -2.466627
-10.67617 124.5306 -2.554518
-10.09564 137.118 -8.32876
-3.434531 133.2794 -8.966944
-5.223069 131.1508 -8.519331
-5.210402 135.8867 -9.207325
-4.321375 132.8815 -8.916039
-7.974677 119.6298 -2.832038
-6.383218 117.8915 -3.579959
-4.987512 120.0244 -5.461549
-5.847912 123.5647 -5.560404
-4.66172 122.1031 -5.028368
-3.125403 122.3329 -5.255445
-10.96894 123.7223 -1.14508
-8.649573 119.5625 10.31403
-12.2182 121.0278 5.705814
-3.073413 114.6328 13.50389
-3.067541 142.9581 7.868573
-1.074711 110.6575 13.89998
-0.715488 111.4692 13.81603
-10.4964 126.498 7.270841
-13.22304 134.8583 3.040982
-1.017147 118.5372 13.73132
-12.39485 133.2929 4.679788
-5.620358 117.6803 11.82729
-9.834345 116.8494 9.868553
-12.81009 134.079 3.66001
-5.580945 146.0719 3.223354
-6.985373 119.6784 11.37652
-12.04753 130.4783 3.248975
-4.814613 143.1982 7.362425
-13.06754 133.9905 2.465666
-11.25663 118.431 6.51011
-10.70401 124.5423 6.767102
-5.396924 144.975 5.534799
-12.84402 135.3307 4.900171
-3.339744 144.7633 6.378871
-0.8571253 125.1653 13.67988
-10.06105 144.5095 4.252557
-8.821658 145.3558 3.676271
-9.789606 140.3226 6.922053
-10.80049 140.1759 6.516993
-3.92219 115.7938 12.77814
-5.355126 119.1364 12.90965
-7.751164 117.5586 10.18204
-9.837019 125.3066 8.838641
-10.82933 118.925 6.563831
-10.34334 140.7914 6.432101
-6.56424 144.2015 6.083915
-12.7026 134.3267 4.342708
-8.465118 140.1472 7.629323
-0.8568035 136.571 11.90969
-1.030756 137.0417 11.19061
-11.57397 118.8983 5.350989
-12.52114 131.908 2.508758
-7.578507 146.0564 1.812185
-12.67843 131.7757 1.461814
-11.74868 128.9425 2.848605
-11.35962 128.1337 4.260757
-10.74803 127.5777 6.711805
-11.84896 131.1583 5.342552
-11.24191 134.9079 8.168698
-11.25588 124.3588 4.804878
-11.35139 123.2597 5.22403
-5.784414 116.8072 11.55483
-6.525052 119.1169 11.54965
-11.27322 141.6431 5.595219
-10.80754 127.178 6.363341
-11.59216 132.1891 7.701407
-8.247719 120.5327 10.56997
-2.93213 117.9 13.48628
-2.834234 119.0253 13.52283
-5.334838 118.6696 12.36658
-10.79372 125.4545 6.453977
-10.53113 123.1824 7.245875
-5.108158 120.3416 13.394
-7.529334 119.5013 10.94388
-9.184606 121.2821 9.646448
-9.347887 126.2094 10.07716
-9.353683 118.7478 9.226057
-8.461787 123.257 10.82075
-11.20284 120.1304 7.661698
-10.6111 120.7617 8.173524
-9.857319 124.3412 8.787807
-9.040432 124.8979 10.27653
-12.72114 135.5124 5.516355
-11.98733 133.5025 6.706094
-8.946256 145.4856 3.361277
-5.099459 142.2626 7.81235
-11.1664 139.561 6.615866
-11.7212 135.1034 7.266882
-9.823817 126.3635 9.1407
-5.711767 125.574 12.95628
-5.326107 124.7741 13.03986
-9.376064 128.2529 10.90911
-9.113863 128.113 11.22903
-11.18853 131.1516 8.70783
-8.37933 128.8165 12.01028
-10.26253 127.3678 8.367004
-10.70036 128.7578 7.791218
-4.973865 143.5663 7.100228
-6.372019 140.3782 8.314631
-6.492015 139.8453 8.527904
-0.9079385 142.1222 8.958313
-2.098332 139.1272 10.07969
-10.59331 132.9384 9.71605
-10.61382 131.8139 10.02442
-11.16778 134.1409 8.379749
-9.860497 132.7445 10.5859
-10.80672 135.607 8.332592
-8.218723 142.0553 6.747644
-8.299455 125.599 11.39492
-7.921636 126.0474 12.01463
-3.969134 122.5899 13.34068
-4.085372 125.4318 13.30483
-6.212642 127.3513 12.85671
-3.401244 123.7691 13.47546
-3.676594 125.5245 13.35594
-1.511528 118.9688 13.70351
-5.940658 128.8125 12.9527
-9.39681 131.31 11.42216
-9.151465 134.4394 10.2298
-6.33632 132.9987 12.16836
-1.441225 135.1397 11.89622
-5.322117 132.1274 12.57294
-4.459865 133.2227 12.30661
-8.773285 138.2296 8.446178
-10.81163 137.1236 7.766391
-8.800282 141.7302 6.652186
-7.174771 141.2938 7.584684
-8.278734 127.362 11.89026
-7.213981 127.6998 12.53383
-0.8525483 127.5902 13.56493
-4.162711 129.7533 13.02555
-4.982221 138.5031 9.616122
-6.023175 136.9425 10.17814
-4.670532 137.6048 10.13747
-6.262436 134.2425 11.56876
-4.322686 138.5328 9.759446
-3.64293 133.8761 12.08741
-3.213458 129.0676 13.09793
-3.018516 130.6966 12.89882
-3.275337 132.086 12.65586
-1.122046 135.5206 11.84357
-7.566458 137.1339 9.536602
11.57382 125.1224 1.041347
