# .PCD v0.7 - Point Cloud Data file format
VERSION 0.7
FIELDS x y z
SIZE 4 4 4
TYPE F F F
COUNT 1 1 1
WIDTH 1668
HEIGHT 1
VIEWPOINT 0 0 0 1 0 0 0
POINTS 1668
DATA ascii
-8.027524 141.4983 -12.61177
-3.7327 140.0949 -12.78671
-23.04095 33.15289 -7.189208
-3.006962 103.9876 -14.1596
-13.24311 115.4681 -0.5730394
-20.52666 85.28755 -4.653787
-21.95166 48.93732 -5.405929
-22.1801 53.53238 -4.326169
-23.07418 56.21667 -6.463417
-21.80862 51.65794 -8.893633
-21.1742 48.44954 -2.319394
-14.30332 116.1094 0.3081936
-4.441772 120.7934 -7.607872
-3.844333 119.0708 -7.270401
-9.372806 137.7578 -12.0932
-9.909858 141.9673 -12.23854
-9.13062 137.0545 -11.97031
-13.96698 137.2999 -9.431828
-14.63141 136.9601 -8.505955
-20.12502 34.30129 -11.34822
-14.8343 113.1034 1.133552
-4.89106 41.54779 -11.40146
-7.439498 42.40617 -11.79974
-22.06624 44.75423 -6.529006
-22.6808 42.49371 -8.56011
-21.77209 51.36959 -4.47631
-22.9416 52.22086 -6.736332
-13.69187 111.0185 -3.335078
-9.607052 143.7401 -12.16019
-14.31225 133.0285 -5.165457
-6.566741 131.7584 -10.6546
-6.011164 138.4366 -12.70081
-20.38896 28.02202 -11.18913
-14.65363 113.1273 -0.09288357
-22.07129 81.20329 -4.154443
-19.25143 44.41542 -11.01595
-21.3595 43.37605 -10.16651
-21.48641 55.79394 -8.634707
-13.43172 116.7426 0.5502959
-4.571012 117.0515 -5.750904
-7.266833 119.8523 -5.081945
-12.86932 139.0782 -10.86506
-11.21884 134.3455 -9.978556
-7.723489 134.2822 -11.35342
-6.83306 132.4863 -10.8901
-17.78879 32.16192 -12.09356
-13.79261 111.95 -2.700733
-12.5389 112.3163 -3.506366
-18.94388 42.0397 -11.37135
-23.00581 52.89672 -7.099236
-12.95001 141.362 -11.23537
-5.640027 137.6141 -12.56251
-3.672991 113.3483 -5.78998
-10.57924 116.654 -2.263237
-15.80381 106.4417 0.6121229
-11.72956 113.3113 -2.650432
-9.917635 116.3288 -4.028053
-6.213826 114.4807 -5.396235
-11.05878 119.1691 -1.604249
-22.56678 75.32912 -4.882797
-12.55862 127.2123 -3.802655
-10.73861 116.3891 -2.026729
-12.74048 113.8391 -2.075536
-6.721949 38.37051 -11.15181
-18.65338 33.51532 -11.93845
-12.36354 126.6936 -3.665457
-13.9977 132.3764 -5.358984
-14.32898 136.1687 -8.378837
-11.95806 126.642 -4.213908
-12.85141 126.2205 -2.29181
-13.65676 133.9904 -7.67113
-8.107276 111.1464 -8.422842
-7.972906 110.326 -8.378014
-7.943454 109.2595 -7.48024
-8.701823 113.0791 -6.345291
-11.85307 112.3858 -3.511283
-11.30687 110.5764 -5.288182
-5.780762 99.89059 -13.33325
-5.159328 94.79526 -13.17774
-3.46284 101.3287 -13.98026
-2.206797 52.86625 -12.48933
-2.463408 55.11023 -12.38185
-3.993277 90.63731 -12.69247
-7.312389 93.33819 -12.74438
-2.484243 112.1637 -6.024311
-4.350994 88.43005 -12.32115
-4.757395 79.92369 -12.43907
-5.727596 77.16883 -12.48964
-4.481753 76.71253 -12.53865
-7.333439 78.75892 -12.35428
-4.114777 85.60374 -12.04792
-6.34856 82.0062 -12.35415
-7.217849 75.41718 -12.33558
-9.35458 76.6102 -11.94578
-11.76245 75.95335 -11.12765
-23.53689 81.84086 0.6477854
-23.60675 68.77796 -3.1292
-22.99052 64.49865 -5.898179
-15.06171 61.36208 -9.378988
-23.42123 65.73157 -4.704969
-6.63233 73.66409 -12.37497
-6.468835 71.78455 -12.35859
-7.929709 31.03551 -12.98791
-3.408316 47.3703 -12.33083
-4.959105 51.07529 -12.06359
-23.39948 62.5658 -4.266667
-4.90984 114.8406 -5.610601
-3.634643 104.96 -13.90659
-13.75119 122.5744 -1.456294
-22.98243 37.18742 -7.217448
-22.05123 38.01938 -9.633661
-22.78943 38.32286 -8.041566
-21.39121 33.44006 -10.31731
-19.91836 38.01709 -11.36192
-16.79183 35.59513 -12.25965
-15.9302 38.58469 -11.97604
-6.557529 109.7146 -10.54439
-7.937341 105.8632 -9.737627
-6.789629 105.2152 -10.92532
-8.898034 105.9573 -9.246599
-20.06715 98.87268 1.190824
-17.72714 98.13141 -1.157592
-17.22287 99.74564 -1.007128
-17.07603 100.0849 -1.105329
-17.2454 98.34002 -1.91001
-19.87664 91.411 -2.323639
-17.79005 95.73544 -2.615542
-22.07268 91.44623 -0.6951728
-11.25747 75.37733 -11.32126
-22.32222 48.74292 -6.064122
-22.64595 47.505 -8.277024
-10.60723 132.0647 -9.224226
-9.460876 131.5886 -9.600988
-10.97094 128.0465 -7.188493
-10.92636 130.3308 -8.085911
-9.335161 125.9968 -7.777317
-7.082311 125.5972 -8.888587
-7.63736 122.1882 -7.345675
-15.41582 35.98722 -12.28414
-18.76194 25.83778 -11.82312
-14.61337 107.0059 -2.614817
-16.37139 103.712 0.01138499
-14.55463 102.9705 -5.076806
-16.93104 98.4367 -2.631787
-14.88016 100.4554 -5.816624
-13.97495 107.9035 -4.142229
-15.92863 102.222 -2.62372
-15.00051 102.7953 -4.244544
-13.10312 104.6262 -6.866841
-12.76191 107.9554 -5.862351
-10.08454 104.1886 -9.855393
-9.835163 105.3744 -9.352229
-11.37614 103.5237 -9.010056
-7.747334 103.3684 -11.82344
-10.67222 101.9251 -10.10148
-13.68422 102.5848 -6.827212
-10.95473 102.3064 -9.74885
-14.30822 98.59723 -7.487722
-18.25812 94.74212 -2.329288
-16.60269 93.43457 -6.309639
-17.11007 98.6025 -2.026248
-16.22568 94.26503 -6.572419
-17.24013 94.28598 -4.719851
-12.4342 146.8925 -10.85648
-6.655145 114.7433 -5.338473
-8.27412 116.7561 -4.829185
-10.32279 117.2342 -6.022882
-12.58702 120.8719 -2.75421
-7.449551 114.4879 -6.826395
-11.40534 122.0905 -3.229295
-12.59451 121.2329 -2.783139
-14.04734 123.9456 -2.022214
-14.45965 124.9909 -0.32094
-4.64761 94.07657 -13.13853
-5.916752 97.85014 -13.25616
-12.68842 23.11092 -12.19386
-15.81079 27.02204 -12.16996
-16.86227 27.02235 -12.10497
-9.32275 28.43476 -12.74264
-5.319588 58.88208 -11.91789
-4.610795 57.80025 -11.97717
-4.277088 53.99424 -11.93695
-8.549835 55.66485 -10.93824
-5.928369 59.93064 -11.89277
-8.679154 60.0167 -11.26316
-9.007998 57.3208 -10.89107
-8.019271 53.98714 -11.12044
-12.33563 53.11079 -10.50338
-6.949069 49.60252 -11.93719
-8.498357 62.71493 -11.57169
-9.34661 49.29702 -11.59846
-10.75344 52.12284 -10.8726
-6.147165 47.74346 -12.27045
-8.604446 45.56182 -12.17725
-6.397151 62.8491 -12.03227
-5.633034 45.24787 -12.18032
-10.02478 46.75618 -11.95758
-2.417564 65.15605 -12.60072
-5.339767 65.60251 -12.33752
-17.95978 55.90126 -9.613711
-10.34917 45.41997 -12.06004
-12.48835 43.23001 -11.92474
-9.738731 42.68985 -11.93977
-15.20328 52.29002 -10.39595
-14.93889 55.40292 -9.852237
-18.45186 43.31769 -11.36027
-14.41109 45.24985 -11.74227
-16.18675 53.96933 -10.03788
-14.65193 49.29786 -10.98941
-18.97175 50.09081 -10.35795
-14.98295 50.03852 -10.82303
-20.74505 47.64629 -10.06424
-22.3175 50.04795 -8.537488
-22.66387 55.02562 -7.558929
-15.72189 44.34264 -11.71298
-22.30661 49.05703 -8.677418
-15.78573 43.55187 -11.79067
-18.45152 57.4477 -9.331028
-10.65893 86.27958 -11.80274
-4.496067 85.72767 -12.05246
-8.484419 88.59263 -12.12275
-9.619117 86.07693 -12.10349
-14.31721 93.10925 -9.214372
-12.01875 92.03708 -11.05299
-9.64642 94.34113 -12.08889
-13.26048 85.74451 -10.50613
-15.56829 86.46479 -9.148978
-10.62116 83.23376 -11.71843
-6.534905 127.0064 -8.918546
-9.158725 30.13581 -12.88987
-11.1729 25.9351 -12.39649
-9.774666 29.06079 -12.76643
-8.438294 32.37161 -12.88323
-23.3763 70.6029 -4.179468
-23.11414 60.19595 -3.822939
-22.7375 66.95409 -6.028471
-21.84629 66.42451 -7.058457
-22.60942 64.2448 -6.59778
-4.484943 102.7601 -13.78429
-4.6529 106.1133 -12.64393
-22.56628 33.3861 -8.557922
-20.59486 38.58224 -10.98071
-15.44495 41.36205 -11.82458
-17.44941 40.39918 -11.86973
-8.631482 121.2124 -5.957164
-15.33492 29.53638 -12.27423
-19.30179 47.64316 -10.57124
-12.30219 101.6786 -8.714004
-19.21385 88.19705 -4.628513
-6.587564 92.42837 -12.75967
-8.08648 99.99905 -12.32668
-9.751973 97.57034 -11.71454
-11.49516 95.26357 -11.06151
-11.61685 92.8938 -11.24325
-13.548 93.55605 -9.830351
-16.23524 92.79556 -7.142081
-14.4599 90.67048 -9.525293
-13.54295 96.26105 -9.141923
-2.723818 100.2566 -14.05747
-7.633588 63.37468 -11.81907
-13.64669 48.76953 -11.19296
-13.53648 62.71177 -10.10223
-14.92743 58.58202 -9.422586
-22.74781 60.90471 -6.909879
-21.45643 64.17475 -7.613283
-22.2179 61.52018 -7.354182
-20.69967 66.49405 -7.740325
-19.15732 64.35863 -8.267703
-21.09457 69.33874 -7.117912
-19.25835 60.04117 -8.843266
-6.874222 87.70245 -12.07084
-17.34631 89.3772 -7.00387
-16.73919 86.31026 -8.395868
-18.13317 83.89816 -7.578355
-17.1568 82.32539 -8.331728
-19.93813 81.14319 -6.420252
-10.90495 82.38466 -11.59336
-13.17689 77.61399 -10.50305
-14.4037 81.60875 -9.898307
-20.56267 81.16967 -5.826608
-18.37522 80.44051 -7.656874
-14.00004 79.94127 -10.11511
-18.23718 88.20931 -6.178246
-11.96543 75.50243 -11.03728
-13.58608 74.35052 -10.20658
-16.35708 73.64971 -8.598092
-13.68358 72.17922 -10.0404
-17.83461 77.14021 -7.971836
-16.99961 87.57378 -7.982369
-16.16397 73.36619 -8.694943
-21.57668 75.11193 -5.963815
-11.59108 70.01143 -11.07952
-21.07628 72.26838 -6.654402
-21.75425 71.67474 -6.3109
-5.332873 71.55524 -12.46385
-10.46596 38.98355 -11.40415
-7.880533 33.22993 -12.7125
-7.741546 33.85941 -12.53354
-12.94833 37.70535 -11.73697
-12.32498 34.96872 -12.35848
-18.14653 37.55351 -11.98919
-13.92735 29.08962 -12.38154
-5.79312 101.5956 -13.32099
-17.96045 93.44418 -3.65766
-17.15661 92.27322 -5.883919
-19.31283 88.83956 -4.179185
-9.614484 97.72087 -11.76705
-9.152286 63.48515 -11.48422
-11.44198 63.60933 -10.8905
-18.09556 67.44484 -8.641033
-13.50581 84.07856 -10.37525
-19.18883 72.32674 -7.375597
-17.20627 69.97957 -8.50022
-17.52461 70.91578 -8.224101
-16.99781 66.2672 -9.050906
-12.43776 71.4478 -10.69315
-11.90497 67.76418 -10.96411
-14.17557 64.79192 -10.10217
-8.633745 71.77339 -12.02376
-13.44173 63.75603 -10.2668
-9.665418 67.72787 -11.68021
-12.72946 67.47263 -10.61698
-10.42118 69.32544 -11.53446
-10.55939 68.80801 -11.48353
-8.456347 70.7538 -12.03405
-3.627885 71.04452 -12.56985
-10.30091 34.43565 -12.4354
-13.12139 34.26405 -12.53428
-12.12396 30.18742 -12.66713
-19.4941 65.61657 -8.194696
-12.51457 117.0128 0.5382808
-2.473375 136.2153 -12.22779
-9.949384 121.9999 -5.33261
-7.961941 120.346 -4.85741
21.3361 26.79298 0.4844173
5.808661 99.08112 -13.39776
20.23381 47.46388 2.036412
19.49967 52.19116 1.170493
23.57727 27.70984 -5.042689
2.21769 23.43369 -12.53336
1.812262 140.1199 -12.79809
9.643036 152.2177 -6.888321
20.91071 82.20187 4.989781
1.192908 98.40897 -13.90854
1.900543 148.4782 -11.32259
0.6397325 108.6172 -11.30256
14.43672 122.3662 4.188817
13.84906 115.7034 5.235881
14.92184 134.819 1.839937
15.03416 136.8832 -0.05219743
13.83958 151.3523 -7.16841
14.82451 149.7896 -9.036057
15.16102 136.1081 -2.441272
10.7708 22.3274 -12.43995
13.89905 124.3103 4.929986
8.758002 152.4844 -6.207032
9.5842 152.112 -6.21851
14.91851 136.358 1.692496
14.95235 135.4184 1.20603
1.85134 28.88632 -13.01293
7.218957 53.25079 -10.73765
3.134319 50.49747 -11.85497
0.3636602 143.3175 -12.57276
12.5022 141.7212 -11.42378
14.03952 107.5866 -5.277503
0.6570117 152.2212 -10.78161
12.77777 47.87075 -9.218541
0.3611057 110.0217 -8.637971
0.5264317 103.9939 -14.32895
1.634435 150.4155 -10.72352
8.025164 83.24223 -12.32577
1.988821 113.7341 -5.863811
1.058749 20.39728 -12.32871
14.35285 130.6492 2.427502
13.61039 126.1525 2.902029
14.25112 126.0248 1.711876
14.93446 118.4303 3.508794
21.10083 27.09864 1.045967
23.05884 28.9398 -3.049697
3.243191 53.28497 -12.08932
19.30626 94.95476 -0.301045
19.81886 101.0388 6.00443
14.80761 132.9851 3.688734
13.2295 146.3948 -10.84514
3.82729 150.2913 -11.05364
1.718198 115.0545 -6.122336
2.268171 121.9066 -7.676604
13.60246 23.0003 -12.58395
4.629845 34.93221 -12.48383
7.087291 150.7843 -9.693063
14.5696 129.7074 4.853067
14.01764 114.686 3.233438
6.73639 23.45262 -12.42806
21.29769 31.89408 1.019115
23.30099 27.1649 -3.785035
21.17478 45.98574 -1.059092
1.254293 61.84067 -12.65566
22.36321 63.19781 -0.5292705
1.911453 78.75645 -12.57116
2.71374 94.83578 -13.14175
15.3079 137.264 -3.075509
15.38327 137.4354 -7.057594
3.191519 142.0783 -12.6924
1.128978 135.387 -12.0077
2.720714 114.2198 -6.032979
3.177888 122.7055 -7.839814
3.010007 107.3949 -12.95473
1.194823 28.96918 -13.04209
1.942158 35.23526 -12.10908
2.427879 22.48108 -12.46536
14.67713 129.4404 3.896416
12.16811 23.29701 -12.46937
14.5095 115.7217 -0.03638872
21.18482 36.85007 0.4813273
22.42589 26.95457 -1.768029
22.69008 29.54775 -2.217246
20.35979 48.12403 -0.6495566
2.85692 50.07229 -11.86068
0.9279016 66.70181 -12.66701
20.23776 63.61985 2.719741
3.827208 70.58725 -12.53506
0.6665136 76.96206 -12.5979
1.866894 103.7439 -14.41603
18.59736 105.3093 4.931114
21.1486 91.83485 4.816999
15.1753 136.6178 -1.949935
3.747855 146.6199 -12.0309
14.36219 141.4005 -10.60749
1.689707 133.1764 -11.4016
1.909411 117.6064 -6.189119
4.258512 115.5797 -5.897166
2.024663 109.6773 -10.5662
0.8969243 125.0264 -9.206181
1.708202 101.9356 -14.40532
15.49063 23.75733 -12.71502
8.692787 152.0757 -7.786827
14.72177 126.5247 0.6147381
14.75092 113.0857 0.2598701
21.77769 36.55157 -0.8565016
21.03027 39.55911 1.521525
19.70328 52.95138 -0.1213129
0.7030587 50.71469 -12.29511
3.336909 56.21517 -12.25158
21.26009 66.40623 2.64175
19.61924 59.14321 2.248079
20.79928 64.62942 2.31255
21.69257 82.25252 -0.01607592
2.44627 68.52779 -12.6081
2.350165 78.84862 -12.58228
2.643689 88.16093 -12.27368
4.109337 95.27007 -13.13059
17.0387 108.0647 4.48121
21.05227 87.5536 5.268733
15.01449 135.5162 -0.5862863
2.911115 138.1192 -12.68771
1.143311 113.3317 -5.646333
2.819461 112.902 -6.147037
2.142519 127.5882 -9.180113
4.068012 102.985 -13.94536
6.170754 102.7417 -12.94798
3.002557 33.68571 -12.83116
3.8723 39.3373 -10.43394
2.951852 36.38475 -11.61787
10.62777 151.387 -8.221957
10.60277 24.27232 -12.38978
23.70295 25.53166 -5.459071
23.48725 30.83289 -6.268274
23.39191 30.97456 -4.653648
20.35382 47.044 1.787776
4.364861 43.41778 -10.57554
3.238243 65.26213 -12.51012
7.73224 60.21401 -11.36458
22.24052 71.36265 1.557398
21.16029 56.43419 -1.26644
21.34698 64.40672 1.538934
21.86043 83.9369 2.408018
3.280969 70.75874 -12.57396
2.535036 81.27764 -12.49315
3.699659 76.15269 -12.60857
2.162275 92.00071 -12.68325
4.473525 88.44617 -12.34756
2.621884 101.0564 -14.17209
2.517142 96.32549 -13.44648
20.46823 95.08847 3.240284
20.21078 94.93999 2.309773
14.34204 131.7772 -0.732058
12.03373 139.2746 -11.35546
4.23005 134.4299 -11.74049
2.441206 106.8003 -13.3887
15.50562 26.13361 -12.58815
14.89175 25.44583 -12.58077
5.776186 30.06993 -12.91661
6.149321 39.59583 -10.44757
12.6692 150.9312 -8.202756
11.7552 144.5504 -11.52207
10.7368 147.9463 -10.7517
14.69679 114.5025 1.715161
22.81714 23.50084 -10.23246
20.78369 46.93897 -0.8227017
20.68243 46.76768 -0.03721548
4.4271 48.35767 -11.34669
4.008313 46.63354 -11.23484
6.138468 49.25148 -10.79456
2.420607 57.49634 -12.46901
3.522597 66.41419 -12.49969
21.98992 76.20182 2.70544
19.95683 55.51438 0.1182078
2.868345 68.06948 -12.57767
6.626441 75.03897 -12.30174
2.332438 87.17355 -12.24291
3.190391 98.17547 -13.7317
4.746933 90.63253 -12.49349
18.72696 98.15897 0.4104149
20.89231 91.48691 2.455101
12.89574 141.4032 -11.26441
1.102536 131.6161 -10.8393
6.612181 147.282 -11.80077
16.18102 108.4971 3.883429
14.08677 114.8143 -1.465691
22.27496 41.0105 -2.151355
20.38765 49.56213 -2.830593
19.64935 50.62887 1.20545
2.991107 54.96509 -12.25003
5.222785 41.61403 -10.10068
22.00106 82.25619 1.872293
19.49435 99.48511 2.86644
20.38704 88.29417 -0.5238342
5.678672 136.2931 -12.23223
3.995912 145.8177 -12.19236
6.841039 150.083 -10.28847
14.36029 108.2504 -2.430897
14.78584 111.4297 -1.818214
14.29349 110.1804 -1.67677
14.21929 111.1133 -0.06800513
21.61439 44.68667 -1.290753
5.502089 63.8358 -12.15647
5.842713 81.83207 -12.54682
5.782303 71.66551 -12.3362
8.846561 81.32339 -12.06622
9.299873 80.19827 -11.90656
6.574213 97.88338 -13.1669
20.01656 92.41618 0.5364146
15.24527 136.3753 -3.292302
21.84124 44.88831 -4.041881
4.276522 83.19829 -12.50937
4.772169 86.19317 -12.42513
7.116862 96.53956 -12.97589
17.83154 95.54626 -2.910629
17.87923 96.87883 -1.786316
18.71815 95.3576 -1.502448
15.10022 135.9437 -1.603497
21.4976 45.11012 -6.05758
22.67412 40.78965 -7.031605
7.353818 73.69681 -12.1357
7.48158 66.49804 -11.81611
16.64363 99.42311 -2.759352
17.24924 95.84973 -3.805923
18.16061 97.59017 -0.8248251
17.61605 101.1324 1.026164
16.8671 100.9448 -0.6653956
17.22931 96.42661 -3.406006
14.37736 109.0419 -1.844359
16.26031 104.1212 0.4077825
15.74783 105.7759 -0.3912008
15.15238 106.156 -1.715142
10.61221 70.94072 -11.07954
14.86816 107.0193 -1.761844
14.58672 108.7739 -3.343057
17.05006 93.42669 -5.529042
14.24945 119.6755 2.123145
4.051573 123.8115 -8.785602
4.294076 118.7532 -6.660382
5.364973 119.2477 -6.344959
4.879489 114.6148 -6.043614
7.074518 28.31565 -12.67923
2.692138 144.7078 -12.36904
4.203604 125.6736 -8.868693
18.52604 28.75816 -12.44848
20.12286 28.36514 -12.08615
21.32305 34.31901 -10.68635
10.95201 26.60846 -12.37767
11.26342 27.82284 -12.39259
10.1756 28.13507 -12.46307
22.95669 26.58679 -9.475328
4.968405 109.2643 -11.65143
4.188971 114.3299 -6.167638
5.425811 108.0214 -11.41015
22.68604 31.85822 -9.07149
23.25767 31.97945 -7.555665
22.74606 34.55165 -2.593902
22.78235 40.19038 -5.208628
23.21533 35.59778 -5.53445
23.0241 34.6367 -7.737154
19.00335 36.26525 -11.88665
3.251168 44.07711 -10.85194
22.64904 69.66894 -0.3648002
13.29046 140.4542 -10.96033
12.68758 137.6434 -10.5383
12.22189 144.7029 -11.38016
5.207628 127.2659 -8.843564
3.959402 143.3303 -12.56616
15.03416 135.2652 -5.718922
9.17282 143.4594 -12.27522
6.924485 145.0305 -12.28726
6.458334 32.25116 -12.99193
8.958048 38.07716 -11.65125
8.204553 44.75858 -9.496572
22.25517 66.55658 0.8276176
22.29539 75.40355 1.636098
20.56768 52.20797 -2.527419
20.35901 53.11245 -1.630369
21.78427 54.92773 -2.883536
22.71831 60.12892 -2.442727
22.24717 61.67621 -5.808272
4.916389 128.1553 -9.23291
7.113727 127.8144 -8.709833
13.01158 116.9981 -0.5653858
21.27236 49.3046 -5.266376
22.72217 51.19674 -6.921029
22.47738 50.04668 -6.829998
22.23921 43.50095 -5.073107
21.28621 49.11615 -8.81122
22.79304 53.58072 -5.350087
22.10165 43.75517 -5.863587
22.95601 53.49034 -6.268531
22.80658 57.17805 -5.882637
21.1813 46.52872 -5.170318
20.08521 57.61277 -6.864219
22.05219 46.89732 -7.998789
18.19216 60.6887 -6.574543
21.43178 82.03411 -0.8953592
22.35432 75.51104 1.427835
21.94285 78.60209 -0.9621633
5.9812 138.7106 -12.73795
6.644192 139.3655 -12.77576
5.882679 149.4968 -10.85312
13.08749 111.8707 -4.256904
7.959583 53.92221 -10.41751
4.115328 56.26534 -12.10529
6.790247 56.67129 -11.38312
7.650663 58.32285 -11.22003
7.382698 63.98826 -11.72108
10.33778 58.74511 -9.977883
12.18152 62.74075 -9.811157
10.34761 64.08279 -10.7584
11.39825 55.5023 -8.558747
5.231121 64.98285 -12.24269
7.096336 64.31036 -11.81812
8.017996 56.87955 -10.87592
10.44435 53.86964 -8.845964
15.92151 58.1262 -7.107113
7.938989 67.14646 -11.73061
8.868018 70.0854 -11.60075
10.15076 70.58349 -11.2193
11.09768 81.7978 -11.33662
21.65768 85.48327 1.743277
7.688333 98.57223 -12.73845
14.10581 95.96992 -8.850398
9.068443 94.50641 -12.32195
13.74188 97.2238 -9.006299
10.68265 93.13541 -11.73763
8.13834 93.47152 -12.5921
14.84801 97.07654 -7.540466
15.63254 95.25136 -7.080057
7.94603 91.49521 -12.52368
12.53184 99.12084 -9.626157
17.1835 93.2021 -5.38607
6.99336 92.34616 -12.689
8.479527 101.6002 -11.8698
18.30629 85.91224 -5.843544
20.95006 85.00719 -0.7341656
19.05881 90.52238 -2.556595
18.9973 86.71975 -4.290536
19.12316 85.22682 -4.640543
20.02985 79.89446 -4.880965
18.33308 83.30425 -6.478654
14.51466 93.57451 -8.883422
20.9805 78.34241 -3.652313
17.20979 89.00003 -6.63389
17.16326 91.08739 -6.141479
16.98817 89.53827 -6.814721
15.96628 101.934 -2.915105
16.50409 98.4837 -3.837031
15.56718 100.7694 -4.451385
13.93034 122.6007 -2.778885
12.59281 121.5186 -1.917051
10.29208 118.4257 -5.582466
13.27061 121.4865 -1.947825
12.50207 123.1999 0.1105103
14.51946 125.8686 -0.1053003
14.3708 124.8587 -1.488967
13.02861 125.9013 -3.104218
13.90096 131.2025 -3.81817
5.611324 121.987 -6.515833
22.42833 30.97921 -9.693523
21.23145 32.02338 -11.00847
22.09841 33.46502 -9.868186
21.51892 34.52417 -10.46035
21.16149 32.93462 -10.98216
20.43903 31.61263 -11.63889
11.88748 28.06724 -12.38447
10.96091 28.24246 -12.42018
7.501672 32.43219 -12.9365
9.563992 31.35262 -12.73285
16.55546 34.37235 -12.27471
15.25949 29.66965 -12.40841
20.06274 39.36515 -11.11685
17.13689 35.41574 -12.21887
14.15352 34.3534 -12.43363
21.27843 42.26464 -10.27698
20.90211 45.5336 -10.02239
15.67303 41.42879 -11.48337
18.42454 45.63005 -10.32691
17.1023 44.57248 -10.67059
16.77204 44.79012 -10.60196
14.07276 41.62141 -11.13296
16.47246 44.16839 -10.77818
15.31457 44.04629 -10.69037
10.74723 53.17992 -8.587398
10.69857 48.62127 -8.764203
14.72856 47.72358 -9.717931
13.12608 47.40483 -9.422935
13.76419 48.4368 -9.338723
9.529876 49.86194 -9.007351
8.359015 47.29081 -9.399937
7.1652 48.93496 -10.17211
4.00666 111.911 -8.090058
4.792822 112.8981 -6.746438
6.513267 113.4338 -7.498639
8.389864 116.1327 -5.507443
8.105662 112.5204 -9.169744
7.490725 117.4839 -5.749595
9.485676 106.2224 -9.159211
9.839967 120.2865 -3.974593
9.508893 114.4875 -5.696434
9.480347 115.3913 -4.317247
8.139853 109.3381 -6.903777
10.19563 117.1316 -2.607666
6.848269 110.4947 -10.09589
10.35336 115.9002 -4.918077
9.359059 111.0816 -5.533526
10.33363 110.6143 -5.880081
11.49928 109.8168 -6.33101
6.806616 103.3211 -12.24451
22.43336 61.05665 -5.682228
10.76754 133.1414 -9.656499
7.652946 41.80283 -9.81347
12.43061 42.21864 -10.55759
7.477071 40.09241 -10.39786
21.40392 77.09552 -3.225334
12.42614 133.9805 -8.949316
8.826852 132.665 -10.37323
7.515013 127.7568 -8.612524
10.3279 128.8599 -7.850112
9.60308 130.2147 -8.83996
10.11982 130.3293 -8.602603
12.8004 132.442 -7.616999
11.58468 135.0329 -10.09792
10.79596 127.6228 -7.096394
12.18808 135.3627 -9.88036
6.650426 123.4942 -6.938941
4.984452 122.242 -7.135053
6.646317 126.4927 -8.546424
11.00442 121.2724 -3.617688
7.258554 122.0561 -5.803695
8.782026 122.0178 -4.809132
10.24443 121.6988 -3.757231
12.42574 124.0053 -3.181754
11.16421 126.2536 -6.20907
10.72475 118.6152 -5.303501
12.22592 119.1506 -4.506655
10.23249 126.6952 -7.469856
11.01361 116.7693 -1.539285
13.9157 114.4108 -1.933643
11.57048 119.196 -3.173611
18.67612 60.74629 -6.492835
19.08778 62.24688 -6.344343
22.47805 74.52937 -0.1274489
21.97111 74.17969 -3.037133
9.221742 139.9364 -12.4111
7.497642 137.299 -12.40157
18.29867 55.83677 -7.004897
20.0066 54.99603 -6.915536
16.76971 55.43168 -7.208554
14.44302 60.77954 -8.054916
18.66866 52.34586 -7.728042
16.27899 77.97715 -8.757146
10.70234 65.91028 -10.76022
21.24778 64.71914 -5.967571
11.30385 66.28719 -10.55421
7.487277 86.85553 -12.47261
13.51371 81.28722 -10.1991
10.56585 79.00038 -11.4566
7.899096 90.17585 -12.48161
7.602228 88.06503 -12.46253
9.665373 85.45466 -11.99286
9.461358 87.85085 -12.10404
9.280834 84.83942 -12.07555
10.52405 91.56978 -11.78089
12.55515 88.92953 -10.71876
13.89224 86.56616 -9.962541
11.49551 87.76159 -11.29141
11.33834 85.55264 -11.32229
7.291603 105.4529 -10.2378
12.27626 108.507 -6.650571
15.0432 101.6983 -4.771227
14.07037 102.4633 -6.561935
14.03823 99.11416 -7.963745
14.19445 106.688 -5.26483
14.15353 105.8334 -4.267913
13.81545 101.3466 -7.737476
7.956833 105.3527 -10.16869
6.62817 108.6697 -8.832388
7.023906 107.6478 -8.444284
9.059953 109.8254 -6.421004
19.19459 80.68704 -5.948639
13.79678 128.4096 -0.4693042
22.25357 28.95732 -10.24848
11.03688 35.9898 -12.59288
12.80905 35.40922 -12.56874
10.35076 34.01527 -12.78899
13.45766 34.81323 -12.52011
12.28884 40.35196 -11.25486
7.77041 34.08083 -12.88226
6.609595 33.05416 -12.98527
17.86034 50.73833 -8.376253
18.84445 48.641 -9.200279
17.78599 50.28862 -8.560782
16.496 51.48322 -8.329653
14.44866 47.83321 -9.639091
4.151963 110.718 -10.42234
22.93853 65.52254 -2.581578
22.95655 63.5952 -2.262636
22.15387 67.91258 -5.055582
22.65399 70.89688 -0.8156593
21.43285 64.24803 -5.810802
12.14918 134.1583 -9.285553
15.27272 61.66048 -7.836998
14.52281 63.82263 -8.867879
16.91796 61.9379 -7.082771
16.94472 65.65201 -8.071609
17.75062 72.7178 -8.074999
12.42431 72.58765 -10.45426
12.58744 67.22514 -10.11658
11.80943 69.10311 -10.52498
12.20693 85.02945 -10.89559
15.30323 82.17962 -9.205617
14.89899 80.28466 -9.472264
15.31897 80.30161 -9.250006
16.94305 80.63271 -8.214306
17.21723 80.645 -7.997807
20.67374 78.00722 -4.412321
17.62365 73.64091 -8.1136
19.32139 77.80959 -6.389467
20.49158 73.89787 -5.795478
20.58165 72.14306 -6.031339
16.94022 72.74961 -8.489249
14.58573 72.46023 -9.530799
15.3628 76.27949 -9.242725
20.2075 72.87714 -6.276458
13.10326 74.30893 -10.23092
14.20033 90.67505 -9.537219
14.33892 92.39829 -9.281244
14.44601 107.5891 -3.593439
13.73184 40.28164 -11.54957
15.46079 51.27399 -8.625327
22.93 61.1983 -2.739192
22.25052 73.45604 -2.526781
23.07256 62.76677 -3.298805
19.67826 68.75817 -7.077917
18.35401 69.99184 -7.786876
11.61531 77.24585 -10.98725
20.08103 68.06476 -6.878326
14.44052 118.1033 7.442058
-20.08644 24.29514 4.212191
-21.37189 39.23846 0.6147479
3.256991 148.7446 3.16198
-20.38083 54.60744 0.8333747
-20.21043 57.16542 0.8594284
8.066851 151.6053 -2.768096
-11.26681 151.5759 -4.296076
-17.28856 24.02509 7.314381
-14.70689 135.9285 5.054263
-20.40939 81.85415 3.834236
-19.90412 94.77888 5.153123
14.72642 32.86578 10.05233
13.38763 142.4174 6.738076
-17.79973 114.2039 7.991666
10.07462 151.0523 -2.667801
-6.748629 153.2855 -4.003177
-14.90102 134.7505 4.55266
12.34979 138.2 8.047653
-21.05219 35.355 1.125615
-14.64309 26.05808 9.663153
-7.269085 151.3913 -1.801771
-7.879736 151.829 -2.903883
1.083498 23.15558 26.60435
7.85449 22.32386 22.9289
11.52928 21.269 16.12546
-11.39671 150.6209 -1.887452
18.77437 23.80535 5.389678
14.98471 27.28361 10.16654
6.418955 151.3647 -1.245503
21.08404 25.71214 1.404092
20.83253 25.46016 2.067819
20.46667 70.77807 4.735317
-4.839789 148.7214 2.69817
19.40165 59.79924 4.059048
11.96238 147.427 1.502805
20.39941 45.81798 3.068847
14.64958 111.3534 10.73837
-0.2880138 147.568 4.071216
14.81927 135.4962 4.694504
9.104115 151.9205 -3.983006
16.537 111.6471 5.77394
19.06058 104.3725 7.04322
14.8002 135.9511 4.109448
13.27297 141.9317 6.823501
14.02701 120.2357 7.715993
18.3284 90.22768 7.829012
14.24113 131.0478 8.774271
-15.17648 122.1448 9.120063
-20.09469 104.294 6.488883
-21.10848 97.01598 5.031858
-13.65333 141.9014 6.683155
7.890484 141.8962 7.084149
13.22014 124.837 9.327701
-20.24564 32.05269 2.961042
-11.52615 27.57679 11.51632
-5.63695 151.3638 -0.5868415
-10.92468 148.081 0.7426008
20.34324 36.88253 2.704218
19.08081 25.98688 4.883977
20.47607 26.56476 2.572159
11.15087 148.2695 0.5951369
6.371202 148.1809 2.333879
-7.917076 145.8015 3.605276
-7.84284 148.0771 1.75706
-8.017529 149.7355 0.2626248
-14.79906 132.2966 5.649523
14.49201 130.8578 6.896164
-14.94023 120.84 7.081297
-19.76564 73.84466 4.419285
-22.26495 100.7709 4.144011
-19.95606 98.46889 5.745863
-21.59296 102.5623 4.758043
14.72226 134.7458 6.80043
15.66963 117.505 9.55514
-20.77676 48.61731 2.135757
-20.70647 30.36432 2.333439
-18.88826 24.65784 5.629304
19.41534 53.70487 3.440662
2.601435 26.18831 26.81775
-0.7594768 145.7231 5.297003
20.14129 41.12871 3.398707
20.41206 33.02979 2.604374
20.67515 30.67483 2.045284
19.32147 32.24811 4.382072
11.77769 144.234 4.911654
5.546569 149.2218 2.075966
7.15792 150.4316 -0.4353403
-13.9663 131.484 9.825191
-14.63071 124.1396 6.674115
-19.35025 109.7702 6.314596
-15.62434 120.4737 10.09125
-21.02919 80.05299 2.771338
20.11751 97.93593 6.722013
-17.44652 91.81706 7.736663
18.37472 101.9299 8.381392
-11.62128 140.2772 8.450234
-9.944695 140.4245 8.452664
-2.607873 144.2714 6.230122
-8.056012 140.6871 8.37075
14.07032 135.505 8.20437
16.74172 113.021 7.231182
-20.80378 38.83292 1.666909
-20.77228 37.18822 1.730355
-20.59616 25.54668 3.210446
-12.64893 23.55581 10.88515
19.68619 49.77561 4.225052
-19.35035 60.70877 5.230514
-13.14131 145.09 3.883535
20.10845 43.96178 3.778486
13.0435 21.1661 13.67676
14.56759 21.43758 11.36889
17.61804 27.21237 6.843386
12.26672 146.3496 2.709739
-14.37865 130.8442 7.98954
14.04133 120.4895 11.44422
14.11263 128.7104 6.94458
-20.19513 107.1949 5.69585
-14.72468 121.3186 10.88592
-13.73295 127.4626 9.433411
-21.53131 76.73138 1.803978
20.41241 73.69097 5.018849
18.43025 88.85343 7.733587
-22.25746 88.08853 2.992907
-16.64945 91.94916 8.893381
18.69884 105.4503 7.480299
-13.01596 142.8953 6.113444
14.87658 132.9217 6.243335
14.36145 120.9928 9.29096
13.75154 122.8246 9.449364
-20.56149 44.35561 2.395403
-20.51965 30.68111 2.615091
-20.71266 29.29224 2.443808
-15.32203 25.18699 9.108038
-3.907081 19.48499 14.09193
19.75478 47.94188 4.564757
-19.70352 62.94968 4.097072
0.6284134 19.92551 26.59869
20.77707 43.70782 2.277019
8.987233 20.5621 20.95547
20.61058 39.90909 2.404023
12.91577 23.27128 13.57824
16.18235 22.70635 8.981034
19.17484 31.68084 4.586294
-14.63766 131.5852 7.462457
-14.52391 132.2898 8.715553
14.10006 127.9163 8.512188
-14.05817 127.7406 8.157917
-20.2589 78.3021 3.885866
-20.07346 68.82342 2.62615
19.39684 65.32334 5.371
20.09637 80.63044 5.837941
19.25668 95.09193 7.53173
18.67782 89.07388 7.558085
-13.19051 141.8215 6.943386
13.66033 132.5342 10.5471
13.95255 128.911 9.228032
12.83224 134.6355 11.09296
10.63233 132.9909 13.21555
-20.26294 55.45621 2.533139
-20.73784 42.49856 1.977049
-21.22488 47.21708 1.06039
-20.21531 41.27158 2.775681
-12.70151 23.64736 10.857
-8.96116 22.6231 12.31406
-3.102895 20.25796 14.70691
19.52347 60.40002 3.393092
-20.25534 56.45914 1.366499
-0.4651434 19.80612 24.65396
1.186018 19.67126 27.05421
0.8055866 145.0072 5.787793
-6.229192 143.632 6.086333
-3.320836 145.7952 5.046294
19.77754 43.80135 4.387018
6.6085 19.76573 25.22743
13.9464 23.40287 12.02392
19.29292 31.5297 4.419499
-15.39938 121.0584 8.435858
-18.85857 110.9552 7.483293
-12.98991 119.9714 11.38302
-21.76653 82.63206 2.233967
-20.45171 68.40456 1.626887
-19.17265 74.46062 6.097277
18.73847 73.35034 7.233757
20.49553 68.70744 4.377839
18.84865 77.95283 7.126853
19.03347 82.59296 7.063833
18.90979 95.86685 7.813194
-20.39121 85.05389 3.874712
19.13496 104.2165 6.896594
17.31417 105.699 9.222248
10.81279 136.0754 11.99305
-20.44102 54.16169 1.342953
-20.40449 47.83183 2.9369
-18.66574 47.20256 5.435344
-11.08279 24.17786 11.62983
19.12665 59.45887 5.604913
19.01294 62.49809 6.220604
19.04175 60.46968 6.028152
16.84607 63.42472 9.417663
-19.39009 51.40794 4.907484
-0.8531566 23.54146 20.21417
4.615991 19.58634 26.99573
5.499363 23.05055 26.00793
-3.427188 144.5407 5.93815
-2.873627 143.3416 6.887955
-0.2896326 141.5646 8.274916
20.28707 44.37272 3.430013
8.926962 24.38517 20.52949
-11.48856 119.0362 11.82233
-19.75275 84.29776 5.133932
-19.79825 77.96535 5.065094
17.09536 65.86456 9.199747
20.28232 84.70759 5.947822
-20.3311 85.65498 3.935757
16.90877 111.4523 9.20728
12.76235 128.4514 10.88314
-18.66251 50.94521 5.813491
-9.509825 24.89448 12.18659
-11.03876 22.91732 11.61954
19.441 51.95749 4.660084
-1.002866 26.22795 18.87318
-1.834651 23.42982 16.30182
-1.057234 26.02958 18.62778
0.5439261 21.30354 26.30865
-1.428203 141.2017 8.561894
18.68303 42.28682 5.860392
-18.63583 103.686 7.154297
-19.25914 78.78878 6.288265
17.51492 78.0466 8.493029
17.33893 89.07996 8.427028
19.19971 85.38462 7.020047
17.17065 110.4445 8.919469
9.687781 137.7328 10.9514
11.71074 139.11 8.59151
8.382694 140.2014 8.804861
-19.91718 36.60818 3.273784
16.662 56.22979 9.410307
19.06903 52.89861 6.005398
-0.6785687 23.85795 23.42627
19.65286 44.81468 4.759122
8.255831 25.93406 21.66679
-12.50986 119.0461 11.34044
-17.53703 88.84026 8.149248
-16.68727 75.78946 9.1488
-21.04092 90.31853 3.886942
8.411498 132.2651 13.83927
1.67235 27.40043 26.51051
10.13179 24.31849 18.17297
5.720145 23.58425 25.78271
15.67378 34.01133 8.911195
-17.36749 89.2018 8.346286
-18.97199 82.81221 6.798114
18.62967 68.68114 7.503628
8.066627 141.2483 7.729511
-0.5944335 23.43123 23.92165
0.8614512 24.51105 26.31703
18.0224 44.44661 6.978487
-17.13786 86.24574 8.846303
-17.49082 84.51405 8.561447
-18.09506 55.2147 6.839211
16.74976 45.20732 8.46939
17.70851 40.91362 6.998051
19.5001 39.10669 4.347131
-18.85456 85.37424 6.770157
-17.17847 60.2409 8.159749
17.09077 41.70576 7.792192
-15.24425 85.20452 10.26237
-18.51987 55.90979 6.433777
-17.70368 52.79265 7.056465
-18.17265 57.94213 6.960128
0.3392278 27.62335 25.58615
12.16868 35.55663 13.13751
-18.35408 50.96518 6.16696
0.3582403 27.19467 25.66018
4.430225 28.96959 26.12631
16.60445 49.31969 8.994592
18.5755 37.51644 5.611917
-15.42543 54.5699 9.352722
3.801148 24.1084 26.85166
14.14028 29.24618 11.07254
5.677198 26.33764 25.49805
17.22404 48.37602 8.297649
13.70442 33.05915 11.30771
4.554014 27.40757 26.24044
13.07877 30.43703 12.38814
14.1163 38.11745 10.72004
14.91829 31.67022 9.884947
13.44233 29.94953 11.94048
16.59008 29.38214 8.000156
15.91974 39.40892 8.906171
15.13463 27.80024 9.926744
16.46376 28.47552 8.215321
12.50515 35.68361 12.6706
12.97258 25.26077 13.20728
16.08358 41.90621 8.902492
13.32535 26.4631 12.52822
15.18132 43.9039 9.937794
11.53564 37.84446 13.80164
12.86513 37.19196 12.13891
12.80803 24.16715 13.61491
-14.09226 135.8669 7.66601
-12.74359 137.4653 8.284506
-11.67343 135.1742 11.98153
6.907959 145.0078 4.468604
6.108767 147.4474 2.960074
3.55994 143.922 6.247569
3.457848 145.6131 5.072734
8.038597 143.863 5.123175
10.42066 147.3173 1.532394
5.525012 142.379 7.104236
2.15769 144.3987 6.103544
4.631946 143.5923 6.28576
5.176491 141.2072 8.211579
15.23297 114.7941 10.7188
14.04996 116.7667 11.32602
14.38117 121.3242 10.26578
13.04598 117.9693 11.71467
-9.521955 137.8387 10.87098
-9.147193 138.095 10.75718
-20.11703 27.95672 3.637408
-19.58684 31.59069 4.060061
-17.31746 32.84941 7.013285
-13.96258 127.1832 8.445369
-13.663 113.3788 10.37476
-17.84523 105.6376 7.743168
-17.39495 104.749 7.739225
-16.76838 108.4674 8.538998
-20.07412 58.1871 2.840945
-19.40904 58.08498 5.132133
-19.79639 59.71186 4.023528
-18.85995 63.87799 6.327286
-17.71112 62.70431 7.802874
-19.52747 68.98175 4.694028
-18.62675 64.18349 6.706541
-15.91724 62.01306 9.273435
19.10177 34.5767 4.761564
-20.10025 42.32424 3.011572
18.7359 71.61136 7.296391
16.05559 101.2091 9.607521
15.43703 98.36318 9.636967
16.05023 101.8323 9.65487
-18.15753 43.65466 5.822449
12.17912 55.89007 12.84126
14.86202 53.31638 10.71375
16.85936 57.14376 9.288424
14.43435 53.47067 11.05293
13.06719 53.88699 12.1221
-19.67993 102.2438 6.526161
15.8328 111.3845 10.31336
12.55718 129.6245 11.4614
13.33675 124.5215 10.60174
9.604924 124.7509 12.80192
10.67399 119.7872 12.26675
10.36656 124.5625 12.72223
7.182259 121.8003 13.82726
-19.00322 35.59233 4.688934
-17.4064 35.03669 6.82105
-7.583374 26.13799 12.71841
-16.70728 28.38788 7.833279
-11.76427 27.8071 11.41302
-16.42946 31.26146 8.075883
-17.04907 25.20131 7.541478
-16.91696 34.8069 7.424172
-14.44587 35.32164 9.903558
-5.966875 27.38523 13.18133
16.24966 88.18877 9.168457
-18.78181 72.01978 6.771547
7.202547 130.2549 13.68615
-16.23993 92.37656 9.386126
-16.48542 102.3084 8.013916
-10.68683 95.52789 12.54223
-13.4318 101.9391 11.42424
-12.71297 97.95406 12.06519
-10.08838 100.8599 12.90207
-12.82017 98.91512 12.00033
-8.407786 99.37395 12.95729
-5.71285 100.9946 13.4439
-5.248147 93.97774 13.58849
-4.62014 97.23839 13.96941
14.91097 42.76846 10.13195
-16.24018 85.08065 9.593677
-15.41375 83.42753 10.08978
-16.3917 87.46043 9.475137
-14.13545 85.66901 10.90556
-8.985487 86.70872 12.45124
-12.98596 84.97865 11.39739
-14.48829 92.74754 10.94275
-11.3435 83.97273 11.91122
-11.84637 78.05547 11.63506
-13.64865 59.77497 10.75851
-13.62261 55.41202 10.69984
-11.50645 60.03187 11.67669
-16.03731 56.74175 8.920422
7.26301 27.66364 23.28403
6.163829 28.37136 24.73866
14.70097 47.5774 10.5699
13.69793 42.44091 11.27049
11.86947 43.91807 13.11101
14.48866 48.13258 10.77676
13.88178 47.71287 11.28144
13.03228 52.21498 12.1272
13.25204 47.60774 11.82778
8.820651 51.88344 16.78131
9.883993 37.13339 16.66494
7.737818 33.67014 21.64491
11.01311 33.69926 15.14557
14.86575 26.19408 10.42304
9.480146 147.6272 1.406926
-16.88045 95.86739 7.81064
10.60264 116.1267 12.08537
12.29069 113.4226 11.49869
10.13896 121.4333 12.45458
12.06327 115.9347 11.71107
8.47087 119.4244 13.06885
8.661536 119.0177 12.95338
6.481112 122.3342 14.19966
7.537571 126.4909 13.52929
6.473176 123.4256 14.11659
5.407555 123.3059 14.57335
0.8206099 120.6308 15.6656
2.412837 126.4194 14.37415
2.228354 117.869 16.09756
1.778607 125.284 14.63139
0.3691694 117.6212 16.16433
-8.737523 135.9131 12.85131
-12.65981 131.7125 11.70435
-16.94632 115.9932 9.307743
-13.37469 107.6269 10.86526
-19.59499 69.67173 4.436922
-18.99898 70.59462 6.279826
-11.46027 135.2244 12.13469
-10.5692 129.6634 12.87602
-10.37341 131.3132 13.16943
-6.934028 135.5471 13.09564
-4.900698 131.5838 13.8641
-11.47379 127.7439 12.51535
-10.60268 127.6293 12.74942
-8.468872 131.2908 13.67254
-12.70879 126.8491 12.07885
-8.300676 115.8236 13.68277
-19.31656 39.54807 4.156552
-18.75348 42.58241 4.988832
17.19129 81.85112 8.827374
16.65124 82.49683 9.213743
16.84778 101.1693 9.310442
17.03131 94.94466 8.745034
11.17207 101.2975 11.83072
10.541 23.81639 17.49683
11.1728 26.6705 15.91998
10.59012 27.74116 16.79292
11.54813 29.68123 14.83589
13.07873 110.3953 11.10152
12.21641 107.7508 11.21941
15.00117 102.538 10.06143
9.008287 110.538 13.07565
12.45423 109.9632 11.25075
13.90662 105.9043 10.61323
16.91496 104.3444 9.434337
11.50023 102.121 11.58137
8.032523 130.5924 13.63421
5.634482 128.485 13.84876
5.398645 129.2242 13.826
9.846391 122.2579 12.57398
-6.540093 25.77558 13.00239
-3.561131 25.97714 14.34791
-4.184903 24.78825 13.9687
-1.474112 27.77743 17.12789
-3.926354 35.59983 14.16816
-0.8379869 29.9744 21.8526
-1.636515 34.23019 16.87948
-0.9715998 37.22146 20.51127
-17.74468 28.41568 6.743309
-16.50108 30.04111 8.035372
-13.28485 30.83987 10.65342
-13.90684 32.51633 10.25756
-1.506735 27.51173 17.0323
16.89774 91.01079 8.683572
14.67149 87.47455 10.17446
14.80341 85.04978 10.25668
12.73396 85.30651 11.61769
12.26842 85.08524 11.9772
12.30676 79.24365 12.24555
13.90414 79.4967 11.12007
12.0413 85.49085 12.12157
11.53369 85.05473 12.53818
-18.66331 76.51044 7.100054
-15.74244 102.4955 8.603832
-11.46796 96.33241 12.41673
-10.00268 92.51914 12.50926
-12.52594 91.66033 11.88228
-6.836904 95.4724 13.04323
-8.24922 91.2248 12.68509
-2.72963 95.60012 16.11371
-3.272247 97.68649 15.27019
-13.43755 79.88514 11.05145
-16.9863 75.75832 8.90897
-16.27855 64.17381 9.114132
-0.7261553 30.79896 22.74683
1.083404 30.4659 25.97384
6.083109 31.17276 24.53724
3.667834 36.3056 25.61967
6.623506 31.47514 23.79971
7.990943 29.28115 21.73546
9.392286 28.81295 18.93451
10.95707 48.59983 14.01291
5.409758 51.41422 22.88543
-19.11833 100.5568 6.433327
13.03734 114.5652 11.39456
9.772401 111.9401 12.44562
7.171076 112.0814 14.54896
7.580966 110.656 14.31253
5.104098 118.3694 15.30985
-10.32181 136.574 11.81005
-17.45487 110.9592 8.686222
-6.58447 109.0263 13.43595
-14.34282 112.3791 9.968992
-13.94378 117.5809 10.79727
-13.09482 111.1577 10.81688
-11.94837 108.5473 12.26766
-10.82936 110.8089 12.90729
-10.64277 114.078 12.84996
-12.12128 117.1042 11.42097
-6.983637 116.8565 13.65671
-8.198395 120.5743 13.74196
-6.869574 122.4962 13.73711
-9.175667 124.4614 13.19737
-4.863874 110.6723 13.80135
-2.487937 111.514 15.65556
-6.151544 113.5695 13.5594
-7.774006 110.0851 13.44822
-6.788868 110.3938 13.46301
-5.524489 106.8 13.60419
-10.04212 107.7919 13.25668
-3.916956 111.8778 14.38977
-7.599448 108.4852 13.38734
-5.761169 106.1482 13.51935
-8.403111 101.3442 13.04918
-5.404141 103.907 13.64188
-4.675378 103.4245 13.91993
-2.153517 108.8602 16.12136
-4.739622 107.5567 13.89233
-0.6328423 111.6595 16.86307
-4.088359 114.323 14.23269
0.6118871 115.0832 16.62329
-19.0695 71.13621 6.134932
-16.89699 74.37704 8.962413
-7.9935 135.5459 13.13049
-3.689195 131.0694 13.86143
-4.838281 133.6207 13.82596
-7.404573 129.3781 13.60937
2.271436 130.8151 13.85975
0.09540589 129.9024 13.89282
0.3947376 126.5353 14.39135
2.372313 131.9153 13.90106
-0.8409191 126.8641 14.29266
-4.07681 124.3804 14.0693
-14.29651 123.7906 11.08918
-13.32341 123.5322 11.76756
-9.039818 126.7896 13.23845
-17.03639 37.82454 7.214828
-13.58927 38.63867 10.55617
-11.82887 39.64721 11.5518
-13.20148 40.04857 10.82861
-16.68814 42.41742 7.619937
-12.26549 34.41143 11.28447
-9.637697 33.72231 12.23736
-15.43361 40.25326 9.003594
-15.44448 41.82665 9.01223
-10.87111 38.31952 11.91879
-5.444283 38.57385 13.37647
-8.545443 30.52141 12.49143
16.00554 84.39699 9.579638
5.442784 90.07156 18.49405
-16.22798 46.38917 8.242576
-15.37773 49.47035 9.226969
-16.92374 47.27518 7.494497
13.62945 55.04345 11.69774
6.807382 106.9528 15.3604
10.63859 102.9467 12.16987
11.28036 106.3962 11.65375
8.450165 102.1211 14.19167
12.46257 100.013 11.03909
16.89431 75.83039 9.084039
12.90377 75.74033 11.95329
13.32399 73.76936 11.73275
13.16916 83.43131 11.42936
12.18407 75.99509 12.45326
12.89702 86.61929 11.41236
-17.25037 100.9823 7.409215
-14.69617 106.9588 9.528719
-13.5844 103.759 11.07553
-14.22837 103.9075 10.30185
-10.79123 86.62678 12.1243
-7.692423 86.83812 12.67547
-6.367265 92.40649 13.11729
-6.148923 91.97604 13.20798
-11.86948 86.59804 11.85056
-2.362328 92.50674 16.80372
-3.521988 91.27812 15.09078
-2.832237 89.80163 16.08994
-2.488385 91.46011 16.64754
-0.03534696 92.25679 19.29521
-1.964516 95.63957 17.24475
-3.618846 95.92544 14.87453
-11.62618 68.71929 11.61779
-11.21974 77.46846 11.80174
-11.26831 74.11675 11.74246
-15.27566 74.77029 10.07535
-11.64221 73.28591 11.62706
-15.21202 78.7238 10.13553
-0.9545696 34.42656 20.47449
-0.933068 31.04065 20.49694
2.542485 33.83042 26.0826
2.112357 36.30511 25.89122
4.03454 35.62471 25.54469
0.190271 38.71967 24.34148
9.195232 33.58713 18.61154
7.67922 35.22374 21.54067
6.512675 34.05672 23.65818
7.438914 33.66876 22.20364
5.392485 33.24034 24.91444
6.800993 37.24512 22.82608
5.55199 33.63285 24.75024
4.173943 41.0519 24.91082
2.177488 40.99697 25.392
9.977676 44.27143 15.58005
10.06948 50.40705 15.0405
9.695512 51.98151 15.4445
10.11667 52.203 14.87493
5.807325 112.5893 15.54526
7.175061 114.9515 14.31097
5.237077 116.4475 15.45367
5.729182 115.3562 15.31226
2.875172 116.111 16.28504
-16.75021 117.1734 8.801049
-4.455577 121.3206 13.97675
-6.17107 123.8669 13.70417
-7.450419 123.9239 13.74319
-2.019037 124.0638 14.72586
-2.673928 126.4851 14.24125
-6.467044 102.8686 13.29288
-3.137722 104.6932 15.2312
-3.293282 103.9762 15.08421
-0.624542 118.7193 15.8678
-3.139553 119.896 14.69731
-17.30857 71.03181 8.544552
3.093626 138.6975 10.60966
1.451022 133.0729 13.9248
-2.095667 140.8159 8.859175
1.232112 135.7319 13.06383
3.62044 135.9294 12.9254
3.109003 132.7917 13.93426
5.616775 135.8228 12.97938
10.53463 136.1839 12.07527
0.3303164 130.3249 13.87611
-16.03259 38.48273 8.374559
-2.560451 34.56692 15.3476
-2.864242 31.24016 14.99465
-6.103274 29.53281 13.13207
-9.154991 31.16625 12.35202
-4.680414 32.5344 13.73352
-7.406854 35.47546 12.77866
13.57642 72.38795 11.60398
17.18125 67.83794 9.089559
10.349 56.17736 14.5182
13.58169 61.21106 11.78859
12.0865 55.37126 12.91964
16.98585 63.94348 9.287621
14.57726 65.86703 11.06678
14.61082 64.32564 11.06591
9.81566 66.05283 14.73807
9.372894 55.48611 15.66957
10.40065 53.27951 14.51803
10.14466 67.87091 14.3764
-12.93904 46.17786 11.03309
-11.45536 39.9174 11.70595
-12.66803 41.92978 11.16813
-12.15087 44.62456 11.43865
-14.78456 46.255 9.712329
-11.50883 46.96426 11.71255
-9.679893 47.71897 12.2922
9.214331 100.7149 13.55266
5.677343 107.1445 16.22136
12.78146 87.62974 11.42674
16.10716 89.73351 9.168199
10.69373 76.98668 13.56318
9.334362 75.37421 14.87972
-12.91819 107.9854 11.36008
0.2295814 93.37306 19.31708
0.7619787 92.37035 19.66448
4.847198 88.44411 19.18384
0.5892981 89.59579 19.86609
-3.578379 86.60314 15.02826
4.14654 86.73865 19.82532
8.508238 88.20133 15.10028
4.538762 88.80112 19.33308
0.2221401 32.2062 25.04029
-0.6577436 34.46218 22.77582
8.503747 36.19228 19.67027
8.649571 37.57405 19.14385
7.241448 39.86184 21.75779
8.241085 40.79346 19.52837
7.450991 43.37298 20.82688
8.701477 32.53983 19.81042
8.645179 55.1578 16.8049
9.801207 55.46614 15.13524
7.161171 53.84108 19.94412
6.454686 53.41771 21.32583
7.204196 55.89851 19.58436
8.049547 52.52833 18.19737
5.841012 56.98183 21.80074
5.527006 49.11483 22.99914
8.849567 44.1935 17.62661
6.736498 43.67686 22.09323
7.985632 47.1801 19.071
7.6507 45.13415 20.11387
7.518329 44.87273 20.43824
8.563252 45.18024 18.08343
8.671971 47.63107 17.51599
5.335347 48.18006 23.30439
4.086316 47.67252 24.21524
5.108733 48.45409 23.48981
2.550464 112.8466 16.88591
-3.59347 118.341 14.44046
-0.6658939 100.6765 18.10453
-1.516601 98.3 17.59365
-16.38171 72.59788 9.331273
-6.832907 36.73703 12.93668
-6.644681 42.63377 12.97365
-7.883369 36.481 12.66897
-6.906921 43.83729 12.90466
-2.687314 36.70657 15.24748
-1.492128 37.68672 17.4825
-2.029699 36.66057 16.11548
-3.101351 31.96332 14.78126
-0.6444753 42.22386 22.29434
-1.00236 37.04995 20.21686
-1.254461 39.19535 18.71644
16.23619 70.02722 9.796629
13.24787 68.75065 11.93182
12.61202 68.86017 12.38182
15.7798 69.25381 10.15313
12.2541 68.76803 12.64151
11.9991 95.94593 11.46402
7.835121 104.6978 14.58739
5.574473 104.4555 16.61149
7.177826 111.0873 14.64235
2.285591 110.8759 17.23353
1.642388 112.1998 17.08984
2.957687 106.5782 17.72378
4.834352 107.3853 16.73713
6.494231 105.9418 15.71727
9.061841 72.87093 15.27455
9.199191 79.02367 14.84521
9.973443 75.2656 14.26073
9.086549 71.47934 15.31217
9.48157 67.28843 15.04593
9.669011 68.05137 14.82136
11.67324 69.58891 13.0525
7.074857 58.24358 19.55399
8.111529 82.41842 15.89959
-5.229515 90.56606 13.5834
-6.126427 90.28978 13.15313
-10.58679 81.66936 12.02232
-4.639137 87.41158 13.92119
-4.236251 86.44154 14.31677
-7.191401 82.19659 12.69258
-4.488127 78.17881 14.01298
-3.924817 80.98473 14.58306
-1.778957 86.11513 18.10548
-1.533623 87.80601 18.38425
0.8989136 85.15514 20.46855
-0.02328966 86.81251 19.9224
0.5125974 96.65269 19.08542
-16.0523 69.39086 9.463909
-13.47749 63.85375 10.90053
-17.48825 68.51822 8.299299
-13.59843 72.83083 10.91207
5.293638 44.34048 23.76155
1.708499 46.16789 24.8769
-0.6192808 43.56046 22.32959
1.219997 43.86662 24.85501
9.519264 63.01982 15.18011
10.15287 61.90298 14.54139
7.394251 62.16935 18.47002
8.23641 61.91739 16.98431
4.301644 53.55929 23.50631
10.35676 43.09505 15.0919
0.6913302 41.26897 24.70188
-0.5883248 41.75678 22.53503
-3.15332 40.49653 14.80088
-7.098745 43.92292 12.86398
-5.481293 40.87984 13.35311
-5.168426 45.70185 13.4641
