# .PCD v0.7 - Point Cloud Data file format
VERSION 0.7
FIELDS x y z
SIZE 4 4 4
TYPE F F F
COUNT 1 1 1
WIDTH 1670
HEIGHT 1
VIEWPOINT 0 0 0 1 0 0 0
POINTS 1670
DATA ascii
-16.59959 61.27629 3.472151
-16.7262 70.50943 2.950229
-17.10114 70.68148 1.894773
-16.2579 85.69916 0.3344689
-12.09032 97.04851 9.167258
-17.02586 67.75425 2.171809
-15.21342 51.32936 6.163387
-10.91914 52.03386 14.3632
-0.3154808 51.24034 13.43632
-6.333935 53.53192 11.661
-8.250041 147.5456 -0.5810866
-10.31684 146.6117 1.192106
-12.16207 106.1788 7.221331
-13.27776 102.0148 1.406286
-15.95999 52.47458 4.724436
-12.05 120.2067 2.508182
13.09627 130.5733 8.573618
-12.29624 109.4236 2.639601
-13.77136 64.49504 9.717004
-13.80109 137.271 6.633137
-15.33038 145.4235 0.6648403
-14.9191 138.4014 5.649102
-7.611659 142.213 6.920221
14.63381 55.16251 7.694025
-13.50214 133.8826 7.921785
-14.23654 145.7572 0.5067396
-15.98165 143.6513 3.001333
-13.62645 145.8884 -0.3168829
-5.866149 134.9743 11.2667
11.81859 141.7224 5.587669
-7.927558 145.5313 3.593725
-7.881543 144.5934 5.196728
-12.78085 145.8542 -0.8205702
11.98488 146.0078 -0.3544331
15.91062 76.80331 5.470137
9.291359 51.53151 14.1898
10.86316 146.2952 -0.2903482
-8.983343 144.4631 4.900558
8.764112 52.51526 13.87881
13.07714 107.6112 3.179947
-8.731332 147.325 0.0402735
-11.22416 146.1002 -1.036643
10.49405 146.0673 -1.282254
10.76908 121.1737 8.499964
14.43901 59.6127 8.040429
13.22923 56.8306 12.14001
14.30288 64.02682 8.216269
9.122769 53.51903 14.08149
15.42834 76.50909 6.473169
16.4631 81.28188 3.372773
-17.40506 75.62012 1.024546
-11.30944 146.2916 1.179461
-11.13732 146.5632 -0.2696372
6.821287 133.5131 11.82303
-16.26915 144.9623 0.9182686
7.886908 138.9884 8.450874
-1.390426 132.8103 12.47327
12.73945 145.3736 2.458427
7.718471 139.3884 8.322429
11.39437 146.1824 0.5277821
8.866837 147.0091 0.5655118
8.088458 63.9394 13.25636
13.2814 113.9733 3.750418
13.58388 118.7218 4.060629
10.21426 129.527 10.68853
11.17203 57.08659 14.2266
14.95299 119.7437 2.884846
15.36801 141.3295 4.326933
15.05719 140.4984 4.796531
15.88482 125.6293 5.507507
13.21197 51.3091 12.48324
15.16113 125.8935 6.598539
9.528601 143.8988 5.015187
-12.41961 51.95128 15.0463
-17.02475 84.02311 1.388962
11.01541 67.77541 13.2703
-11.07649 112.4584 6.327816
-5.073837 133.1461 12.2906
-12.69306 121.4151 2.050179
-7.930589 143.4439 6.071266
-7.670767 137.9155 9.089358
-14.109 138.7113 5.950696
-13.64032 129.3681 6.7631
14.02523 58.08854 9.306741
5.895595 52.165 11.80956
13.44392 50.8111 11.75899
14.52716 52.41676 8.090111
13.93199 55.91707 9.804029
8.758505 131.5145 11.82466
15.5235 139.0233 5.006693
8.829892 141.5185 6.752851
11.61297 143.8596 4.293477
16.0457 142.2675 3.682959
14.81261 138.0434 5.707622
15.74122 126.9996 6.8439
10.45538 143.958 4.601069
15.82161 145.0413 1.131007
-10.80709 143.17 4.975256
9.347808 146.2107 2.169232
-12.80796 145.2401 2.624918
-15.73071 78.22544 5.33209
-16.5213 62.84563 3.684627
-15.91156 61.09075 5.114746
-16.56298 62.57984 3.567493
-10.4949 51.98346 14.07679
-15.16167 90.78327 2.016838
-16.3704 82.83841 3.092104
14.61211 86.35871 7.953012
-12.62398 108.0465 2.75104
-14.71586 92.45564 0.832641
10.09175 132.622 10.63122
-12.2532 123.3154 3.549142
-11.31578 127.7741 7.275651
-12.64611 119.8575 1.671819
-11.92161 118.6357 2.793082
-10.43775 143.2144 5.10188
-9.934906 139.8956 7.234502
-11.7475 139.8266 7.162032
-7.588889 137.2642 9.461889
-14.19495 131.1271 7.276808
-4.780529 54.18351 12.20349
15.72429 73.93642 5.741802
5.187315 52.30853 11.55255
14.3297 54.29221 8.589233
12.801 50.94306 13.48774
12.86363 109.505 4.02455
6.077413 134.1993 11.64637
14.61743 136.0439 6.364884
13.42264 136.1543 7.186374
7.657556 140.3669 7.867042
15.70896 141.5284 4.087779
12.48769 138.9847 7.234044
13.30745 118.7563 4.383573
14.20454 124.2521 6.146096
10.8168 144.4979 4.105257
10.6328 142.6069 5.329652
13.59845 144.9275 2.87639
-10.60358 144.4036 4.271234
-15.32328 53.26659 5.927529
-16.63829 77.02398 2.947777
-16.29823 56.40231 4.138583
-14.16464 52.43657 8.942943
-13.7847 52.80154 14.30228
-10.0184 52.69019 13.77681
-5.162523 51.72244 11.99547
-16.00884 85.33487 3.306119
-15.61988 80.67812 5.318018
15.51481 81.90704 4.579974
13.27387 102.054 4.394236
13.686 99.75535 4.539175
14.86433 93.3792 5.802946
-12.51962 107.7254 5.330803
-14.59729 94.84588 2.330886
-2.776884 132.6188 12.52221
6.642164 131.0551 12.6635
-13.70302 131.3603 7.738388
-12.13089 116.7567 2.113356
-12.01149 111.3391 1.925303
-12.59744 141.9347 5.503623
-13.02892 137.7036 6.986609
-15.00747 140.3021 4.910442
-6.260666 132.8995 12.20558
-5.735022 136.3198 10.58082
-7.685192 138.4435 8.822677
-11.09348 133.0535 9.844693
4.49331 51.64348 11.30598
-1.505122 51.30198 13.54651
14.84393 69.72256 7.073826
10.69317 53.94204 14.45452
9.46861 52.08873 14.28868
8.720592 50.78833 13.83165
13.30202 55.50833 12.03686
14.50349 53.24924 8.13695
14.10263 60.43812 8.915846
12.89659 52.82024 13.19405
13.06511 54.18306 12.76533
12.82652 56.15905 13.06137
13.08706 112.3321 3.829795
12.73754 108.7522 4.356077
10.60472 129.7911 10.52459
14.28462 129.3257 7.948491
8.787783 130.5316 11.97839
6.665402 135.694 10.65509
9.454424 137.7934 8.663296
12.11404 136.5489 8.165039
11.49921 139.3287 7.313939
14.53333 131.6848 7.332403
14.89574 142.7841 3.926186
15.19338 124.0189 5.476987
12.40942 120.8219 6.072197
13.63594 117.1452 3.701144
15.94756 124.3355 4.760553
11.06044 141.2233 6.032897
-17.21754 72.59618 1.548347
-17.44667 77.14952 0.8988512
-15.72658 54.95858 5.242013
-15.26669 65.34085 6.487097
-14.08364 53.82845 9.342717
-14.11067 53.23637 12.34833
-7.223064 55.58495 11.94416
-11.19584 53.79985 14.53385
-10.39638 56.35011 14.09413
-7.044279 52.80994 11.88014
-15.31432 91.15686 3.739033
-17.23458 81.43854 1.336544
16.82366 77.92768 3.249103
15.37101 84.73232 3.860997
15.20112 86.91195 6.092083
13.26014 102.5781 3.610864
14.663 95.36808 3.905262
14.73162 95.10727 4.251765
-12.5196 108.3721 3.97871
-13.03055 105.4613 3.298059
-14.7438 94.77002 3.020673
-0.3567125 129.8102 12.99819
-0.4221387 131.4879 12.77908
0.9445506 131.256 12.82285
-12.31997 130.5266 8.300869
-11.9593 118.4976 3.359432
-11.379 118.3734 5.196005
-11.74148 117.6231 4.497185
-11.5456 115.5741 3.784561
-11.91026 111.2005 2.922593
-10.80066 141.4896 6.030015
-10.57401 140.6581 6.655208
-12.62766 135.2871 8.053895
-12.11599 136.0195 8.110007
6.66475 51.32104 12.33259
1.891683 51.12807 12.20338
-4.315947 54.25676 12.37746
15.13162 65.84668 6.526339
15.83027 71.00816 5.393479
9.193134 52.38316 14.15435
13.83059 59.48285 9.859197
12.85925 55.04823 13.12018
13.04675 59.38015 12.36486
13.32408 111.4662 2.998979
12.90834 104.7484 4.685483
11.36304 135.9098 8.984861
8.700779 134.2941 10.94518
11.74897 133.8109 9.062899
11.22024 139.2537 7.407041
13.30793 121.8815 5.320477
-16.728 71.68198 2.898381
-16.26756 64.67313 4.405037
-16.00578 64.49618 4.969644
-16.39756 68.98602 3.962345
-14.84827 55.41862 6.875572
-13.90221 54.9519 10.71097
-5.614175 56.09064 11.74917
-16.49772 85.49981 1.080419
-17.39272 82.03688 0.968648
-15.31625 88.81458 1.547922
-17.38869 79.80775 0.9785292
15.55711 78.46237 6.182955
15.40401 74.75916 6.370646
15.16555 75.99459 6.855441
15.2626 83.85828 5.644475
15.20013 91.6461 2.787657
14.04062 97.99844 3.406224
15.21128 92.14508 3.223289
14.94404 93.74506 3.215444
-13.17982 104.2502 1.801413
-12.39193 107.716 5.801367
-11.41448 110.5865 6.820212
-12.31275 109.0714 4.421256
-13.32281 100.6507 1.119201
-13.22997 103.5837 2.623519
-14.64988 95.58327 4.629985
2.385269 130.7977 12.89946
4.949674 128.9659 13.01785
9.867762 131.4629 11.0748
-11.4859 121.6427 4.676306
-11.12424 122.8184 7.799888
-11.107 123.8262 5.826721
-13.46294 140.4106 5.830538
7.070434 52.9558 12.64789
-1.382318 53.0634 13.4562
15.46607 72.15064 6.09447
14.05079 67.8183 8.697839
15.12203 68.26891 6.576586
15.80324 67.73209 5.332646
13.24466 59.43806 11.84991
11.17591 59.48877 14.00253
12.76747 61.93737 12.59937
13.28419 60.84213 11.62151
11.78642 59.73241 13.71346
13.2073 62.1363 11.71601
10.99921 65.93781 13.48343
10.49618 61.80997 13.85125
7.096748 60.20305 12.6384
12.02952 112.9444 5.563624
10.86774 111.949 8.191672
10.58303 115.1956 7.56389
9.446389 131.5585 11.3715
12.59212 132.4194 8.640388
13.80564 140.9011 5.525239
13.36082 142.4321 4.933747
15.42383 124.7079 5.719628
-16.64074 74.31428 3.04166
-14.45369 55.68212 7.703849
-15.67659 58.86401 5.493195
-7.435441 53.85373 12.02919
-13.98392 55.04993 9.757227
-12.67008 57.93885 14.38221
-7.23648 53.99171 11.94807
-15.41499 87.81782 4.236932
-15.28868 91.47441 4.245516
-13.64232 96.88467 7.293302
-16.01907 83.85314 3.833649
-16.91542 78.9844 2.199194
16.25452 73.15108 4.599817
14.83743 90.10302 6.996704
15.25266 86.14351 5.846658
14.27924 96.76816 5.535
-12.98008 105.7878 1.73177
1.159325 127.1806 13.27178
6.94354 126.7981 12.46911
10.0056 126.6886 10.16301
10.93191 130.0356 10.34636
10.61662 125.4794 9.257653
10.03664 126.027 10.19636
13.47557 128.3362 8.561243
9.949094 130.2311 11.03688
12.50661 130.5309 9.004771
9.269609 125.6083 10.72676
9.242896 123.4873 10.15012
4.328811 54.88412 11.40281
2.602614 55.06555 11.73048
1.723854 56.0566 12.28036
-0.1030407 56.44122 13.2315
13.49818 67.41118 10.45578
14.01532 65.70211 8.873717
13.79465 57.64904 10.14104
12.16013 59.2257 13.54374
8.873596 61.74136 13.67301
12.5403 119.6798 5.758179
12.8767 118.4673 5.005614
11.10505 121.8379 8.342817
11.8133 119.8113 7.076019
11.48523 133.6308 9.318375
-14.86687 57.7266 6.839902
-3.951521 52.6328 12.65792
-14.65809 91.82571 7.017678
-14.91745 93.91168 3.583528
-16.38462 84.91584 2.66824
-15.96137 75.8901 4.913277
15.38556 85.52933 4.027894
15.0392 86.66657 6.72873
15.34677 89.61747 4.22842
14.88198 88.00842 7.076363
14.83387 89.70943 7.059531
6.866102 127.8716 12.57357
4.362018 127.8616 13.09876
8.152938 127.5116 11.84903
11.66114 131.4619 9.550522
2.512792 53.16316 11.75179
13.86666 63.94389 9.459238
9.189519 57.97995 13.9722
11.81252 122.4661 7.290331
11.06704 120.4361 8.10168
-15.48042 62.01086 5.961172
-3.815129 55.26624 12.52962
-14.31807 96.93095 5.332945
-15.86593 85.49912 3.556932
14.84824 83.74885 7.253705
0.2781449 53.63416 13.16271
9.577543 56.78884 14.14352
7.823855 56.87732 13.19364
2.578231 59.28997 11.80751
6.036872 58.39937 11.98818
9.237326 55.03951 14.08201
5.461804 55.85727 11.67055
10.08758 118.6792 8.334536
-3.622177 57.84667 12.50595
-13.5005 98.31696 6.814236
-15.35811 86.26447 5.150138
-15.08938 87.65276 6.376101
-15.17723 89.09427 5.994622
15.32773 79.91307 5.912462
13.55775 86.66107 9.412551
14.51989 84.3898 8.169827
0.9239684 55.45898 12.82687
6.508127 56.85917 12.23504
-3.674782 56.4906 12.51979
-13.76884 99.39689 4.018664
15.2636 83.15107 5.211257
14.47482 87.3595 8.045923
13.54432 86.15909 9.477726
-14.58331 64.27267 7.474708
14.30221 90.565 8.056552
-14.92259 64.92648 7.018002
-14.34112 62.16262 7.873975
-13.92913 96.46208 6.818673
-13.76166 98.89408 5.455659
-12.78531 99.14204 7.813894
-13.97674 63.1666 8.696129
-13.10116 100.3863 6.391061
-13.46414 99.27414 6.1796
-11.8917 108.0715 7.226938
-12.65599 104.7576 6.01364
-12.77413 105.9153 5.245453
-13.76309 60.96672 11.53931
-11.81707 103.8443 8.206472
-7.571228 108.9435 11.23391
-11.54527 102.2133 8.76164
-11.62004 122.1107 4.048067
-11.12735 123.357 7.602417
-11.45058 122.3693 6.019861
-8.664051 143.1855 5.887264
12.88524 125.9433 7.61593
11.81411 124.4435 7.390466
12.35266 123.7324 6.653926
12.62539 121.8229 5.853514
-15.17794 54.58122 6.214942
-6.560641 129.6463 12.75381
-7.906614 132.1723 12.06409
-8.893877 133.7865 11.04988
-5.216378 129.7852 13.00116
-8.350962 128.7011 11.86538
-11.83794 129.4916 7.912411
-7.814437 126.197 11.62344
-13.71356 142.5035 4.802001
-9.240609 135.5907 10.1834
-10.78307 136.8678 8.967511
-15.76408 69.23402 5.614342
-16.28702 71.12598 4.229809
-15.30003 71.98486 6.70491
-6.964163 56.80322 11.93123
-3.530254 131.1695 12.83452
-2.871176 130.2455 12.95281
-2.628334 127.546 13.19107
-0.9717062 121.0673 13.34455
-0.5797694 128.0347 13.1825
-6.275366 128.2236 12.6993
-6.721081 127.1722 12.37761
-4.804422 126.4864 13.03369
-7.045434 126.6192 12.15634
-9.833763 120.811 8.472819
-3.223886 122.7336 13.36673
-5.789086 122.6061 12.72143
-10.38107 120.4794 7.258029
-10.71252 117.9049 5.834498
-10.26414 117.4035 8.215077
-11.42088 113.7634 4.909389
-11.09259 113.8724 6.817142
-10.71123 115.73 7.442976
-11.49833 109.6309 7.151696
-12.03917 110.5642 4.167925
-15.93005 74.61575 5.157505
-15.9834 77.11662 4.693848
-15.28296 70.60816 6.66456
-13.77086 71.32671 9.136578
-14.69084 69.06546 7.530137
-13.87951 70.39379 8.884712
13.35675 76.2382 10.19843
12.6668 105.1786 5.844441
13.03313 94.1927 8.884275
13.45866 90.88653 9.039445
13.9332 91.95716 8.325383
11.8977 109.5734 6.425442
10.14715 109.4849 9.34861
12.0538 110.2884 5.743769
11.32414 111.3175 7.182156
10.48685 117.033 7.698007
11.3809 108.8803 7.818254
10.74301 111.8521 8.403102
10.99917 107.1276 8.983921
10.00337 107.5308 9.957414
8.978628 110.0908 10.12074
11.86728 105.2834 7.927122
11.04394 103.9269 9.283505
8.226354 113.1665 10.66126
9.816527 114.2583 9.396727
4.719879 114.4117 12.15624
9.116449 119.3596 9.720017
-14.04043 60.20792 8.71933
-14.92442 59.19963 6.786897
-13.81815 58.18156 10.38437
1.642367 131.2162 12.83365
10.84612 122.0822 8.634092
1.545433 54.15699 12.42577
12.71727 65.56062 12.26242
-5.995306 57.85236 11.77922
-7.950849 55.61018 12.33779
-6.756377 60.35418 11.96213
-15.90127 79.61475 4.664164
5.564912 127.7384 12.94799
13.5592 63.4691 10.62265
14.57291 83.26679 8.020987
12.5783 83.7565 10.75555
4.42714 76.5719 12.16414
11.32111 83.57104 11.60686
5.68841 123.7112 12.83774
-3.546551 123.92 13.42175
9.259833 121.5696 9.717192
8.008763 122.2742 11.28599
9.577014 121.9416 9.475593
5.628718 120.381 12.47179
6.798491 120.4418 11.84168
-3.572045 54.51766 12.6927
7.249026 53.00474 12.78606
14.74632 78.69085 7.723559
14.29084 77.80094 8.34701
11.8744 83.73843 11.22741
13.49012 77.5579 9.884945
12.64897 80.26041 10.83251
14.26714 79.04559 8.467141
1.116358 57.14477 12.58571
0.2366939 57.33673 13.09187
13.20133 87.62253 9.759919
-11.17133 101.728 9.249399
-10.7807 126.5326 7.674958
-11.36794 128.3428 7.49513
-11.31894 127.2892 6.939809
-10.97296 130.7739 9.52696
-12.06341 132.9371 9.187276
-14.86579 75.80541 7.631253
-3.698021 120.8698 13.00906
-7.709865 121.8633 11.5659
-6.563423 123.7289 12.36442
-9.836704 123.2795 8.929485
-10.06462 124.6602 9.459684
-9.364873 127.7893 11.02501
-10.25696 128.5936 9.663591
-9.604556 128.5145 11.05395
-10.85287 124.4466 8.307894
-10.57369 125.1876 9.045369
-10.07901 123.2738 8.75665
-10.33769 129.4652 9.992713
-8.378614 120.5016 10.95513
-9.013041 121.5268 9.860078
-9.82725 119.9872 8.245994
-8.897297 120.0933 10.50748
-7.72234 116.8101 10.08364
-10.66764 116.3469 7.494005
-2.852972 117.3925 12.75192
-3.061128 119.3491 13.14981
-5.666043 119.987 12.17768
-2.764593 123.2482 13.45684
-4.498545 121.744 13.00405
0.03478929 118.466 13.1628
-8.688143 115.3778 9.520543
-1.757993 119.3586 13.22281
-1.512333 117.8534 13.01799
-10.58447 116.4617 5.891554
-11.22377 110.7278 7.410075
-13.38842 80.42678 10.02485
-15.04333 75.10088 7.267461
-14.39031 83.3946 8.43475
13.53339 75.06501 9.872504
12.90719 70.46523 11.50994
14.83605 73.68636 7.215362
13.21287 74.16983 10.65183
13.42624 71.82102 10.31932
12.15762 97.34713 9.014597
12.81848 99.20284 7.657478
4.357393 101.7379 12.19913
10.32519 104.3315 9.98198
10.17387 115.9422 8.202444
-13.13311 58.60331 14.00934
-13.73827 60.17503 12.28057
-13.074 62.17888 13.46482
-13.78082 59.23558 11.1266
-13.5366 70.44327 10.3766
-13.88748 57.46874 9.953173
-13.61477 58.63432 13.42911
-13.92315 57.19614 9.705456
1.296488 128.9181 13.09518
4.1824 56.68213 11.43757
2.079932 58.4714 12.0141
2.795717 59.99448 11.7562
1.245281 66.05952 12.52141
3.834011 61.5189 11.55863
11.15217 70.12758 13.00167
6.421647 61.93659 12.22765
4.784027 63.51711 11.70539
7.536654 60.99268 12.98378
4.387848 62.20221 11.60196
6.383657 65.9299 12.2008
1.752169 62.67128 12.20579
-0.2201091 62.63541 13.16494
1.580385 66.0628 12.3692
1.090901 67.27221 12.59465
2.30972 66.04602 12.04405
-0.8106119 66.95874 13.09904
-0.6732998 64.03873 13.24916
-0.1299047 62.04721 13.15498
-1.139583 61.53093 13.22571
-8.126039 56.00954 12.42325
-1.213951 57.12516 13.3585
-3.456995 59.60736 12.55515
-1.231783 60.76957 13.26454
0.6355135 60.04721 12.84903
-10.49478 59.61597 14.10588
-0.9332525 124.0557 13.49017
-2.241014 124.6421 13.48957
9.711144 86.74739 11.78857
9.490922 116.8705 9.595714
9.370037 118.5063 9.33372
8.061327 114.7418 10.76624
9.388166 115.1515 9.803741
7.562411 116.4608 11.00704
5.707016 118.8742 12.34833
-14.01976 88.93256 8.690109
12.0315 82.13901 11.1598
11.13544 83.45225 11.7331
12.94645 78.61475 10.69323
-10.56185 96.10262 10.16797
-13.35243 97.57292 7.354327
-14.4678 94.48798 6.534343
-14.29996 93.50146 7.440055
-10.5962 99.57143 9.810184
-13.06215 98.11739 7.70465
-10.81776 96.98647 9.92276
-10.61392 94.7457 10.33432
-13.25812 93.03794 8.901303
-0.5976377 99.98994 12.2897
-13.00153 92.64996 9.240648
-14.08579 90.6311 8.411922
-12.40693 91.65956 9.94558
-10.81276 98.09372 9.791977
-10.33749 93.36643 10.58047
-8.114221 95.70365 10.81142
-11.08608 100.6133 9.358481
-0.4895701 106.3717 13.2606
-5.422784 116.8378 12.11505
-4.298021 116.7199 12.30885
-2.410878 120.6641 13.27534
-2.535326 123.7061 13.48876
1.043366 120.6713 13.30838
-1.61855 123.6149 13.51294
-0.07492085 124.9614 13.46112
0.07158074 119.5912 13.21101
-0.709673 119.3381 13.17402
-0.7671701 115.9016 13.02623
-2.983887 114.5202 12.58085
2.25065 120.8982 13.29657
-10.62909 114.7399 7.454739
-9.215341 112.2481 9.32825
-6.408556 113.6819 10.99971
-11.55485 108.2325 7.848412
-15.27297 75.76883 6.856149
-13.73822 73.07991 9.244012
-10.32953 63.89843 13.90467
-13.34355 72.65679 10.96333
-14.3293 67.92835 7.977831
-13.28608 75.06174 10.92778
-12.9857 77.66461 11.24921
-11.53492 73.59119 12.92219
-10.26703 77.70622 12.74538
-12.92334 72.97977 12.09482
-13.28248 67.19508 12.41473
-13.63396 68.19265 10.17879
-13.58481 68.82317 10.48929
-9.975831 72.39441 13.3354
13.692 73.1402 9.531873
8.877093 69.57064 13.32091
12.75444 71.5188 11.6443
11.62692 77.91811 11.86662
11.3275 75.58644 12.33201
10.48123 77.75644 12.43747
11.16473 73.46967 12.65232
8.845681 83.68275 12.24171
11.12391 102.0844 9.279041
12.20449 102.9518 7.694428
-11.55598 58.11589 14.514
7.326149 61.80071 12.85188
8.505608 63.37858 13.47674
8.360127 65.29478 13.33828
6.818264 66.07046 12.44233
6.236508 66.43027 12.1228
8.059915 67.16005 13.18096
5.104929 67.28137 11.85227
4.27545 67.19911 11.72991
4.93118 66.63332 11.79467
6.477829 70.32887 12.28244
9.993391 73.99334 12.97591
11.17786 68.92483 13.14309
10.96702 67.05413 13.38289
7.605788 73.1683 12.84012
8.449782 72.16298 13.08979
12.049 68.08282 12.65071
10.10078 75.73402 12.74831
9.184651 76.30238 12.83813
4.646145 70.51254 11.84223
4.066913 72.71256 11.92303
6.349498 72.84007 12.29878
5.574001 73.1158 12.10609
-8.61689 59.56629 12.81746
-6.060855 60.7667 11.82164
-8.147118 61.42084 12.54757
-10.39048 62.93271 13.92731
-10.24368 61.91296 13.88532
-11.04571 62.01836 14.15963
-8.110723 62.2682 12.58644
-6.598202 63.84334 11.97396
-8.415509 63.30804 12.86197
-10.7996 64.87655 13.94264
-13.76841 64.17342 11.00288
-13.76285 63.44123 10.5235
-13.64924 63.97479 12.02732
-9.556668 57.035 13.53287
8.688302 85.26389 12.15235
10.04741 88.63641 11.42278
7.139997 79.77235 12.51885
8.356628 83.21675 12.39602
11.39573 87.32109 11.14015
4.973927 86.43445 11.91743
10.40239 83.0692 12.04375
6.525622 81.77109 12.47167
10.4221 87.58437 11.49625
7.100896 90.73016 11.32796
8.639251 114.2078 10.1436
-15.18728 86.00101 6.145723
-14.12645 85.68792 8.787686
-14.75203 84.68146 7.602329
-13.47105 78.92449 10.00139
-13.27822 84.46012 10.03745
-15.64407 83.24224 5.000199
-15.42855 82.53299 5.567921
-15.24331 81.77978 6.348574
-14.54766 80.95346 8.262815
-15.24185 79.04237 6.792598
-13.7854 79.73467 9.369885
-13.07165 78.69301 10.95164
-13.43364 77.84636 10.33777
-11.99746 79.40834 11.90889
-12.1121 78.67059 11.95662
-10.53337 78.15394 12.62071
-11.55355 81.20856 11.81051
-10.2695 81.35304 12.24204
-8.005718 81.86282 12.44536
-6.764684 82.88152 12.42218
-11.13071 81.96768 11.87692
-8.178157 77.22229 12.62484
2.598555 77.84554 12.32566
-4.10108 81.52234 12.43572
-8.683086 78.81911 12.70416
-4.375803 79.54546 12.381
-9.634433 78.78474 12.69535
-4.483781 75.7458 12.18405
-10.03933 76.53482 12.89816
-6.703046 76.48402 12.26711
-12.17043 86.21877 10.82515
-7.8077 93.98689 10.91323
-3.776009 117.4501 12.65945
4.602631 122.5544 13.11767
4.65376 124.8572 13.1308
0.01265235 124.7256 13.47331
3.522957 125.1402 13.31696
1.675933 124.8864 13.49679
-5.587816 112.1408 11.67661
-5.647365 114.0141 11.41904
-4.037345 113.4979 12.23827
-3.278364 112.9872 12.56485
-5.807052 113.2521 11.38718
-8.442328 107.2079 11.02742
-4.234487 110.4206 12.55254
-10.85117 110.8501 7.863272
-10.47527 108.4249 9.2647
-12.70852 72.01141 12.49178
-12.9503 66.34555 13.06775
-13.29371 68.248 12.15515
-10.67219 70.31143 13.46976
11.85191 70.5897 12.54553
12.25325 70.82422 12.22321
13.4794 70.82472 10.26493
11.99144 68.23916 12.68035
4.40307 73.54736 11.99416
-6.450074 73.71833 12.14767
0.3959498 74.46021 12.70734
2.601761 69.63725 12.01447
-0.4606642 66.86966 13.12708
1.74656 69.655 12.32738
-0.8566144 70.26438 13.00732
4.986487 68.15853 11.84447
1.384657 69.39349 12.46874
-2.379117 68.33413 12.78287
-10.16369 68.40537 13.65197
-8.088336 67.76987 12.59633
-8.968278 68.15352 13.11624
-10.90978 57.80602 14.34583
7.336848 85.7006 12.08711
6.492725 86.20411 11.98597
9.497802 78.24332 12.63819
7.301102 79.22321 12.55604
4.34707 79.94281 12.41921
2.085577 82.96173 12.40262
4.854195 82.62765 12.41979
5.816646 87.08735 11.79063
2.832604 118.8399 13.01401
4.693629 110.6565 12.3334
-12.08738 83.39246 11.1298
-9.909577 85.33529 11.94996
0.6977609 84.51356 12.26247
-5.81075 75.45904 12.146
-9.674769 76.06988 12.9648
-7.122881 76.36893 12.31282
-7.71485 99.24158 11.05952
-7.540854 97.53274 10.9093
-5.118944 104.9029 12.47269
6.360665 110.452 11.60432
-0.2356033 111.614 12.88201
2.703554 113.5019 12.74424
4.071536 109.9113 12.68378
2.839263 110.8082 12.85625
-3.552063 107.4955 12.98417
0.01686903 107.196 13.25184
-1.691022 108.7507 13.14728
-3.841494 109.6224 12.75303
-8.126891 107.9539 11.10717
-7.087568 105.6572 11.76911
-8.521127 110.4918 10.33972
-8.901898 109.9945 10.18588
-9.924082 108.5279 9.768774
-2.089118 106.4174 13.22236
-11.04632 104.2705 9.328878
-9.415061 103.946 10.59039
-6.784425 102.7217 11.75621
-6.226808 106.6453 12.0903
-10.2334 106.5319 9.887726
-10.79206 104.342 9.557777
-6.640726 107.6377 11.87952
-7.125378 107.1362 11.70134
-4.214067 104.9017 12.73643
-6.421386 101.457 11.68436
-2.737899 104.1757 12.95654
-1.788281 104.8964 13.14739
-1.063312 105.5158 13.22799
-3.988178 103.4829 12.58496
-0.4609235 101.3842 12.61515
6.589514 75.31802 12.4241
-2.959531 70.09551 12.53278
-2.863709 67.80908 12.62632
-5.845721 65.38815 11.88568
-2.694842 65.9847 12.71537
-3.70671 63.24345 12.31336
-3.519222 62.71541 12.4162
-3.891992 64.36348 12.2144
-3.114933 60.65314 12.67298
-9.376549 66.98515 13.32846
-9.342348 66.02199 13.34965
-3.552103 85.01115 12.18456
11.5298 91.97177 10.34549
12.50737 91.60111 9.759824
7.597137 88.43954 11.66846
7.99263 90.65742 11.3966
10.72856 90.43222 10.96046
6.911794 92.18109 11.1274
-10.19296 92.84073 10.70353
-7.890879 91.75371 11.15407
-5.485548 95.02623 10.86423
-5.899111 94.6622 10.88235
-3.513268 83.4007 12.3871
-6.451932 85.75066 12.03831
-9.460849 87.01528 11.79224
-11.38731 86.37684 11.27532
-12.95578 90.47394 9.562341
-6.622229 70.17829 12.06102
-7.341521 102.4678 11.5616
6.615545 108.6843 11.77096
2.876811 112.5644 12.68771
2.679414 108.9126 13.06004
5.274413 105.833 12.45886
6.697845 111.931 11.29074
2.602157 107.9262 13.13472
5.12413 100.7828 11.84765
5.953001 110.3423 11.82501
1.522784 104.4567 13.13048
4.11178 111.3827 12.47922
-0.1216827 104.5702 13.18317
1.252118 102.5187 12.80952
-0.2435261 102.7468 12.88103
1.362196 101.9981 12.70073
-2.348219 97.62075 11.64867
-0.5198829 100.4587 12.39767
-3.917823 99.06845 11.70556
-4.990193 97.51785 11.23857
2.626948 100.8059 12.29396
1.53032 98.77791 11.97098
0.4026226 98.15672 11.9334
5.088212 100.0323 11.70045
3.643636 99.87356 11.92398
3.848654 98.66483 11.63651
3.391665 101.1051 12.2492
7.151338 99.66762 11.23755
-2.776423 105.7456 13.09144
-3.862262 74.28211 12.21633
-6.445082 67.57743 11.95261
-5.874025 68.25814 11.92863
-2.736815 81.66051 12.43752
-4.414686 84.75791 12.24012
-1.148085 84.44436 12.27687
-4.408868 86.88265 11.81586
-11.4014 86.65586 11.23118
-10.7192 91.44315 10.75877
-11.38225 88.16895 11.031
-7.238581 86.49039 11.9229
-4.460432 87.69587 11.69422
-4.73827 91.5207 11.01929
-6.791139 90.67398 11.70679
-8.2726 88.91079 11.58425
4.816003 75.68919 12.11984
1.549174 74.95145 12.43053
4.287182 85.0178 12.17853
2.576335 84.51669 12.26309
1.011034 83.3292 12.37782
2.125952 83.91042 12.32949
2.531447 85.90794 12.01405
-1.451788 82.90622 12.40964
3.950307 80.85317 12.45055
4.881464 78.87865 12.34483
-1.01025 84.99141 12.192
3.680085 81.77511 12.4538
2.529878 78.97476 12.38859
-3.237395 86.04101 11.956
12.5748 93.03246 9.518375
13.17616 98.73076 7.324366
11.82209 95.68928 9.414346
11.50107 100.161 9.037102
9.231117 93.09226 10.88876
9.842963 93.98962 10.66117
13.11847 100.2214 6.47788
10.49385 102.3367 9.875791
12.50352 95.73601 8.909499
8.402025 93.13235 11.07235
10.22383 95.53972 10.36788
7.285223 99.70667 11.21176
11.02059 100.9838 9.459893
11.95094 98.28773 9.005032
10.07357 97.89076 10.14025
7.861416 102.8131 11.41686
6.088938 97.98318 11.15679
5.048047 103.3989 12.32251
9.999434 103.1079 10.2663
5.999416 105.703 12.1876
6.703998 92.46376 11.16501
3.309679 91.35126 10.98608
4.869946 94.21159 11.06415
6.125364 94.6277 10.90488
3.18275 93.34103 11.28242
9.066992 97.71499 10.52052
1.168085 95.41338 11.44831
5.251595 97.51704 11.24436
0.458627 92.83965 11.17592
0.9525996 98.06245 11.88516
1.810656 94.60291 11.29993
-1.019413 94.54887 11.34045
6.801545 97.35527 11.00373
-3.193452 96.80559 11.45788
-0.707375 95.46581 11.49141
0.5909104 91.60372 10.91213
2.986197 87.46507 11.68004
2.925776 89.80632 11.92858
0.6869459 91.17067 10.95663
-0.8466846 91.81274 10.94027
4.007749 116.1422 12.46646
-12.69864 86.37782 10.42669
-5.80734 70.45706 11.99408
-7.846148 71.59508 12.48965
-6.040785 72.38621 12.06229
-1.901811 72.4084 12.82583
-7.233089 70.64079 12.24044
-9.061863 69.5205 13.11831
-6.250955 74.41709 12.13632
-3.7038 74.04083 12.25559
-2.33534 102.0376 12.61761
-4.016725 101.4177 12.19842
-5.778736 101.4053 11.83507
2.219373 114.2811 12.78704
6.070197 113.9434 11.62936
-10.13108 90.71634 11.08631
-10.92414 89.34266 11.06305
-4.105237 93.26898 11.07128
-4.338677 93.67973 11.12067
-1.550841 94.97687 11.36102
-3.87076 87.01239 11.78286
5.656262 77.46322 12.27605
-0.8656759 86.0069 11.96586
-2.817772 88.20222 11.65924
-1.459924 89.95537 11.91066
-3.911331 80.91881 12.43677
-3.417859 77.02056 12.34216
11.01155 96.3958 9.889499
10.06195 105.3164 10.15841
5.970643 109.7754 11.91505
5.118478 108.3027 12.45586
8.760664 108.5637 10.63235
7.000126 105.9061 11.80233
4.704731 107.4865 12.67061
2.679373 91.99524 10.9758
4.329715 90.45759 11.51286
-0.5154521 71.90316 12.92577
-1.022403 70.9772 12.95743
1.497351 70.95037 12.42622
-1.637085 77.91457 12.59792
-0.2417399 74.44122 12.80927
2.060015 77.53829 12.35119
0.06592912 77.31728 12.64371
-2.8387 78.06169 12.44036
1.31396 81.63115 12.44674
-1.329702 80.77013 12.45492
-2.693381 77.19211 12.48114
-2.146919 86.41957 11.88196
7.380095 102.731 11.56631
2.0844 72.93274 12.26349
-8.448143 91.09158 11.34864
15.79264 123.6819 3.092221
15.8287 69.70815 -0.7374913
-12.1352 113.1486 -2.033142
15.11887 60.81227 -0.7747878
15.87992 144.9624 -3.258793
14.63608 86.6895 -0.8078067
-7.687616 115.8517 -7.793436
15.92096 82.32413 0.4726685
11.33621 51.59738 -7.138688
12.80643 50.39168 -3.256981
-1.654514 49.80636 -8.647787
-1.840515 50.4385 -8.481865
14.48192 118.3346 -2.095143
13.05287 94.14294 -2.486995
14.14249 51.34598 -1.387168
-13.48061 67.59869 -2.884569
14.05741 95.5621 0.940083
17.8341 142.4453 -6.031473
-15.89951 145.1635 -2.607042
14.88462 61.92011 -0.9850101
13.60843 111.6581 1.013816
15.95212 79.90148 0.9656559
-12.71059 83.73006 -4.153146
15.81446 127.4678 -2.353264
15.36431 145.5246 -1.086612
12.73153 63.61936 -3.265502
15.79303 126.1335 -1.255633
16.35959 135.4512 -6.115242
-14.71657 135.6355 -6.755237
14.25183 117.4269 1.089598
3.896997 143.4855 -8.727619
8.949435 146.2022 -2.355566
-7.023208 85.3345 -8.293307
7.663437 145.9175 -4.988954
-16.11504 145.2806 -1.570675
15.78903 64.91187 -0.5000971
12.37671 50.06081 -4.330325
-9.540461 146.1427 -2.579549
-13.1728 119.6302 -1.938435
-12.98647 95.77151 -1.925941
16.11239 83.95907 2.014949
15.32232 121.2569 1.727622
-14.49849 51.32823 -2.213705
-13.07652 104.9849 1.274917
-15.5187 54.52716 -1.20066
-3.315082 143.3294 -8.791784
13.11705 51.76049 -2.630818
-15.03974 69.01589 -1.4302
-14.71801 88.17319 -0.7930994
-14.72728 89.87431 -0.3395072
-15.60363 65.27856 -1.154646
10.49208 50.0177 -8.132
1.349637 141.9027 -9.104807
-12.74029 132.3692 -7.339636
-14.68856 131.9127 -5.303263
4.362904 53.43782 -9.519654
14.1049 116.2486 1.554956
-4.448353 145.9549 -7.192583
-6.526252 146.6997 -4.781672
-7.964879 146.539 -3.692222
14.30567 49.55873 -1.197419
-12.27547 111.2625 0.6696514
-16.78532 144.0407 -4.804172
10.1201 145.703 -4.130859
-10.24279 101.5569 -5.787251
-16.41617 144.8221 -3.521687
-14.70991 125.149 0.6056395
-16.07759 145.2745 -0.7771686
-13.59528 123.9638 -1.682161
13.55669 112.0988 1.693157
5.769914 145.0564 -7.43966
15.32211 139.9608 -7.249106
9.346391 145.8915 -3.740024
8.432601 146.3393 -2.683234
-16.32871 62.84712 -0.8012446
-14.73186 69.58801 -1.618963
-15.96263 53.76084 -0.8824574
-15.91135 138.8517 -7.162078
-9.013523 146.1374 -3.115792
-12.34413 114.5999 0.3987206
-14.33547 124.9581 0.1581923
-12.88926 120.5729 0.5180406
-13.91914 124.0057 0.2467803
-13.80118 124.2705 -2.38731
-15.08644 145.5259 -1.166539
16.07885 79.41433 -0.6048712
3.728315 52.18573 -9.906054
15.85749 60.38357 -0.2534591
11.91149 50.51397 -5.67207
15.0174 54.46193 -0.6337321
11.91814 52.20173 -5.617182
13.45137 53.25331 -2.19495
-12.95012 86.89039 -3.731087
13.76957 93.66277 -1.064661
14.15295 92.2016 -0.9615079
12.51528 113.2916 -3.078589
15.97101 125.2915 0.05979137
15.77987 125.6014 -0.8162684
15.49135 127.3338 -3.204294
15.86491 122.3615 2.46364
14.1042 117.8739 -0.6414643
4.185908 142.2019 -9.126916
6.768855 143.4106 -8.798965
17.16407 143.1052 -5.71736
16.2975 138.4361 -6.992427
15.04546 136.2746 -6.860245
16.75253 134.2694 -5.371941
13.79641 145.344 -2.902393
-11.54416 51.82445 -6.293623
-13.17848 57.75928 -3.720077
-13.46854 65.22482 -2.977668
-12.88749 51.73774 -4.406145
-16.2065 139.2866 -7.089756
-13.7835 132.3714 -6.532201
0.8876441 143.6897 -9.354279
-12.11786 145.5437 -2.803484
-12.79746 102.9169 -1.066388
-13.94764 125.8285 -3.501239
-12.44094 116.3262 0.4679864
-13.27961 145.1232 -3.756429
-14.90818 144.7106 -4.21368
15.03674 67.75004 -1.101757
16.58477 71.3835 -0.1563148
5.340615 51.18164 -9.200141
-0.401409 51.41114 -9.642711
13.88096 64.08467 -1.821117
15.84443 58.82263 -0.2059123
10.50502 51.49936 -8.080009
10.78304 49.99536 -7.849294
12.90696 53.67697 -2.99721
12.75963 51.72147 -3.343313
-14.48596 92.83036 0.3100654
-14.27536 90.18669 -1.382538
-15.36808 87.47918 0.0004100279
-16.33269 80.36927 -1.477989
13.90053 96.99805 1.494984
15.90362 82.02554 1.273661
13.38449 108.3184 0.4021364
13.6886 113.7347 1.621716
15.76739 129.0013 -3.598424
14.58632 122.5068 -1.952526
14.33563 119.4891 -0.029817
14.23333 118.1915 0.6189763
14.88854 121.0853 0.09191637
14.20347 116.2697 1.95127
15.19642 144.5828 -4.422271
1.144343 142.1917 -9.886456
6.420732 143.1251 -9.188976
15.53932 143.1403 -5.970722
16.45427 132.8411 -4.875002
13.47445 145.3646 -2.972756
13.37503 144.4093 -4.998784
-3.683138 51.69494 -7.858204
-15.57072 63.18272 -1.155309
-15.65718 64.49418 -1.119122
-15.64466 65.07251 -1.132752
-15.95966 72.18056 -1.194949
-15.93166 77.74224 -1.430234
-15.26021 73.82092 -1.434923
-14.20349 129.8161 -5.099564
-11.67655 134.1343 -7.855648
-0.4801949 144.4973 -8.992118
0.4464629 143.2819 -10.00296
-8.827734 146.684 -2.280639
-12.26049 113.3448 1.43352
-12.85929 106.2916 1.269627
-14.05503 126.9665 -3.368741
-14.67587 143.6135 -5.530508
16.19743 74.7849 -0.740751
2.449739 50.47571 -10.35986
7.59998 50.10542 -8.705736
-3.358468 49.69283 -7.849371
14.36409 62.33459 -1.402086
14.67234 63.10599 -1.179918
13.90425 60.68937 -1.756944
14.06744 58.10901 -1.537647
10.13783 53.19491 -8.160881
12.34367 52.70594 -4.293193
12.47248 54.36992 -3.917972
13.37133 57.60811 -2.321219
-14.11174 93.37882 -0.3536617
-13.32059 96.24492 -0.8318393
-14.39992 85.48595 -1.70934
-12.98429 98.37256 -0.8804637
-12.8797 100.1203 -0.8877655
-13.15216 101.2927 0.3255821
-16.34705 73.76447 -1.16186
13.46813 99.30624 1.213537
13.54612 99.31884 1.60942
13.31733 102.4478 2.294799
15.50288 85.57458 1.990961
16.42222 81.16084 1.527817
13.20356 107.4033 -0.2806452
13.18139 104.3831 1.393631
14.40941 117.7463 -1.901575
15.02715 125.3179 -3.241236
14.62508 122.37 -1.488136
16.11752 124.3764 1.318681
13.20391 111.534 -1.95019
2.926753 141.362 -9.09923
6.60692 143.468 -8.800151
13.98296 138.7773 -7.505347
14.12599 130.4334 -6.115295
14.7812 129.5974 -5.550886
11.75 130.9165 -6.741572
12.24364 130.0927 -6.562412
11.36943 144.9642 -4.810068
-9.248189 51.38507 -7.841699
-6.655069 50.28577 -8.067533
-15.89094 56.88822 -0.961934
-15.76275 60.22809 -1.052128
-16.28986 71.25696 -1.081398
-14.7397 134.6587 -6.391857
-13.38326 133.4843 -7.069027
-10.31803 130.3214 -7.550274
-10.36305 131.7711 -7.757113
-13.0929 140.5564 -7.568172
-12.66142 139.4361 -7.785056
-6.569549 146.2135 -5.523984
0.05841473 141.3641 -11.20953
-7.758473 146.3665 -4.257849
-12.29807 110.0321 0.8888034
-12.99922 120.4203 -0.6630203
13.43488 65.07804 -2.275961
14.51257 67.04576 -1.403808
16.20683 77.0828 -0.07319469
-3.413149 50.06868 -7.872738
12.0379 57.04533 -5.288583
12.95947 62.19281 -2.856008
8.529778 50.88639 -8.598146
6.869936 53.47443 -8.709193
-13.42474 92.05492 -2.620068
-13.18049 102.6022 0.8151016
-13.72387 77.10098 -2.181582
13.6121 96.971 0.4844818
14.99175 92.05266 1.81727
12.7211 98.89867 -1.562576
13.52217 95.43164 -0.7269491
12.69606 96.41177 -2.362836
15.2788 86.42918 1.623829
14.79025 90.68453 0.05756798
14.95802 89.86526 0.3367
15.76713 82.72214 1.033746
13.45757 108.9791 0.2104199
10.92425 110.2904 -4.423175
13.54897 109.9331 0.1787772
13.76854 113.4665 0.454834
13.1924 103.86 1.244467
15.90787 129.0907 -3.345694
12.65302 121.7135 -5.229506
14.55786 120.5725 -2.046226
13.70735 118.0384 -3.675995
14.21769 117.0687 -2.508529
12.042 112.1162 -3.137241
15.04428 125.931 -4.261272
13.92093 143.6534 -5.879313
12.48672 143.7289 -6.202575
8.886111 145.7459 -4.681255
-10.83149 51.50161 -7.03987
-12.22082 51.41851 -5.413959
-14.77812 58.50448 -1.71048
-11.70743 137.054 -8.015244
-12.44487 128.5421 -6.918907
-13.72499 140.8218 -7.355756
-11.58743 105.0145 -3.217705
15.12107 73.70438 -1.321547
14.85463 71.19992 -1.412135
12.70357 73.01574 -3.392267
1.033473 51.85363 -10.68097
1.430169 54.00277 -10.57775
-6.638803 53.60872 -8.155186
13.60358 60.37421 -2.0283
12.21962 63.05759 -4.582697
7.227963 55.90825 -8.620917
11.04118 55.49189 -7.336505
-12.90606 93.74049 -2.918447
-14.20724 86.11873 -2.141206
-16.51561 82.15057 -1.223177
14.54654 93.03442 0.7379741
12.77672 94.74751 -2.850854
13.02239 100.4492 -0.2852171
12.91043 100.9657 -0.751766
15.85726 82.22955 -0.1471544
13.54515 111.2421 -1.233239
12.11338 110.7411 -2.69901
13.5246 116.0656 -3.303672
11.3407 118.8344 -5.10193
10.11778 111.7866 -5.143306
12.55465 127.6931 -6.296305
11.83263 120.1532 -5.278578
10.87098 118.3609 -5.374506
14.49192 127.5738 -5.350843
12.31885 125.9756 -6.127586
11.86482 134.1664 -7.711664
-12.73495 54.5479 -4.598422
-11.99008 136.2842 -7.921143
-13.13561 133.0614 -7.170818
-14.3554 129.8508 -4.741496
16.03637 73.57836 -0.8425967
13.70464 73.87021 -2.201763
5.873379 53.64362 -8.912159
2.847609 54.11894 -10.19685
7.642413 54.37697 -8.618207
6.116923 57.40348 -8.748209
-0.2418141 53.40285 -9.695579
7.071065 51.4495 -8.731898
8.780306 59.96388 -8.351668
-12.24213 86.45058 -4.850072
-12.48665 99.8289 -2.06935
13.37644 90.74013 -2.992803
12.36561 94.42232 -3.837036
11.77745 95.31171 -4.767691
15.15746 84.70945 -0.8143471
14.05087 115.3016 -2.07861
11.11487 120.3026 -5.710676
14.98379 124.1845 -3.796244
-14.62318 51.93303 -2.032993
-10.95283 136.8455 -8.214105
-11.87647 108.8707 -1.852267
13.56983 75.21902 -2.37999
12.73472 76.40444 -3.406563
3.648547 53.46413 -9.865799
-0.3779501 52.74151 -9.588149
-4.951752 53.68462 -7.979265
9.969997 63.47938 -7.904511
-14.68378 74.95085 -1.691726
11.23808 96.0488 -5.633178
11.42298 97.56076 -4.893521
14.25217 116.1629 -1.624715
13.94681 114.8561 -2.075128
11.22645 124.6713 -6.350504
-13.23244 55.95921 -3.702905
-12.3931 54.66685 -5.184315
-11.44926 136.2038 -8.093911
-12.31118 113.8048 -1.075601
-12.52001 115.7548 -0.3760732
-12.45006 114.9552 -1.114716
-12.43394 106.1669 -1.014866
5.398343 58.89515 -8.888657
-2.081795 55.3614 -8.300923
-3.224003 53.17309 -7.930976
-5.709713 57.43482 -8.193841
-11.88581 107.196 -1.874468
-10.90649 107.887 -3.609458
-14.65336 75.33098 -1.694179
-13.07512 78.16798 -3.168784
-13.16793 77.65601 -3.012831
12.02632 98.35185 -3.478665
12.36069 91.35914 -4.534557
13.26273 90.47664 -3.220324
12.43639 91.94019 -4.327419
14.05147 114.5193 -0.8035122
12.67163 121.0354 -5.087628
11.25585 124.099 -6.318247
-8.664083 60.11773 -7.912423
-8.627852 54.95986 -7.96482
-6.483154 55.34548 -8.189855
-12.53331 115.711 -1.483388
-7.157167 54.65283 -8.169549
-4.059672 59.38521 -8.047097
4.627776 62.99718 -9.054366
-12.13487 103.9213 -2.764937
-15.06435 76.92632 -1.586496
-12.03978 79.39836 -5.462036
-12.90201 81.40448 -3.437363
10.2984 115.7988 -5.521742
10.80438 122.4619 -6.347099
-12.27444 55.27933 -5.360468
-9.581763 136.3367 -8.53527
-7.525253 132.3005 -8.743569
-12.5954 118.7082 -4.021678
-12.39734 117.3852 -3.894824
6.222828 60.53452 -8.644694
7.52005 58.32142 -8.546021
5.891557 59.45884 -8.748159
-12.83179 83.29957 -3.815532
9.626175 121.1265 -6.677186
-6.920969 132.8061 -8.924266
-8.864068 140.1085 -8.731252
-6.332859 58.4405 -8.263687
9.78498 61.9857 -8.051054
10.98125 61.1889 -7.208856
11.27444 60.54115 -6.894382
11.72405 55.08204 -6.278347
-12.55178 82.43418 -4.447834
-12.80239 82.38243 -3.854084
-13.6406 85.1963 -2.770351
-12.65741 86.40302 -4.216969
-13.03049 83.15627 -3.264092
-13.4195 85.58961 -2.97764
-11.30649 81.51856 -6.137275
-8.083229 134.6508 -8.857916
-3.562097 133.9797 -9.591537
-5.706985 135.7146 -9.489861
-10.84336 138.3702 -8.222211
-2.02142 58.40543 -8.335319
12.2693 62.05371 -4.428971
-8.828178 85.47745 -7.681278
-6.647547 57.26131 -8.25658
-11.6412 81.54252 -5.917814
-3.984109 59.07446 -8.026702
-13.65424 74.36942 -2.309973
-11.11568 83.34119 -6.150564
-7.320432 61.69352 -8.210227
-11.96391 56.52611 -5.804387
-10.77923 58.0538 -6.970162
-8.788727 58.01682 -7.907324
-10.88053 66.69385 -6.814069
-11.31293 56.22341 -6.547015
-11.50752 55.91494 -6.367525
-10.79223 58.86131 -6.937952
-12.59085 56.42549 -4.815729
-14.29077 56.97101 -2.239887
-13.49756 59.83593 -3.133597
9.910954 145.3354 -4.976825
14.26513 139.2297 -7.439168
-9.454654 140.7926 -8.457781
-12.33915 127.3141 -6.729414
-13.27332 123.5062 -4.483544
-13.79059 124.0764 -2.484891
2.575996 138.1222 -11.4052
3.872596 139.9367 -11.60843
-1.962931 133.9322 -9.686236
4.045056 138.2314 -11.28017
5.810293 136.9965 -10.47359
-0.8443092 140.9631 -10.99111
-0.6531594 141.7151 -10.50554
8.643054 143.1026 -7.765177
6.419151 138.4568 -9.791938
7.29309 138.3524 -9.33643
7.354677 137.4104 -9.720885
6.8455 139.0008 -9.395239
9.043447 136.8138 -8.949711
8.900532 136.033 -9.218145
10.90388 131.5928 -7.338071
11.19185 133.9642 -7.940022
10.63121 135.1121 -8.464547
10.22869 133.6882 -8.255836
8.494535 140.6528 -8.857707
8.598881 135.2018 -9.243091
11.50326 139.5108 -8.304884
11.48663 139.9344 -8.306816
11.20922 143.4572 -6.877387
9.177804 141.0644 -8.885958
12.6122 141.9674 -7.355392
-13.95627 66.28759 -2.294395
-13.67134 70.93398 -2.538046
-11.50046 69.04959 -6.276415
-12.31871 68.37999 -5.206481
-13.05339 72.8142 -3.46765
-12.59644 65.80914 -4.729977
-11.42885 67.85275 -6.342075
-10.81386 69.25901 -6.834688
-14.05512 69.33688 -2.130132
-13.04105 95.09038 -2.087915
-11.80681 98.43153 -3.890411
-12.74987 97.55249 -1.817464
-13.30183 95.28194 -1.359568
-11.10993 102.3384 -4.565515
-10.6122 102.9733 -5.070216
-14.21609 60.92391 -2.223197
-13.74893 143.7518 -5.730557
-11.41082 144.0963 -6.238805
-9.454043 145.8064 -4.384112
-8.93351 144.3741 -6.710123
-9.553109 142.0069 -8.089598
-7.987078 144.0244 -7.212862
-10.93007 140.2433 -8.151977
11.99592 63.19001 -5.22283
13.91795 113.4218 -0.4419369
10.82148 57.64059 -7.494463
-12.80606 89.35722 -3.957457
13.99586 80.71179 -2.257082
14.08456 75.8372 -1.97469
14.43811 78.15946 -1.870094
13.07231 79.23004 -2.99274
14.54013 76.7058 -1.737541
-4.64444 84.06131 -8.682086
14.16899 85.71018 -2.12009
14.59309 84.13972 -1.755392
12.609 83.45395 -3.882385
13.60304 83.93637 -2.623348
12.15551 83.84947 -4.663453
12.52797 86.66183 -4.185318
11.78939 86.712 -5.161423
9.736279 82.99246 -7.257852
10.77957 84.29305 -6.296112
12.1011 82.11342 -4.742549
13.03718 83.40018 -3.211853
11.21319 82.591 -6.026839
12.19454 86.10968 -4.613021
10.51661 86.88112 -6.573247
11.19611 91.56239 -6.322965
10.59716 89.90063 -7.072846
9.565255 92.51096 -8.178538
10.7657 92.34849 -6.860818
12.4887 93.7657 -3.788706
12.95067 93.04706 -3.185904
11.94665 107.8988 -2.448092
9.993604 107.818 -4.620429
9.160056 108.411 -4.901445
10.84248 105.6737 -4.494572
10.11722 108.6445 -4.82275
10.93873 104.2214 -4.447159
12.60094 101.5051 -1.755504
10.53069 101.0001 -5.344026
12.82072 101.4227 -1.112507
9.630335 97.36682 -7.508702
8.676298 97.51117 -8.267586
8.213936 94.2892 -9.075029
8.375183 94.67384 -8.904416
10.11349 109.3041 -4.906628
12.21165 100.1415 -2.65491
11.83463 102.4488 -3.452065
12.93493 103.7633 -0.4486771
12.55764 103.9054 -1.72609
9.504518 104.3625 -5.668837
12.10873 127.7386 -6.375906
11.87648 130.5814 -6.654502
9.330622 128.7712 -6.820198
-13.49641 136.554 -7.423547
1.139336 54.14425 -10.6083
2.658708 54.95575 -10.25225
-1.020711 55.62946 -8.99138
-12.89674 90.0668 -3.804169
-13.74947 75.98795 -2.222002
-13.29009 75.22525 -2.902396
-12.71106 74.1958 -4.319085
-12.90202 74.61086 -3.781667
-7.805698 70.08726 -8.045861
-12.50671 72.26193 -4.7897
-12.55797 69.73 -4.671003
-9.237698 70.9933 -7.51614
-10.10713 74.43336 -7.084787
-10.83883 76.48309 -6.648292
-7.823443 77.95185 -8.011674
-10.59504 71.36417 -6.907137
-7.287021 72.23203 -8.195092
-14.50343 52.63369 -2.14277
13.11496 112.733 -2.462384
8.849269 117.4076 -6.529949
9.216533 119.2547 -6.601726
9.175668 118.2155 -6.368575
9.812912 122.5968 -6.591376
1.703962 132.5504 -9.196404
-2.432323 58.8193 -8.171646
11.83626 66.18058 -5.504144
12.06791 65.00501 -4.962371
7.066349 63.15998 -8.476129
10.48792 65.69707 -7.513185
12.5097 56.87108 -3.765513
-12.46057 86.56066 -4.545515
-9.63401 87.01498 -7.328745
-12.90708 89.10993 -3.808477
-9.600956 87.93786 -7.502248
-10.11466 86.91778 -6.953646
-11.37378 85.10785 -5.813107
-9.384082 88.04536 -7.709275
-8.756694 87.43233 -7.879651
-4.390162 89.77529 -9.805439
-6.58017 83.33932 -8.274816
-7.642973 88.8702 -8.887204
-6.758585 88.93478 -9.334998
-4.059891 86.41311 -8.787341
-3.526266 85.84845 -8.784883
-4.740753 88.99545 -9.608849
-0.6884414 133.5897 -9.680751
-4.472817 139.4485 -9.395513
-4.875636 136.6705 -9.871292
-2.770841 136.6755 -9.381079
-2.752344 135.9924 -9.676796
-3.254861 135.6805 -9.822762
-8.030861 136.9413 -8.927069
-3.41919 136.089 -9.767787
-4.761018 138.4077 -9.365844
-0.434836 138.0576 -9.918786
-1.285977 137.6465 -9.509426
1.704214 133.7231 -9.383509
-4.745198 139.84 -9.451341
-3.476382 141.1711 -9.32995
-10.73397 85.25956 -6.324378
-9.677756 84.40114 -7.286433
-7.246492 83.28417 -8.123976
-7.898448 84.0209 -7.993132
-12.28112 60.08437 -5.327422
-11.56997 66.82327 -6.211742
-14.46298 59.0862 -2.024794
-6.008782 144.3478 -7.707271
5.842109 141.5533 -9.795801
4.587591 137.6271 -10.9542
3.530982 135.0919 -10.51816
2.450193 134.5909 -9.870862
1.894295 135.5153 -9.904633
1.293659 137.758 -10.8654
8.98168 134.8084 -9.013921
2.103863 131.3942 -8.93389
7.456887 132.8699 -8.925768
5.354931 132.889 -9.533732
7.215309 130.4311 -8.382301
8.206438 129.517 -7.65744
8.549774 130.9315 -8.115687
2.353977 130.5753 -8.831128
1.256331 131.2228 -9.137711
4.277833 126.5583 -7.166953
0.6495047 133.8635 -9.525409
1.247779 129.4428 -8.576917
5.81952 128.9951 -8.061887
-5.623514 129.3039 -8.417316
4.121595 128.2816 -8.148578
0.2459794 131.0401 -9.058034
-2.466394 131.6449 -9.050438
-5.610275 132.0561 -8.937695
6.426508 127.4107 -7.169543
7.398365 126.4647 -6.692155
5.302402 123.9081 -6.126093
1.939496 128.5984 -8.262913
-2.710983 130.9777 -8.771566
9.029881 126.7819 -6.254351
6.146469 124.136 -6.161417
4.963785 127.36 -7.505122
-0.1609721 131.82 -9.287941
7.34834 123.0491 -6.193914
3.666198 126.3253 -7.002675
-1.207947 131.0448 -8.967517
5.930629 120.1713 -6.612761
5.042649 121.4625 -6.312715
4.117888 123.0954 -6.275042
5.836862 119.5009 -6.757003
4.777915 120.2085 -6.558745
6.469926 118.8659 -6.980015
4.14225 121.4799 -6.327132
3.922539 119.3088 -6.751143
2.336699 126.5998 -7.219442
0.5340559 122.3518 -6.924465
-5.153065 130.2386 -8.550447
2.210032 125.6598 -6.667275
2.774673 127.9683 -8.014375
-4.184153 124.5813 -7.157924
1.194029 118.3195 -7.196223
1.124916 118.6909 -7.110694
2.665647 120.7821 -6.519374
-1.792844 120.429 -7.146044
0.4484949 121.4461 -6.713786
-0.320459 125.475 -7.009913
-2.450056 116.8256 -8.372148
-1.740286 120.161 -7.199037
0.3229489 120.2571 -6.822444
-1.095881 123.007 -7.133524
-2.800603 125.1426 -7.581848
-8.345671 130.3518 -8.087934
-4.163253 122.7082 -7.128197
-6.318539 126.9378 -7.598707
-8.89889 125.9498 -7.668943
-3.345907 126.1317 -7.712298
-3.941586 128.5074 -7.994579
-7.931911 122.8641 -8.146772
-10.6082 125.3108 -7.643784
-12.36552 123.5867 -5.919122
-10.20837 128.2449 -7.774401
-11.29218 127.001 -7.503809
-9.008253 129.1184 -7.494597
-11.32274 129.0264 -7.67397
