# .PCD v0.7 - Point Cloud Data file format
VERSION 0.7
FIELDS x y z
SIZE 4 4 4
TYPE F F F
COUNT 1 1 1
WIDTH 1665
HEIGHT 1
VIEWPOINT 0 0 0 1 0 0 0
POINTS 1665
DATA ascii
-22.24793 87.54416 -0.3290934
-18.77513 90.92847 -3.92663
23.86036 28.29199 -0.4578391
22.52704 9.998432 -11.05272
17.86072 8.970603 -17.92331
25.65553 15.80884 -2.772107
7.490186 9.753859 -12.58267
11.96988 92.86473 -12.35711
22.72703 71.08575 -1.06991
21.45046 76.25918 -1.67279
19.85036 92.0901 -1.662807
-2.292717 10.76235 -16.35755
-26.86804 26.04656 -1.1457
-27.32684 36.79306 -2.186347
-22.40017 11.01185 -10.81948
-21.3815 77.22869 -2.213389
-13.95866 93.31413 -11.36136
-19.98889 89.9278 -0.2843547
26.37552 44.06332 -2.36272
24.14692 25.60345 -0.4291163
19.91184 10.39708 -14.51813
25.11033 19.9896 -1.366108
24.60122 50.75624 -0.7691279
4.862347 10.58237 -12.07235
10.72461 14.72865 -16.49247
11.28904 92.55893 -13.18902
22.1043 70.63805 -1.329473
22.36123 81.30973 -1.391067
20.97858 83.90947 -1.185118
20.20973 90.22331 -1.895785
-4.507411 9.882731 -17.17932
-21.04401 9.948721 -12.19791
-27.01219 32.56256 -1.339593
-26.53137 43.62617 -0.5743797
-21.92085 11.48555 -11.35136
-25.09482 72.7365 -0.2797667
-22.10465 77.18977 -0.8587974
-12.52313 94.60074 -11.16853
-5.123607 94.20876 -13.52426
-16.67488 91.28596 -7.065608
-18.33825 89.99953 -6.162878
24.19232 36.86247 -0.7950383
25.69085 23.21585 -1.926738
22.94033 11.52071 -10.44118
23.43594 11.82298 -9.890416
23.99921 10.83339 -1.587282
23.93605 58.76839 -0.854308
1.811881 10.32321 -13.22354
-26.60424 50.69136 -2.619324
-26.28061 56.22084 -0.8268591
9.670292 93.21991 -12.50715
-4.497754 93.94006 -13.15111
23.96996 67.95315 -0.9904843
14.26705 92.07581 -9.532784
19.88002 89.52013 -4.425475
-7.604926 9.945833 -15.03724
-8.536783 12.59946 -11.37416
-22.66071 14.40525 -10.43184
-27.0933 21.7317 -3.107623
-26.59166 31.34785 -5.038845
-26.5718 37.66132 -4.980522
-25.4153 14.65872 -6.283941
-24.59214 66.56614 -0.6829431
-24.78234 61.76505 -1.629154
-25.7029 59.65834 -0.3007859
-24.30375 73.34437 -0.5866514
-21.05098 79.81768 -1.461734
-15.8143 92.13701 -9.491022
-11.61432 92.59825 -11.3957
-4.719647 89.92987 -15.0717
25.42617 28.56887 -1.244944
26.05335 28.78667 -5.919228
25.30397 23.09064 -7.370357
12.55522 11.44512 -19.13338
25.80313 44.99652 -1.595915
2.264503 11.48026 -12.87381
10.58224 9.565543 -16.76164
-26.41951 54.48977 -0.5906392
6.374895 91.47127 -13.21964
2.229966 89.39321 -13.28811
21.8056 74.17179 -1.607772
19.47117 87.44717 -6.286106
-4.433966 11.40203 -17.12078
-19.30268 11.99177 -12.95383
-24.41409 12.69552 -7.91853
-22.59808 70.61067 -2.677697
-21.45264 77.3793 -1.507227
-2.50524 92.71719 -13.13345
26.37374 36.03709 -2.300788
26.36063 24.96733 -3.407488
25.69947 14.44769 -6.841276
3.437684 12.36926 -12.26133
11.95653 12.0015 -18.6294
9.411475 92.214 -12.88268
19.01289 86.69804 -6.137662
23.97782 77.81823 -3.045793
17.38444 87.19732 -6.856483
-8.454751 13.75108 -11.63601
-26.76929 40.04655 -4.389598
-25.49279 40.96972 -6.502218
-20.86676 81.62589 -3.151522
-21.8278 79.20156 -5.742575
-5.383799 91.42506 -14.62624
-4.529205 86.80709 -15.46865
-5.709695 90.91054 -14.45278
26.45325 33.37717 -3.318693
25.93895 13.19534 -6.268705
24.284 59.61608 -0.9026212
-1.629308 92.51441 -12.43957
-7.241192 16.20164 -15.69902
-20.08845 87.05397 -2.328574
-5.045935 90.23714 -14.97796
26.02315 16.45783 -3.203634
26.01817 53.9921 -3.962746
24.2661 60.86034 -0.9025468
-2.406988 14.92264 -16.39852
-4.098903 17.2585 -17.07642
-22.04805 74.29234 -1.572715
-21.98053 78.25146 -5.691834
-22.11939 74.97706 -3.383241
-5.333172 86.49578 -15.29252
25.93443 24.02513 -6.227333
25.74612 51.95947 -1.427588
25.39585 61.40668 -1.538881
-5.500124 17.46239 -17.04967
-0.4224391 15.79013 -14.44387
-20.68765 82.79996 -6.444022
-6.888754 88.72383 -13.84925
25.96926 33.68319 -5.820615
25.10685 58.87477 -5.201606
25.30362 67.8408 -2.642759
-20.1046 89.55659 -5.192405
25.44384 17.83558 -7.313524
-17.554 89.4539 -6.608076
22.59055 26.6242 -9.795518
25.24748 55.89201 -5.229047
-18.73658 87.86008 -6.631204
24.88494 53.81846 -5.968173
24.24104 67.37114 -5.16162
25.41795 64.47529 -3.880059
26.41653 49.18624 -2.796906
24.13014 57.13147 -6.266842
-26.51504 18.02056 -4.392874
-24.32154 15.04006 -8.112072
-26.29674 20.96685 -5.222948
18.22599 11.87797 -17.26875
19.95471 13.4643 -13.90648
24.25079 76.16372 -1.493521
22.44265 86.2185 -2.047741
20.78873 86.75546 -2.409301
-26.80473 29.44652 -4.571539
-26.08834 21.95388 -5.691926
-25.47982 23.84044 -6.720855
-24.17275 28.54652 -8.304822
-23.58914 23.81415 -9.128633
-16.78434 90.57127 -9.375576
23.60371 69.91727 -1.118215
24.69208 72.70924 -1.569396
23.92647 78.88298 -2.608861
23.13188 76.92152 -5.241641
22.18674 80.63568 -5.575361
19.58672 82.26921 -6.531211
17.75578 79.0528 -6.836718
-9.15442 14.60366 -10.66417
-26.0221 14.20457 -4.942098
-22.65336 19.38362 -10.35557
-20.10984 17.96567 -12.59925
-19.50901 14.29434 -12.89725
-23.99943 23.48048 -8.617264
-16.71753 14.55596 -12.79281
-20.35249 88.24115 -1.877752
25.43818 33.73771 -6.591899
8.052916 11.85051 -12.8259
5.971963 15.8179 -11.9016
10.36902 14.22426 -15.84195
1.728499 15.00972 -12.82766
-26.43751 49.53193 -3.77103
-26.80016 46.94404 -3.087097
-26.36254 44.68644 -4.826418
-24.82986 43.36369 -6.975592
-24.70839 38.05193 -7.388099
-25.8763 35.70428 -6.21164
-24.87688 36.52119 -7.337164
-25.9621 32.67484 -6.18324
-26.04629 51.64634 -4.422729
-24.69485 50.3835 -6.767882
7.044796 88.68796 -12.94551
9.430973 90.43475 -12.37141
-10.53365 13.08444 -9.958782
-11.49529 12.90706 -9.769847
-15.82564 16.30168 -12.45827
-25.43246 56.98673 -3.574574
-23.81919 51.89416 -7.215923
25.5423 46.71811 -5.623248
3.12978 83.1925 -13.92623
-4.082951 81.14742 -15.56889
26.21549 22.68689 -5.495242
-18.75689 55.79808 -11.25272
-17.71583 81.8421 -7.768509
-18.87777 82.63271 -6.764803
25.3688 14.12639 -7.45911
24.07811 20.8801 -8.77147
-18.9612 84.63335 -6.752162
-16.91095 84.06446 -10.57252
23.73595 19.6598 -9.145636
18.18256 19.3871 -16.64894
20.82125 63.16808 -7.291262
21.1811 60.64479 -7.349221
21.204 66.73503 -7.047684
21.31267 68.43044 -6.968867
20.03116 71.77092 -6.998674
22.46138 85.90687 -1.777
15.38813 14.45566 -19.5114
17.98307 16.26719 -17.27223
17.31997 17.71487 -18.00106
19.81174 17.4857 -13.4342
17.17487 18.02775 -18.13411
19.29001 19.80614 -14.05516
18.70597 19.86855 -15.46462
23.66212 81.00615 -1.250888
-24.27757 27.43917 -8.239293
16.08617 87.95518 -8.703737
15.62442 86.91449 -8.771184
15.24083 88.98917 -11.69064
24.63907 68.35484 -4.550652
22.62736 71.4828 -6.287351
22.23856 76.92995 -6.205357
23.68135 73.36348 -5.048688
21.44015 73.61881 -6.675782
22.83552 78.41739 -5.286041
16.26591 71.80491 -9.295496
17.92346 72.25913 -7.43977
16.12204 70.48783 -10.24708
15.77118 76.66862 -9.279935
16.03673 74.99156 -11.9632
13.74025 73.6515 -15.55003
15.7513 75.28996 -14.0909
16.25753 69.4169 -10.7457
15.19659 82.17597 -9.463501
15.44518 83.10046 -9.002395
11.79415 74.68953 -14.7978
15.25086 80.38654 -9.687805
14.35854 77.31623 -14.96688
12.37664 74.12128 -15.31122
11.72299 81.23022 -14.72191
15.79736 70.80748 -14.54519
15.38735 78.69946 -9.763258
15.49758 85.64321 -11.95664
16.38014 69.79453 -13.64016
15.14651 87.15874 -12.47141
13.06879 82.90575 -14.51113
11.70766 68.78415 -14.9252
-13.0339 15.54093 -10.30875
-11.75553 18.31184 -9.964966
-12.3367 20.31869 -10.15127
-17.81736 15.88889 -13.04168
24.06647 28.76242 -8.45288
9.743283 16.80686 -14.52537
-21.08117 38.98424 -10.63029
-21.51278 35.56464 -10.56479
-23.53119 29.90269 -8.84452
-22.99902 31.19444 -9.247589
-23.97761 33.3227 -8.210476
-20.82045 45.38911 -9.574877
-22.0534 48.17012 -8.223809
8.480617 89.29979 -13.24743
10.57769 88.64105 -12.81712
8.89397 88.16578 -12.75821
3.442916 87.83949 -14.20309
1.510991 89.56975 -11.74054
26.47701 46.88899 -2.63508
26.21962 39.1461 -1.93286
26.561 43.79111 -3.25172
-17.5077 87.17413 -8.280709
-15.1019 86.77664 -11.26317
-8.504736 85.55167 -14.82711
-9.418837 85.62738 -14.59399
-8.172983 82.04831 -15.25258
-17.5972 81.76252 -10.44813
-6.286022 81.32086 -15.807
23.06424 14.16263 -10.10184
21.39289 17.5411 -11.42745
21.53047 19.73424 -11.09831
23.442 53.46887 -6.942817
23.33299 54.14218 -6.954791
-23.05864 70.78906 -5.22219
18.66105 64.69365 -7.822613
16.25768 70.69675 -9.594795
18.90761 66.57482 -7.534774
12.75002 16.94939 -18.85845
13.89138 19.83306 -19.25759
12.31851 20.40071 -18.25826
13.08488 18.63472 -19.02769
10.07954 17.20409 -15.07251
14.1229 21.18966 -19.22526
18.83338 20.78281 -14.93419
-26.09082 30.9094 -5.953782
-22.83017 26.92997 -9.81922
-21.53376 27.07809 -11.28209
-21.40941 32.468 -10.96457
-21.60458 32.50943 -10.73459
-15.49538 23.71782 -12.52085
-18.15251 34.9268 -13.20118
-16.88693 34.50208 -13.16955
-20.63686 39.49494 -11.08279
-20.8676 43.10342 -9.983185
-21.42468 42.9456 -9.324444
-19.7456 45.6581 -11.16482
-18.34514 38.2512 -13.05836
-17.92719 38.97457 -13.22077
-21.72076 55.08524 -7.960127
-19.67762 51.5147 -9.870192
-20.04234 55.50409 -8.867101
-17.24894 54.29206 -12.98875
11.97427 89.63506 -13.39778
23.30762 75.29816 -5.241118
18.01932 81.07037 -6.586086
15.18587 86.59829 -9.001996
13.51749 87.26277 -12.92294
17.0875 58.72446 -10.86915
10.75038 72.91327 -13.2687
-21.88998 11.9584 -11.37098
-21.92502 23.88183 -11.05041
-21.89363 21.69405 -11.15472
-15.50541 20.10783 -12.41962
-20.16163 21.59583 -12.54292
-13.93107 23.33628 -11.13186
-17.70236 25.79671 -13.14368
-15.53176 28.06003 -12.56963
-11.31867 22.55618 -10.07146
-16.83537 27.33594 -13.11225
25.77387 35.08765 -6.091325
21.35064 33.08453 -10.5823
9.995361 83.90438 -12.2605
-8.446606 19.64506 -11.67887
-8.184505 17.74388 -12.41064
-7.399148 19.82874 -15.50541
-5.665771 21.83495 -16.97361
-6.733245 19.08817 -16.32775
23.74026 51.6233 -6.933097
23.07798 52.66826 -7.221138
21.13622 55.73873 -7.708094
26.5278 34.94995 -3.870452
-12.91894 89.81137 -11.75415
-11.123 87.28466 -11.35039
-12.83996 88.66602 -11.8764
-3.113983 84.40787 -14.79175
-0.6497262 84.53907 -10.85032
1.490824 84.60444 -11.80682
0.5867726 84.65466 -11.19464
2.349766 88.11549 -13.30932
2.110621 79.65461 -12.76272
2.217924 80.7028 -12.84479
3.491608 81.04031 -14.1811
5.841099 83.9519 -14.40648
8.421447 81.59959 -12.15116
8.81325 83.0757 -12.11615
3.727066 78.28358 -14.19275
11.20771 79.76601 -14.35734
7.045603 76.26023 -12.9206
8.902638 78.85448 -11.98289
9.255399 74.73888 -11.95432
10.03212 75.97727 -12.26715
-10.08543 84.4635 -13.741
24.82068 57.1405 -5.683299
16.30194 69.24534 -9.979954
10.76428 23.64731 -15.70844
14.36604 24.59406 -19.05711
19.68049 22.54019 -12.82205
20.2675 20.9921 -12.29264
17.41358 22.03873 -17.65988
-17.84663 28.17586 -13.15062
-10.98714 27.3221 -10.22721
-17.39548 55.52483 -12.90046
-23.72705 57.29493 -7.089511
-21.67939 57.84637 -7.78777
-12.64748 26.22455 -10.44696
-15.29181 24.09283 -12.39258
24.14029 35.71764 -8.000113
20.83551 32.66831 -10.96208
20.58852 32.82755 -11.14031
5.669271 86.84711 -14.58451
-10.78047 26.44269 -10.22274
-9.634241 29.03027 -10.7002
-3.147192 20.92718 -16.66808
-3.774974 23.91077 -16.93513
-0.7724339 18.14182 -14.59488
-1.216193 21.84229 -14.76996
26.27871 46.66677 -4.17389
18.72308 55.36298 -9.029334
19.41164 55.97819 -8.461399
16.99157 57.62513 -11.87927
-15.77413 84.42325 -11.48469
-5.781888 72.41556 -16.37288
-3.882444 80.18501 -15.52092
3.504696 75.46796 -13.9709
2.764991 73.57068 -13.50277
0.01689526 75.02512 -11.1429
-12.69666 82.61283 -11.79922
-15.66941 81.23095 -12.37588
-10.62265 79.28803 -11.40572
-10.69308 80.00128 -11.39986
-8.66215 74.61112 -15.21132
-13.6155 79.19794 -12.32224
-15.57244 84.74413 -11.59952
-9.164171 74.04456 -14.59214
-9.783103 74.65474 -12.75779
-11.91981 75.6166 -11.05756
18.34621 55.81215 -9.240012
20.2676 59.2385 -7.720962
16.84693 65.39489 -9.443421
14.13562 68.70184 -15.90048
15.64939 67.79342 -15.19396
14.18351 64.40621 -16.20091
9.56046 20.87255 -13.92571
11.84757 25.05906 -17.33658
13.15299 27.67131 -18.39952
10.71576 28.13489 -15.22122
18.70195 26.6057 -13.87764
17.62457 26.95776 -16.87746
-16.28208 36.39563 -13.0516
-17.77013 50.25137 -12.93522
-18.16744 49.06882 -12.76667
-16.37532 49.72242 -13.24182
-14.48298 48.82037 -12.43898
-15.03174 47.62849 -12.7352
-13.94871 47.46303 -11.97271
-15.24739 42.782 -12.74227
-16.09029 39.47035 -13.02822
-14.21667 36.25859 -11.884
-14.36954 41.79774 -12.0992
-23.18622 59.49417 -7.24462
-7.630297 25.53542 -15.2349
24.38004 45.77452 -7.006712
21.44911 47.99102 -8.477145
21.57516 48.81293 -8.310638
24.63693 43.8548 -6.913397
25.36638 43.58665 -6.134471
19.36147 44.73032 -10.32572
17.47423 48.72663 -12.51314
17.84342 44.19292 -12.38291
18.42966 44.17207 -11.25856
19.55298 39.52743 -11.37203
18.52775 36.36798 -12.39702
17.416 39.07774 -15.6375
18.42576 36.79365 -12.58182
17.03587 45.28616 -15.66409
20.9398 38.23018 -10.72381
17.3885 35.03195 -16.35829
17.19848 48.58658 -14.33739
-2.654201 77.45164 -13.75907
-4.930253 77.61102 -16.01734
6.672414 73.54958 -13.21484
-9.735745 71.66232 -12.40247
-9.615703 73.9867 -13.2952
17.12546 55.78632 -12.10161
16.34397 61.74719 -14.95134
16.56951 64.46317 -11.81482
12.98104 64.89884 -16.13846
11.80031 61.54894 -15.34114
14.0434 56.6005 -16.82806
16.83181 60.07869 -12.64771
16.95877 59.14203 -11.42356
14.1471 59.06343 -16.62306
16.87789 54.99857 -14.47005
15.82143 57.67152 -16.20734
8.948219 62.01988 -12.00895
16.43673 55.743 -15.66154
9.580774 62.4304 -12.19524
20.18104 25.01245 -11.95878
18.67697 29.01502 -13.45857
17.29636 33.26409 -16.65318
18.6152 33.28246 -12.83509
14.88339 41.5976 -17.93516
10.80631 31.62485 -15.10315
10.52313 31.46069 -14.61692
17.52223 31.15468 -16.45249
13.64991 25.35597 -18.83098
-17.28819 53.37636 -12.9611
-10.65717 43.50826 -10.4879
-14.68096 34.88361 -12.19341
-9.318838 41.52767 -11.48037
-24.48739 60.97336 -5.806319
-23.77562 64.20904 -6.313088
-22.84356 61.25996 -7.327701
-16.53986 55.526 -13.07635
8.196247 71.44783 -12.00818
7.59935 68.31901 -12.32021
5.864973 73.05856 -13.81029
-10.25154 28.26338 -10.40358
-8.186561 27.90619 -13.33291
-5.004919 27.82598 -17.0832
-3.444734 28.10665 -16.62224
21.97855 38.46535 -9.760218
21.83771 41.18487 -9.348781
24.52784 37.90785 -7.460565
6.338882 76.0715 -13.58652
-9.452506 70.22007 -13.3891
-15.96785 70.55796 -12.83959
-13.51564 74.53794 -12.16608
-14.5893 72.95004 -12.62203
-4.768803 73.2076 -16.08876
-3.038338 71.98492 -14.58324
-2.452145 66.56334 -12.80301
-2.975663 67.81209 -14.35641
10.14347 61.52234 -12.6816
8.171961 23.54835 -12.44593
5.754545 29.77045 -11.50815
17.13887 42.51497 -15.9002
16.43107 35.23738 -17.54921
11.94968 33.37778 -16.87918
16.29037 29.33098 -18.24986
-7.652748 39.0089 -15.75697
-8.995999 37.92821 -11.89179
-8.872528 42.7424 -12.38608
-7.386547 40.25524 -16.12263
-7.810284 43.7584 -15.55909
-8.15394 39.99514 -14.52795
-7.315842 42.6258 -16.14523
-7.605217 36.59533 -15.69937
-9.494473 38.46614 -10.95293
-18.78813 60.27546 -9.785514
-18.66115 68.01701 -8.650962
-19.77943 62.58101 -8.2303
-18.99585 64.43699 -8.763119
-18.2732 66.28255 -10.14382
-18.4265 61.64882 -10.37684
-19.1871 69.49301 -7.862184
-22.63675 72.39895 -6.405091
-20.57867 76.32286 -7.044201
-19.44631 58.22206 -9.114125
3.378332 67.53625 -13.64494
2.166477 70.6483 -12.82446
2.690132 72.81697 -13.38677
-6.887624 67.08934 -16.34264
-2.426459 67.43109 -12.70387
-3.115678 66.16948 -14.72564
-1.862261 63.78703 -11.8216
-1.40798 61.08219 -11.57897
-8.331573 34.28793 -13.62432
-1.940722 26.94986 -15.07575
23.59342 42.95502 -7.930986
-10.02779 69.41679 -11.74698
7.289329 64.71854 -12.5099
8.754444 26.0425 -12.68011
16.23594 38.69764 -17.51984
13.55736 37.12378 -18.01371
14.89941 43.19506 -17.84461
-9.47742 48.51974 -11.74139
-8.441231 47.60286 -14.29959
-13.60626 34.30099 -11.34737
-13.61829 31.25108 -11.24195
-13.43316 29.9615 -11.03022
-12.80828 31.60411 -10.65633
-15.30983 58.62828 -13.04184
-17.74215 71.67439 -11.05559
-16.55394 63.93929 -12.99923
6.030556 64.27437 -13.279
0.6105872 63.02439 -11.55124
7.216479 63.68715 -12.51253
1.852529 58.27501 -12.2187
2.264173 61.39358 -12.70433
6.546805 60.68521 -12.81296
3.604645 61.15573 -13.30052
4.810944 57.52776 -13.19361
2.924878 53.26479 -12.50938
6.737387 59.52676 -12.63231
1.459628 71.9071 -12.00894
-5.319833 63.01059 -16.5301
-4.595186 62.62295 -16.35422
-6.72097 64.4973 -16.41908
-9.411782 65.12599 -13.08811
-8.333822 62.14777 -15.39545
-7.230064 59.52776 -16.31146
-9.928426 54.37675 -11.31258
-8.612735 60.51457 -14.78738
-1.732677 70.37576 -11.6489
-2.491377 60.75719 -12.97816
-4.469445 59.51542 -16.39357
-10.08697 33.54464 -10.53977
-7.765524 34.605 -15.33941
-14.12553 65.54482 -12.42922
-17.86517 71.69852 -10.5098
-8.336029 46.47471 -14.51173
-9.901303 55.64317 -11.36995
-13.29688 64.34806 -11.86077
-13.79296 52.5121 -12.11317
-16.22581 75.46352 -12.58747
-17.77724 78.10667 -8.840243
-17.78108 80.48074 -10.37956
-19.08916 81.00183 -6.844552
-3.365467 53.80285 -15.38653
-1.186923 58.93099 -11.60098
-9.344517 64.79534 -13.22985
-12.25879 68.54575 -11.24816
-11.12671 67.25799 -10.83592
-4.966141 56.31062 -16.6189
-2.771311 28.55077 -15.99198
-13.65334 65.523 -12.13096
-13.58818 68.05836 -12.13572
-7.731309 55.81945 -15.91897
-8.115801 46.81875 -15.08983
-4.554428 49.73572 -16.57312
-3.145028 45.7117 -15.44915
0.5047032 60.0422 -11.4606
-3.606098 55.74181 -15.76736
-2.54591 53.48885 -13.29223
-1.677103 55.01956 -12.14362
-2.319124 56.85567 -12.72871
-11.24411 63.31993 -10.70288
-14.55808 58.45913 -12.68735
-12.20345 56.14138 -10.93835
7.557562 55.78651 -12.01895
-9.392851 61.00777 -12.74618
-9.536767 57.49882 -12.02397
-2.061625 29.01441 -15.06179
-2.37983 32.27317 -15.25462
-5.442472 29.18443 -17.07317
-6.035979 37.36044 -17.00762
-0.3314171 33.57826 -12.49812
-0.6128823 29.46954 -13.14357
-1.859957 26.65972 -14.99567
0.5449134 35.73388 -11.85435
-2.362438 36.39928 -14.92202
2.845388 16.94558 -12.16548
3.483483 34.82541 -11.35315
1.651753 33.52214 -11.61062
1.343673 31.66693 -11.82109
0.2457716 17.55179 -13.67841
4.734234 32.25146 -11.38854
2.996126 25.30281 -11.65794
7.939897 26.36106 -12.21626
3.512815 26.08383 -11.54814
8.466763 32.52422 -12.25108
8.299147 29.90702 -12.24815
8.355119 32.72726 -12.19733
7.759712 18.97391 -12.4346
12.04382 34.25204 -16.976
-2.610331 47.12418 -14.40302
-1.839116 49.08625 -12.59822
-0.4578078 49.22364 -11.55688
1.045625 48.41792 -11.50887
0.4108006 49.49262 -11.39952
3.626905 52.67207 -12.74766
4.94521 49.05294 -12.5921
1.535591 52.07508 -11.66988
2.696862 53.987 -12.42197
8.537513 53.21523 -11.98005
-8.203998 33.31599 -13.99634
-5.060874 36.95185 -16.94849
-3.142996 41.71904 -15.64139
-2.154756 38.24997 -14.35717
-1.217023 43.60675 -12.36044
-0.8914104 39.04977 -12.45758
-0.2547767 42.9854 -11.66251
1.31157 37.96451 -11.48954
7.049015 17.4445 -12.15812
5.562871 17.85557 -11.79109
10.48118 56.51116 -12.91044
11.63951 50.40261 -15.47322
14.37898 53.09434 -17.17763
9.552863 51.08445 -12.25657
10.14694 51.21635 -12.75857
10.61348 47.84473 -13.71219
11.01334 42.66159 -14.72805
9.494407 44.19219 -12.48603
11.39081 35.45947 -15.88093
7.698268 35.53868 -11.79301
4.836401 38.0354 -11.54182
2.557644 38.06905 -11.37029
6.168126 40.44098 -11.6263
6.61215 44.99863 -11.89911
2.455281 43.46781 -11.70942
9.53863 41.0816 -12.61683
4.05107 46.35506 -12.35045
13.71735 38.2601 -18.01182
13.05465 52.84072 -16.89635
11.8265 47.03276 -16.03204
12.86527 45.00119 -17.2034
10.31646 44.20011 -13.36335
13.51911 46.15182 -17.47404
9.111343 46.81215 -12.07869
11.56418 38.54861 -15.92958
9.345335 44.76749 -12.36713
6.388506 43.53325 -11.85122
11.02914 38.53552 -14.97562
15.6507 44.2193 -17.43896
23.18015 25.98697 -9.337652
-8.930483 34.44369 -11.71347
-7.551385 35.19739 -15.7728
-6.063905 33.80748 -16.90829
-7.208803 55.99805 -16.25054
-4.133819 53.24193 -16.32449
-6.128406 54.98403 -16.77325
-9.75473 53.52963 -11.51946
-7.842917 53.05417 -15.77347
-7.414318 51.70985 -16.24874
-13.3414 141.2545 3.865201
15.25802 136.152 -0.0673864
-17.61346 93.79243 6.049787
-0.3973446 94.42802 10.37
7.949012 115.2687 10.25244
-11.18734 93.51509 10.28759
-12.45015 117.3193 3.862189
-14.86181 133.8784 7.058793
-0.3633209 92.973 10.57888
-10.16708 147.8752 1.248038
-2.346745 153.2131 1.26612
-6.780232 152.3223 -2.583781
-2.9402 97.34444 10.39694
6.047483 153.5305 -2.642707
9.739082 145.8969 2.916048
17.95725 96.00457 1.839694
9.842363 152.2495 -4.981782
17.4758 94.10432 6.017721
-8.528907 93.53029 9.690344
15.31475 99.39207 7.080267
-1.148433 94.60741 10.33699
10.08895 99.35738 9.467837
14.73479 132.3621 2.996862
12.98572 121.1338 4.516193
7.923181 151.558 -2.566827
14.95258 134.8907 5.776243
-12.09239 120.1265 7.22251
16.89192 97.17613 5.324904
-13.85229 94.00356 9.371104
-16.33792 97.63578 6.211761
-14.79489 132.1995 4.867114
-13.39475 140.171 4.491656
-6.973305 147.4007 3.138155
-6.686491 152.8082 -3.035005
5.712773 152.1091 -1.103907
14.52902 131.1142 5.254291
-16.14214 104.8282 3.914998
-13.174 114.2437 4.006416
17.1479 99.66678 3.313091
-12.64098 98.35569 8.852258
-13.39415 127.49 6.2258
-12.16041 141.8839 4.471951
10.66083 144.6359 3.466645
-11.2073 146.9426 1.16704
10.07718 147.6295 1.618896
12.73732 126.623 7.172412
14.41821 133.4021 9.036101
-12.86189 114.9812 4.541335
-15.21466 108.4465 2.471117
15.52108 104.8192 5.793931
-12.27318 97.90159 9.006986
-13.10375 122.9403 4.449468
12.56016 120.8546 6.149751
-13.21726 128.4466 8.147103
-11.22798 143.8091 3.874145
0.7511712 152.8454 1.651344
8.489917 145.2578 4.157686
14.15876 130.0256 6.154238
14.23577 134.8718 8.633107
-16.06409 105.3853 3.69202
16.16029 103.8263 4.661648
-15.61124 101.9311 6.361438
-10.02945 100.5298 9.525284
-13.91274 128.8014 4.657733
-11.7902 130.4779 12.123
0.5564656 153.6196 1.815907
8.364117 143.4481 5.24084
14.75941 136.1662 4.718542
-12.49866 118.5532 4.925516
13.73066 112.2082 4.469711
12.97554 117.2345 4.211411
-15.84348 104.713 5.137796
-11.84304 125.5358 8.770906
11.837 117.837 6.934732
12.86135 127.9892 8.221365
-12.67773 123.3511 7.226919
-14.99396 108.0573 4.489384
-13.10631 99.50923 8.579639
11.9698 116.2401 6.693595
14.78627 132.6105 7.636867
13.62007 135.1235 9.58269
-11.22739 121.3819 8.651587
-15.08428 102.9813 6.907451
11.39405 122.8418 8.651665
-14.43368 130.8021 7.788866
-6.882366 149.0851 1.499213
13.14765 136.0191 9.560824
-12.31672 117.7657 6.817913
11.92683 120.9073 7.715126
-14.87979 134.8071 5.967971
-11.87267 127.1133 9.420671
-10.84657 128.8524 11.75139
-14.46914 137.4251 4.769404
-5.939645 147.6721 2.911897
-8.345955 122.9074 11.02682
-13.9292 129.4275 6.866646
-10.46906 128.7395 11.86278
9.833984 116.1209 9.160028
-13.67423 139.2603 4.948602
-0.06908392 140.6425 8.779466
-7.671509 148.4655 2.084221
11.28185 117.9285 7.950058
8.384914 120.3987 10.74419
8.190475 114.2751 10.07964
8.532454 114.5431 9.88154
2.418629 109.5609 12.2321
7.072134 112.2197 10.76919
5.414167 117.9488 11.47075
10.67061 109.9716 9.293457
11.26248 113.0205 7.910319
13.74755 109.5023 6.286515
-8.906055 95.03074 9.724527
-7.788268 96.35403 9.793658
-2.679235 96.26473 10.29288
-5.80001 98.11644 10.17626
-4.122567 99.73766 10.72539
3.081975 101.0146 11.25197
2.269276 100.2059 11.12638
-2.947026 104.2056 12.06511
-1.232964 101.3666 11.55723
-4.674276 100.3605 10.76511
3.493915 101.0778 11.19744
-3.567064 102.6416 11.6216
-9.719836 105.8429 10.09275
-8.432903 102.0965 10.13246
5.393615 151.0861 -0.0191884
16.87551 93.86649 7.044396
-9.565722 149.8479 0.2423054
-10.45449 144.4936 3.884502
-10.9001 139.2478 8.279143
-10.83546 138.7192 9.030987
-8.074309 137.6116 11.61781
-7.347708 137.0842 12.1309
-7.941712 136.3772 12.69307
-7.681329 132.4998 13.93723
-11.64304 137.3871 9.998389
-14.30195 135.4744 7.769909
-13.24298 137.0493 8.145153
-1.297347 133.8694 13.6553
-8.297849 128.9775 12.73693
-7.132778 130.3418 13.4404
12.22962 137.9604 8.460771
-12.95647 112.4739 6.195645
-13.23689 110.0864 6.750277
7.747187 142.063 6.753553
13.3689 101.8627 8.401789
13.82132 102.6441 8.096515
11.16464 99.47591 9.209651
-11.71848 116.6728 6.942679
-11.3821 116.732 7.499798
-12.2503 111.1861 7.521137
-8.93534 118.2322 10.44018
-6.691918 124.5121 11.80589
-7.306969 121.9706 11.41556
-9.184641 125.386 10.93932
-3.176102 149.8114 2.144002
-2.853804 147.8514 3.889746
0.3270247 147.0941 4.353562
-0.9682133 146.0165 4.995029
6.095813 112.8579 11.16683
-5.847238 108.0107 11.69164
-0.3852558 109.6871 12.20878
1.412656 108.5578 12.28631
6.068241 111.479 11.30128
5.738052 109.4769 11.65744
6.654157 107.3965 11.34572
11.77826 108.3062 9.005035
10.88803 105.1728 9.615789
8.807508 100.2542 9.831438
10.97766 103.6593 9.475793
8.549945 102.8131 10.18027
-8.829995 100.5051 9.837558
15.97105 94.73763 7.673111
13.80471 99.22586 8.311254
12.3887 93.16199 10.23678
6.909688 98.11665 10.04367
4.038568 94.96638 10.05735
-5.795395 139.7371 9.426899
-4.20696 137.4878 11.66615
-1.562753 135.05 13.2909
7.877302 150.2027 -0.1865888
8.47133 137.9529 11.1861
6.672438 138.8583 10.34997
8.77828 135.2487 13.30359
8.59886 136.1739 12.79132
8.519725 133.4612 13.84098
7.700444 133.7037 13.84722
6.731987 134.6049 13.60241
10.7124 128.3805 11.43913
2.268159 133.3451 13.72916
12.60018 132.148 11.886
11.84118 132.8996 12.51957
8.428196 130.9978 13.63525
7.049367 124.1348 11.65287
-2.281069 138.9628 10.28742
0.7658229 136.9306 12.10295
-2.831029 139.7402 9.555354
4.460362 136.3902 12.55193
0.7395289 138.9561 10.28821
6.331023 137.7934 11.47457
8.87116 140.5324 8.105775
2.475732 138.9013 10.33503
-9.592002 111.5686 9.531569
-4.168547 110.9025 11.97736
-6.83016 104.1456 10.95645
-8.76436 105.7808 10.44998
-7.498861 109.208 10.94008
-11.31667 109.2513 9.105059
-13.63497 109.8129 6.260707
9.619307 98.37592 9.562963
-6.374544 126.8625 12.26028
-0.8011904 146.5591 4.658312
0.7109116 144.9118 5.695902
2.286311 142.6573 7.152518
-1.899062 144.7383 5.779778
-3.450131 140.8265 8.555929
-1.643991 141.4452 8.098562
2.303532 146.4912 4.681977
6.160434 146.3257 3.781984
0.116737 117.4023 11.99561
-2.082308 113.8199 11.95852
-0.2250471 109.3784 12.22748
-1.852101 105.7865 12.35162
1.371577 105.8924 12.34032
4.706262 104.2326 11.66685
8.459302 93.96307 9.905827
0.08174369 129.818 13.29748
4.295925 130.674 13.53096
1.87479 128.9767 13.08058
4.368558 135.1038 13.28951
-6.09919 109.0846 11.53773
-0.1331165 111.9083 12.08507
-7.49096 111.0095 10.72293
-7.051894 106.6831 11.15838
-3.517493 127.7298 12.72803
-1.514236 128.3098 12.91302
0.1113256 125.5475 12.45925
5.111209 126.928 12.46481
0.1264407 119.6426 12.04759
-0.243856 130.4442 13.45869
5.598988 127.24 12.47677
-2.300987 125.3362 12.40539
-4.799429 121.5454 11.89843
-2.632726 121.7946 12.10047
-6.152423 119.9257 11.38693
-6.59132 117.6893 10.93082
-8.868197 115.4474 9.674315
-8.456944 114.1068 9.84655
-1.643292 119.3868 12.0014
5.293697 105.9491 11.77321
2.070415 122.5348 12.18231
5.341548 121.6517 11.85846
10.34566 122.9013 9.649659
-2.206614 114.5219 11.93291
-26.03758 18.64243 -0.4668491
-26.33028 21.26061 -0.644977
-20.9138 11.17406 8.508584
-25.07124 47.80423 -0.1545572
-16.91093 13.10109 15.41944
-2.473667 8.559805 12.35405
-20.78757 9.686401 -0.2052698
-21.5301 9.88773 11.58883
-24.54425 51.69579 -0.07646082
-25.76674 12.11124 -0.135247
-23.54771 69.45326 -0.04340493
-22.06385 71.36797 5.442092
-15.07893 93.4627 9.337156
-2.170491 86.64401 11.59346
-17.80841 93.32793 6.183935
-24.41592 62.28732 0.127223
20.68514 9.313331 4.350543
22.38697 8.877099 8.170156
15.01903 9.782351 15.84128
16.75446 79.18527 11.45021
22.71304 14.77555 -0.1231315
21.54264 9.157523 2.342964
22.519 42.66394 -0.1228905
21.77584 84.03799 0.4010268
-21.79127 88.45397 0.6535526
-15.2657 14.49186 14.74497
5.720497 91.65465 8.761024
22.20652 28.34936 0.6460951
17.79758 12.46387 15.96553
-19.4307 93.19437 4.694553
1.820439 20.52682 9.994579
-18.51976 92.37688 5.511244
20.46047 89.86446 3.925131
-25.45681 18.73495 -0.2638337
-19.104 11.92282 4.53931
-16.31726 12.05995 15.28213
-18.98183 15.56165 3.451127
-23.13046 78.35252 0.0259065
-20.45894 86.78995 0.9627656
16.29994 11.37343 15.98191
21.06986 8.918427 6.047838
21.89159 22.05323 1.145835
21.44589 80.98547 1.212146
21.56086 85.50174 0.4182546
19.17616 90.53921 5.473348
-25.2202 21.40212 -0.3091973
-24.60283 46.05978 -0.147464
-19.63918 10.95458 15.27309
3.275294 90.27299 9.849645
-9.776527 88.70384 11.53829
-25.00449 66.58498 0.1048843
-23.28277 82.09418 -0.05143958
9.883268 9.281593 12.37859
18.92086 11.58898 15.88059
21.34728 33.20492 1.562165
22.24294 9.55465 7.944957
22.32873 15.3385 0.455678
20.96407 58.13311 -0.09030096
21.20306 75.74565 -0.4428893
13.20899 90.8579 10.56186
20.71056 89.75542 4.392313
-25.34407 29.55776 -0.4404959
-21.0083 9.854683 8.89981
-23.8771 37.76481 -0.1765666
-18.03823 10.58456 15.54719
-9.896506 9.979049 9.111001
-1.812993 14.20194 12.66833
-15.39999 92.44135 9.348244
-23.37365 77.40328 0.05412283
-25.31211 69.64824 -0.0537584
-24.46189 62.72633 0.1365356
-20.88189 89.40975 3.202014
-21.21506 84.93594 0.4732279
9.786713 9.827531 12.28407
12.22838 11.76173 14.75461
23.24658 38.61154 -0.4080208
21.7695 44.52498 0.2441928
23.40844 9.145431 13.35451
21.08788 22.32101 5.417917
20.8604 13.3442 3.384949
21.93243 58.30272 -0.8841911
20.96578 74.39435 -0.6312101
21.30979 79.59485 -0.5459113
13.69329 92.00097 9.689813
7.372252 90.52921 10.5027
21.04554 82.76242 1.462621
-26.30984 29.93458 -0.7320858
-21.20778 33.73272 0.4597778
-25.92524 49.41904 -0.180976
-21.33198 12.47882 12.50231
-13.2944 12.56913 13.05837
-3.216803 9.378501 12.00366
1.643898 91.8242 9.228988
-16.15457 92.09773 8.342452
-22.09403 75.14668 0.008373152
-21.21659 81.78415 2.810036
-24.31278 71.28827 0.03704596
-20.60197 67.60866 2.387195
-23.75245 62.48297 0.08115092
-21.23924 62.9747 0.8353744
-20.91688 86.72566 4.826395
6.635303 9.532128 6.894063
11.6091 9.150383 14.24556
20.85657 12.33888 15.25382
22.39258 32.29159 0.3733914
20.78564 44.00219 1.851825
21.51203 13.3475 6.648085
22.20752 12.73501 14.35764
22.10725 54.21785 -0.6027489
20.61418 61.54176 2.492992
20.57261 72.06258 1.692072
21.29107 77.31876 1.10567
18.10636 89.77894 8.590521
15.4026 90.95707 10.11922
6.472713 91.91547 8.81481
-25.16526 31.94662 -0.4152995
-20.74064 45.13477 1.356574
-20.9469 46.311 1.089668
-24.99845 56.30647 0.1005877
-25.51243 39.49228 -0.399857
-18.23018 12.04025 15.50281
-10.97295 13.37811 10.07773
-8.606032 14.70465 8.655564
0.4607609 9.513494 11.9583
1.123998 90.49995 9.556449
-5.031552 90.7534 8.459953
-13.32988 90.49612 10.21108
-10.75982 90.19341 11.90822
-21.43119 66.81034 4.51677
-20.52881 61.75954 3.050321
-19.81789 86.25471 5.297673
17.62234 12.49379 15.97859
21.87202 25.56822 1.087121
22.12588 32.58529 0.5709522
21.23129 38.51278 1.420552
20.94771 14.28541 5.3815
21.71767 10.95219 7.144441
20.76943 58.84179 0.2100734
22.19487 62.1293 8.819591
20.54101 68.99845 2.437291
22.03316 74.10567 5.204703
17.386 87.22231 10.6961
20.548 83.67123 2.404685
-23.01714 20.83086 -0.3147931
-20.25155 42.73119 5.046522
-24.98447 38.34814 -0.31897
-7.067448 15.00374 8.946393
-5.606896 13.42324 9.899566
-9.715462 17.45204 9.021904
1.252114 88.90192 9.860039
-15.15863 89.15388 10.96858
-7.630904 92.4287 10.03609
-21.06686 73.24686 0.8165129
7.577071 10.31033 7.62619
20.93198 37.42278 2.394166
21.51468 41.83685 5.705187
22.22251 13.52089 7.74798
20.67857 47.75034 2.665934
20.82533 67.59187 3.042432
16.18177 87.86685 10.75479
-20.40463 50.32511 2.11355
-21.52198 34.35329 0.3238779
-21.22501 37.49226 0.5944307
-4.477947 13.19388 10.93108
0.5324179 89.08176 11.66226
-3.757598 88.28493 11.28127
-8.468037 92.85951 9.600808
-20.69146 62.69444 3.468221
13.43466 12.89262 15.3655
20.49078 54.63135 1.657927
21.95551 64.25007 4.947635
-20.31631 52.03699 2.629615
-22.25881 54.61222 0.1392722
-4.372052 11.76536 11.1222
-3.499897 11.40104 11.82984
-21.86819 70.63318 7.405243
-24.83303 57.21851 0.1120903
22.05367 22.95466 7.324022
20.59253 58.47062 2.645432
-24.2757 37.15688 -0.232243
-7.614126 18.25876 8.62499
-21.99505 70.57185 5.08671
21.80546 20.92292 6.951771
-21.478 57.31308 0.5454056
-22.30318 40.39723 0.0923814
-11.23326 88.44923 11.98019
-4.839127 85.71246 10.35455
-21.77472 68.65122 4.872368
-19.13842 71.01141 12.29189
-19.38301 69.58599 12.2508
-20.70359 73.85976 9.579837
-21.61311 49.18881 0.4205833
-13.21527 87.09557 10.8317
-20.15269 48.01622 2.921151
-21.15175 51.58405 6.510761
-20.22042 50.28997 3.980438
-20.47136 47.49496 5.171885
-21.27658 68.19633 9.562008
-21.72429 46.12555 8.909883
-20.96457 55.10985 5.498918
-11.98723 87.26721 10.88681
-21.72998 45.25758 8.853715
-20.68187 58.79348 1.675745
-18.5083 69.12389 12.82646
-21.73749 51.17994 8.585414
-21.22365 53.67066 11.10206
-21.46134 46.65659 7.824434
-20.66024 45.01989 5.901918
-19.30232 86.72607 9.178677
-20.07783 54.08733 12.66747
-17.63419 69.7198 13.02489
-20.78979 43.12378 6.323574
-20.82922 39.73331 6.64409
-20.95508 41.22936 6.836349
-12.86815 79.67549 11.66196
-13.50582 79.42165 11.41809
-9.212064 76.9196 11.85801
-15.24858 79.21659 11.69411
-14.78625 76.49716 11.7683
-17.97893 76.92317 12.35002
-16.16824 73.00768 12.68649
19.21703 92.49609 4.161046
-19.07496 13.73085 4.382137
-19.01972 13.27738 2.253242
-19.97827 13.93118 0.5091956
-19.93225 91.72219 2.54896
8.492867 89.0701 11.37067
21.33297 85.7178 4.613972
-21.53918 14.14538 10.67771
-20.70448 15.69463 13.92423
-18.38339 14.64147 15.43729
-21.91452 75.2685 3.734426
-22.0369 76.82315 3.702421
-21.64613 79.63331 2.897374
-20.98067 76.50086 7.630958
-20.21665 76.82201 10.23768
-20.03877 81.69427 9.011412
-20.36096 74.32896 10.57919
-19.50399 85.13161 7.066
-20.08216 85.35793 5.327509
-22.17723 79.69993 4.019077
-19.40191 86.29696 7.086217
-19.95829 82.26161 9.446627
-21.17234 81.61984 0.3244866
9.177691 11.96994 11.10793
20.97224 35.59386 4.484902
22.00445 62.72003 5.155526
-20.81432 29.45294 0.6638616
-10.8025 19.3626 10.04346
2.942276 12.07456 7.391528
20.70708 46.91744 1.984614
20.65714 47.67312 2.492003
21.21127 72.06631 3.922215
22.03546 72.76688 4.939781
16.95127 88.56123 10.60308
-20.88586 18.64594 0.08838686
4.714056 88.60197 9.726558
20.92955 38.76358 4.186941
22.7457 32.31593 8.626068
-19.84599 36.13677 3.02491
-21.09315 39.88932 0.6842183
-22.08219 39.73388 0.1589008
-20.36741 39.98982 5.592597
-19.78739 35.46836 4.46349
-20.41418 32.65178 6.328579
-19.64787 31.47117 3.323324
-20.27828 32.2148 6.086751
-2.931913 86.08022 11.44483
-1.999419 80.45287 12.91984
-0.1395897 84.96698 12.75114
-0.2650764 84.09487 12.83289
-21.86931 64.2546 7.18094
-4.951972 15.61986 10.27419
20.9656 19.2516 4.882141
21.39331 22.73318 6.189599
22.65502 21.94879 8.308164
23.7144 13.5793 12.23514
21.41487 26.80187 6.112372
22.99632 15.29038 13.44954
21.75402 29.7909 6.748558
23.35544 26.0891 9.986853
22.47137 15.16418 14.00749
21.83676 24.5027 14.05592
23.05342 28.77157 9.263001
21.93796 28.08154 7.059314
22.98898 33.08272 9.317808
23.00297 36.72884 9.499932
22.00301 29.03731 7.183423
21.09069 59.72193 3.705136
22.40608 57.29887 7.926464
22.20003 54.61156 6.617189
20.98434 63.34713 3.321484
22.31211 62.50643 6.776451
21.10188 63.58953 3.562067
21.87463 59.67716 11.35627
22.11776 61.73916 9.847591
21.34869 42.85161 13.42176
22.08859 55.58599 11.47474
20.02451 57.80738 13.21877
-21.00889 59.64917 4.727053
-21.713 60.9884 6.960637
-19.31099 68.06931 12.40803
-9.834682 80.89983 12.55909
-19.72925 84.8447 8.81627
-17.04353 86.09994 11.22617
-18.78747 55.99945 13.38374
-18.91673 53.65202 13.42059
-14.21196 53.87094 14.23219
-19.59704 52.06474 13.12283
-19.33814 58.59341 12.98922
-20.94828 56.79646 11.48232
-16.3315 72.36206 12.7979
-13.34504 74.90791 12.37267
-12.66448 75.22983 12.7093
-16.85921 84.24825 11.64485
-18.36812 81.03985 11.48822
-19.05091 18.17955 3.197826
-20.32623 19.88888 0.5780528
-20.34601 14.88795 7.045536
-19.13508 19.63746 2.4923
-21.54364 17.11765 11.10488
-21.44448 18.69781 12.11539
4.790491 87.78305 9.489958
3.2227 85.81842 9.408628
6.72492 87.51368 8.361936
19.1974 88.04649 6.210849
2.053651 13.18538 9.527178
18.81264 85.81247 9.709255
-20.93468 23.95561 0.3649718
-19.21376 21.08757 3.792347
-19.51179 23.801 4.539495
-19.39876 24.2827 4.084411
-21.22169 18.10982 8.923618
-19.98926 23.48568 5.790113
-19.97297 25.05471 5.641415
-21.52343 23.15024 9.650426
-20.59217 17.4795 14.06846
-12.74809 17.13478 12.70166
-12.93189 13.24416 12.68017
1.939293 14.11601 9.865974
0.9798042 16.31255 11.53656
-2.70189 17.49346 12.29503
16.05056 15.64835 15.83234
20.97654 43.27303 4.213492
21.6287 47.80991 5.611598
21.37208 77.74491 4.273798
17.67374 85.12215 10.88706
2.48454 89.15865 8.791839
-0.6177005 87.01367 12.60995
-5.058613 83.07023 7.841589
-17.2413 88.41106 9.612597
-21.30293 60.49865 5.428008
16.5025 16.87178 15.80911
22.00675 21.14134 14.10542
22.24514 24.37087 13.69269
20.62708 25.38704 14.72412
19.36087 22.96355 15.24762
22.44084 12.85133 14.12814
19.19052 19.20231 15.48994
23.25637 28.73419 11.58667
21.71782 62.12651 11.29756
20.64526 71.02291 11.57409
-21.77097 63.21265 8.376991
-20.83222 63.57938 11.10574
-21.47812 58.74769 10.20943
-21.71478 62.27102 6.60283
-17.59677 63.03569 13.45839
-17.01743 55.67578 13.97557
-15.25072 57.31248 14.05348
-18.1834 64.59721 13.19342
-18.19577 65.62759 13.164
-14.95432 69.21825 12.87043
-4.840715 72.18505 8.041294
-15.13128 60.0697 13.87883
-7.186209 86.46368 9.048762
-7.425819 83.48108 8.571697
-13.91295 54.15935 14.20848
-10.34446 54.65025 12.46998
-20.90215 46.10041 11.95536
-17.59555 49.15242 14.18633
-19.71292 44.91213 13.38727
-18.71542 45.24192 14.00393
-12.54794 49.24998 13.96579
-15.77651 46.53762 14.53455
-9.263126 78.29453 11.95945
-10.02037 76.77818 12.85423
7.952743 14.61556 8.220424
5.876339 13.88156 6.641305
12.11676 86.56315 12.17574
11.36055 83.97914 11.89622
-20.43683 30.43023 6.541807
-15.40246 14.16307 14.83227
-0.2790381 20.0964 12.71132
1.440646 19.06527 11.0016
-10.4142 45.98339 11.55903
12.31009 18.02835 14.93867
20.04192 80.35893 7.68823
14.73373 83.83331 10.55355
14.19844 84.7877 10.88145
19.16178 79.96115 11.41639
19.85945 80.40367 8.039871
20.00086 82.66502 8.978118
20.54969 76.23346 9.369526
21.17052 71.59187 8.414581
21.28622 70.22045 9.864192
21.25571 80.01688 6.718858
20.77002 73.8278 8.88708
20.34083 83.99299 6.791273
16.24519 78.06549 11.19133
21.3698 76.62826 4.193678
18.10097 61.66447 13.00491
19.89009 82.26741 8.517426
-19.2368 43.17196 13.83082
-18.1323 41.45779 14.39642
-21.53679 40.17671 8.38965
-21.53893 38.5593 11.14135
0.8453201 82.84675 8.975563
3.207197 83.03815 8.990621
0.5928982 80.8896 9.890667
22.55097 20.6314 13.5587
22.06981 19.16172 14.21707
20.32962 19.10702 15.11669
19.2514 26.82565 15.13252
22.66526 35.36863 12.34202
23.0687 33.16143 11.75131
23.11258 35.52552 11.02608
20.76177 31.78191 14.33796
19.76669 34.44659 14.63432
16.50945 63.31485 12.54744
1.12236 69.12008 9.597404
-20.46493 64.52328 11.57777
-13.67385 65.26379 13.4815
-8.780423 81.27493 8.952991
-7.303763 82.33495 8.116152
-6.48523 80.39484 7.56468
-9.101969 61.52758 10.12999
-18.0059 45.03733 14.29544
-16.75928 47.58952 14.39586
-13.19546 46.73559 14.16068
-11.59961 47.41145 13.3332
-10.24268 48.38511 11.49938
-11.24851 41.20896 12.40315
-10.64122 43.78054 11.71639
-8.923305 48.05717 8.730447
-10.72736 50.12026 12.51356
-9.891758 42.4398 10.02145
-6.721416 46.12285 7.985819
-6.134628 50.47103 7.946142
-3.822154 49.1319 10.60114
-10.9125 75.54283 13.13083
7.960305 88.42204 10.95838
9.564759 86.66196 11.2482
8.125985 12.80593 8.500612
6.301149 14.03179 6.776256
4.795961 17.63091 6.447196
7.113352 83.57957 11.69006
-4.202764 19.69312 10.89503
-6.047697 20.08485 9.21698
2.952134 21.85714 7.313996
19.02252 21.57686 15.39459
11.553 17.58589 14.55973
14.52786 20.78764 15.55017
12.06384 20.96026 14.88303
13.27716 21.35434 15.28583
8.485436 16.74568 9.535446
9.735678 25.04148 13.37855
8.751473 21.21145 11.10696
22.44755 47.46091 7.824948
22.62158 47.66962 8.625171
22.10607 43.73279 6.953796
22.921 41.43062 9.366493
22.73297 43.82279 8.725713
21.40597 52.89589 12.65578
20.92526 54.17279 13.00357
16.91438 56.33223 13.25857
22.73693 45.51736 9.098203
17.61157 47.80116 14.02924
22.34337 42.56565 12.23616
21.01876 48.01884 13.34773
18.66832 35.50108 14.78286
17.23909 57.8453 13.15456
22.67446 48.85448 10.24175
19.84574 41.67471 14.20114
16.83438 53.71976 13.47526
21.09007 48.82203 13.23072
21.12371 46.62768 13.38104
22.52407 52.59634 9.072459
16.96324 50.7543 13.69778
16.41445 43.17379 14.39512
16.03075 44.29131 14.30304
13.58137 50.06673 14.28836
16.49254 47.72853 13.95986
-3.316883 48.08051 11.55167
13.06576 49.54207 14.42014
20.66045 76.42735 7.800299
19.57446 86.11105 8.983846
14.59165 79.76096 11.18062
-20.34881 43.0803 12.86503
0.7154999 78.26408 10.63638
-7.54682 80.19125 7.91992
-4.225615 80.69652 9.200318
-8.683922 76.09093 9.611703
-5.709764 77.56899 7.577657
-5.840637 74.20048 7.509717
-9.097487 73.87154 11.65477
-4.828442 75.99394 8.050287
-3.750024 64.38808 10.29252
-5.291819 68.6301 7.808391
-3.972847 68.03667 9.493937
-4.109944 66.18378 9.265372
0.7880352 74.53553 11.32382
-0.7863281 75.44231 13.28244
-2.055142 76.24919 13.05196
-3.683778 75.499 10.69616
-4.011764 78.70589 10.39353
-4.89099 76.52625 7.998563
-4.354668 80.88911 8.554646
2.091052 81.28409 8.074868
1.703187 77.33492 7.87181
11.97274 73.8921 13.90793
7.34936 79.58909 8.737798
22.9646 36.40388 11.61162
-13.05635 66.45542 13.46961
-10.64019 66.3071 13.34915
-9.022688 69.31315 11.25848
-13.4862 39.08204 14.29073
-21.43227 27.97045 11.93137
-17.41169 38.91807 14.73338
-20.71033 43.11631 12.42962
-19.85788 39.51912 13.55471
4.183443 22.0425 6.501561
-6.900656 44.91851 7.967443
-2.897262 41.00774 12.03922
-3.359241 44.84799 11.48586
-4.065677 46.34125 10.22308
-2.773517 47.62836 12.25871
-2.486276 42.52489 12.45565
0.8982339 51.71236 12.25906
-8.717705 51.49675 8.567281
1.597493 21.48526 10.4759
6.625364 20.68584 6.932939
5.200957 22.97157 6.449659
5.450148 26.08713 6.449766
4.401012 24.64373 6.506514
7.888319 23.88605 8.404866
2.796526 27.14428 7.380356
0.3287304 28.84651 12.50725
1.352835 27.50742 11.20358
1.680051 27.58669 10.14458
2.215891 30.11479 8.291187
3.726469 31.10526 6.563108
-0.2258784 30.95563 12.76764
11.42139 24.66656 14.67371
5.186765 34.1515 6.540192
-0.7404158 29.24146 12.90067
1.292919 32.14663 11.37237
-4.478961 24.6246 10.55787
-3.742355 23.26322 11.44596
-3.854994 25.23498 11.26903
-4.851112 27.68 10.0246
-4.387118 27.4769 10.58532
2.803171 32.06718 7.333804
1.513128 35.41243 10.81067
14.92302 23.06122 15.51363
10.65922 25.81785 14.27924
20.72704 45.32884 13.68769
-21.23776 44.10315 11.51802
-0.06786241 73.82464 13.127
0.771555 76.35677 10.65922
-8.056637 69.02213 8.289101
-11.07029 69.99154 13.41555
-9.418878 69.53598 12.1761
-10.59686 64.91048 13.29941
-9.865251 62.07684 12.33359
-8.701132 65.34293 9.328959
-8.652527 56.56446 8.696374
-7.686779 65.85091 7.952307
-1.880592 70.42795 13.14679
-3.334689 63.18722 11.27762
-3.057023 66.19397 11.93834
-1.30434 70.22859 13.24574
-1.472872 67.15353 13.24278
-0.4810271 68.79144 13.32735
4.673201 77.91458 8.263827
6.918684 81.62797 10.33134
9.822661 82.50068 11.54395
9.920967 81.03094 11.95913
11.5542 78.97678 13.32161
9.289125 78.00305 12.63207
11.67206 77.38734 13.61139
12.53066 78.03673 13.57664
10.14972 74.15495 13.71911
16.47103 74.84935 11.44483
14.02094 74.97331 12.26896
-9.034226 53.32934 9.134676
-10.87797 59.6986 13.35855
-9.670785 58.54206 11.56617
-8.607894 56.54171 8.637
-16.52635 38.22525 14.82644
-19.83979 36.00182 13.75287
-21.57281 31.89737 11.3833
-21.50742 31.18082 9.02615
-21.71702 27.58063 10.20869
-21.73535 31.2482 10.41039
-16.92763 22.65439 15.34168
-18.72538 25.97794 14.76113
-19.94633 19.33364 14.55223
-21.47304 17.91135 12.13698
-18.53429 28.49293 14.79833
-18.7831 29.90425 14.65291
-9.223891 39.75425 8.873718
-10.2313 38.16106 10.27285
-7.76721 37.64436 8.018846
9.078966 31.75401 12.92527
8.355154 36.73036 12.04733
8.222452 34.44656 11.36046
7.691503 31.34448 8.39704
8.082552 34.05443 10.65781
9.788618 29.58484 13.7101
9.360167 29.63082 13.15577
8.49283 40.58013 12.76624
9.113586 38.77908 13.50409
10.67555 40.22588 14.48981
2.355882 38.89544 7.948699
3.104593 39.84831 6.797787
0.2676865 37.98268 12.70331
0.5052903 34.82518 12.48305
1.576194 39.26001 10.77048
2.527262 38.96853 7.648852
-0.5940374 36.28904 12.95427
1.449769 39.72742 11.19018
-0.9989909 39.50492 12.96481
-0.904229 32.0423 12.93112
-5.059802 34.17015 9.375949
6.020101 39.1164 6.747627
7.030505 44.13124 7.60897
-1.864528 30.02173 12.75018
5.065024 44.91553 6.45229
-4.457978 38.54109 9.891205
7.917318 39.77423 10.83565
7.429862 38.22937 8.13647
1.738186 42.32251 10.17473
0.6280648 45.7724 12.4614
1.030075 41.16621 11.9228
-11.38972 20.56547 11.05027
-5.900817 24.7678 9.074254
-12.24026 22.8481 12.4365
-12.19473 25.18344 12.54237
-12.39694 24.96929 12.7432
17.38218 27.80321 15.32399
10.52948 26.78324 14.26383
17.29147 41.72924 14.5255
-8.949124 65.53186 10.14016
6.518443 78.19901 7.367695
7.380209 75.89211 8.466834
-11.62731 58.28794 13.6999
-4.154211 51.48259 9.879294
-3.372208 57.26813 11.46576
-2.915011 50.33791 12.08723
-1.848016 52.62468 12.90972
0.09636757 52.1106 12.91489
-4.876337 61.9026 8.304646
0.9397507 50.93601 12.23455
-6.308522 58.53626 7.7512
-21.47281 24.76837 12.01919
-17.36249 30.20506 15.05317
-6.052013 38.17198 8.413424
7.908845 33.00414 9.418156
8.194275 26.57915 9.566097
11.21474 29.87238 14.70264
15.70419 37.36722 14.84778
11.91014 39.147 14.87155
16.62639 35.84842 14.88668
14.9266 35.99512 14.99201
6.95042 38.59938 7.400913
4.311826 44.72319 6.402878
7.789482 44.39415 10.22262
7.84405 45.38005 11.20536
7.810208 46.05255 10.87098
-6.731917 29.96309 8.370049
-6.301294 33.421 8.498798
-3.735402 33.49709 11.18966
-9.369061 35.962 9.061988
-10.40975 30.6662 10.02273
-10.3066 34.6219 10.18262
-9.671606 21.51822 8.99283
-8.309217 26.24462 8.40745
-10.71924 29.57712 10.39237
-11.37638 26.89829 11.35672
-13.16874 28.46336 13.73274
-13.14764 27.67635 13.64204
-14.7788 22.65151 14.6283
-14.04549 23.91385 14.18101
13.06823 57.76109 13.93022
-3.395758 58.09536 11.41805
-2.167429 60.78912 12.75331
-2.555708 59.18679 12.52761
-9.011482 59.81894 9.68328
1.620407 57.00774 9.262243
-12.74453 33.01807 13.63832
-7.925511 36.99472 8.087225
17.69749 32.0548 15.0659
17.98393 31.225 15.10005
11.82195 32.47981 14.90051
18.00479 29.76682 15.1789
9.353833 46.84965 13.9382
8.102357 45.38683 12.24391
-7.654517 23.56249 8.472239
-5.310349 36.52006 9.026236
-17.49213 26.18209 15.14925
-20.36425 16.70873 14.41207
-15.83037 18.12665 15.12088
-19.03785 23.73707 14.74996
-1.324781 57.48465 13.17899
