# .PCD v0.7 - Point Cloud Data file format
VERSION 0.7
FIELDS x y z
SIZE 4 4 4
TYPE F F F
COUNT 1 1 1
WIDTH 1655
HEIGHT 1
VIEWPOINT 0 0 0 1 0 0 0
POINTS 1655
DATA ascii
-14.38227 77.98672 9.867162
-12.19264 96.738 9.096969
-28.91085 2.573178 4.172346
-27.12963 10.22808 -2.579477
-24.97947 5.354606 8.704372
-21.75759 33.89047 1.337774
-8.017574 51.81384 5.811297
-8.430151 57.15923 5.988005
-19.56107 52.32771 -0.5745488
-19.85812 67.29061 1.544529
-12.54741 72.07291 9.09389
-11.90048 70.50391 8.796337
-15.83939 77.44088 9.343519
-12.11865 127.7654 9.317136
-5.336773 1.667592 18.09856
-13.03061 125.3747 6.153954
-18.46931 91.18557 5.282874
-18.50467 93.61924 2.263321
-19.88599 87.33658 3.232189
-11.38066 116.1587 7.386001
-14.46898 100.3205 7.677789
-14.72519 104.1613 7.14304
-12.60283 99.95912 8.725039
-26.53127 7.512054 -1.614872
-24.7241 18.15926 -1.688064
-28.77929 3.124852 3.911943
-25.21001 4.463737 9.791547
-4.661268 40.46508 10.6711
-22.45888 34.71819 -0.3905916
-5.161405 42.36306 9.580235
-20.94419 43.16556 -1.042524
-19.26378 59.60267 -0.1579967
-18.05028 59.10586 3.07249
-18.826 53.56629 0.690219
-19.40985 65.26707 2.636488
-14.5818 73.94319 9.234959
-19.90845 75.21199 4.384476
-13.90437 69.82223 8.649961
-11.03962 120.4658 8.664124
-8.786912 2.72886 10.86541
-1.061271 17.33508 15.11475
-5.457351 7.357116 16.67874
-16.98473 93.18058 7.069303
-18.83241 91.20266 4.25883
-10.10196 99.92362 9.445547
-25.16039 13.84704 -0.1229776
-28.65965 5.158819 6.968359
-23.79024 23.13147 -2.715533
-1.927689 25.40735 14.34548
-3.463736 33.86465 12.73508
-17.78985 39.24803 1.817397
-22.8448 31.46038 1.157729
-6.240369 45.87205 7.196226
-10.04917 57.15496 5.83918
-8.337864 48.53273 5.691806
-9.530008 61.71659 6.766788
-19.63138 64.55731 1.020365
-18.60003 51.47659 1.225215
-17.26787 54.56858 3.66399
-12.4679 123.681 7.166083
-12.69743 2.049697 10.66702
-1.900597 4.163834 18.08355
-16.31176 93.30937 7.746595
-24.29033 20.72553 -1.900323
-25.7221 15.30488 1.744871
-26.17861 8.970389 -1.147161
-25.12525 15.10033 0.7676117
-23.91155 22.3498 -0.09150205
-3.074082 29.66456 13.83224
-9.63178 57.63208 5.938702
-10.21186 49.92748 5.1942
-18.79251 49.17343 1.177692
-16.85971 60.43758 4.988936
-2.585473 14.61604 16.74726
-2.028206 10.01734 17.3498
-17.21535 84.14742 8.782363
-28.43272 7.533369 4.833115
-26.4468 15.42501 2.762733
-21.4649 7.15725 7.53677
-26.0102 13.71635 1.875711
-4.242126 26.89164 13.8748
-6.260882 20.1909 11.38555
-5.873562 31.96689 10.49923
-10.73123 51.25082 5.078412
-11.86452 62.58164 6.951995
-15.70355 66.02816 7.260989
-27.49261 11.66258 3.908448
-28.1343 8.475667 6.485299
-5.37662 30.67238 11.8274
-17.49618 61.7243 4.79933
-10.07128 3.210024 10.34204
-26.99339 11.91397 5.84697
-17.51401 10.23209 6.7333
-26.07113 11.56104 6.175639
-17.02853 38.11272 2.197357
-10.80746 1.93489 10.73695
-5.058744 6.937693 17.31149
-21.64601 10.45497 6.276402
-27.34016 12.5202 5.147407
-7.886774 19.85166 8.928686
-7.55804 30.60012 7.652652
-24.45873 15.5143 5.666018
-5.507388 29.32037 11.82202
-6.265374 10.17311 13.43393
-8.318558 18.29506 8.725388
-6.597354 35.15914 8.339575
-25.23891 18.0111 4.742233
-7.959233 15.21498 9.553442
-5.974051 7.862494 15.32454
-23.46892 16.0573 5.621533
-6.336176 6.532261 14.21786
-21.64257 13.24734 5.900494
-23.74338 17.40599 5.364655
-8.399337 6.436205 10.45826
-8.140015 9.929525 10.12446
-11.32334 9.926658 8.418909
-12.73403 12.05584 7.547702
-12.67365 5.442391 9.142824
-14.55066 10.51234 7.330907
-17.93224 8.18119 7.146544
-14.75138 11.83448 7.022944
-14.33724 12.67638 6.963426
-6.838007 12.74938 11.4093
-6.103437 14.81681 12.90163
-14.495 19.65721 5.568501
-6.149593 15.42725 12.63118
-3.145189 19.3276 15.90311
-10.0251 21.89745 7.010442
-10.4873 21.43399 6.83809
-6.078516 13.10924 13.35733
-4.186225 17.09038 15.97198
-13.14599 22.23904 5.563808
-1.700932 13.54352 16.60833
-8.207964 23.85183 8.015021
-7.70084 25.88172 8.227032
-15.55152 22.00406 4.818933
-13.62206 128.4064 5.844695
-14.31686 101.8185 7.71149
-16.69949 73.75627 8.430292
-17.9294 76.70942 7.890787
-17.21793 79.08074 8.729655
-18.0355 72.26007 6.948975
-22.63952 26.9737 3.188882
-6.804528 40.27927 7.111478
-19.5195 31.22103 2.341073
-17.10831 44.70084 1.807457
-18.32394 85.00083 7.580552
-17.95559 41.26376 1.636074
-13.26852 40.94444 4.033073
-15.78008 43.64862 2.587497
-15.82785 39.10467 2.846516
-16.07635 37.62918 2.705706
-13.03742 54.04264 5.111677
-17.58307 49.48164 2.559786
-15.41267 49.37049 3.550711
-13.53244 46.04037 3.797354
-13.91652 68.7017 8.407805
-9.235949 3.630635 10.48068
-10.62923 33.86672 5.29893
-12.16074 34.89356 4.584598
-13.13577 30.5982 4.418133
-13.11759 25.67307 5.033854
-13.94592 33.47041 3.840615
-25.07303 22.30377 2.193761
-18.36572 16.44644 5.439104
-19.50278 20.12927 4.730817
-6.294312 16.35677 12.01593
-16.63706 73.67867 8.458018
-22.57038 28.13703 2.844778
-20.02659 31.26732 2.329566
-24.18811 25.97909 1.313366
-10.12281 44.77053 5.154497
-7.710872 48.58964 5.914485
-8.187998 42.72274 5.862483
-7.142233 42.26579 6.568399
-10.26571 41.55145 5.110426
-18.19532 14.92261 5.736193
-11.11965 35.95909 4.968222
-23.74013 22.75447 -0.3082295
-11.94191 23.05461 5.925679
-11.47321 21.87587 6.304249
-19.03293 27.96909 3.157104
-9.485109 37.40788 5.575079
-21.28035 21.53868 4.566485
-19.19371 21.14948 4.538204
-22.49135 25.53828 3.726869
-20.20035 26.71486 3.470503
-16.05489 26.56389 3.808219
-17.57205 27.59253 3.309925
-16.64278 95.8707 6.352227
12.76332 0.9416469 0.2020746
16.47617 98.82896 5.489197
10.44657 126.163 10.28638
16.76921 87.11583 8.885184
15.34858 95.29992 8.027384
12.38581 92.91011 9.591133
10.34707 50.51492 7.081563
11.47007 56.77296 5.835639
13.81919 66.77713 7.937206
15.12534 76.07754 9.460909
14.35331 87.04383 10.03759
12.13647 99.58231 8.925754
10.54459 100.7204 9.335908
10.7392 30.80298 5.012233
16.28613 104.0425 0.3849352
14.63293 131.6706 5.226355
15.19137 108.0713 3.654357
18.85751 90.56264 4.730135
8.227394 101.7423 10.06466
19.17246 56.35177 -3.370397
11.43138 98.83804 9.093781
10.53864 119.9014 9.119304
9.779213 101.6809 9.632236
33.13664 16.37817 -7.329
17.79191 82.20612 8.312483
20.25099 84.32277 -1.321283
12.00245 105.5658 9.096538
15.50657 85.43827 9.759554
14.25293 130.2177 5.763075
29.09519 26.82526 -5.96367
13.52951 133.4715 10.6229
14.66836 90.28342 9.587932
12.62745 118.0323 2.993092
9.685613 102.2071 9.706954
13.97288 2.90672 1.923635
14.21616 41.69457 6.493684
20.34967 73.99047 -0.3433503
11.4303 122.9369 8.573189
36.99361 6.182861 -2.208806
10.73431 126.8685 10.38037
16.75491 102.3372 0.641485
18.89208 92.52809 1.421774
12.99336 128.1308 8.40458
16.58464 91.82791 7.976489
18.36985 89.40324 6.496141
10.33968 115.4374 8.601371
16.34042 100.7323 5.252328
13.1502 2.935491 0.02664843
22.84019 38.48544 -3.503232
19.15224 56.10162 -1.100366
20.16293 73.81966 -1.498664
16.33105 74.98781 8.877731
12.73341 121.4724 5.635133
13.11686 124.3976 5.573227
26.93179 10.47352 0.3952659
38.9471 7.497258 -3.615182
16.94873 101.6728 2.0209
20.14929 86.09468 2.690633
16.12162 104.5526 3.969233
13.11157 112.9164 4.521646
13.65603 95.04185 8.990254
9.535084 113.9625 9.192688
12.75091 3.111665 -0.3876938
18.98765 2.996623 7.996803
26.59529 31.75309 -6.264906
9.713109 35.94944 4.88292
11.35577 53.38878 6.131312
19.41826 51.84866 -0.6055561
19.70376 67.49969 -1.930606
18.30594 71.03088 6.483994
8.598297 118.029 10.13116
13.20793 124.0289 4.799965
11.50899 121.7263 8.297872
30.62173 21.94906 -7.56919
35.27235 13.90242 -6.398882
16.87921 101.9837 1.965046
20.44196 83.4961 2.782046
18.37935 94.3083 0.9731769
19.25527 90.97386 -0.3476973
17.99166 81.95332 8.111874
15.81536 93.07576 8.301111
15.54088 99.80888 6.673893
10.70476 19.09571 1.495511
22.9332 3.601552 11.16508
24.78951 35.65078 -6.394859
9.526838 42.33476 6.529995
10.35002 49.17433 7.23465
21.76237 40.85814 -1.665222
19.0093 61.0966 -3.097894
10.66224 57.0621 6.049397
19.55379 63.13875 -0.304303
20.10596 72.05081 -1.242033
20.3039 76.50158 -1.38147
10.80731 121.6135 9.064869
11.74065 125.9313 8.803882
27.52123 6.132547 3.511723
28.59603 27.39031 -7.319953
34.5823 8.452692 -2.496838
16.4014 104.2153 2.969657
20.5575 82.2719 -0.3084013
18.59958 93.48559 1.763407
13.70871 110.3487 5.515187
10.99276 116.4787 8.004302
14.09274 101.2421 7.854027
12.13415 20.03668 3.403134
11.05547 28.40115 4.647771
25.51426 5.620497 10.78718
10.34706 33.61976 5.250122
10.97893 43.65017 7.705499
10.06111 46.28476 7.306949
19.17283 62.95162 -2.813143
20.10278 69.49682 1.08768
30.80371 8.905491 -2.729491
28.78709 9.078732 -1.712927
27.80243 6.736054 1.480623
27.18547 4.741925 7.662195
30.12514 21.26616 -7.886531
38.04637 9.516932 -4.812797
13.62154 103.7673 8.200274
19.49899 81.06331 5.959424
18.22872 83.13188 7.849356
13.75194 10.14223 1.193325
11.43379 24.70555 4.81807
13.08314 9.598049 0.4996453
25.46966 7.045976 10.6432
26.42412 6.990251 6.134548
24.49927 35.96726 -5.758903
10.43518 39.12939 7.484492
10.98237 34.36337 7.562365
13.20787 50.03901 4.793635
18.58683 57.02316 1.138947
29.21234 9.994709 -2.294578
26.52241 6.955478 5.757102
26.72267 25.48797 -4.355804
24.62358 25.81289 -3.296418
13.65914 104.6432 8.191504
19.97659 76.05744 4.279026
13.30674 15.71972 3.138569
20.83995 10.12414 9.403152
10.0239 35.74469 5.594
14.40906 35.85429 7.360427
26.7059 6.7858 5.393456
19.51109 77.2504 5.661788
21.01786 8.679242 8.697392
15.37966 40.04565 5.523109
20.47712 76.55688 2.119478
13.07406 16.98047 3.376496
17.80414 11.5734 8.816998
14.69011 40.46088 6.113081
13.47233 20.48237 7.367071
18.41206 74.22891 6.964345
17.08113 12.93599 8.703286
19.52623 73.46559 4.952649
16.13287 7.232198 4.228785
17.23434 68.53437 6.998715
12.57901 23.54537 7.1314
15.37392 6.983764 2.432616
19.0416 68.81831 4.836532
19.41533 66.88061 3.271244
19.5269 62.87977 0.2895429
17.62326 63.50698 5.257099
19.94223 50.89009 -2.828325
14.34639 59.68353 6.048019
14.90935 55.11617 5.080298
20.15946 40.21869 0.7994222
17.33407 42.05402 3.359827
19.69182 49.86636 -1.157844
17.07405 46.71456 2.511271
23.092 34.83374 -1.99994
23.0672 36.82018 -3.938172
34.84064 11.19948 -2.775825
35.86129 11.50224 -3.164747
33.26107 13.47989 -3.075085
35.11123 14.63185 -4.076684
34.91191 15.09686 -4.240182
31.39134 21.30363 -4.738036
28.43046 16.23531 -3.276743
14.71183 62.55359 6.702896
15.85748 104.5259 5.081811
26.59142 11.90345 0.06294774
24.46449 30.26123 -4.23561
23.28088 31.79218 -2.826184
23.96154 28.84325 -3.316347
24.15985 24.50446 -0.2785676
25.43912 22.84519 -3.174142
26.37953 21.68034 -3.554616
11.50027 32.77865 7.938239
14.25893 13.1552 4.145878
23.85234 12.39312 9.221275
17.55318 9.574457 7.570727
15.916 10.63564 6.116226
14.60524 19.18504 8.482402
16.35099 15.24988 8.948147
21.07965 9.348736 8.750692
19.46242 67.86571 3.563845
18.49994 53.2464 1.547144
15.08443 48.44113 3.67816
17.93279 53.9111 2.607169
17.13763 51.48046 3.524451
17.22363 57.85767 3.959153
19.14315 35.78453 1.913633
23.13992 33.97191 -2.28009
20.5295 35.54279 0.4150304
16.63689 42.91571 3.791121
13.82633 45.99605 5.879265
18.06705 40.13838 3.161418
21.60612 39.99332 -1.224273
12.65561 109.1157 7.975389
25.57931 12.93574 2.493011
26.5486 11.05593 0.8024644
27.31906 12.66388 -1.521414
24.94656 20.80948 1.41154
25.49574 16.19071 2.23537
27.42396 18.16157 -3.249095
25.40244 14.76237 4.866412
23.27436 13.20651 9.152389
21.46111 18.72298 5.713355
17.21937 56.22915 3.66351
24.57002 22.23462 1.506424
12.19361 27.83387 7.844002
18.57804 61.47535 3.005058
18.98891 62.15327 2.380982
19.0091 59.92442 1.17099
15.19856 35.02257 6.466556
21.89605 30.09023 1.575981
19.64812 28.24234 3.529077
18.83523 29.49844 3.776386
30.82225 15.21196 -3.410966
27.00472 13.17555 -1.301626
21.25429 15.73698 8.592052
23.72624 16.11318 5.739481
25.10064 18.71165 -0.1117613
24.49332 17.12547 4.279555
24.13733 20.55862 3.147974
24.31156 21.01145 2.84579
20.17826 21.55028 5.483664
19.11571 22.32203 6.287001
15.17033 31.23351 8.15731
14.58184 32.08539 8.321342
13.28444 26.11828 8.761083
13.14187 26.27846 8.65903
17.74056 26.42613 6.444689
18.06544 27.19944 5.624049
17.61586 32.19957 4.301528
15.06617 23.26792 9.470008
17.68939 19.91407 9.258009
21.17133 25.10773 3.545783
23.36618 21.95981 3.301316
13.80947 28.49038 9.00308
35.37404 0.2760747 -8.25328
11.79707 101.5626 -8.611901
15.42651 99.43443 -5.342341
31.78595 12.7734 -6.362566
24.00609 30.92977 -11.22099
16.72367 90.67037 -6.866672
17.09945 75.78381 -6.922325
12.98689 93.41821 -10.26704
16.31822 97.64535 -4.706778
14.29726 130.3856 4.297968
16.39094 95.75082 -5.657192
12.57002 115.3409 1.646973
19.44156 83.62132 -3.810309
17.45754 93.95215 -4.426154
14.71839 132.2652 4.785555
13.7061 126.7233 2.558768
17.70938 96.70955 -0.9137041
17.3467 97.60016 -1.746728
18.49629 88.88412 -4.442153
15.45695 137.5384 -4.572205
11.84912 127.4802 -5.138659
12.24137 147.1772 -10.82887
27.58986 0.4058548 -63.2391
15.1201 107.3789 -0.3957917
20.1398 76.65868 -2.056652
8.879234 43.47081 -13.30013
9.149065 31.67537 -20.22399
30.17931 0.8890513 -62.91982
28.60835 0.4311304 -62.44179
23.37796 39.14799 -6.592527
18.49758 90.60297 -3.772488
23.88496 0.3892594 -41.03793
8.151052 115.2139 -4.311056
10.38895 105.5819 -7.529412
13.27457 109.3976 -2.975355
8.041589 148.7317 -10.93516
13.63308 127.09 4.316862
14.792 108.4978 -0.3754018
19.04941 78.15072 -4.607177
8.0232 61.2262 -8.628139
11.16972 90.98544 -11.44048
18.10601 85.13429 -5.646533
10.15839 84.90881 -9.742246
15.94332 79.87881 -7.46046
9.716885 61.99751 -8.301314
19.95947 77.59915 -2.725361
13.59834 126.0581 2.820664
18.49946 73.51217 -5.447746
14.14934 129.8813 2.604952
11.71228 127.4075 -5.287277
14.47556 131.266 3.906232
11.72708 117.6666 -0.1796826
16.76246 15.20361 -16.31124
33.21762 1.431843 -44.73791
10.56923 135.8574 -11.00541
12.53522 149.0246 -9.955802
28.95513 0.167 -56.84912
31.29307 0.7385109 -60.94651
11.63576 83.54729 -9.049901
11.22675 92.62073 -11.48513
14.14294 97.30232 -8.169981
11.93156 97.81639 -10.05122
9.758482 109.2422 -5.915052
9.839625 131.2112 -9.229318
15.63843 71.15777 -7.935514
18.68379 66.29932 -4.494421
13.75546 103.7252 -5.554711
16.6526 99.21501 -2.85613
17.01936 79.36459 -6.848161
36.47586 0.1955783 -6.033216
15.86249 40.65144 -11.74425
13.87847 9.312547 -27.95539
20.53903 47.86615 -6.454986
9.24723 130.6276 -9.257195
15.08236 135.1394 -3.743844
14.59566 139.291 -9.729464
9.133405 150.0829 -9.794662
10.11408 142.6448 -12.1703
32.98438 0.5117254 -58.36782
11.2427 67.46984 -8.542966
11.63514 78.81078 -8.700199
8.132721 121.106 -4.923401
10.53943 120.4824 -2.333697
12.38916 98.23019 -9.528071
10.23982 105.098 -7.890323
11.70119 112.6791 -2.675742
8.97317 127.3727 -7.675226
12.13709 64.61214 -8.251714
16.8375 76.66428 -7.077594
14.8414 76.66889 -8.200266
12.1824 106.9215 -5.45724
13.62532 103.2685 -5.962599
15.16059 98.83116 -6.133784
34.48052 1.842915 -4.353958
37.06633 0.167 -11.52581
8.096379 37.61843 -18.06877
40.27934 0.167 -20.62936
38.95007 1.147853 -43.80727
22.26885 42.66072 -6.053227
19.37745 51.77197 -5.943347
13.8753 138.2025 -9.920455
13.28742 140.5965 -10.96152
12.10334 149.5976 -9.613517
36.53419 1.693531 -56.41414
34.67809 0.7807172 -57.11311
9.694956 67.19419 -8.525778
12.5915 63.70127 -8.11976
9.712127 73.78204 -8.817138
13.23792 81.19899 -8.444182
12.87949 83.21275 -8.768417
9.079799 125.9134 -6.759541
14.12193 95.33921 -8.871603
7.790376 56.19341 -9.202302
17.74869 71.16598 -6.320092
13.22786 92.2288 -10.2636
16.81684 86.91866 -6.949034
30.1141 12.25771 -7.470851
33.7465 0.6137049 -8.730467
28.35107 23.58182 -9.812054
8.459386 40.76795 -17.32127
21.86831 41.43896 -8.593838
41.52643 0.1780978 -22.74979
21.58178 2.187325 -35.17618
42.75612 1.413578 -41.90638
8.152117 48.37029 -12.28636
7.611392 52.54808 -10.40939
12.56116 133.091 -8.320564
39.19447 1.589007 -51.99037
31.73807 0.3167427 -59.00006
15.48079 67.18929 -7.785643
10.38452 80.01811 -8.794991
9.061257 57.10208 -9.20028
18.31204 60.54398 -4.718407
14.24251 62.52774 -7.724235
14.17529 71.055 -8.482165
31.457 16.01267 -8.27234
32.91058 8.60295 -5.696886
32.8344 0.8695222 -9.377868
11.26551 22.23436 -22.58561
8.66746 34.46809 -19.29041
9.823336 32.46548 -20.28809
9.180634 43.49506 -14.97779
22.49194 41.66142 -6.90635
40.58815 0.2119606 -30.47585
41.14968 0.4997788 -45.2284
39.98956 0.167 -41.13829
42.11774 0.5221049 -30.0608
26.80993 0.1737984 -45.22514
8.568475 50.80642 -9.864559
8.910282 55.50852 -9.248812
10.56237 129.9204 -8.078633
25.38973 0.3636017 -49.69119
36.22878 0.6538528 -55.02765
11.60715 124.9677 -3.367016
13.59895 59.80843 -7.705454
13.14299 56.59479 -8.111916
16.35639 92.20549 -7.085898
32.07928 2.558543 -5.819086
38.8908 0.167 -14.21672
12.62056 19.21335 -24.67323
9.503834 27.44901 -20.37617
10.17017 38.37314 -16.60056
23.83747 34.30374 -9.546175
40.20428 0.1667807 -23.0928
16.39724 6.409706 -27.82602
41.42008 2.46839 -47.91711
23.15071 0.2737172 -41.77023
8.317006 50.65861 -10.21938
12.6813 45.64338 -10.67805
14.12421 131.2853 -2.413686
38.69334 0.5022187 -50.79488
11.75425 55.99107 -9.3852
13.83191 53.98797 -9.218259
18.23011 55.50867 -6.155086
19.91379 47.08756 -8.085701
29.77631 5.352704 -5.935699
10.88227 23.13084 -21.68475
10.95411 28.57753 -21.81528
20.28922 39.3742 -11.07661
21.83218 0.2622463 -35.47259
39.69954 0.167 -37.84098
8.58248 45.04118 -12.26213
34.26566 0.4125883 -50.59209
16.00016 50.63246 -9.631074
28.84931 5.737113 -6.453745
37.68901 0.167 -18.19303
10.84548 35.75004 -17.12459
40.45035 0.1842877 -35.80084
14.27488 133.8535 -6.484161
15.0062 134.9503 -1.345751
16.62644 51.24447 -8.131817
10.64373 52.95926 -9.774761
29.44338 13.05783 -8.452369
38.66333 0.167 -20.144
37.02169 0.167 -17.05579
17.5249 4.322594 -32.68929
31.8131 0.167 -50.84707
28.9011 8.359137 -6.854914
36.03551 0.167 -14.65718
38.45297 0.167 -22.71665
17.85076 4.467347 -29.85783
30.14566 0.167 -55.87764
13.65746 49.88266 -10.40357
27.44995 7.811354 -7.528148
24.4932 2.430012 -36.66475
32.87889 0.1789031 -49.90654
37.56543 0.167 -23.80982
18.24304 5.46837 -26.99687
20.22458 3.930757 -34.08344
31.49706 0.167 -55.17955
38.45963 0.167 -24.20881
36.73911 1.11136 -49.31572
19.73411 3.193196 -32.08266
37.47586 0.167 -27.70994
30.63891 0.1671025 -26.18454
38.15471 0.167 -34.23401
37.17461 0.167 -34.42889
39.14249 0.167 -34.95202
34.06516 0.167 -30.9177
32.94505 0.1676354 -33.91146
31.71676 0.2108808 -35.28551
12.94297 102.18 -7.275234
13.24947 99.87511 -8.049953
28.53865 20.20594 -9.918426
27.20483 24.87568 -10.43849
24.87547 22.03893 -10.63824
27.10807 27.0407 -10.04261
28.99401 0.1713746 -49.64106
16.4035 59.80423 -6.38864
17.47583 5.180684 -28.42982
17.19328 10.08831 -27.25624
39.29735 1.131405 -43.89548
36.97358 1.52553 -41.81459
35.57307 2.836817 -41.98035
36.57776 0.2047667 -39.45711
34.86192 2.904385 -41.03871
29.13931 0.3759876 -47.06829
30.7734 0.1708527 -45.79988
33.45111 3.790695 -41.26541
31.69874 0.9881999 -42.00401
36.31124 0.7746987 -47.36956
35.998 0.5046443 -46.63471
39.66402 0.2427541 -44.70818
11.89752 20.65611 -22.43347
14.21877 15.06015 -23.9569
11.03454 31.26859 -20.48814
12.7259 27.07432 -20.57174
11.35925 31.08096 -16.32594
12.67997 25.64327 -17.94813
11.54866 29.47614 -15.08212
11.12534 31.87278 -13.86318
11.0225 32.44452 -13.86603
9.851253 37.83694 -13.96882
10.43347 34.72831 -14.84981
21.57886 36.54873 -11.27424
16.85171 38.3573 -12.06793
22.08016 30.93186 -11.53423
20.42296 34.8905 -11.81693
21.02721 39.45 -10.66618
14.11284 40.79634 -11.43788
13.73327 47.65009 -10.71363
13.03866 39.12461 -11.34254
16.06744 36.54775 -12.19254
16.27315 38.60052 -12.03932
14.70995 40.76172 -11.57409
12.36475 33.5461 -11.98184
14.74735 34.76419 -12.03074
11.07626 36.41298 -11.99679
9.854635 41.11636 -11.62194
26.41864 0.1908873 -40.8313
35.38155 0.1671041 -14.2892
31.24153 0.6210965 -14.75505
26.27257 10.92385 -8.747378
28.69747 8.770061 -7.235894
25.76008 15.45252 -9.538164
24.87078 20.97393 -10.44772
25.33464 15.92818 -9.516416
20.71 16.94604 -10.06649
24.0155 9.640757 -8.911296
21.48052 24.80373 -10.4214
24.87241 7.665291 -9.334078
28.1694 2.204802 -14.35053
14.02326 46.69576 -10.85005
27.97057 1.719115 -38.91882
29.94584 1.715683 -36.3021
24.64825 3.988363 -34.0254
28.48666 4.840266 -36.74203
26.10493 3.825429 -32.82986
22.46166 2.661239 -29.55809
32.23318 0.1656689 -29.06007
22.98364 2.970174 -29.04181
25.74693 2.356144 -29.4327
23.34994 5.490906 -28.05395
24.51509 4.498281 -28.34372
25.55011 1.249804 -23.8944
23.23563 1.717328 -27.97217
28.97971 1.421168 -15.55384
24.17604 2.299227 -22.54583
25.48419 1.908427 -21.15865
22.8955 3.747979 -21.23407
21.5712 6.629652 -18.21344
21.05385 6.368716 -19.7908
21.84257 7.621227 -15.92115
23.18718 6.192965 -15.58049
23.45171 8.001222 -11.73571
26.94939 2.884248 -14.92403
29.66348 1.634436 -13.13276
27.50952 3.42113 -12.30573
29.73242 3.306424 -35.27993
10.999 34.67216 -18.43152
16.48764 10.7298 -26.85787
38.0899 0.4313544 -44.30106
36.63169 1.687768 -43.64426
39.54514 0.167 -37.57637
14.28208 16.06222 -26.26903
13.9854 21.98451 -21.9572
14.65383 29.07999 -12.13656
17.62651 31.93482 -12.13029
14.08199 25.84896 -12.61571
15.82871 25.67014 -12.2472
15.6324 23.76185 -12.15195
28.78039 0.167 -42.66365
23.56227 12.38796 -8.841701
19.8933 14.12594 -11.42202
20.33151 15.97914 -10.40509
17.72363 15.84664 -13.31817
18.84438 9.659555 -19.2151
19.43303 8.97963 -18.96617
18.24211 10.40739 -19.42981
16.79541 12.69714 -24.62357
16.92377 12.93249 -18.90505
15.85547 12.74967 -22.24806
17.61018 9.307183 -23.82269
14.10818 15.44596 -25.82949
13.69141 16.00906 -25.35002
19.85604 5.677669 -23.35224
14.86216 13.68443 -26.12132
16.8671 13.53533 -27.1493
16.95399 17.47708 -13.15631
15.69382 18.66973 -14.48947
19.86466 24.75531 -10.69715
18.73268 20.30568 -10.92699
16.38496 23.65181 -12.01698
12.77845 43.4135 -10.8899
27.22108 4.828388 -36.35772
30.90148 4.307988 -39.82664
28.52974 0.290374 -25.16262
26.47534 0.8462227 -24.15182
23.05562 6.017667 -26.88236
22.91019 6.29508 -28.01561
21.51754 7.761631 -28.16068
29.11958 1.627213 -14.33584
30.05015 3.551789 -36.13324
32.86622 3.859643 -39.82919
17.84622 11.03725 -24.80204
32.31825 1.704066 -41.34967
13.63209 20.52882 -17.88808
14.93825 15.58731 -23.76867
14.74321 17.72888 -17.92546
15.24541 17.26422 -17.2506
13.15937 23.61214 -18.83498
15.07904 15.20336 -20.63456
30.99129 0.3261123 -18.55281
34.83805 0.167 -19.27345
31.41073 0.2392839 -18.94141
26.56087 2.025274 -18.37555
14.32744 19.98609 -16.26934
14.86229 23.14321 -12.58023
12.89717 23.70821 -17.40399
25.59583 0.3039089 -66.48727
-10.29425 92.09857 -11.8494
-11.90863 94.91236 -10.86066
21.27938 0.5074536 -42.15133
13.72363 8.775106 -28.50279
20.26775 0.167 -67.772
-12.18548 94.27557 -10.77241
6.412076 0.167 -75.92336
6.438007 36.16553 -14.53717
4.913296 151.593 -9.721193
10.10988 91.88075 -11.95318
-10.07792 62.58325 -8.162592
5.855297 75.57144 -8.864425
-4.685951 152.593 -9.16072
9.238187 92.57916 -12.29017
10.20545 96.46481 -11.50967
8.969605 28.58282 -17.31224
6.688441 120.2477 -5.456794
-0.1033665 111.5072 -6.589949
8.202851 142.5798 -12.54073
4.118854 152.1932 -9.567574
-10.33123 10.8987 -20.87618
-10.73272 0.167 -73.04108
1.271703 45.41127 -11.52181
-8.166655 41.05201 -10.88134
4.456238 65.68422 -8.496873
8.714846 29.26423 -17.10663
-19.22377 0.605243 -61.31975
-9.36545 60.30986 -8.422071
3.602337 113.2112 -5.912899
-9.911918 0.1759943 -46.11538
4.435073 123.2981 -7.353453
-8.668604 110.1209 -5.894368
-7.186231 124.4087 -6.925665
-6.670002 152.5606 -8.144033
-7.200679 146.6555 -11.93229
6.197964 62.60926 -8.570724
7.772396 102.1266 -10.50937
-9.567356 51.90765 -10.48404
-11.45128 101.6366 -8.858347
1.352182 149.1919 -11.02045
-9.666848 62.60488 -8.202365
-8.997391 100.4802 -10.82321
-8.121415 109.6935 -6.208095
-5.320427 127.4181 -8.87803
-6.973127 142.2757 -12.66821
-5.857035 144.4141 -12.40041
-13.15286 0.167 -70.6604
-3.228764 151.9818 -9.835875
-9.37126 58.75087 -8.801816
-8.078862 59.41956 -8.728767
3.433285 60.63978 -8.98899
25.10666 0.1638124 -59.83539
18.42849 0.167 -71.48953
14.14014 2.118528 -29.62884
-10.23162 12.07781 -20.47239
-8.785282 30.82938 -12.94804
10.57771 24.31864 -18.54796
-11.78941 72.18407 -8.787811
6.28777 78.74036 -8.977569
-12.57532 81.58296 -8.621685
5.814941 87.83044 -11.45158
-12.42074 91.74122 -10.80305
-10.56737 96.4201 -11.32479
-10.33719 101.1986 -9.824088
7.262534 105.3773 -8.820191
7.591764 96.66829 -12.34315
4.910595 119.2391 -5.979348
5.906562 119.9839 -5.750772
8.666094 132.1699 -10.25056
-6.729743 138.0189 -12.63099
5.128064 142.6054 -12.59371
-7.072689 147.3833 -11.70755
-18.79484 0.5974262 -60.7335
-19.46961 0.2111473 -64.66434
5.925527 56.20617 -11.04903
-11.11876 63.48221 -8.139908
23.6752 0.3044654 -52.17764
23.23204 0.167 -63.3357
19.39954 0.167 -67.02431
14.62347 0.167 -73.09674
15.27355 0.167 -66.72327
-14.51119 0.1794943 -49.9764
16.33259 0.8657315 -32.19204
-11.84236 0.9649999 -31.04221
17.18297 0.2212192 -34.88065
10.71054 18.18359 -21.0424
11.99902 13.3287 -24.37599
-9.262983 22.87098 -17.20185
9.226797 28.47397 -18.10631
6.777226 49.42093 -13.9333
7.232155 43.23528 -16.08022
-12.09769 75.76214 -8.795485
6.225063 74.42393 -8.830782
-6.086092 81.87634 -9.375212
-3.876656 81.03365 -9.343839
-11.08761 82.19691 -8.935961
6.764059 81.18814 -9.19619
-7.711411 90.85238 -12.40265
-5.872459 93.29417 -12.83254
-1.81119 86.96704 -11.03529
10.14276 89.70103 -11.6177
7.808716 94.70374 -12.61127
-5.959146 101.4421 -11.13186
-3.1898 105.0928 -9.220193
6.46517 101.8058 -10.91081
0.5669547 101.8907 -10.78545
-6.326327 109.4169 -6.668273
5.94124 105.5999 -8.87484
-6.614178 119.4697 -5.300158
6.106878 121.267 -6.10536
6.788312 129.6467 -9.693127
4.643201 130.3768 -10.26185
-4.737216 136.9211 -12.35417
5.091886 137.5386 -12.49763
1.121412 151.1955 -10.21461
-16.11007 0.2768069 -54.18073
-16.23253 0.1824238 -57.85912
-14.10142 0.167 -66.91805
-11.93917 0.167 -64.68135
-0.4024946 151.0738 -10.27134
6.980869 57.73648 -9.409206
-7.101284 51.77914 -9.540731
21.52761 0.1624268 -49.71183
20.97822 0.167 -59.39342
-15.03665 1.280819 -40.64816
-10.6748 0.3665109 -33.20045
21.4316 0.5202554 -42.66727
18.21828 0.3030935 -33.77158
4.130716 0.167 -75.4196
-11.02469 5.747674 -25.63991
13.4845 6.881487 -29.13337
-10.60049 11.37334 -21.66893
11.13291 14.54064 -23.7287
13.30532 9.783305 -27.13299
-9.168249 24.50378 -15.07564
-8.581222 27.1059 -15.36938
7.15352 33.1768 -15.24032
8.230887 24.64145 -16.46481
-5.802767 40.49612 -14.22101
5.128822 48.01012 -13.03171
4.017097 47.9283 -11.84825
-6.408048 71.90282 -8.74935
5.395713 68.93831 -8.617623
5.431563 74.27471 -8.827857
6.810164 86.92262 -10.99998
7.147775 83.18324 -9.553498
-6.620711 87.07714 -11.06997
6.768579 91.67442 -12.64619
-3.338642 99.69353 -11.68333
2.768841 103.8678 -9.864595
-4.827605 104.1888 -9.74746
4.622083 104.4013 -9.628412
-6.937177 109.5655 -6.501085
5.184498 107.4436 -7.754757
-0.276189 113.032 -6.393212
6.164179 120.9943 -5.989341
-4.389544 126.1498 -8.47397
6.350566 133.3857 -11.33689
-4.417209 132.4287 -11.11767
6.238955 135.4441 -11.98332
-4.896485 144.0785 -12.38457
-14.63976 0.167 -55.94648
0.9155993 0.167 -74.95608
-16.49978 0.167 -64.25629
-10.09545 0.167 -67.10886
5.046055 53.84249 -11.8761
-7.588758 51.13448 -9.740191
21.64046 0.167 -59.34352
19.5222 0.167 -64.55149
21.49311 0.167 -58.4302
20.0138 0.167 -55.43164
-15.19155 0.3171652 -47.45307
18.655 0.167 -40.06633
16.64915 0.167 -40.51442
-11.56936 7.531297 -27.43582
16.88918 1.879557 -30.53664
15.14631 1.848176 -30.15238
-11.43022 14.65114 -22.1593
9.480453 15.97817 -21.54587
-8.550119 28.16569 -14.49108
-9.621274 22.02874 -18.22318
6.960121 37.51465 -16.01994
7.442494 27.99142 -15.49176
4.597234 47.4195 -12.38642
-0.8968936 71.73334 -8.732709
-6.016036 79.55612 -9.091991
-6.2225 73.12189 -8.796231
-10.10648 85.95405 -10.21488
-5.53699 85.57504 -10.42832
5.30899 100.0165 -11.67744
-1.840811 99.01748 -11.85338
0.9710132 99.97712 -11.53098
3.080497 111.2229 -6.408026
-1.482184 117.5582 -6.498587
-1.9636 112.1319 -6.459645
2.303891 122.1737 -7.269599
-5.778106 130.2374 -10.16276
-2.930069 133.2979 -11.35031
4.959791 151.075 -10.07694
-1.38281 0.167 -70.31136
-7.863387 0.167 -70.31426
2.989077 63.58723 -8.535502
-6.309854 53.84618 -9.287667
23.05485 0.167 -61.65252
17.87306 0.167 -60.66789
18.75065 0.167 -45.53362
11.47708 0.167 -68.20502
-9.356416 4.645372 -31.20679
-11.49162 14.55761 -22.92733
-10.90652 16.99982 -20.91144
-8.022646 29.72675 -17.60205
-7.506125 32.87045 -14.77375
6.690999 26.83585 -15.40829
-8.555347 75.58012 -8.855477
-9.640247 84.92677 -9.827494
0.9694832 106.3683 -8.553152
1.742077 116.0038 -6.244569
-3.304681 117.8665 -6.23617
-0.6871805 121.4113 -7.106314
5.288191 128.3107 -9.278289
-0.6353747 148.5097 -11.22579
-1.554617 0.167 -68.63837
4.936612 0.5503659 -71.50559
1.967692 59.36954 -9.223927
18.20624 0.167 -64.26608
18.36405 0.167 -60.85039
15.05123 0.3997517 -34.56791
-9.541263 19.54891 -22.16287
7.116991 34.77291 -15.59842
-5.357218 41.14285 -14.60907
-3.253783 78.17874 -9.041083
-2.00674 104.2787 -9.649445
-1.046813 117.3886 -6.503894
-3.043333 110.4391 -6.753615
-3.029986 121.3848 -6.85378
-2.041926 125.5085 -8.350045
-0.1077023 121.0877 -7.069626
4.9561 0.7189795 -70.50382
-13.7342 0.167 -62.59644
-0.4967557 49.57501 -11.4883
15.37476 0.6384259 -33.32997
10.20311 22.66014 -17.95171
10.51488 23.84841 -18.25658
3.604915 49.36948 -11.33686
-0.6765861 73.65575 -8.812238
1.236931 95.42599 -12.54149
-4.07995 108.2511 -7.474296
-3.901574 121.9211 -6.942531
-1.599186 0.167 -61.59375
-7.358456 0.167 -69.97644
-0.5584801 59.77365 -9.059084
-9.546423 0.8718476 -31.14723
8.424212 23.35933 -17.13704
-0.5791792 126.2654 -8.638451
2.125949 129.563 -9.917328
3.178967 1.183702 -65.41908
-10.40701 0.167 -67.38017
-1.502653 60.75832 -8.83391
12.79316 2.205857 -29.41586
-5.009391 41.37907 -14.86487
-2.04806 0.167 -64.18439
-7.326688 0.5538323 -61.84954
12.9937 3.139727 -28.10982
-6.844291 37.11853 -13.37405
2.910804 132.2783 -11.00292
12.17245 2.612575 -28.87601
-6.48815 38.11618 -13.92267
-1.58099 136.176 -12.05107
3.559442 23.37514 -16.75073
2.629243 21.54487 -17.72633
0.9788595 21.52245 -18.1581
1.797258 18.88516 -18.90924
-4.718292 61.76973 -8.564913
10.58371 10.54711 -24.04471
11.25716 9.437491 -25.73707
12.69942 6.015381 -26.50245
13.07889 5.54029 -26.74086
9.587956 8.338547 -23.51874
9.377579 3.074621 -28.82254
10.51556 2.47274 -29.26121
4.058358 6.387911 -25.75727
4.245531 5.85491 -26.23849
1.917871 6.386523 -25.91679
2.03193 3.29003 -30.38838
3.076888 2.433671 -31.44357
5.695299 1.789092 -31.42523
3.309225 2.20524 -31.97573
2.462515 3.334136 -32.89833
8.051726 0.8745912 -32.71183
5.22845 1.350502 -33.89607
-2.236768 5.727432 -31.16051
-1.187321 5.384554 -33.62719
-3.614526 12.31244 -22.4546
-0.1868447 6.259442 -26.28536
-0.9444366 80.24312 -9.274596
-9.734508 98.19696 -11.26866
-4.864286 98.62372 -12.06902
1.410267 88.62933 -11.65105
5.191759 88.39196 -11.67924
0.6683545 92.46688 -12.53217
-4.024872 93.65503 -12.75123
3.282553 102.1406 -10.72757
-0.3504631 143.8356 -12.21198
0.3009283 141.6229 -12.40533
-3.910947 63.05052 -8.477916
-3.495762 60.92236 -8.725877
18.10162 0.167 -49.59222
16.71286 0.167 -50.80641
16.15671 0.167 -49.22728
-9.503025 0.3132846 -43.44799
-11.60118 0.2277876 -43.10302
-11.74339 0.2479211 -40.15744
0.6595362 73.36664 -8.799609
-1.631909 67.94031 -8.555364
-3.33007 69.7364 -8.639937
2.630096 67.15134 -8.538142
-5.131943 66.84435 -8.481667
-0.1255381 65.21907 -8.483314
4.415996 73.56968 -8.805319
1.964923 76.56461 -8.933776
1.442637 81.9104 -9.534486
5.416184 82.26598 -9.468982
1.961972 84.01227 -10.04333
-1.961442 87.66355 -11.29521
5.394573 143.815 -12.45758
-10.23324 0.1798092 -59.57845
-14.49679 0.1764034 -51.9435
13.77292 0.5404831 -34.47734
15.67393 0.167 -39.156
15.33913 0.16376 -50.42421
5.236554 0.1639086 -74.03766
-11.84471 10.07654 -26.12578
-7.737074 8.784738 -26.49373
-6.648803 8.293986 -26.35582
-4.714891 8.777909 -24.77743
-9.261401 10.63378 -24.42998
-9.456398 13.00804 -24.11269
-3.720075 11.07643 -23.04252
4.093267 33.73299 -13.67153
2.61481 34.0734 -13.80682
4.368146 35.88041 -13.31598
-1.675732 34.3549 -16.07338
3.476091 26.10931 -15.84506
-0.646603 32.90414 -15.69955
-5.75275 28.70549 -19.49404
0.3741789 28.15804 -16.34615
-3.517285 34.43391 -17.19213
-5.075102 35.49332 -17.26344
-3.811844 34.7781 -17.25284
-2.157288 115.588 -6.295447
4.286245 1.108186 -68.19019
8.98523 0.167 -70.60264
-10.67042 0.531573 -38.21584
-7.335634 24.33331 -20.97856
-6.393778 24.68548 -20.72922
-3.922992 22.57275 -19.86881
-3.709777 21.61823 -19.94027
-1.67094 18.97686 -19.70203
-0.07817103 103.1825 -10.18901
2.909861 55.8707 -10.03209
0.9153095 50.64882 -10.56901
-5.177031 48.74789 -10.57582
-0.1757221 53.78684 -10.30398
-4.242516 47.80777 -12.51457
-2.158378 44.85259 -13.88062
-3.109287 48.23715 -12.99616
-0.9524094 41.98636 -13.75707
1.627601 43.07936 -11.95324
1.661619 36.88229 -13.39871
-0.08712391 37.65477 -14.17645
5.520204 36.07185 -13.72235
14.86384 0.167 -60.93995
17.64694 0.167 -54.46889
-3.616422 58.69963 -9.140091
-2.504031 55.71391 -10.38524
-3.687574 130.8211 -10.45992
-2.100657 133.1858 -11.28931
1.34958 0.2671975 -64.87682
4.382373 1.500506 -64.121
5.555475 0.9348786 -68.11798
3.747746 0.915522 -69.48473
-5.473646 3.138195 -35.46711
-4.590713 4.554411 -35.03381
2.236164 3.901434 -35.53035
5.502887 17.27975 -18.66257
1.279552 0.2204325 -60.02187
2.231984 132.3622 -11.01592
4.557849 144.6476 -12.28025
-0.164648 145.6673 -11.93172
5.500076 7.784729 -24.45405
2.154771 12.63182 -21.64396
-1.955542 3.24311 -35.74509
-7.63006 8.042601 -29.52612
-10.86886 5.205598 -28.80516
5.480904 80.60992 -9.19392
5.661889 85.12302 -10.27178
-1.040514 85.19267 -10.41451
0.602037 87.58459 -11.27282
-2.820666 88.88066 -11.74854
-6.410892 67.08163 -8.48704
15.31499 0.167 -53.00677
13.30904 0.167 -54.33057
10.11928 0.167 -48.07164
17.69879 0.167 -59.29942
10.38557 0.167 -59.3681
7.386614 0.4826871 -61.12997
7.762628 0.3072202 -64.50391
5.849918 1.663984 -59.28703
3.735559 1.629648 -60.07825
-9.299605 0.2055324 -40.65351
-10.15242 0.167 -48.156
-6.313756 67.89377 -8.536922
-9.069614 0.3456508 -60.18211
15.72567 0.167 -40.8171
-6.505204 15.88598 -22.60292
-6.841799 16.9943 -22.54003
-1.231942 13.39346 -21.64807
-2.551054 13.37396 -21.84175
0.1077968 36.85254 -14.24496
-2.348527 26.59234 -18.12834
-3.941675 47.05563 -13.18731
4.740974 40.63065 -12.89704
-2.461236 54.40943 -10.94838
6.269373 1.148074 -63.45645
-1.266811 16.64829 -20.34123
5.971894 8.531923 -23.83376
5.66311 11.76669 -21.70739
3.60626 14.01372 -20.76243
7.674145 0.4849804 -34.45901
3.632702 0.7522781 -40.32371
6.442508 1.746803 -36.3509
2.26467 0.5500774 -39.93438
4.479665 2.205457 -47.16336
0.4056931 0.1829618 -40.83283
3.052506 0.3649122 -42.88242
7.111447 0.5038373 -48.1236
-10.5489 4.493481 -29.35971
13.12602 0.167 -63.2939
14.30018 0.167 -47.22443
11.1098 0.167 -49.7853
8.781307 0.1681286 -49.72532
15.44633 0.167 -45.14647
8.721105 0.1677566 -52.24479
6.40506 1.835575 -45.56282
9.592905 0.1790547 -43.26478
1.102193 13.68651 -21.2244
-0.3717777 10.18732 -23.26789
-3.027634 31.53428 -17.60634
-5.824975 1.565391 -36.26075
1.92064 7.840148 -24.71186
-6.906839 1.463463 -40.24062
4.129247 1.779964 -37.96826
6.668387 1.923489 -41.93293
3.953157 1.424598 -46.91703
2.095154 0.2680911 -49.00346
11.50353 0.167 -43.11013
-7.878775 0.6591675 -44.09801
-10.81518 0.167 -45.9615
-9.726524 0.1932274 -48.07698
-5.142716 10.95338 -23.31918
-0.9178728 0.167 -62.47553
3.888544 1.725005 -59.07188
-4.99724 0.7496704 -36.31657
6.732325 1.530811 -37.26122
4.608245 2.117327 -51.97198
1.61325 0.2194811 -51.92248
8.595476 0.1719611 -45.13094
-5.077719 0.5921012 -43.66517
-13.53065 0.167 -51.82321
-2.983977 0.1621079 -60.06745
-5.832842 0.2158937 -62.71159
-0.4926423 0.167 -47.36014
-1.461756 0.167 -44.02291
-2.032686 0.167 -45.97755
-1.855259 0.167 -50.82162
-3.630761 0.167 -49.9273
-5.797125 0.4124937 -52.93881
-4.345333 0.3455127 -41.72748
-7.309207 1.127916 -48.4347
-12.78502 0.167 -56.60172
-10.92388 0.1810297 -51.06066
3.031534 1.086685 -57.10994
0.07566784 0.167 -55.81911
6.599919 1.192972 -56.20566
6.889766 0.9948874 -54.44921
-2.594562 0.4524221 -40.08105
-5.066158 0.1890518 -56.30535
-4.189494 0.1686009 -57.42331
3.223377 1.345544 -58.03452
7.992298 13.90303 -20.30481
4.876463 15.72481 -19.64542
3.729121 17.83189 -18.9461
-10.05448 151.2641 -8.138026
-20.15883 0.4251361 -55.84995
-16.69341 1.460277 -43.99866
-20.37626 85.15266 0.5120685
-15.91198 8.457895 -21.46257
-13.23034 127.3734 -1.484464
-14.70356 71.56247 -8.32244
-12.58571 28.51689 -13.22396
-10.39361 33.77027 -12.01247
-12.96794 73.94471 -8.748558
-10.14061 109.654 -5.55183
-13.40825 63.58411 -8.019536
-20.1108 69.63157 -0.09074059
-13.37403 89.36282 -10.02969
-15.43571 107.1627 0.573757
-13.25187 110.3488 -2.338048
-8.2097 115.6396 -4.323318
-18.47993 91.65781 -3.170578
-10.23595 131.0205 -8.936054
-8.685626 142.7394 -12.45371
-14.88594 86.1064 -8.44869
-36.36619 0.1685545 -35.61568
-14.99535 92.63286 -8.623456
-16.61535 103.3292 1.634754
-22.27017 37.82596 -1.575835
-19.35235 61.36283 -1.705297
-11.20136 115.5214 -1.744268
-9.015227 130.9231 -9.519269
-25.81285 23.12128 -9.941297
-17.74072 95.25972 -2.441363
-17.7462 97.08599 1.211834
-13.38272 111.6466 -0.6839707
-20.53674 77.90779 -0.3619894
-15.10892 135.4388 -0.6239573
-12.27619 117.7068 1.233503
-12.02312 41.51028 -12.85217
-20.24708 82.69238 -1.847781
-20.14062 86.79955 0.1522475
-17.61859 97.69312 0.2404083
-13.86393 128.7126 4.017829
-14.80619 133.5591 0.2005594
-19.98709 87.75782 0.3636504
-14.47198 109.2374 -0.5749307
-20.2219 71.82993 -0.3539156
-18.84481 69.98814 -4.613285
-10.73071 116.2147 -2.124967
-20.29055 73.91182 -0.6608067
-19.52565 74.51174 -3.624665
-14.39853 131.0294 3.577506
-11.23746 118.7408 -0.9347399
-19.21875 89.80956 -2.09606
-20.96721 0.167 -66.76107
-17.36081 0.2005735 -35.90235
-22.6862 40.28173 -6.996325
-11.4352 141.4839 -11.83356
-10.71473 151.7051 -6.800404
-16.02159 60.66658 -6.670898
-10.94283 105.3834 -7.312719
-10.31727 112.2145 -4.182816
-14.71624 93.68273 -8.689487
-9.918284 114.3229 -3.540595
-17.50842 88.65814 -6.090286
-9.913596 122.4042 -3.923182
-19.17551 59.06069 -2.360754
-12.56131 113.3526 -0.7329423
-15.85495 71.61572 -7.817236
-17.71701 93.5101 -4.075728
-20.52017 80.80487 -0.8059446
-14.55973 91.61359 -9.15661
-22.84945 0.1776131 -63.46663
-33.60958 0.7234442 -53.52409
-34.93382 0.167 -24.09939
-10.4676 23.58846 -13.99802
-15.07928 135.4177 -5.066043
-14.89601 138.1524 -8.847079
-12.33137 139.9094 -11.36257
-32.01383 0.167 -21.4189
-13.24051 57.2557 -7.733496
-18.04867 65.91273 -5.407961
-11.90693 111.1872 -3.497211
-14.07063 96.86551 -8.418684
-11.04254 119.2058 -1.270621
-17.73975 89.74974 -5.521258
-9.305031 127.4189 -7.495058
-19.23464 57.14327 -1.516002
-12.97671 108.8088 -3.701755
-14.30569 99.0384 -7.208591
-18.5395 67.1978 -4.866448
-17.53101 64.79828 -5.879482
-20.21262 84.46661 -1.337356
-16.74809 88.99303 -6.991293
-24.13128 0.1646088 -62.11487
-34.33315 0.3547865 -53.43085
-15.47336 2.207613 -27.15809
-14.86703 16.93504 -14.71964
-12.82254 31.98019 -14.0031
-20.52783 47.27722 -2.694895
-11.05295 51.62098 -10.22977
-11.53931 143.6615 -11.69773
-14.66995 140.9773 -10.35103
-8.784252 148.8289 -10.73722
-19.25833 54.84756 -1.785814
-14.101 97.7404 -8.038976
-14.75211 82.5357 -8.116806
-18.77076 84.60071 -4.796592
-14.53682 72.80005 -8.393136
-10.91623 131.8056 -8.937768
-18.91978 57.32885 -3.440127
-14.32367 100.9781 -6.244163
-15.95563 71.23205 -7.774683
-19.70945 77.96561 -3.382719
-15.58716 67.72917 -7.779478
-26.42036 0.167 -57.44674
-30.227 0.4367049 -59.07992
-15.14336 1.540966 -39.0656
-35.83959 0.166904 -41.42744
-34.58003 0.5833683 -36.85193
-34.43979 0.167 -22.83644
-27.86076 14.37027 -4.046525
-13.60936 12.22339 -18.70124
-22.94212 29.37768 -2.194834
-23.55158 34.78248 -3.034935
-9.737355 42.18218 -11.72773
-9.556921 133.6911 -10.54419
-12.48662 146.4105 -11.00787
-28.86714 0.270455 -12.14764
-12.89524 55.70034 -9.040984
-9.626925 119.0141 -3.108022
-17.0367 77.25328 -6.920393
-12.47523 65.52312 -8.334007
-14.36772 132.0304 -1.565675
-17.58566 57.72868 -5.677864
-18.22389 77.57264 -5.702511
-17.83825 1.276829 -50.72129
-31.26323 0.5698074 -57.66468
-30.20108 1.022039 -55.59038
-24.46501 0.167 -41.58463
-16.25652 1.053168 -37.92003
-35.01918 0.2007989 -46.4247
-12.65893 4.343228 -25.06763
-36.99813 0.167 -32.94299
-29.31526 10.57269 -4.161818
-11.39833 7.052706 -22.42464
-23.59771 31.23661 -2.505753
-10.1975 36.11409 -11.8701
-22.8894 39.72893 -5.915786
-13.2364 39.50372 -12.87334
-19.81209 50.40553 -3.65435
-13.83301 134.1971 -7.639692
-29.68053 1.213289 -8.235447
-30.49246 8.189967 -5.763171
-31.04191 0.167 -19.63243
-19.355 80.05903 -4.126303
-18.20584 84.11671 -5.621047
-23.047 0.167 -60.18033
-33.52864 0.9379411 -50.90374
-16.39786 0.3879187 -34.5558
-17.12517 0.3573705 -29.86149
-35.92186 0.167 -42.09558
-32.57175 0.1924487 -31.69973
-11.27362 18.46706 -15.46177
-10.37528 15.19987 -17.65431
-25.04469 17.73539 -4.725238
-10.8814 26.87203 -12.93689
-16.62676 31.5758 -13.21248
-24.88067 30.08459 -10.12991
-25.13805 29.24664 -11.2589
-21.978 42.18225 -2.803352
-12.35048 37.33989 -13.73557
-10.14875 38.77827 -12.04759
-13.48827 136.1656 -9.318698
-14.40157 133.0183 -4.733691
-29.31636 4.849693 -5.264645
-29.17995 0.880596 -17.10211
-29.63382 1.476943 -18.95782
-32.05009 0.9822708 -19.55796
-27.69662 0.1844102 -56.84645
-15.45884 1.506097 -38.23214
-15.21742 2.090998 -27.70936
-34.36311 0.4969358 -35.46979
-31.59748 0.2393341 -28.07952
-11.54451 13.82172 -17.64209
-23.51056 24.32689 -6.088256
-25.53412 28.55565 -10.73872
-26.73687 25.04047 -11.8195
-22.78378 39.81102 -6.881115
-17.9517 53.03299 -7.006826
-31.67585 4.925225 -9.34529
-23.75718 0.167 -57.68029
-33.31326 0.5697765 -44.6291
-34.45445 0.1859982 -33.60696
-13.13439 22.91764 -13.63598
-24.79726 26.04289 -8.123613
-13.20892 42.89272 -11.79804
-31.61883 5.016126 -9.302935
-28.84493 1.583189 -13.85493
-22.3157 0.167 -49.92509
-34.79079 0.2596333 -39.6478
-30.50884 1.242986 -26.91216
-33.53259 0.5280328 -38.59883
-14.92885 24.20979 -14.51652
-24.46352 24.2583 -8.338861
-30.91791 4.614238 -17.02441
-30.11388 1.154922 -43.87535
-30.58312 1.957111 -49.21556
-33.31777 2.891993 -31.64696
-32.29268 1.198054 -39.58044
-16.53693 15.28996 -15.06311
-12.22251 31.02695 -13.28775
-30.21531 5.951066 -10.16543
-31.43052 3.447868 -42.36175
-29.68576 0.6476142 -42.87377
-19.13301 0.167 -40.02827
-31.40771 1.305147 -33.95895
-14.47052 17.73973 -14.58871
-16.47025 24.32284 -15.76154
-15.20155 29.82405 -15.0098
-32.86708 2.922805 -39.77506
-30.92303 1.21426 -52.95822
-17.4821 17.49171 -15.34547
-12.30822 32.87462 -13.60062
-28.71083 8.473256 -8.271974
-32.81425 1.20549 -49.59561
-16.17404 21.3123 -15.04787
-19.81839 13.61807 -16.13307
-30.04687 6.124016 -10.30492
-30.80818 9.037182 -14.51851
-24.35177 0.167 -36.55085
-13.25728 32.15303 -14.28292
-28.29431 0.2062579 -43.08123
-27.95875 9.552348 -8.265839
-18.84562 29.67746 -12.27485
-22.57683 29.81727 -12.77751
-15.357 34.0518 -13.4966
-20.20064 32.15177 -12.54265
-19.97669 10.40195 -16.18283
-13.33076 60.16852 -7.599655
-10.19071 116.6165 -2.650602
-21.46228 45.29356 -4.450755
-10.39466 118.6856 -2.154757
-14.24187 131.2422 -0.4808643
-23.3414 37.40361 -5.69316
-16.66763 47.37257 -10.49658
-18.01166 44.22812 -10.81447
-18.01925 48.67516 -9.392612
-18.22403 42.97397 -11.13482
-18.04754 43.8512 -10.92009
-22.22464 42.33437 -6.962388
-16.5776 40.76757 -11.80775
-21.61574 40.1121 -9.737525
-19.72284 36.3686 -12.43918
-19.57398 77.62842 -3.636114
-27.53245 13.14086 -5.035403
-27.00409 12.49432 -7.175177
-32.20814 0.9123788 -19.15985
-30.89327 1.114817 -12.49529
-26.03627 0.167 -51.82296
-26.41184 0.167 -57.84702
-14.56925 10.85738 -19.76857
-12.94604 11.43054 -19.27823
-22.98643 31.78648 -12.46712
-20.60431 27.44892 -12.26967
-15.20166 52.96954 -8.486004
-13.97415 53.1341 -9.772781
-17.31173 50.59131 -8.028919
-18.41438 49.93426 -7.379729
-26.44376 24.85646 -11.44936
-30.08304 1.413363 -22.58638
-31.67096 1.565184 -27.12423
-32.57254 2.358872 -44.19111
-31.45892 0.8581744 -11.42719
-25.18255 0.167 -51.60081
-24.84065 0.167 -50.13919
-26.8221 0.167 -43.84419
-24.51093 0.167 -52.17732
-29.74001 2.01255 -28.29771
-30.34229 1.806489 -39.21856
-28.37022 0.167 -50.95288
-29.2402 0.2547942 -46.10606
-31.37924 2.197238 -51.40321
-24.7053 0.167 -35.85975
-28.60349 10.98749 -9.935283
-11.49632 125.6577 -4.108353
-12.56219 128.3387 -4.561604
-14.09268 132.1762 -4.635181
-13.18365 125.5946 0.2322571
-19.98472 47.71655 -7.864982
-22.33718 37.60865 -10.13888
-22.95488 35.08366 -9.681084
-22.87572 36.15712 -9.922885
-16.95743 2.871771 -25.31787
-16.05076 5.079319 -23.63368
-27.67079 15.00646 -8.407272
-17.88184 26.9812 -14.85577
-28.66139 18.49293 -10.14574
-27.56066 20.76566 -10.0528
-24.93471 17.56871 -6.775773
-32.84347 1.06935 -25.64248
-24.64177 0.167 -40.36886
-33.06124 4.035106 -26.34516
-28.82902 2.56684 -24.28666
-34.72778 1.82809 -24.75548
-30.2843 3.209982 -21.79658
-33.14865 2.709705 -22.27519
-26.83012 0.4609522 -29.11184
-31.78065 2.83276 -22.25333
-33.13147 3.04092 -20.2809
-22.89419 0.2944843 -29.39783
-24.31468 0.167 -33.46684
-25.79091 0.1786072 -30.18737
-19.99323 1.029496 -27.20517
-34.62882 4.734435 -18.44077
-35.51429 2.196907 -20.55139
-24.47924 2.536366 -25.99754
-31.28438 3.693208 -36.7813
-29.32443 0.9748877 -33.33915
-28.97525 0.2049655 -51.08922
-20.51234 22.24518 -13.94946
-20.23939 22.01229 -15.09414
-20.76164 18.90521 -16.66927
-23.03616 21.55034 -12.16236
-26.73294 22.77698 -12.18239
-25.40569 25.80735 -12.53411
-33.85455 3.065777 -14.36343
-34.29138 6.425277 -16.22981
-34.96504 5.507712 -16.04475
-34.0217 5.685023 -17.16475
-30.85914 5.279356 -16.47058
-31.36499 9.124671 -16.2968
-27.85541 3.533187 -19.75343
-27.50675 3.666452 -19.5051
-29.66683 13.35196 -11.8703
-29.84794 12.87102 -14.96459
-19.37085 10.28072 -16.29276
-10.95424 123.2146 -3.116891
-21.93192 36.16516 -11.64507
-22.22303 3.358226 -24.13885
-25.65056 17.84453 -12.36042
-25.24705 17.12525 -13.39682
-22.29733 16.44682 -16.68588
-26.84825 17.47604 -11.99869
-26.94057 3.193322 -21.81424
-18.084 0.9431427 -28.0531
-17.70752 5.929095 -23.24901
-18.52431 6.580556 -22.05353
-24.13265 3.885558 -20.7565
-19.18826 8.064378 -18.00829
-26.77074 0.167 -40.28548
-20.94396 17.41961 -16.93841
-20.81826 26.50463 -12.28796
-32.34694 6.904544 -15.94835
-24.53871 12.47213 -17.2357
-26.8318 15.29676 -14.79665
-22.27138 9.262623 -16.75708
