# .PCD v0.7 - Point Cloud Data file format
VERSION 0.7
FIELDS x y z
SIZE 4 4 4
TYPE F F F
COUNT 1 1 1
WIDTH 1666
HEIGHT 1
VIEWPOINT 0 0 0 1 0 0 0
POINTS 1666
DATA ascii
-8.549633 51.97382 -12.61563
23.26257 61.13908 -3.012101
22.08134 73.28311 -3.639455
22.74949 67.94128 -5.915207
20.65441 80.07611 0.8379516
20.42363 85.27605 -3.745787
19.9746 78.39762 -3.611196
19.54825 74.04153 -4.099728
20.5805 88.70295 -5.577439
19.88594 93.12754 -4.615462
18.9373 95.16885 -3.962753
16.75361 104.8955 -2.648395
15.27244 111.1873 -2.682492
14.78781 115.8254 0.3323726
20.00556 91.49198 -5.48499
18.7117 99.24712 -4.845482
16.18634 108.0459 -4.272644
14.87939 113.3445 -3.262796
11.83977 66.07293 -13.59125
17.56358 94.53027 -3.729748
6.197994 98.74596 -12.04894
11.03859 113.3644 -4.748956
6.586303 115.6082 -5.453132
-5.59861 95.6729 -12.97785
3.181567 116.6189 -7.697772
1.956061 1.089245 -13.44092
-11.36376 0.8778113 -10.94514
-22.54216 6.579148 -9.894621
-25.64304 1.526392 -5.900324
-24.41349 6.672221 -8.411834
-23.62525 15.46503 -9.154122
-11.72909 21.72474 -11.47703
-21.24912 27.72233 -10.51049
-21.05687 46.41977 -10.10411
-22.7604 28.2938 -9.676491
-22.49564 33.15916 -8.966277
-23.03904 38.2105 -4.21969
-22.18041 43.42436 -3.243698
-28.38603 2.094216 2.153064
-26.74957 6.002239 -1.998194
-25.57557 10.03269 1.806438
-24.15543 22.78501 -2.014745
-23.24571 29.20072 -2.71418
-23.56196 37.43155 -2.345047
-23.08391 36.55038 -2.838828
-20.84933 52.51315 -8.544828
-21.17389 59.16755 -3.748053
-21.95184 55.73734 3.681617
-18.80909 67.54797 -9.41803
-17.61694 77.44055 -8.857059
-20.07502 60.41465 -8.845623
-20.94402 64.97903 -3.921432
-18.49161 77.38779 -8.392236
-17.87823 84.48449 -8.355824
-17.02069 92.98443 -7.475898
-5.05789 106.8556 -9.68841
-4.556064 109.867 -7.286222
-19.25952 93.16695 -3.5988
-15.10642 105.3748 -5.549388
-11.50586 113.2515 -2.976382
-9.809207 116.0163 -4.54728
-21.54403 66.21078 2.619565
-19.92736 74.57658 -3.022737
-19.95929 79.97487 -3.089544
-19.33508 89.95523 3.321742
-17.9952 96.71442 2.605822
-18.24354 95.70477 2.444726
-15.34452 108.0548 3.019971
-11.43368 116.8921 -1.718811
-13.63253 112.7529 -0.8523357
26.55022 9.564804 1.158022
26.18356 9.992267 1.860543
25.09783 14.46896 2.509164
26.29875 16.27567 -0.1493952
23.93945 22.64638 2.535839
28.06359 2.518246 -4.806961
27.11908 7.808849 -4.244107
27.15353 9.844304 -3.957694
25.46543 16.85804 -6.19655
26.00676 20.71252 -5.467359
24.15158 13.71208 -6.978204
15.27654 4.867004 -14.32539
26.19592 24.6051 -4.98425
25.60992 31.66208 -1.488592
22.3327 37.01881 2.809762
23.42636 45.15407 -1.087271
22.18131 43.89261 1.508978
22.10704 52.55894 -0.1759441
24.2928 52.31639 -2.693988
23.71014 29.75833 -7.003539
23.46604 32.17256 -6.947211
25.4993 37.99965 -5.801468
26.00389 36.1368 -4.25422
22.27769 43.71896 -6.232171
25.24178 51.64425 -3.665636
24.10572 45.67555 -6.471399
23.15882 54.17231 -6.272955
23.0489 57.34395 -6.126543
25.22916 5.17359 -7.517091
13.15011 22.96481 -14.80537
11.08695 10.24221 -14.26484
9.383583 34.28444 -13.51267
12.80128 34.1018 -14.60565
23.2756 29.93913 -8.330459
21.58348 47.13057 -6.580355
12.26957 53.46225 -13.93869
20.84808 52.10465 -4.970452
-8.606101 40.08498 -11.78333
-7.393976 65.50366 -12.1475
21.6859 63.23095 -1.207572
20.74953 73.39594 1.768067
20.79037 74.88418 -0.7614021
22.19979 69.29497 -6.312705
23.66007 68.18577 -4.333243
20.61728 81.61258 1.628862
21.28488 84.89811 -4.679929
20.77341 66.43701 -5.931334
20.15277 69.66913 -5.480032
10.91192 81.48279 -13.47916
19.84683 67.45187 -3.94971
12.56146 71.80976 -11.52978
21.54495 79.00245 -6.185814
18.74867 89.1154 -4.421911
19.82174 85.64324 -2.576879
19.4776 91.57645 -1.329702
18.83775 94.64022 -2.319329
17.89865 101.2149 -1.78179
16.65052 107.9964 1.34633
15.75343 108.2896 -2.655945
17.61191 94.43324 -4.441004
17.83788 96.58659 -5.863293
17.49676 99.43442 -1.652509
15.84074 110.0917 -3.879627
14.10303 109.5811 -3.47951
14.96848 112.52 -3.52132
19.04471 87.33932 -3.755572
11.02402 87.4447 -12.0808
9.659103 96.86125 -12.12092
11.26765 64.15298 -13.94862
-7.421062 84.51505 -12.66379
13.29101 108.9383 -3.185989
8.001773 116.3116 -6.464725
-5.100291 100.1287 -11.97131
4.492681 116.656 -7.075911
-9.287155 1.340992 -12.40072
-10.43359 9.272677 -10.61699
-23.64038 10.84763 -9.398708
-24.34438 2.72511 -8.976595
-24.13201 9.645054 -7.987594
-26.54327 4.285454 -2.438708
-23.31205 18.72645 -8.804942
-24.43933 16.30901 -3.621786
-21.2863 20.61536 -10.2823
-9.19018 25.81329 -10.47172
-11.04603 36.45609 -11.48072
-20.66749 33.62965 -10.97563
-21.78956 40.49168 -10.18522
-8.34719 54.18542 -11.31327
-22.92869 24.02813 -8.599369
-23.49098 28.65693 -5.032627
-22.53734 32.51056 -8.862101
-23.12831 37.32297 -4.930044
-22.03402 40.70298 -8.904622
-19.69674 53.61897 -9.975684
-22.24659 44.37893 -6.439293
-22.14649 46.1095 -3.776032
-26.71847 5.778624 0.4392093
-25.22898 6.666433 1.420485
-25.64045 16.16832 0.8009321
-25.61394 15.09939 2.682704
-24.75341 24.58122 0.4556919
-24.02502 25.07133 3.806969
-24.30282 29.89712 0.547212
-24.06845 33.49909 0.3854916
-23.96924 36.123 -0.6986412
-23.12666 42.78214 -2.094643
-23.55304 41.47668 -0.06179804
-21.65674 52.48429 -5.509679
-20.32849 57.74632 -9.478362
-22.7356 49.59253 2.025827
-22.29043 56.31403 -0.9566981
-22.17645 58.54333 1.763254
-7.120695 71.11089 -11.68769
-18.18798 75.49511 -9.043946
-16.92249 82.85313 -8.503767
-16.2351 91.33446 -7.858323
-20.51268 60.64452 -7.260274
-19.23313 69.85328 -8.452375
-20.16744 70.22717 -6.439117
-18.38715 78.83123 -7.494587
-19.48182 79.15498 -6.148597
-19.97597 84.1205 -5.072872
-19.55917 85.89975 -3.376891
-4.957614 98.56643 -12.0886
-14.61036 101.5094 -6.414467
-4.146521 112.9539 -7.482717
-4.878627 116.1621 -7.370511
-17.20504 93.22803 -5.705701
-14.86823 102.0709 -5.39381
-15.69578 102.6355 -4.241607
-12.5477 110.4954 -3.910699
-21.21874 62.0505 -2.395768
-21.30406 69.82102 2.696684
-21.55596 70.93114 0.2917258
-20.63726 79.94582 -2.297618
-21.03966 78.4611 0.3114984
-20.52268 85.15772 0.462642
-20.20857 88.562 0.6877709
-18.35499 95.3075 2.34763
-16.80979 100.1023 -2.17047
-19.20868 97.68816 -0.3696653
-18.22668 102.444 -0.3914878
-14.16777 112.3052 -0.8269905
-16.39829 111.2358 1.143322
-13.08167 108.3198 -4.284271
-14.44496 113.7592 2.353056
25.88467 21.29001 -0.4377361
24.45385 26.38205 0.5375995
27.39112 15.50393 -2.925629
15.07967 12.70855 -13.61298
23.97252 16.68324 -7.789089
26.54412 21.56927 -4.399136
24.85424 33.05759 -1.005239
22.13055 52.69508 -0.2445216
24.61247 52.63286 -5.274629
23.35244 57.97948 -6.013152
13.25683 24.80353 -14.42746
11.39162 6.106171 -14.59545
-0.4424893 0.3230809 -13.83501
-9.368341 16.50565 -13.46851
23.18014 33.70439 -7.297248
12.7005 38.68682 -14.37129
14.54893 46.3864 -11.88641
21.10047 50.05787 -5.353036
12.81273 39.87316 -14.02677
20.66759 54.04093 -5.357805
12.31532 35.91896 -14.55978
-8.532385 37.75256 -11.42606
11.82558 54.06403 -14.32481
-7.701444 51.36871 -11.6385
-6.413057 59.94322 -11.27568
21.81305 60.67128 -0.9815969
21.09838 76.45332 -2.697079
20.91931 78.10415 -2.731878
20.0843 86.99461 -3.325804
23.03636 64.31995 -5.967475
19.20968 79.11806 -4.602628
14.5445 70.84237 -10.05674
18.54658 87.58463 -5.644774
18.47139 99.9482 -1.002291
14.70519 113.6572 -0.0546869
15.82311 102.1758 -4.525086
14.25251 111.926 -1.766586
19.72737 82.0513 -3.319338
11.20967 80.71104 -12.63877
18.40415 92.77324 -2.474234
12.1228 100.1618 -9.859241
13.60186 97.37479 -9.292912
11.48704 69.33347 -14.20143
-7.976759 68.27905 -12.64315
10.49189 77.08707 -13.5607
-7.593941 86.16069 -12.70693
14.79283 108.3153 -1.467173
9.539518 116.888 -4.952346
11.69459 110.8435 -3.859935
8.673006 101.2449 -11.41518
-7.869974 92.61703 -12.85569
4.075123 115.5867 -7.652116
-1.155424 115.5734 -7.680379
-10.24134 6.226705 -10.90612
-17.32271 4.636398 -11.81033
-11.24951 13.05003 -11.20431
-22.91881 12.72559 -9.53013
-25.49931 3.227792 -6.737206
-24.43842 15.65807 -4.739765
-10.34092 20.42119 -10.93676
-19.4443 24.62666 -11.21799
-9.409441 34.32294 -10.91598
-18.8216 33.48135 -11.87184
-18.55867 42.36782 -11.30324
-20.75755 47.03199 -10.11481
-23.61629 24.39241 -5.442865
-23.06149 30.678 -7.127344
-22.87162 38.63599 -6.987131
-9.310694 56.03166 -11.70479
-16.45571 60.09146 -10.39835
-16.5643 54.94001 -10.79303
-21.72582 45.22893 -7.987925
-27.81954 5.482924 -1.658006
-26.7165 12.10617 -0.02472856
-24.9018 22.97339 1.370904
-23.83538 34.99237 1.697285
-20.94089 53.55837 -7.796757
-22.71808 51.51888 1.221691
-22.32623 57.5661 -0.171789
-5.964227 62.75748 -11.13497
-7.445929 63.99292 -11.47204
-14.85536 74.19429 -10.10229
-7.438068 77.21972 -12.0358
-6.370129 84.60255 -12.2341
-17.55578 85.73942 -8.435272
-8.827643 95.61633 -12.18789
-15.46585 93.41672 -7.977108
-20.77526 68.5378 -5.293595
-19.07504 74.33813 -7.366735
-19.06852 82.53442 -6.040789
-4.297933 96.27207 -12.55339
-5.003037 99.42421 -11.8518
-4.228857 105.232 -9.633587
-12.00713 105.6378 -8.81319
-12.45497 111.6754 -6.080698
-4.051917 112.4124 -8.663407
-4.663697 110.1803 -7.543557
-17.38424 96.8146 -4.831102
-15.87225 107.8752 -2.688392
-9.623785 116.4524 -4.547834
-21.57356 69.57526 -0.7195385
-20.95657 79.59556 -1.058529
-19.2781 95.18384 0.9933999
-18.64929 96.27259 1.537366
-16.53714 106.7702 -0.8800935
17.55949 12.28145 -12.67333
19.65538 9.940038 -11.94977
22.44232 15.59604 -10.37455
16.21648 10.81278 -13.22901
16.53835 8.576979 -13.25094
23.81479 42.35902 -1.157188
21.44571 1.835056 -10.57504
13.01383 15.62551 -14.91556
12.72657 6.02897 -14.88438
12.35696 26.99767 -14.55618
-9.244404 27.34963 -14.55523
22.15166 37.63361 -9.31551
21.87855 32.86028 -10.13661
21.14723 26.89664 -11.0128
16.93116 46.74611 -11.12715
14.05271 49.07875 -11.91222
13.91126 50.06999 -11.9196
14.09537 44.90944 -12.28852
14.78064 42.8781 -12.08872
15.26057 58.74554 -10.53201
17.86417 55.33321 -9.958355
20.22213 58.75512 -6.903163
10.00752 37.33395 -13.52985
5.123268 31.01791 -13.64431
-9.1809 34.75503 -12.79326
11.77481 52.91515 -14.26069
-9.133289 50.37563 -14.57165
19.80708 88.22503 -2.196389
18.51563 80.2447 -5.732633
16.09585 74.02131 -8.912052
19.20278 84.09687 -4.671163
12.94755 115.461 -1.967653
19.02301 82.14062 -4.617217
14.06353 78.72116 -9.978837
17.41744 90.60036 -5.826079
15.94174 86.97359 -8.042168
16.93233 83.92115 -7.279324
12.2955 82.45016 -11.2028
16.4817 97.38641 -4.467531
7.955714 67.71748 -13.72941
-8.765093 69.6724 -13.72456
10.15696 77.22951 -13.34774
-7.857187 85.30685 -12.74698
11.95989 103.4406 -9.372073
14.10083 105.7135 -3.874745
13.23568 111.9186 -1.842536
7.423574 106.9982 -9.18339
-5.277082 91.11045 -13.0233
-3.989625 105.5658 -9.799461
5.541901 109.9687 -9.712686
-0.3389502 2.586536 -16.1032
-13.38107 9.692327 -11.78649
-22.8952 3.764699 -10.06558
-19.73921 8.223069 -11.10762
-15.17736 16.91984 -11.8767
-15.05461 11.95594 -11.85058
-18.38341 17.54541 -11.40835
-11.03654 18.41582 -11.21476
-17.49684 20.43016 -11.67155
-18.11255 27.38723 -11.76139
-16.52186 21.58547 -11.85523
-10.37632 31.47845 -11.18396
-21.24245 28.86202 -10.53051
-17.17033 35.70832 -12.18527
-20.11404 29.70205 -11.13386
-20.42961 36.26911 -11.1711
-16.59979 39.39056 -12.04677
-16.06406 33.2113 -12.12342
-18.9089 38.93623 -11.63516
-18.48978 46.3632 -10.85554
-14.38019 50.68037 -11.91487
-15.79419 43.41979 -11.97753
-7.872609 50.70796 -11.0188
-13.86299 57.17809 -11.80453
-9.60006 63.69149 -12.02721
-13.89863 62.60519 -11.48181
-14.6528 64.26311 -11.01074
-13.77955 74.11909 -10.85999
-13.09346 73.96989 -11.30215
-9.989018 66.05479 -12.13971
-9.214366 75.67806 -12.2292
-7.959037 82.7905 -12.28545
-12.99742 85.29247 -10.74584
-15.65658 83.38315 -8.867376
-15.1117 77.17188 -9.694597
-6.505842 92.73917 -12.76221
-8.731409 86.77839 -12.35938
-11.76168 94.59888 -11.00344
-13.44008 96.20045 -9.34558
-7.939892 99.91643 -11.35255
-13.09957 97.76302 -9.524929
-13.67602 100.1932 -7.660164
-13.08285 101.6008 -8.531313
-13.83806 97.10123 -8.595327
-7.167226 107.7725 -8.149377
-7.079022 107.0389 -10.29727
-5.702419 111.7232 -8.808395
22.35202 50.84968 -0.4006252
14.20212 23.0092 -13.57443
9.254412 13.44809 -13.85456
6.455688 17.78429 -13.57358
-9.46128 19.64368 -12.82728
-7.785043 27.70855 -16.72591
20.57631 36.16677 -11.0536
16.59328 38.93386 -12.03249
20.62447 48.21721 -9.216073
14.73332 52.25906 -11.27803
6.074533 33.02163 -13.69529
-9.199522 34.0038 -12.78895
8.881033 59.4479 -13.58372
6.883399 56.3779 -14.11421
-8.471535 51.56976 -12.50149
13.48046 72.06101 -10.7036
14.57055 71.15041 -10.02345
16.25244 75.59612 -8.685439
19.49002 69.71262 -5.495968
19.06982 61.04042 -8.535284
14.16196 59.73531 -10.98467
16.20145 91.40975 -7.40246
16.59708 80.90379 -7.924176
7.651302 67.60395 -13.83986
6.702923 69.47941 -14.25991
-6.581134 70.41042 -12.00967
9.044423 84.80878 -12.86847
6.214768 90.43053 -13.71376
-7.138708 81.80451 -12.497
11.24802 111.4537 -4.185297
12.87502 109.358 -6.206293
-6.626638 97.86578 -12.50428
-8.004977 100.7186 -12.42613
-0.773902 114.2786 -7.198178
-0.9162412 2.059445 -16.12797
-13.51398 13.5057 -11.76943
-13.26193 20.13341 -11.78079
-15.29353 14.64748 -11.87431
-19.28498 28.73713 -11.46471
-16.91782 33.6984 -12.17742
-11.2158 46.24697 -11.83034
-10.91025 49.86871 -11.89345
-11.35421 58.99109 -12.13391
-13.40199 69.39664 -11.38153
-7.964952 78.74663 -12.16631
-10.29925 91.58834 -11.95836
-11.82716 95.84425 -10.76454
-9.817429 84.57652 -12.24742
-9.380624 102.5652 -9.686989
-2.231358 113.6968 -9.571588
23.42762 18.36152 -9.153063
17.72879 5.787919 -12.95177
20.86598 18.54395 -11.32658
11.603 5.330895 -14.69892
6.67605 1.756672 -14.43711
9.097767 26.80935 -13.52985
20.12793 33.2761 -11.40387
15.24266 36.52672 -12.45488
16.33685 30.30121 -12.4652
19.9685 50.62778 -9.502013
18.9631 45.49638 -10.80019
9.576733 42.96145 -13.44866
5.949066 29.67219 -13.64869
6.426762 52.83131 -14.13487
3.888892 53.78704 -14.14927
7.079878 51.98963 -13.96083
-8.740096 52.94024 -13.03181
15.67389 70.07198 -9.459071
13.36763 66.16616 -11.13382
14.65911 64.05234 -10.41651
15.62905 78.44005 -8.889671
15.77575 82.86998 -8.478899
16.9031 84.60149 -7.241333
5.804106 77.08934 -14.65268
5.367174 91.80392 -14.42934
5.109178 87.0864 -14.84358
3.317288 86.22875 -14.57032
6.835543 86.45442 -13.6375
-7.721268 88.8988 -12.77814
11.67547 111.2885 -7.261728
-0.0522554 113.1826 -7.744076
-15.50964 9.404782 -11.85986
-17.80948 17.49027 -11.56302
-14.72784 35.49107 -12.05647
-13.31496 44.39333 -12.09066
-10.25431 52.37561 -11.82183
-7.87859 74.75697 -12.00967
-11.40557 76.81748 -11.97594
-10.03024 101.9621 -9.815075
-1.292052 113.1388 -9.970201
-7.024346 111.7799 -6.657231
18.35944 21.0716 -12.21872
22.38876 19.31065 -10.31777
18.56079 15.34502 -12.26258
23.13962 21.45388 -9.432241
9.811486 26.3702 -13.57428
18.317 33.9767 -12.05209
20.92711 48.75369 -8.571973
18.57623 44.14401 -11.08859
-8.987984 35.39503 -15.33926
4.221716 51.79354 -14.15093
2.871528 60.29453 -13.88196
6.737816 52.88297 -14.07737
17.75478 79.82352 -6.898901
15.15815 96.11988 -7.59796
14.83627 102.4996 -4.659116
6.512867 88.44289 -13.7601
5.348101 93.56603 -14.31913
3.184595 92.446 -13.91156
4.046314 82.26506 -14.99525
2.18222 86.66048 -12.26628
5.547644 77.75728 -14.77923
13.34332 106.6651 -5.026453
5.625861 101.9315 -11.38218
-7.815029 88.18163 -12.83107
-3.23965 2.254606 -17.23248
-15.49961 17.98902 -11.88326
-13.27287 43.88494 -12.08161
-13.918 69.69926 -11.04794
-8.458711 67.69942 -11.89033
-4.980505 113.2433 -9.244179
-7.118524 112.7546 -7.073108
9.51351 12.19557 -13.93407
-7.809077 22.01854 -16.70071
20.29989 56.46352 -7.721102
5.31523 56.45408 -14.4338
7.53829 45.51575 -13.74685
-8.376474 66.14291 -12.99447
-8.744277 77.89854 -14.5443
1.610927 94.64069 -11.84333
8.48322 75.95383 -13.28432
11.22981 104.0426 -9.468859
-3.082895 94.16212 -13.66704
-4.950027 4.805449 -17.78772
-20.23678 6.786726 -11.02704
-11.43498 68.76484 -12.07729
-3.840616 103.9544 -12.56795
-3.77523 100.2079 -13.5912
8.9421 24.11927 -13.55934
18.68319 54.67521 -9.683607
3.822485 50.39276 -14.03037
5.590923 48.44532 -14.15072
5.947291 76.26353 -14.5835
-8.863456 75.50635 -14.3285
4.788198 94.49971 -14.47138
11.16197 104.3439 -9.436319
-7.814862 98.80354 -13.41646
-8.548968 1.739185 -13.05932
-12.99331 69.04643 -11.59821
-1.62738 108.4433 -9.750852
-9.310124 19.19145 -13.59828
-1.564368 54.80748 -12.66846
-5.736791 78.48126 -15.48853
-6.973623 96.83502 -12.69272
-5.431775 9.984132 -17.70184
-2.057286 102.6388 -10.50411
-6.304283 26.04338 -17.20535
3.959301 48.10521 -13.98007
6.314034 64.2978 -14.43323
4.400803 76.6371 -14.92036
-3.680443 86.50797 -14.04498
-2.174573 92.51823 -12.51029
0.2842661 90.53301 -10.94096
-2.710989 91.7739 -13.25366
-2.080542 93.22635 -12.39792
-7.453095 94.52696 -14.27261
-4.441967 98.87723 -13.72237
2.698464 105.4851 -9.322354
3.756652 46.11641 -13.86845
1.777725 65.71424 -13.02651
7.841367 63.30239 -13.82975
-8.49573 63.66209 -15.78473
-4.743631 88.59345 -14.66739
-5.980461 96.09918 -14.16388
-1.297564 100.4247 -10.46194
1.690538 43.34071 -13.10358
6.593364 63.09286 -14.32639
-3.190373 70.87974 -13.5439
1.285354 77.58639 -12.0916
5.232482 97.11745 -13.55568
-8.595304 85.31636 -14.2715
-2.099714 83.87402 -12.3646
-3.261211 96.04305 -13.83415
4.485616 40.89422 -13.83845
2.059092 62.52169 -13.31572
-3.897789 60.69737 -14.53711
1.570201 72.28328 -12.71559
2.913253 72.8291 -14.15666
-0.6651586 69.72231 -11.69717
-1.793348 65.37331 -12.31947
-8.68359 82.11884 -13.50857
-2.462571 99.05215 -12.69757
0.8610454 59.74056 -12.49275
2.915405 69.90196 -14.10833
7.308045 72.59328 -13.93252
0.5505561 48.4456 -12.67349
4.633476 41.89264 -13.9064
-3.4819 62.27031 -14.0147
-2.92344 59.35279 -13.47561
-3.871382 57.95528 -14.60015
-4.005482 60.8476 -14.65517
-0.7908925 51.50049 -12.55196
-0.5429254 37.40311 -13.14259
4.790396 34.42474 -13.71484
-2.925784 64.47972 -13.31116
-3.581313 67.9174 -14.04293
2.468539 38.45647 -13.32996
-0.8710257 71.95425 -11.73815
-2.654746 28.3458 -15.2263
-1.807055 70.15847 -12.17635
2.498794 30.19717 -13.29031
-6.274892 52.00564 -16.64617
-8.294109 56.98682 -16.07306
25.47408 42.08522 -5.311607
26.44825 11.16904 -5.200503
-9.719049 6.1492 -12.03231
10.1551 3.079397 -14.70516
-8.958432 56.47898 -14.75955
-7.877108 59.34088 -16.23812
-8.889819 57.93924 -14.83016
16.54543 93.99535 -6.152595
-8.801221 9.34035 -14.39621
-9.0847 13.98732 -14.22192
-6.756104 11.18991 -17.16329
-5.901571 12.94551 -17.51653
-7.157184 8.596637 -16.84006
-6.899519 8.243023 -17.03627
-4.052442 21.33319 -16.92878
-1.77398 9.81765 -16.24632
0.06360032 20.34438 -13.85392
-0.5528632 18.89604 -14.26138
-2.513189 8.879515 -17.04775
-4.265206 15.92308 -17.33536
-1.488496 14.08628 -15.37911
-4.381529 13.34978 -17.55381
0.3561439 23.32331 -13.60849
-1.284281 16.44939 -14.96802
-2.49282 9.573442 -16.94347
5.413139 10.43485 -13.85672
0.5794392 9.474461 -14.30126
3.637913 20.8595 -13.42749
6.488729 19.42555 -13.55785
8.132891 18.25872 -13.62311
10.34516 17.34871 -13.84867
3.237532 17.19792 -13.48898
-10.5988 102.9307 -9.45672
-14.2512 114.8869 -0.08119582
6.76734 4.590111 -14.71638
17.25302 42.17167 -11.57967
10.00722 105.4468 -9.202392
-13.51137 49.10672 -12.08161
-6.115281 110.0978 -10.48555
16.54219 2.211014 -12.90088
9.043131 57.71003 -13.55024
-9.093071 45.51185 -14.90747
-8.066051 43.43359 -16.40258
-1.491286 44.4978 -13.09344
-3.759346 43.37055 -15.22404
18.42099 66.27716 -8.23533
14.48706 93.04152 -9.033537
2.972881 113.8168 -8.154323
18.94287 5.965574 -12.32747
24.23823 7.275602 -9.010915
22.66775 8.151544 -10.32343
19.45284 43.53411 -10.84771
6.235916 30.64404 -13.65031
5.13923 26.60435 -13.56194
2.295528 29.69549 -13.2656
0.03499368 24.37789 -13.65637
-0.7756202 25.25525 -13.9093
-7.156688 50.2285 -16.71682
3.090323 5.057438 -15.02453
1.180823 8.950305 -14.05226
4.293656 6.863236 -14.48288
6.404697 8.494787 -14.12578
10.29434 8.541649 -14.24293
18.11162 16.56836 -12.38218
4.880327 101.9266 -12.98146
-13.586 54.40502 -11.98533
20.0084 27.41358 -11.56272
3.392417 94.31266 -13.91215
-7.258701 28.38475 -16.98836
-1.043064 28.37081 -13.86908
-1.826364 31.3296 -14.19645
1.683841 49.68097 -13.03655
2.118409 83.28815 -12.70382
0.0959421 80.27886 -11.3299
-1.095561 81.25057 -11.5103
3.72583 95.47934 -12.96266
-1.70298 74.57453 -12.02079
-1.449507 75.59396 -11.81769
2.816216 100.4135 -11.15875
3.897271 105.6086 -12.42042
3.287484 102.6382 -11.67962
-0.3005119 105.2285 -9.12061
2.772954 106.6354 -9.024665
0.2192935 104.7441 -9.39166
-1.824612 107.9642 -9.097291
2.856292 108.446 -9.704656
-8.689853 80.74486 -13.34313
-1.899052 97.7442 -11.60974
-1.106831 67.15269 -11.88955
-4.560805 54.1335 -15.47553
-8.041516 57.95396 -16.16688
-8.046112 4.717625 -14.62929
-7.317595 41.16797 -16.82753
-3.032513 38.08475 -14.79574
0.1218513 8.498354 -14.53086
-8.438032 103.8329 -9.381853
19.35403 28.96806 -11.79641
-2.364263 40.38164 -13.94951
-1.702268 37.72985 -13.61454
-4.851651 36.8984 -16.53625
19.74198 9.135903 -11.91649
22.82504 4.684301 -10.26748
-8.063179 46.87897 -16.33853
-9.287292 37.89289 -14.13304
-6.194424 29.5216 -17.19994
-4.479503 82.82175 -14.69236
-3.146036 76.8838 -13.46362
-0.141407 95.55948 -10.80388
2.844943 110.4179 -10.12989
-4.522135 56.72046 -15.35813
-8.656276 108.5181 -7.428988
-4.231633 31.5553 -16.4737
-5.586938 32.96549 -17.0183
-6.643166 77.68842 -15.70295
0.2348848 98.0478 -10.571
-6.952044 36.837 -16.98025
-2.801618 74.37415 -13.08397
-3.792199 73.26937 -14.2111
-8.697968 72.3435 -15.04723
-4.585907 70.50853 -15.03546
-6.445702 123.9034 -6.969424
-11.2358 120.0878 -1.3252
-11.71243 120.7883 -0.4883237
3.408446 123.6732 -7.618655
-1.924852 123.87 -7.704739
10.80703 126.2926 -5.536228
-12.03646 121.1029 0.3582668
-4.189071 117.8647 -6.696582
-9.80307 120.1571 -3.430783
12.85963 124.7476 0.04519049
-9.594748 124.7868 -5.673685
2.159312 124.2073 -7.817086
-13.22684 124.7677 1.894886
-2.024875 124.7884 -8.039226
12.57314 117.9163 -1.165309
-12.69514 125.6898 -1.435511
-10.89922 120.687 -1.94969
12.04907 125.0711 -2.491675
-5.982437 121.5494 -6.204313
-8.685518 118.5477 -4.543716
11.35413 122.4723 -1.88435
9.596288 119.2508 -3.62
7.851046 122.3141 -5.548703
6.458205 124.3897 -7.174055
4.010048 119.7771 -6.394678
8.202273 118.662 -4.896799
-4.742894 123.1519 -7.200625
1.656361 119.6365 -6.660411
-2.227993 27.374 11.8749
-25.0876 5.189999 6.877015
-17.98641 18.27622 6.900099
-16.82903 12.7609 12.149
-16.55172 12.52511 13.44307
-16.36087 19.30125 13.97498
9.237104 117.3864 10.88379
-22.5107 27.89159 5.234404
-4.660133 9.143979 17.48903
-22.54743 32.01726 5.076414
-16.12313 37.19666 12.15591
-16.79505 49.11176 7.783753
-15.6321 21.60748 13.84351
-6.311433 2.24699 19.66862
-5.714758 12.34593 18.3648
-3.941254 2.093939 18.64338
-0.5201979 3.841701 12.42457
-1.399665 2.807604 13.7782
-2.480091 23.45658 11.63146
-8.494829 30.99337 18.74352
-14.76896 51.02385 13.81482
-14.31046 54.51287 13.77829
-2.752956 36.78171 13.09595
-2.591449 32.41491 11.66461
-2.972603 47.11136 11.69537
-9.375957 117.759 9.933816
-18.45799 63.57168 7.96771
8.242773 117.2358 12.21235
-26.51714 4.490923 7.613937
-13.55982 71.52736 13.52682
-17.12978 89.32751 8.173693
-11.78739 73.091 10.69364
-15.43347 93.29013 8.572591
-13.40831 117.5382 3.982435
-15.50478 55.62004 12.62941
-15.60506 93.75935 9.023976
-14.14063 106.5948 7.187378
-11.68176 118.3559 7.885746
-8.99454 60.69601 16.92615
-5.0934 75.90473 17.14823
-7.205744 82.03314 17.73132
-4.031086 59.57707 17.06625
-4.986224 74.32962 13.92375
-5.768052 91.53126 11.62625
-5.252457 99.35225 16.58771
-6.711061 107.4379 15.6739
-14.71444 110.7898 2.99322
-5.343526 118.7546 12.43413
-4.871111 105.7074 16.03722
-5.474501 118.2086 13.58949
-1.067579 0.3549533 14.97177
6.374046 2.577922 10.6667
5.567786 0.7408159 14.349
5.784349 2.870703 16.79003
27.10005 3.797364 9.881167
19.05766 2.59788 12.70742
16.42475 13.54191 11.32222
7.436815 17.74383 12.22503
4.002197 37.28977 17.58514
7.428764 41.45633 12.53058
4.290864 16.97479 10.88075
4.00885 31.73328 18.01927
4.458378 46.65435 16.4392
3.770571 50.88995 17.77094
22.34862 1.279159 13.72518
24.14118 15.53023 11.41038
21.91291 29.36543 10.52922
27.93226 2.045719 9.38088
24.4362 11.02666 11.1092
22.81076 27.63699 4.131473
15.19496 35.59711 9.018465
21.64952 35.97344 9.171424
21.51989 46.86639 10.03424
21.88101 32.96017 5.509658
21.51648 46.45795 3.192941
18.65897 53.03931 9.876916
18.54307 61.26581 9.652294
7.096296 66.48779 12.4374
3.237484 71.03887 12.75016
7.041693 88.73508 11.15141
4.734226 69.02139 15.5429
12.89094 75.15929 9.693415
12.94175 76.29891 9.716299
6.294553 100.5319 11.26806
4.69146 112.4522 12.21955
2.229241 118.7558 12.39432
4.653397 96.20377 16.9175
5.409473 107.9992 14.55519
5.693719 116.9018 13.17011
-7.277588 117.9064 11.71306
19.89504 69.49289 8.228559
12.34212 86.76775 10.31005
13.20926 92.32412 10.20997
-9.199938 116.3515 10.3883
11.95342 116.9191 7.225525
-0.2617165 116.9259 12.51847
12.27303 102.216 12.01954
17.51573 96.49187 9.148177
11.07717 115.7995 8.157248
15.2822 108.0873 7.457109
14.92606 109.0059 2.776208
13.39127 114.0559 3.933306
8.982098 117.3576 9.858082
-19.6317 81.68816 5.769747
-13.31461 75.697 12.3301
-13.58416 113.7056 4.280835
-5.715225 65.90195 17.20098
-4.485496 76.83551 10.17284
-11.86986 115.9217 7.632652
8.395734 1.713649 16.17919
22.09653 15.05929 10.82206
4.633999 59.82075 15.91103
28.38784 2.758649 8.561494
22.79994 25.39625 4.969314
20.94643 44.53358 8.381177
7.629833 76.13764 11.4799
4.392479 104.3211 15.54861
20.73024 62.19688 9.588903
20.29329 84.80045 2.688988
12.19598 117.0995 6.673563
-26.50424 5.247424 4.57605
-13.85455 113.6513 6.871117
-0.01525522 106.9678 12.1867
21.41165 2.439768 13.46708
11.45712 111.7299 9.163512
-27.54082 4.652345 4.961507
-3.274036 1.677669 18.43255
-5.420514 118.6502 13.1338
-23.72371 4.905175 8.354893
10.10901 115.8511 10.72547
0.8351383 117.2297 12.50644
-19.47816 18.65251 6.509351
-18.64763 9.902802 7.580424
-17.36355 25.37708 9.521447
-20.7491 30.93532 6.415121
-22.03125 50.06798 4.354977
-16.00929 29.54821 13.03425
-16.75039 41.33665 10.96493
-15.55084 1.770663 16.23992
-3.57836 14.43058 16.48663
-1.369457 6.40759 11.9228
-5.771807 45.73612 17.15275
-2.826084 35.6325 13.5087
5.385436 32.01332 11.67693
-5.411312 45.92942 17.23297
4.981316 59.03292 12.33917
-16.79798 63.84302 8.6859
-20.20049 79.32062 4.695656
-7.063456 54.11723 18.36315
-13.23155 82.14002 13.16211
-17.85255 93.78878 6.768891
-14.17162 109.8147 5.439988
-8.73465 88.43941 15.86185
-13.12822 102.809 10.82811
-4.102955 81.36382 16.00085
-5.106581 86.15882 17.02525
7.933661 66.15006 11.57745
-5.328 88.0543 11.43312
-4.937929 104.4737 14.63365
5.827737 1.156218 10.39786
7.486569 0.8463151 16.58052
6.251286 20.8138 16.5967
6.488442 22.61062 13.32564
7.724875 31.75762 12.23389
4.131591 55.72586 16.97521
16.58824 18.79923 9.715602
4.009159 55.751 17.63384
21.78968 23.57008 10.66993
23.69059 13.79094 9.236918
22.25998 34.56026 3.704243
20.20681 51.68886 9.812913
21.3595 47.11147 9.713026
4.516034 61.94714 16.11169
6.563639 76.70342 12.69128
17.26883 64.13947 9.745329
12.82876 81.09637 10.36372
4.8823 98.2521 13.56373
6.991189 90.83189 11.40852
19.81026 68.90745 7.408335
16.02044 81.29488 9.603483
20.25315 80.8122 3.944324
12.36989 96.91632 9.838756
17.23016 101.8353 7.81865
-24.59357 6.501703 3.447849
-14.93828 112.8958 4.45292
-12.84934 117.8954 6.842484
-11.52058 116.4726 10.001
4.783431 106.8237 12.02645
5.633722 4.039178 12.82165
21.88976 3.011487 13.41201
26.56782 4.475755 10.02008
4.192707 115.7194 13.73922
11.0259 115.6462 8.311443
14.65658 114.3062 6.541395
-16.83683 2.728744 13.69301
-7.086938 114.2827 12.71136
-0.8359429 117.2999 12.13067
-19.16626 8.653057 6.87536
-18.30499 7.495989 9.510953
-22.3952 18.78849 5.091651
-13.85548 1.844437 17.87783
-16.70634 10.38724 12.91335
-16.51415 19.38398 12.47862
-15.77857 15.81162 13.90165
-18.33885 26.79981 7.080938
-22.52868 30.12119 5.154541
-17.37971 30.43511 8.774922
-16.90538 51.00924 7.667262
-17.21206 42.64397 7.386777
-21.25351 53.91122 5.461922
-17.31619 36.86068 8.465115
-15.22398 40.96115 14.14483
-17.13877 49.4031 8.587781
-17.3214 55.81381 10.22989
-15.49863 3.765918 14.47431
-4.819278 2.482157 19.18365
-2.014366 7.972276 13.51924
-1.742616 18.42118 12.53031
-2.028337 23.55303 12.58233
7.074642 22.99838 11.8078
-4.458277 27.84201 17.21799
-4.857714 34.91901 17.29325
-3.43804 39.87992 16.41997
-3.040401 42.16441 13.39857
5.37128 33.88892 11.72809
4.522215 48.86853 12.08108
-5.216641 53.96609 17.28404
4.220936 51.39917 12.08707
-21.50092 62.20525 3.832916
-17.88293 68.80369 8.29869
-18.75836 72.50353 7.84804
-20.28193 82.34129 3.788879
-16.39227 74.58276 9.091859
-16.28382 91.85957 8.306225
-16.18113 79.48473 9.475749
-6.688877 69.82716 17.94789
-15.93257 85.18108 9.61921
-8.523728 84.56517 16.58329
-13.89307 101.3889 8.339254
-16.96865 106.6561 4.340744
-16.3628 108.022 3.483474
-14.88462 93.40259 9.064238
-7.243338 86.06881 17.53625
-14.44172 108.1157 7.468681
-5.146493 60.86161 17.33504
-4.833234 68.03165 12.78919
-4.170477 79.21553 15.41325
-5.961886 85.50411 12.87268
-4.433878 87.59781 16.49386
-6.396297 94.38665 12.69378
-3.821128 74.82766 9.839147
5.929591 79.70551 12.12169
-5.256692 96.58556 11.27388
-4.941493 101.5276 16.42549
-5.763368 113.8666 11.78058
6.055952 3.992037 11.17413
4.370604 11.37445 17.90344
7.572235 2.807174 16.31835
13.80411 1.371943 14.80799
17.11474 9.55264 11.52971
24.75801 10.95756 11.87038
4.361591 18.18648 17.66162
5.804175 26.6446 14.33517
4.351095 30.33767 17.09799
7.137193 35.36864 12.78551
6.101999 48.53389 13.95172
4.103578 51.00063 17.01354
3.891017 61.57579 17.55301
14.30912 29.81142 11.15532
21.95002 21.22888 10.73256
14.24176 45.10438 10.2342
23.82694 13.0145 9.579601
17.13722 29.08576 9.999539
23.70246 18.91661 4.740123
22.93854 26.10684 4.264093
15.81658 32.51571 9.179974
19.77318 37.70954 10.25464
22.23779 36.73984 3.186258
16.07821 43.81495 9.705174
20.56712 50.05101 9.851459
21.39432 46.22786 3.648087
21.0947 49.07367 9.333887
20.88716 56.01616 3.685016
3.95587 63.75129 17.40651
4.546227 73.05385 15.83501
4.398901 73.89331 16.14014
6.452045 84.39124 12.50034
4.651951 92.37266 17.38224
18.87164 64.88052 9.510358
13.24062 77.85176 11.96135
17.44013 72.8783 9.431787
5.342935 100.7163 13.14161
6.723639 102.2473 11.90362
4.027079 105.724 14.34441
12.49122 102.3594 11.34498
19.88071 68.28868 7.861596
19.3774 79.92262 6.902772
12.46089 81.62156 10.13559
14.75677 87.25006 9.975278
20.05352 85.48775 3.609152
17.43198 96.76637 9.02953
20.22222 86.07097 2.015738
12.10378 98.10828 9.679977
14.34136 102.5956 8.359082
17.05007 100.8491 2.432056
15.09794 113.7423 6.391103
-25.30788 4.90534 7.52117
-18.25141 2.716807 12.46351
-2.800765 3.812822 16.04818
-15.78689 111.5908 3.981019
-11.08118 115.7106 9.579583
-4.1581 108.3729 12.207
-5.690966 114.6901 12.61769
-0.629473 116.0979 11.99747
5.32051 3.02453 15.36425
22.40476 5.243719 12.51625
26.35201 6.051829 8.458325
4.040136 115.0711 12.96886
5.293214 104.6159 16.6612
14.37634 116.9269 5.436443
8.488259 115.532 11.17486
-23.06687 9.784328 2.663481
-19.95366 11.02553 5.376349
-19.81136 19.56263 6.420548
-20.59702 17.55736 5.874496
-16.29938 3.989423 14.16573
-5.828946 12.48242 18.88867
-17.12223 13.05051 11.34768
-17.76002 19.70785 7.879815
-16.21092 23.98812 13.15115
-5.846061 19.28067 17.75007
-20.15828 27.0092 6.589192
-19.23976 30.84835 7.006127
-23.04974 28.92735 4.695989
-15.90422 29.20684 13.60949
-19.73768 47.66545 7.064997
-21.36105 55.18524 5.149146
-21.20391 41.61018 6.087283
-20.57558 58.26426 6.222265
-17.08524 32.81396 10.05389
-13.85344 32.2021 12.92935
-5.879386 36.58739 17.32387
-16.78993 44.04905 10.9509
-17.09632 48.16785 8.375171
-15.09874 51.95892 13.21193
-17.11676 59.19585 10.81724
-4.92484 8.800217 17.79771
-2.958083 8.286808 14.92942
-3.139517 15.97666 15.80095
-2.861962 21.9144 15.09357
6.010804 7.701977 11.49794
1.983182 0.3889489 8.218025
-2.477322 25.04509 11.64067
-4.270346 29.80648 17.14914
-13.03371 51.44359 11.94938
-2.936952 31.6541 15.17848
-2.257182 35.55787 12.17896
-14.22023 55.51209 13.65092
-5.094604 42.44046 17.3404
-2.959902 43.2572 12.65309
6.262087 30.43455 11.83046
8.067634 40.4714 11.92438
-3.467274 47.99125 11.21794
-3.31679 49.97941 15.21872
-3.400366 47.49089 13.19416
-3.691392 61.19619 15.3753
7.891297 51.74865 11.80913
-17.25924 61.80922 10.55703
-19.87853 68.01136 6.685358
-16.3821 66.56211 8.42955
-18.78213 73.75214 7.765682
-19.65243 75.69905 6.475651
-19.23731 83.02186 6.402278
-17.44647 69.69582 10.05957
-18.89232 87.62046 6.358632
-13.52594 61.58402 12.27864
-5.87474 68.11631 17.36421
-17.11262 76.13825 11.27229
-6.769516 70.81587 17.99295
-13.35484 86.1124 12.79748
-13.25721 77.86977 12.41913
-6.067038 85.4407 17.41512
-17.82783 98.54913 5.915772
-15.7892 107.5553 5.461079
-15.63968 112.0407 4.537914
-15.81955 108.9044 3.334031
-16.87372 91.11234 10.62833
-14.69155 98.18479 10.59789
-12.83813 93.16956 12.73305
-15.06892 105.7388 8.979547
-12.72975 106.9397 10.75987
-4.232741 66.03114 14.6009
-4.728387 65.70341 12.982
-5.02563 77.46644 17.12975
-4.835203 86.17167 16.87413
-6.801856 100.7398 16.54962
-12.75111 95.8674 12.18573
-4.99993 88.74275 14.46449
-6.278997 95.05932 13.08776
-3.933517 65.46462 9.778029
7.46255 70.50037 11.59847
-3.484098 81.51913 9.922492
5.677673 85.44427 12.21533
6.891268 88.92934 11.24811
-4.52845 99.70158 11.09448
-5.083279 100.6324 14.48491
-4.812076 108.1281 14.94937
-6.359672 110.3952 13.13755
-4.782526 113.4186 14.38488
4.778765 12.49165 15.84447
4.835617 14.731 15.90259
4.898873 13.5377 17.79222
24.86389 9.450961 11.95697
20.34088 13.74815 10.62034
6.984732 21.76504 12.72691
6.232318 23.66893 13.67158
4.962361 32.45893 15.78121
4.511317 38.85798 16.46729
7.361287 45.47458 12.60285
3.997351 47.04947 17.32668
4.868404 53.97697 15.64327
5.584642 58.85044 14.42506
6.383087 20.1726 16.53919
6.930528 33.54839 15.38321
18.75948 17.61634 10.43962
22.91724 24.15077 10.8232
14.63849 43.47127 9.156979
13.50756 45.24621 11.32401
13.82572 57.35247 8.576623
24.77873 9.725396 8.050581
20.83953 25.5887 10.56883
22.42657 29.91704 10.58488
22.94735 24.38827 10.22681
22.669 27.97824 10.16348
24.15841 15.0768 11.24469
21.21023 35.61787 10.31217
17.99484 38.86068 10.20023
22.52917 32.80136 10.3997
21.41113 37.50266 8.630586
21.85814 36.26967 4.506004
14.97805 51.62718 9.246512
17.89689 53.0056 9.943744
20.84487 46.63092 8.372639
17.01475 57.9224 9.874026
21.0412 50.21683 9.367785
20.49749 53.89809 5.947981
20.28197 59.36527 5.828143
7.421966 67.63521 12.07555
4.011947 69.58421 17.43332
13.10417 70.18162 9.132643
4.27705 73.28159 16.55453
7.039701 80.09786 12.03032
6.833858 88.27525 11.85013
4.499194 88.75528 14.87621
14.54964 64.82745 9.6034
18.39257 65.49516 9.54199
18.82358 72.87104 9.254129
12.571 82.92971 10.32624
18.13237 78.47108 9.116884
13.26688 83.82345 10.83264
5.325557 98.02825 13.18484
6.929976 105.854 11.83408
6.227321 110.676 11.50215
5.304783 98.58322 15.36152
20.22691 63.98585 5.256268
20.07187 69.27322 8.746754
20.1894 79.05774 4.174179
13.0057 78.75055 9.983268
16.84352 81.70839 9.191154
18.94631 86.71658 8.757982
19.86981 87.80952 2.649802
14.4889 98.3053 9.388247
12.72602 89.2874 10.17244
18.11006 93.34711 8.610733
12.65159 103.3578 9.807773
14.19265 105.3763 7.586902
17.43501 98.92509 5.010367
16.17726 105.0812 1.819743
14.00818 111.9907 4.032853
-20.54346 7.627431 5.437662
-17.79804 7.691799 10.4646
-12.95111 116.2467 6.009588
-7.084858 110.2492 14.60605
-2.316381 107.474 12.99495
-6.19638 111.8347 11.89452
-0.5252979 111.777 11.85192
19.49356 4.344267 12.56728
25.49379 5.708205 11.10904
11.23845 108.4645 9.505313
6.242433 102.7405 13.66626
13.40792 115.248 1.913383
-21.68325 9.269707 3.567671
-17.27013 8.780988 11.37915
-20.90848 22.07587 6.066514
-14.89691 7.899667 14.2293
-8.12896 16.22191 19.6795
-16.75478 15.61279 12.09379
-16.68007 25.42515 11.39453
-14.64571 26.48824 13.31787
-19.11703 36.46267 7.187333
-20.21725 40.97932 6.752068
-21.53157 47.79292 5.47836
-20.80504 50.64743 6.233702
-21.19581 46.72303 5.969086
-19.39507 61.29327 7.350057
-17.18263 36.94817 9.821051
-6.610886 26.60609 18.87619
-17.31163 41.17768 8.975549
-16.47773 45.15053 11.49069
-16.73556 52.51587 11.25519
-16.17239 57.80162 12.01933
-8.822757 4.897129 20.07524
-8.43078 6.590874 20.09956
-2.524784 12.66206 14.23512
-3.034406 17.89361 15.64892
-3.837883 21.84604 16.82568
-1.093016 9.317456 12.28423
7.003871 18.91902 11.74106
6.554718 12.69977 11.55219
-14.70061 41.24702 13.46086
-3.019948 29.16006 15.82079
-3.27782 41.84968 16.16398
-12.8694 54.07799 11.86901
-3.691341 43.79155 16.83745
6.991517 30.70816 11.92137
7.5806 35.61885 11.97145
-3.164662 46.69487 11.53667
-3.418555 52.72361 15.59545
-3.200836 46.58885 15.52306
-3.583664 52.37495 9.998451
-15.38957 62.03909 12.60977
-20.27481 67.64465 6.120108
-16.52229 68.48944 11.71494
-20.50675 73.0191 4.910796
-19.21437 78.77811 6.873848
-14.84482 73.78165 12.55691
-11.86625 56.80289 11.4542
-17.23754 76.46494 11.17341
-11.62181 72.42787 10.66059
-16.88088 80.86881 11.44193
-16.16885 81.05154 11.80028
-12.64444 86.02452 11.42509
-17.20144 89.66253 8.036575
-14.17647 111.6137 4.650953
-15.99562 95.56272 10.42619
-14.71209 100.7492 10.15718
-6.663849 91.20068 17.42579
-14.98545 104.0805 9.367683
-3.86487 64.87111 15.45922
-4.160789 67.91231 17.01114
-3.995219 74.94984 15.68293
-4.149014 77.69808 16.40729
-4.206498 84.03548 16.0795
-6.438984 98.87531 16.88981
-4.637908 96.91568 16.36494
-2.148294 59.04882 9.176667
7.524855 67.6461 11.65267
-4.814304 84.04158 10.53397
-5.380233 92.43233 11.19931
-5.493282 99.58955 11.76156
-4.730129 106.6739 14.86214
7.814824 4.176348 16.65841
5.449666 14.96388 14.56259
5.986289 12.58919 17.25626
20.96819 10.62404 10.96001
18.5529 13.54798 10.60318
5.85673 16.86281 14.02324
5.320783 27.67151 15.1705
5.586423 36.02589 14.69716
5.020936 43.86372 15.50504
4.831406 50.80167 15.74949
6.292697 55.0111 13.62571
5.827151 60.28409 14.06036
4.06432 25.039 18.14871
6.778478 30.32836 15.6895
18.10543 19.71108 10.31063
4.279452 40.85797 17.60004
3.968702 50.32331 17.71868
14.57095 45.61843 8.506306
4.896452 66.02569 16.5953
23.93507 12.91862 8.126782
19.04636 25.4303 10.45561
23.14816 18.23648 9.440248
22.52139 24.31569 6.667884
23.63139 14.49008 8.318715
18.29799 35.74927 10.25928
18.17805 42.18034 10.15561
21.33347 37.00877 8.008445
21.25235 38.18411 7.998382
15.26186 49.06073 9.32874
15.96629 51.46086 9.752956
20.91451 42.94644 7.113495
17.17923 59.78885 9.847101
20.89507 52.00409 4.356222
20.47795 56.88914 5.263324
4.47343 63.13104 16.17157
5.219015 68.13841 14.68472
13.54966 64.10881 9.130735
5.233565 75.95783 14.32425
4.371896 78.15279 16.19277
4.469961 83.84706 15.49587
14.6367 62.51214 9.505864
16.93775 68.43356 9.711214
16.72462 73.44398 9.630771
5.184421 75.44301 15.94223
4.767241 84.46997 16.82164
14.92296 78.62284 10.09083
5.053935 91.78984 16.14982
5.286483 98.7589 13.18768
5.338533 103.2725 13.09109
6.674551 109.8718 11.8787
5.445426 98.03706 15.034
20.42049 65.19775 4.280951
20.0365 68.74627 5.446095
19.6607 73.22866 6.681129
15.62652 80.66277 9.805702
15.65822 87.69034 9.52322
18.67392 92.43082 3.904591
14.52243 95.82536 9.661329
18.56758 92.85924 6.179784
14.45869 99.67167 9.184654
15.00637 101.7335 7.603712
17.33313 103.9135 6.911218
16.30154 109.1872 6.133224
-12.43156 109.7037 9.364419
-7.054545 112.5072 11.99692
-9.894291 111.2781 9.399754
-2.299577 103.3983 12.47493
-4.366249 100.2937 11.17035
5.595409 112.3026 14.12835
5.242255 105.7879 15.60917
-15.44629 11.4344 13.95734
-13.22997 14.82978 14.17657
-9.640361 22.45308 17.57866
-16.69358 24.27396 11.4378
-11.93784 21.8523 14.07718
-13.53428 26.38385 13.20593
-22.21993 40.6092 4.940033
-14.10906 29.58723 13.06111
-10.02959 34.77347 15.1362
-8.034681 25.64644 19.20531
-10.75091 25.99894 14.73899
5.562368 5.071674 11.37971
-1.259121 7.430044 8.372705
-1.508973 2.99358 8.102408
6.153519 16.79914 11.54142
-1.664585 21.60617 12.07623
4.067306 13.46159 10.73095
-8.1533 40.02994 18.68774
-14.70124 42.05681 13.48932
-9.087559 40.9016 17.75451
-11.18018 33.72919 13.33902
-13.19062 55.70457 12.01716
-9.312802 47.16363 17.13943
5.642762 31.07677 11.73771
-2.326677 30.56734 11.81895
-3.207037 35.93594 10.99721
-3.06031 42.81718 9.546005
-3.795333 53.60782 13.4494
5.849657 59.55164 12.26977
-17.79905 79.36494 8.404702
-9.173479 64.54104 16.35213
-12.82318 66.98657 11.54368
-12.52239 74.32307 11.09131
-9.325184 65.84373 15.58784
-13.26565 76.86073 12.09148
-10.6879 85.00736 10.0027
-16.19746 96.34446 7.534543
-17.0546 87.51325 10.87815
-11.17778 91.7206 9.83779
-13.37688 107.657 9.420104
-7.961407 96.7436 15.53501
-12.51904 100.8097 11.52791
-9.675716 92.66872 10.05421
-7.590733 97.16005 16.44189
-1.185245 68.9658 10.13048
-4.237079 74.21766 10.0817
-4.111856 82.37805 10.06302
3.551142 74.56887 12.85116
-3.258342 92.85513 10.59672
5.7112 13.49095 14.01072
14.50167 6.503633 13.30566
9.193651 13.7028 15.17821
15.81687 12.75427 11.86208
5.690403 28.84237 14.53562
5.27244 52.01994 15.03389
7.146894 23.34348 15.80504
13.27715 25.11464 12.16007
7.683925 32.70314 14.81588
5.65268 36.75967 16.39931
6.736316 40.46681 15.18297
6.434837 47.01547 15.14523
4.953335 53.74301 16.67938
14.29116 42.25786 10.38372
4.531391 58.9952 17.11815
7.393058 62.3268 13.30651
22.60813 22.93101 7.168239
5.659794 66.89607 15.24376
12.61889 64.41282 12.05567
13.51085 74.12035 11.48475
5.252732 77.84989 15.74698
5.410434 88.50341 15.18737
5.718327 94.31182 14.42233
4.23503 101.133 15.44695
5.956127 102.8833 14.00295
18.95718 86.61437 6.875359
14.92615 112.3026 4.955306
-9.791798 113.3927 12.05233
-7.627366 106.3904 13.28161
-9.835509 106.314 12.60354
-2.249825 108.7571 13.0439
-4.10353 99.97395 11.15708
0.1063631 110.6763 12.06225
-7.934734 13.13235 19.82776
-11.51722 13.29702 15.5941
-13.96865 19.04061 13.58558
6.018659 5.427266 11.53789
-2.411653 10.51487 11.04136
-2.575887 16.86003 9.61389
-11.25566 44.53337 12.40045
-3.025167 33.5647 9.867875
-3.067886 37.57477 9.719121
-3.631894 49.16418 10.26483
-10.1549 54.34479 12.66296
-9.902532 73.76075 11.39482
-16.71087 88.30464 11.08136
-5.854109 93.22298 13.66694
0.8468364 68.75529 11.63356
-1.670379 84.51637 10.64097
14.66238 16.47015 12.04086
9.565367 9.249549 15.54987
12.29741 7.911176 14.09659
13.69007 19.98431 12.26678
5.61127 46.62237 16.09496
5.325615 73.22639 15.69627
6.039335 92.02301 13.66242
5.974947 103.1671 12.86199
-9.419789 109.838 12.50839
-1.130373 95.38972 11.51125
0.2531362 97.4566 12.18587
7.404156 104.4644 11.75179
4.847756 7.786551 11.13431
1.129011 22.78676 9.215439
-11.59513 48.14592 11.99105
-0.2599374 37.10427 9.065531
-9.319748 71.86092 14.53526
1.005528 57.41332 11.01058
9.884909 11.93499 14.93759
15.04493 6.14729 13.14913
10.43163 69.10859 12.31119
-9.942571 109.4889 11.38211
0.2293681 108.3104 12.03601
2.59589 110.9722 12.65438
0.8282526 110.596 13.19529
4.465153 106.1672 12.21201
-10.41806 3.592002 19.56642
-12.28457 8.577966 15.82733
-11.44239 14.09972 15.54969
0.6213524 35.41965 9.369243
-1.447188 52.98969 9.127176
-1.371549 57.51143 9.356881
9.375462 6.313561 16.41354
6.68756 73.71887 13.26644
-9.957062 105.5801 12.26133
1.356414 94.90615 13.68513
2.350695 92.17566 13.7724
3.79369 107.6411 12.41247
8.653943 102.2147 10.64431
-10.84328 18.32938 15.59819
-8.572792 21.22547 19.15915
-10.65406 20.38192 15.5517
2.456746 37.14099 10.64437
-0.1725928 42.19057 9.21696
2.082207 47.69532 11.06484
-10.42302 48.71536 12.74292
-13.07299 59.49903 11.84358
-9.33525 59.14555 16.08384
-10.72305 78.93494 10.34995
-9.262603 76.85888 14.89243
-1.03873 60.11771 9.682206
9.147362 30.87007 13.91472
8.474461 35.56931 14.0425
6.713706 66.75477 13.70099
10.02022 72.20539 12.22932
-10.10933 103.3372 12.3747
4.100182 102.9948 12.86564
-11.51226 5.936938 17.3802
-11.46894 20.02923 14.67072
-0.3072712 42.08386 9.138161
-9.765933 51.45115 13.84896
-9.482432 70.40388 12.83734
-9.917585 69.01054 11.89148
-9.521956 64.7213 13.2892
1.683205 48.71766 10.86533
9.080473 27.10672 14.19049
11.40189 64.97544 12.35994
11.05252 60.92291 12.33745
-8.896058 103.1031 10.61929
-2.736235 91.7434 10.66113
7.647188 104.785 11.24227
-9.537958 44.35798 16.54286
10.3761 33.33376 13.10411
-10.05439 99.79749 12.92136
-1.146833 88.62003 11.17705
7.574441 107.2283 12.13363
-9.58009 50.19277 15.50648
13.39552 30.23557 11.82147
9.609878 110.6059 10.36512
10.79832 34.19965 12.87503
14.18582 40.30858 10.68276
8.672613 27.66497 14.42553
6.307416 110.6881 13.38197
7.637646 110.6101 12.63993
10.22971 36.41243 13.02886
8.393918 38.92062 13.89211
8.076106 112.6259 10.99958
11.45926 115.5875 9.396657
-13.93302 111.4035 8.182442
15.55522 92.49528 8.853432
-19.42674 6.33677 7.650949
11.47244 109.519 11.82457
11.47206 102.824 12.368
10.57041 107.4672 11.98884
9.38575 113.6574 10.6705
10.31275 105.9944 11.74458
-8.974574 28.78078 18.52395
-10.12233 28.46936 15.71356
-9.706442 25.72673 17.28473
5.120331 9.43213 11.20848
4.258589 19.82414 10.93264
-9.417139 39.42181 17.19337
-9.989866 39.6184 14.58982
-9.438113 37.00404 17.33852
-11.07139 38.41225 12.98238
5.404965 25.74153 11.52689
1.647799 45.25165 10.60198
5.280869 54.21993 12.29673
-7.848444 59.97679 18.14805
-9.589471 57.95609 14.06745
-9.359559 57.37474 15.95992
-9.261059 73.46221 15.22924
-9.256944 75.30256 15.0612
-9.185032 79.59499 15.30444
-9.313566 80.31969 14.45288
-8.907875 82.37818 16.08286
-9.572343 91.92352 13.88648
4.660817 63.68807 12.43283
2.032339 73.31701 12.56939
4.093626 82.93776 13.01269
-2.330636 88.68862 10.57599
-0.4861213 86.47937 11.57297
12.47303 58.84071 12.01991
12.57462 56.07359 11.91683
11.13348 70.82391 12.40942
10.82934 72.47595 12.3594
10.3642 76.8591 12.2671
8.956063 76.58495 12.12536
12.03515 76.90813 12.52927
5.906999 105.3178 14.01632
6.977192 112.2487 13.08212
-2.831152 30.48962 14.5862
-3.206778 46.86988 15.6281
5.550704 69.74567 12.3256
23.26009 17.06248 7.922555
13.44207 110.5556 6.935592
-1.943991 6.907747 8.930325
-1.751581 11.65802 8.706577
0.3733632 21.72811 8.85934
-0.4997017 22.35511 8.608409
1.277528 19.70566 9.204435
-0.7070127 14.69884 8.458763
2.469123 11.06631 9.756461
1.369423 33.81647 9.777202
-0.06937169 30.45627 8.901111
1.53446 31.52055 9.777992
-8.605269 84.14914 16.49912
-9.411897 81.20812 12.07148
-9.486804 87.26832 13.35112
-9.567543 94.39387 10.10855
-9.937028 96.30357 12.2518
-8.985206 94.78333 14.6781
1.656866 67.99623 12.05503
2.911015 78.66309 13.02883
-0.9309176 76.93851 10.7058
-3.419631 79.13011 9.914323
3.412965 82.02895 13.2094
1.956211 86.4865 13.34962
