# .PCD v0.7 - Point Cloud Data file format
VERSION 0.7
FIELDS x y z
SIZE 4 4 4
TYPE F F F
COUNT 1 1 1
WIDTH 1490
HEIGHT 1
VIEWPOINT 0 0 0 1 0 0 0
POINTS 1490
DATA ascii
0.148359 1.208055 0.04901898
-0.1762623 0.6020144 0.030264
-0.1473147 0.2848317 0.1109091
0.1553697 1.095237 0.05147286
0.1663663 0.4339584 0.06563296
0.1799614 0.3628132 0.06546547
-0.1494682 1.224537 0.03573502
-0.1651746 1.018493 0.02132262
0.1510407 0.8237416 0.06309351
-0.09511722 1.532294 0.05069521
-0.164781 0.6966097 0.04051692
-0.1730536 0.5161808 0.03625964
0.1459839 0.2880977 0.101216
-0.1707492 0.7852833 0.02899571
0.1325867 1.371343 0.05876691
0.1525863 1.074541 0.06090888
-0.03475209 0.307091 0.1066802
-0.1667214 0.9167336 0.0324367
0.1097616 0.3044181 0.1603076
-0.177833 0.4648031 0.03535085
-0.182394 0.3960212 0.03801251
0.1446557 0.8456131 0.07325582
0.1551111 0.6164941 0.06287538
0.1429331 0.7118345 0.07461387
0.1508105 0.7797406 0.0630674
0.1519221 0.9851223 0.06672239
0.1385158 1.291945 0.06554928
0.1568833 0.5498981 0.06442867
-0.1645613 0.5753477 0.04522679
-0.1543582 1.142827 0.05020584
-0.1661106 0.667898 0.0395845
-0.1800312 0.4818165 0.03227025
0.1035143 1.562726 0.03796565
-0.1577351 0.8709617 0.05221501
-0.07757588 1.56003 0.04287414
-0.09248722 0.3041312 0.1514187
-0.1691746 0.2987363 0.06231495
-0.1648765 0.7440261 0.03920244
-0.165885 0.5928311 0.04303164
-0.1607289 1.031551 0.03994194
0.1712709 0.4847452 0.06084086
-0.1651597 0.7842543 0.0381993
-0.1456202 1.264042 0.03618118
0.1569016 0.4206388 0.07195652
0.1449391 1.173882 0.07043605
0.1417287 0.6715431 0.07690068
-0.148346 0.3019875 0.108135
0.1556398 0.5541478 0.06505233
0.1482333 1.133942 0.06671959
-0.08963662 1.513312 0.06268456
0.09380836 1.455961 0.09604614
0.1517586 0.303426 0.09008422
-0.1630067 0.5147377 0.04980919
0.1514814 1.085116 0.06279479
0.01317428 0.3052136 0.09983862
-0.05227186 0.3243513 0.1270158
-0.1347172 1.408975 0.07125201
-0.1089764 1.464336 0.07769106
0.1190666 1.419414 0.09211279
0.1444372 1.006518 0.07811217
0.1313075 1.30819 0.08548745
-0.1536689 0.8172273 0.06328505
0.1413661 0.7703815 0.07774338
-0.153501 1.097498 0.05730704
-0.1524068 0.9162525 0.06743994
0.004772397 1.512159 0.08314702
0.1433909 0.5083687 0.0811975
0.1388541 0.7126169 0.08395111
-0.1528646 0.67205 0.06737451
-0.08377235 1.48901 0.07769611
0.06850151 1.541682 0.06365427
-0.160034 0.5470983 0.05354451
0.1332869 1.246722 0.08833835
-0.07770545 1.508496 0.06987251
-0.1086461 1.455866 0.08315902
-0.1680705 0.33273 0.058151
-0.1685294 0.4123819 0.04848686
-0.09666698 1.469524 0.08276072
-0.1789008 0.433053 0.03733594
0.1393919 1.202419 0.07940553
-0.1619859 0.778223 0.04351601
0.1361359 0.7008933 0.09532411
0.1250283 1.364677 0.09240989
-0.1393194 0.326696 0.1284229
-0.152385 1.016259 0.06507841
0.1117091 1.400605 0.1099657
-0.1427983 1.263765 0.0696848
0.1541966 0.3939497 0.07583158
0.1438214 0.9206759 0.07808541
-0.1555939 0.5913572 0.06110908
-0.05751488 1.517649 0.0726609
0.1254192 0.3262176 0.1429705
-0.157269 0.5157003 0.0612499
-0.02585536 0.3331706 0.1008532
0.07974195 0.3331621 0.1667803
0.06739753 0.3231342 0.1614214
-0.1356945 1.344204 0.07583936
0.1400079 1.029862 0.0855841
-0.1499473 0.9488667 0.07403806
-0.1516506 0.5598223 0.07578015
-0.03131405 1.499158 0.0848527
0.1236665 1.30293 0.1008646
-0.1520739 0.6387909 0.07149039
0.1376704 1.050205 0.08950306
-0.1466114 1.175598 0.06936458
-0.1515164 0.8245416 0.07215136
-0.1476105 0.8674219 0.08727824
0.1338348 1.118164 0.09491552
0.1339733 1.23557 0.08786733
0.1230306 1.360061 0.09594221
-0.1776114 0.3678922 0.04400644
0.1350734 0.900878 0.09996029
-0.125258 1.405834 0.09401154
0.05162288 1.485564 0.0919455
-0.1321796 1.289132 0.09006689
-0.1501897 0.5840518 0.08293051
-0.1424468 1.264524 0.07074227
-0.08126997 0.3404285 0.1474549
0.1366557 0.935194 0.09408374
0.1407987 0.3483593 0.1043289
-0.1553776 0.3405306 0.08308614
-0.1460111 0.8912142 0.0901849
-0.1523111 0.7228879 0.06884919
-0.1428845 0.3448073 0.1219057
0.144376 0.4010382 0.08896738
0.1393248 0.5471099 0.08773048
0.03414552 0.3312684 0.1198335
0.01394486 0.3593481 0.1038291
0.1334489 0.6735933 0.1161244
-0.1637403 0.4828836 0.05012748
0.1166095 0.3441558 0.1548539
0.1166784 1.31481 0.10898
0.1076391 1.368773 0.1148961
-0.145156 1.125737 0.0766289
-0.1383993 1.140775 0.0913388
-0.1346074 1.206933 0.09277327
-0.1492688 0.6377205 0.08841571
0.1287027 0.9729425 0.11613
-0.1609028 0.3738312 0.06372239
0.1294184 1.099039 0.1053441
-0.1319474 1.264729 0.0924274
0.1365992 0.5397875 0.1022543
0.009883178 1.474169 0.09766791
-0.04573468 1.488829 0.08732019
-0.1615708 0.3599227 0.06456947
0.03045699 1.478376 0.09625356
-0.1304296 1.236349 0.09719314
0.1354005 0.5580615 0.1116419
-0.1487344 0.7601504 0.08860721
-0.09106091 0.3448161 0.1502628
0.1258026 1.210583 0.1054844
0.1377973 0.4946004 0.1005101
0.1389963 0.41167 0.1066432
-0.1426822 0.8857282 0.1008812
0.0834773 1.39051 0.1291272
-0.05104123 1.470576 0.09538575
-0.1513243 0.3688273 0.09452408
-0.1191633 0.3528679 0.1480925
0.1192479 1.152682 0.1195067
-0.1497553 0.600054 0.08543306
-0.1483733 0.7083308 0.09187712
-0.1437138 1.022046 0.08715729
-0.1187415 1.402835 0.1026319
0.124793 0.36663 0.1445744
0.08677106 0.3607445 0.1673016
-0.1470465 0.636869 0.1026261
0.1250287 0.9758781 0.1235606
0.1269297 0.9559559 0.1219221
-0.0373706 0.3702804 0.1110825
-0.129074 1.244892 0.09842817
0.1327502 0.7332255 0.1182886
-0.1465898 0.8062698 0.09734388
0.1314853 0.6515401 0.1281011
-0.1241083 1.17615 0.1113567
-0.1355721 1.103099 0.1004444
-0.1530072 0.4474203 0.08010583
0.1006135 1.298299 0.1245685
0.02710097 1.466153 0.1018744
0.05872595 0.3602789 0.1534078
-0.1080038 1.387532 0.1143858
0.1091891 1.207504 0.1256625
0.1341532 0.4705516 0.1251599
-0.08060791 1.43798 0.1096307
0.132296 0.60256 0.1275419
-0.1434459 0.6669675 0.114675
-0.1482511 0.7370153 0.09179644
0.0335732 1.4449 0.112925
-0.02753686 1.460632 0.1019184
-0.1481261 0.5073219 0.1019724
0.1266139 0.8566504 0.1320257
-0.1359215 0.8920551 0.1149248
0.1299502 0.8083826 0.125848
0.1292958 0.721555 0.1322869
-0.1463068 1.07492 0.07737541
-0.1482362 0.3665471 0.1065869
-0.1104562 0.3746247 0.1503436
-0.1195588 1.269734 0.1086253
0.1181045 0.3894022 0.1528113
0.06342182 0.3875745 0.1578692
0.1303347 0.5165041 0.137098
-0.03354308 0.3875671 0.108256
-0.1469519 0.5619393 0.1067549
0.1266202 0.686657 0.1397265
-0.0987291 1.40243 0.1176482
-0.1201181 1.172987 0.1153833
-0.1069579 1.218141 0.1209231
-0.1287394 0.9983383 0.1186702
0.1125173 0.9860096 0.1388721
-0.1470678 0.5179991 0.1066359
0.1111477 0.9724291 0.1410674
0.1190254 1.129722 0.1217258
-0.1058566 1.235057 0.120625
0.05491259 0.3839531 0.1489676
0.1243283 0.4117826 0.1448169
-0.01231239 0.4056125 0.1003263
0.1245434 0.5903711 0.1448407
0.04764191 1.391352 0.1316269
0.1240076 0.9131621 0.1317684
-0.1491314 0.3921365 0.1023777
-0.1280799 0.930638 0.1237583
0.06175695 1.341582 0.1317591
-0.1403252 0.6817262 0.120912
-0.1179869 1.329851 0.1063077
-0.1430626 0.7313125 0.1126575
0.124898 0.8377103 0.136351
-0.09832505 0.4022928 0.1512471
-0.1147238 1.290561 0.1109467
-0.0006136086 1.446087 0.1094817
0.1093417 1.150074 0.1304063
-0.06322558 0.3893458 0.1365176
0.1216445 0.7708815 0.1438793
0.03387443 0.4002915 0.1200626
0.1055484 0.6556771 0.1586905
-0.118002 0.8444467 0.1375173
-0.103193 1.15087 0.1263366
-0.1245676 1.00361 0.1228852
0.1036532 1.120785 0.1367252
-0.1420045 0.4215628 0.1238265
-0.1300472 0.6140696 0.1362362
0.06623624 0.4013006 0.1599263
-0.1437531 0.4181048 0.1199704
0.1025498 0.4107418 0.1627817
-0.08630066 0.3967938 0.1484285
0.1177025 0.4373399 0.1528117
-0.008735431 0.4153106 0.1005493
-0.0851552 1.230536 0.1265899
-0.121158 0.6972384 0.1416863
-0.1384934 0.4726604 0.1299093
0.08719204 1.158267 0.1402434
0.07994137 1.266053 0.1342115
0.02058844 1.406108 0.1248934
-0.129824 1.07268 0.1116595
0.1133832 0.7878299 0.1508909
-0.03498957 1.437075 0.1127074
0.05517966 0.4149753 0.1493578
-0.1258629 0.5644902 0.1412733
0.1014097 0.6071273 0.1608143
0.1077342 0.5810003 0.1588932
0.1059944 0.8944644 0.1492647
-0.03801807 0.4196497 0.1120593
-0.05792112 1.377817 0.1269296
-0.1212721 0.7807397 0.1388133
-0.09373606 1.172666 0.127778
0.08060025 1.019517 0.1478907
0.08938676 0.8687997 0.1546419
0.07099423 1.300044 0.1329196
0.09120565 0.6458995 0.1616625
-0.1276388 0.5236366 0.1411287
0.08134557 1.058933 0.1459477
-0.03910141 1.42657 0.1170641
-0.06792746 0.4323764 0.1388321
-0.04686723 1.415242 0.1215864
-0.07524162 1.249101 0.1269891
-0.1337226 0.45864 0.1361465
0.0002797167 1.410313 0.1216671
0.08898684 0.8568084 0.1555865
-0.1044782 0.9264408 0.1379579
0.03203075 1.373511 0.1298997
-0.1112147 1.015279 0.1311193
0.09555927 0.7717608 0.1580764
-0.1252648 0.5941882 0.1404913
-0.02400028 1.435988 0.11296
-0.1023104 0.9611847 0.1368983
0.04770577 0.4151777 0.1391116
0.07420111 0.9041826 0.1502441
0.08885124 0.5701044 0.1628968
0.1024505 0.5102553 0.1623602
-0.120839 0.772225 0.1394888
-0.0612768 0.429335 0.1335648
-0.06506336 1.185179 0.1282628
-0.08385907 1.113002 0.1305164
0.06480852 0.9658765 0.1440992
0.07701903 1.076789 0.1447216
0.03776617 1.307566 0.1302584
0.08330674 0.673973 0.1603765
-0.1181916 0.5139819 0.1470812
-0.09591152 1.071866 0.1313598
-0.08119982 1.316286 0.1244623
0.08085627 0.4507805 0.1645384
-0.1164469 0.4544946 0.1485872
-0.05672337 1.225301 0.1272615
0.07236706 0.9396295 0.1486601
0.09392559 0.8168636 0.1565912
-0.08632021 0.8599238 0.1398529
0.003717365 1.382078 0.1261954
0.05247586 1.215175 0.1331176
0.07973001 0.7326689 0.1578898
0.07577813 0.8091489 0.1541473
0.08274493 0.5710455 0.1621687
-0.09265842 0.5829894 0.1482385
-0.092603 0.9906054 0.1359653
0.08431188 0.8577673 0.1552138
0.04433596 1.191015 0.131305
-0.0625917 1.282431 0.1265929
-0.03460826 0.4582439 0.1108295
-0.0524675 1.169854 0.1272879
-0.09318355 0.749639 0.1441052
-0.08107983 0.7808972 0.1396253
0.05245957 0.9706621 0.1367528
-0.06627556 0.8339213 0.1331989
-0.04253852 1.368834 0.1263155
0.06377915 0.6183367 0.1527432
-0.0697074 0.5938556 0.1376937
-0.09172092 1.048641 0.1325961
-0.05070582 1.330527 0.1263705
0.01933222 0.4534848 0.1100377
-0.09175365 0.4470917 0.1502434
-0.03247392 1.202647 0.1258103
0.05303767 0.9938987 0.1368148
-0.07013425 0.9247153 0.1333778
-0.08137622 1.000774 0.1344624
0.04822529 1.240037 0.1319229
0.06231776 0.7087086 0.1495379
0.06881945 0.5406406 0.157769
-0.07289108 0.5622439 0.1400202
0.04098252 1.212704 0.1304823
-0.1012513 0.6895382 0.1471446
-0.06953686 0.8472151 0.1343878
0.02804369 1.301695 0.1291642
-0.06869113 0.9927464 0.1320899
0.05272671 0.5786654 0.1435312
-0.04293048 1.156435 0.1262961
0.03223703 1.041507 0.1273344
0.06238384 0.7765719 0.1477886
-0.06776896 0.9007191 0.1330323
0.02977235 1.266409 0.1290237
0.06055427 0.496826 0.153567
0.02269516 1.209607 0.1274302
0.03085515 1.226048 0.1287
0.00113032 1.347691 0.1272388
-0.06336685 0.7269018 0.1325695
-0.07596204 0.6375069 0.1406058
0.04220949 0.8677831 0.131436
0.01762959 0.9954562 0.123099
-0.05501165 0.8719627 0.1287606
-0.072307 0.7710446 0.1362194
0.04807904 0.6845115 0.1367876
-0.007155456 0.4676489 0.1035029
0.04838136 0.7226459 0.1368474
0.02284618 0.4678178 0.1124229
0.04222148 0.4722351 0.1316177
0.06321451 0.8243877 0.1469938
-0.03219417 1.224483 0.1258967
0.03941755 0.8554754 0.1294516
0.04155052 0.792946 0.1306843
-0.05834156 0.982557 0.1294497
0.02911908 1.15598 0.1277796
0.03939894 0.6919202 0.1283105
-0.05229437 0.6094233 0.1259216
-0.03036336 1.2908 0.1262796
-0.0682852 1.029583 0.1313092
-0.06673016 0.5479298 0.1361356
0.007831048 1.202877 0.1258281
-0.06920146 0.6758568 0.1360959
0.02545193 0.8653463 0.1222053
-0.06263765 0.9281302 0.1310808
-0.05497565 0.7544881 0.1283701
0.03908315 0.6087826 0.127837
0.04478688 0.7484594 0.1334942
0.02811876 0.4756333 0.1166381
-0.04476235 0.5025222 0.1189883
0.05056793 0.5127722 0.1425025
-0.04531088 0.7636559 0.1241256
0.03210158 1.129797 0.1279001
0.005986479 1.023768 0.122004
-0.03907835 0.909652 0.1237058
-0.04420119 0.9656962 0.1255072
-0.02297424 1.128648 0.1242439
0.01245465 1.125288 0.1249782
0.001096379 1.181523 0.1250017
0.02976517 0.6488378 0.1202127
0.003586775 1.151218 0.1246547
-0.04825656 0.5634604 0.122778
0.02544406 0.8933882 0.1227688
-0.005669439 1.095795 0.1231426
0.03185124 0.8302516 0.1241054
-0.03487893 0.8840681 0.1222613
-0.03740917 0.9200968 0.1233329
-0.0237 1.074759 0.1235694
0.03195694 0.7458326 0.1232258
0.04024181 0.5239992 0.1294194
-0.03420247 0.6500704 0.1173781
0.0173232 0.5099306 0.1107706
0.02060973 0.8750579 0.1209021
-0.02546974 1.053608 0.1232347
-0.03002825 0.7398794 0.1183785
-0.0279546 0.9711344 0.1217673
0.01239408 0.6630521 0.1130698
-0.01992295 1.017862 0.1217
-0.04488641 0.6891454 0.1229954
0.00459327 0.9206904 0.1188084
-0.006711531 0.9023405 0.117764
0.01033115 0.7249106 0.1143219
-0.01662789 0.6360846 0.1116637
0.0001347358 0.6815548 0.1117639
-0.01510685 0.5808785 0.1096462
0.00836969 0.868977 0.1182382
0.003417316 0.521546 0.1071369
0.001630605 0.9085451 0.1181079
0.0005826379 0.7105653 0.1127578
0.004826294 0.5488362 0.1087266
-0.01654179 0.750267 0.1154571
-0.02194659 0.6813071 0.1143499
-0.1253182 1.576943 -0.04457189
0.2018182 0.2657028 0.02241753
0.1530331 0.2465627 -0.05363202
0.1044228 0.2530714 -0.1199575
0.1356213 1.385662 0.008762685
0.137664 1.315456 0.01626744
0.1371424 1.547831 -0.05882291
0.1348073 1.459344 -0.05708969
-0.1366175 1.376517 0.00778824
0.1166781 1.585877 -0.008381037
-0.1154533 1.543378 -0.08151483
-0.1400766 1.305642 0.009381974
-0.1429106 1.251 -0.0005988337
-0.1504568 1.156082 -0.004953048
-0.1629997 1.052756 0.003937208
-0.1705014 0.9420375 -0.0002714577
-0.1740074 0.8351792 0.004413507
-0.1740846 0.7445823 -0.00072474
-0.1857625 0.5963921 0.002379379
-0.1908345 0.5106034 -0.001663173
-0.2095794 0.3948637 0.005965794
-0.2195893 0.3030116 0.006729767
-0.1550795 0.2483149 -0.06171787
-0.1187253 0.2542778 -0.1142243
0.02750846 0.2557722 -0.1205718
0.2053657 0.3631019 0.04154502
0.1878913 0.5136019 0.03446615
0.1774877 0.6934185 0.03706332
0.1690552 0.9194143 0.02695806
0.1668835 1.004415 0.01926908
0.1544081 1.128933 0.02405668
0.1517493 1.160841 0.02702718
0.0724979 1.584901 -0.04601449
-0.1125683 1.585277 -0.03122516
0.1855706 0.5584882 0.03718999
-0.1237746 1.455513 -0.0749502
-0.07404254 1.593511 -0.04011225
-0.1344136 1.395767 -0.01786058
-0.1319418 1.402413 -0.03328788
0.1349202 1.355013 -0.0005895936
0.1564326 0.2661606 -0.04381996
0.1245517 0.2768658 -0.1043282
-0.07745081 0.2563452 -0.1352057
0.08765241 1.591802 -0.02694754
-0.175226 0.7142627 -0.0003403598
0.1772585 0.7016125 0.03515925
-0.03950642 1.580516 -0.06071631
-0.1365757 1.296702 -0.01418706
-0.224416 0.2662141 0.00735912
-0.07992435 1.596216 -0.03027108
-0.1504581 1.132945 -0.01314495
-0.1636592 0.8445382 -0.0204527
-0.0528793 0.2490829 -0.1327083
0.08361255 0.2685027 -0.1282568
0.1754945 0.5299358 0.0199991
0.1706487 0.7640768 0.01595522
-0.0606311 1.579682 -0.05980984
0.1203671 1.546475 -0.0668817
0.1245215 1.476905 -0.07460587
0.03693668 1.55833 -0.07212858
-0.2111105 0.3205674 -0.003243484
-0.1999566 0.4008667 -0.005805861
-0.1549254 0.2723308 -0.05762219
-0.1272709 0.2769161 -0.1062514
0.191332 0.4585004 0.03231673
0.1393134 1.288338 0.009392541
-0.1660784 0.6597774 -0.01304033
-0.165813 0.9982908 -0.01269054
0.142695 1.228588 -0.003089608
0.1451009 1.208853 0.005084699
-0.03458958 0.2689286 -0.127582
-0.1809441 0.5279455 -0.008057627
0.1785362 0.5705543 0.02498637
-0.1619412 0.7741175 -0.01990535
-0.217773 0.2931384 0.002973881
0.1692709 0.6706656 0.01248914
0.1695365 0.8844915 0.01310872
0.1721524 0.7968996 0.02268261
-0.09708019 1.576421 -0.05826942
0.06346613 1.567354 -0.06501845
0.1748951 0.2850405 -0.001073309
0.1333238 1.365193 -0.02097086
-0.1810761 0.4357983 -0.01459196
0.1709533 0.5988683 0.01427443
-0.1561343 1.057617 -0.02087733
-0.1347472 1.364084 -0.009083598
-0.1647648 0.8803178 -0.02049316
-0.1907433 0.328352 -0.01705312
0.167728 0.9526988 -0.004152097
-0.197245 0.4243883 -0.005348134
-0.1964328 0.286027 -0.01672173
-0.159801 0.2845603 -0.04787553
-0.1399473 0.2922879 -0.08641653
0.03409638 0.2843248 -0.1225482
0.1066016 1.461232 -0.08507037
0.1028479 1.547814 -0.07263894
-0.1020485 0.2877245 -0.1279586
-0.1318641 1.391016 -0.03189182
-0.09370222 1.539197 -0.08789201
0.118641 1.441853 -0.07337741
-0.001825151 1.550351 -0.07750547
0.1341108 1.315475 -0.02677139
0.1650925 0.5261837 0.004053039
0.166669 0.934372 -0.01124595
0.1488438 1.157636 0.0001664043
0.1518523 1.103769 -0.0128044
-0.1336551 1.283231 -0.03151076
-0.1353787 1.263121 -0.03008847
-0.1397582 1.184984 -0.03530433
-0.1611376 0.6436493 -0.01957817
-0.1610379 0.5683864 -0.02075314
0.1647865 0.6867636 0.001038221
-0.1557742 1.002953 -0.03906831
-0.1598392 0.850607 -0.03648688
0.1693078 0.7473404 0.01213348
-0.02838262 1.558585 -0.07534518
-0.09444924 1.563761 -0.07230262
0.1254116 0.2941083 -0.1045266
0.1792713 0.4233928 0.01816247
0.1133052 1.456661 -0.08005128
-0.1302284 1.328066 -0.03493113
-0.1562825 0.7309285 -0.03352101
0.1670953 0.9510589 -0.008335442
-0.1131458 1.438233 -0.08277942
-0.1543497 1.019324 -0.0377329
0.1455247 0.3059674 -0.07535525
0.1669272 0.6181723 0.006936118
0.1662966 0.8225233 -0.005126646
0.1671858 0.8809634 -0.00670163
-0.1844487 0.4093085 -0.01472758
-0.147716 1.098702 -0.03350328
-0.1551357 0.306338 -0.05146526
-0.1623117 0.9154589 -0.03303942
-0.1236565 0.3061161 -0.1118793
-0.166866 0.911299 -0.0161018
-0.04948908 1.547959 -0.0834833
0.1339315 1.279191 -0.04041378
0.03282365 1.526441 -0.08559798
-0.1747502 0.3607885 -0.023475
-0.1384267 1.167359 -0.04445475
-0.1326926 1.235238 -0.04745428
-0.1269144 1.322059 -0.048429
0.08872673 1.515857 -0.0872841
-0.1536153 0.5647857 -0.0346351
-0.1558583 0.9728584 -0.04613693
0.1601645 0.5109084 -0.01366301
-0.1548151 0.8308268 -0.05213933
0.1471513 1.092279 -0.0380697
0.1398558 1.208801 -0.03600519
0.1618288 0.9265624 -0.02904071
0.01829 0.3037555 -0.1204959
0.07073437 0.3134843 -0.1285297
-0.156232 0.774057 -0.04069136
-0.02119194 1.533527 -0.08585836
0.1359725 1.270378 -0.03361605
-0.06297579 1.502806 -0.09946653
-0.1256113 1.345066 -0.04958546
-0.1502039 0.5266955 -0.0456386
-0.146972 1.016193 -0.05458666
0.1891724 0.3756963 0.02177974
0.1621783 0.9712514 -0.02350792
0.1329965 1.316543 -0.03315936
0.1750824 0.3445772 0.007177051
-0.1718378 0.426773 -0.02021759
-0.1521375 0.6335635 -0.04398976
-0.1584762 0.8646485 -0.04257564
0.1171027 0.3021209 -0.1118987
0.160307 0.3094893 -0.02504401
0.151557 1.063611 -0.02983317
-0.03422404 1.527053 -0.0898462
-0.1688614 0.3340622 -0.03019205
-0.1552548 0.5842824 -0.02989717
-0.0528267 1.533151 -0.09024445
0.1043032 0.3196381 -0.1205964
-0.1661745 0.3847691 -0.02761558
-0.1557364 0.8189853 -0.04854237
0.1959715 0.3603885 0.02614096
0.1110424 1.397551 -0.07609592
0.1547071 0.9386649 -0.04460062
-0.1316993 1.202088 -0.0570987
-0.1220356 1.290404 -0.06593771
-0.137897 1.12524 -0.05466712
-0.1495391 0.6659805 -0.05933202
0.06555963 1.493096 -0.09479921
0.01062319 1.505717 -0.09149564
0.02692695 0.3048241 -0.1216311
0.1618581 0.8452455 -0.03371123
0.1594557 0.5086401 -0.01881145
-0.1426323 0.9682069 -0.06879953
0.1494922 1.003942 -0.04769135
0.1381792 1.198142 -0.04594307
0.1477064 1.104835 -0.03331237
-0.04616995 1.514147 -0.09514079
0.1332971 1.25937 -0.04836641
0.160602 0.8899054 -0.03458059
-0.1227445 1.366989 -0.05710035
-0.1530646 0.4180593 -0.04345153
-0.1514288 0.7258489 -0.05563453
-0.1416712 1.041632 -0.0600594
0.1555966 0.9582328 -0.04130759
0.1180173 0.3143486 -0.111514
-0.1492537 0.7238608 -0.0639578
0.1581057 0.3341921 -0.03009592
0.1328644 0.3280879 -0.09726029
0.123878 1.332023 -0.05912956
-0.1418019 0.940133 -0.07166493
0.1597071 0.6956355 -0.04056101
-0.09280544 1.434274 -0.09582914
-0.1345443 1.093696 -0.06645003
-0.07300984 0.3152817 -0.1347722
0.08385038 1.453075 -0.0952281
-0.1461008 0.8002908 -0.07167628
0.1142532 1.362597 -0.07196262
-0.1315941 0.3423738 -0.1025735
-0.1402368 0.9503249 -0.0732697
0.02738315 1.48711 -0.09488475
-0.1108646 1.325234 -0.07956
-0.1187334 1.254511 -0.07636156
-0.1221628 1.173928 -0.07932241
-0.1511285 0.3306231 -0.05693075
0.1549722 0.5575051 -0.05711765
0.1565183 0.858332 -0.04729218
-0.003818203 0.3243038 -0.1209648
0.05272067 0.3542466 -0.1265689
0.1344002 1.183177 -0.05831165
0.1418931 1.093356 -0.05213011
0.1290209 1.235363 -0.06281467
-0.145344 0.6595633 -0.07375626
0.1465577 0.9114764 -0.06227881
0.156817 0.5006471 -0.04635742
0.161918 0.7807211 -0.03542456
0.1597298 0.6260411 -0.02486539
0.06922347 1.460309 -0.09821776
-0.1492322 0.4261167 -0.05369773
-0.1447483 0.7003482 -0.07547703
0.08143201 0.3485627 -0.1275123
0.1600802 0.7992693 -0.04194543
0.09305625 1.407525 -0.08887733
0.1090611 1.358324 -0.07760141
0.1395267 1.012776 -0.06574029
0.15536 0.5787208 -0.05594744
0.1401975 0.3573227 -0.08736146
-0.02850537 1.472639 -0.1007281
-0.1356608 1.057764 -0.0688409
-0.1471796 0.9276122 -0.06414698
0.1584755 0.429966 -0.02658615
-0.1095878 1.353286 -0.07915323
-0.08223299 1.388098 -0.09752554
-0.1458463 0.4074989 -0.06747167
0.1364435 1.100398 -0.06273507
0.1278587 1.16083 -0.07196651
0.1135236 1.2316 -0.08257639
-0.1439931 0.353766 -0.07572199
-0.1427257 0.4877089 -0.07939396
-0.1437915 0.4760256 -0.07549356
-0.1393043 0.8158267 -0.08279181
0.005025914 0.3407114 -0.1206199
-0.1069251 1.303002 -0.0855551
-0.1057134 1.257218 -0.09010644
-0.1103017 1.157187 -0.09382229
-0.1385755 0.6331961 -0.08993165
0.1595144 0.7763256 -0.04475481
0.1080282 1.310284 -0.08105651
0.1364814 0.9849101 -0.07273957
0.1436983 0.9464362 -0.06443287
0.1560774 0.4908433 -0.05095971
0.1558276 0.371805 -0.04242545
-0.1321242 0.5612822 -0.1015285
0.04278721 1.445486 -0.09961231
0.007521993 0.3549781 -0.1207738
-0.1333754 0.8604687 -0.08878741
0.07184161 1.388668 -0.09636884
-0.02706744 0.3745257 -0.1256252
0.09189559 1.370707 -0.08907082
-0.1212709 0.9357121 -0.09790066
-0.09425011 1.345826 -0.09214392
0.1321711 1.041671 -0.07465988
-0.107846 1.132509 -0.09750073
0.1574833 0.4110771 -0.03367624
-0.02424158 1.42815 -0.1034032
-0.1431174 0.3801404 -0.07795877
0.1530775 0.6398413 -0.06373495
-0.05743329 1.421725 -0.1040431
0.1058308 0.3573963 -0.1199936
-0.1340062 0.8075325 -0.09151504
-0.1107247 0.3777392 -0.1244019
0.1271862 0.3608394 -0.1046122
-0.1067433 1.101114 -0.1004994
-0.1219925 0.7790235 -0.1077966
-0.1050494 1.173734 -0.09692159
-0.09340589 1.259348 -0.09831279
-0.1041081 0.9952524 -0.109406
-0.1387329 0.5072065 -0.09053911
0.04532025 0.3879629 -0.1252449
0.1544306 0.8021854 -0.05553049
0.1271774 1.117848 -0.07628388
0.1124416 1.179797 -0.0874503
0.09064011 1.299679 -0.09298661
0.1523907 0.483008 -0.06576362
0.1296181 0.9022351 -0.08724514
0.1015602 1.254239 -0.08987631
-0.1423205 0.4362841 -0.08051689
0.1362938 0.8723468 -0.0809822
0.06472074 0.3886863 -0.1275852
-0.1295366 0.6959929 -0.1026897
0.07840712 1.304053 -0.09807752
-0.1237953 1.03726 -0.0888823
0.1452604 0.6426029 -0.080777
0.1518222 0.4046968 -0.06251723
-0.122501 0.7566566 -0.1083746
-0.01973895 1.415287 -0.1034456
-0.06045173 1.388054 -0.1029987
0.01315745 0.3916425 -0.1213654
-0.03624204 0.3468076 -0.1277851
0.1528599 0.3713239 -0.05707702
0.1486211 0.7654564 -0.06875139
-0.1293097 0.3985396 -0.1070999
-0.1210658 0.5696377 -0.1154148
0.1443323 0.791769 -0.07459039
-0.1151379 0.7867171 -0.1134817
0.07808075 1.290105 -0.098823
-0.1260243 0.5340468 -0.1102983
-0.08745142 1.250515 -0.1019044
-0.0823213 1.154146 -0.110866
0.04453424 1.408673 -0.1001952
0.08173797 1.329204 -0.09529437
0.05716233 0.3919625 -0.126855
0.09653957 1.210111 -0.09598076
0.1031496 1.156806 -0.09607964
0.1505967 0.4379573 -0.06846943
-0.09251574 0.9464572 -0.118225
-0.1001298 1.099539 -0.1052363
0.001060038 1.453891 -0.09969173
-0.06562707 0.3862133 -0.1335928
0.1037854 0.3926524 -0.1209475
0.02020822 0.4003085 -0.121743
-0.06035403 1.340173 -0.1047538
0.1462428 0.395378 -0.07710256
0.1378577 0.5890152 -0.09290103
0.1054303 0.8926309 -0.1088632
-0.1131441 0.6323187 -0.1207768
-0.1104432 1.028635 -0.1029753
-0.1113931 0.8199341 -0.1147204
0.1447168 0.7754073 -0.07491568
0.1175299 0.7081652 -0.1085178
0.1339927 0.7239318 -0.09289365
0.07882495 1.293486 -0.09843178
-0.1112024 0.4021565 -0.124231
0.1309531 0.4008536 -0.10121
-0.08830305 0.4074045 -0.1330246
0.04726542 1.389248 -0.1002777
-0.1156376 0.4870705 -0.1212192
-0.07255966 1.254192 -0.1071466
-0.06330486 1.230741 -0.1107786
0.07709651 1.266457 -0.1006451
0.100884 1.13649 -0.09897988
0.07448925 1.211502 -0.1047675
-0.08363177 1.076947 -0.1153335
-0.07141098 0.9958909 -0.1230563
0.1003946 0.6696128 -0.1189732
-0.1116414 0.5998077 -0.1226555
-0.1138764 0.5342195 -0.1222686
-0.06131705 1.316038 -0.1059523
0.126213 0.6583434 -0.103422
0.09222796 1.000372 -0.1115915
-0.06382969 1.163132 -0.1152472
-0.1089769 0.6481062 -0.1228435
-0.07732525 1.015683 -0.1211194
0.1188126 0.8172703 -0.10359
-0.08904395 1.056731 -0.1143406
-0.09483355 0.8240501 -0.1228146
0.1313376 0.7701148 -0.09390794
0.1188706 0.7436711 -0.1063614
-0.01854445 0.3996787 -0.1239472
0.1058423 1.07133 -0.1004113
0.1053832 0.4078161 -0.1202539
-0.1109911 0.4202249 -0.1244595
0.1243533 0.5111008 -0.1075174
0.1208071 0.7962888 -0.1027995
-0.1085464 0.5026776 -0.1259455
0.03153045 1.388793 -0.1016013
-0.05380509 1.296365 -0.1080018
-0.04993373 1.232405 -0.1120202
0.08101037 1.121756 -0.1090979
0.0731655 1.183952 -0.1070254
-0.09102237 0.5797191 -0.1312397
0.1048911 0.8263993 -0.1124398
-0.004661048 1.412112 -0.1025708
0.06371894 0.4461566 -0.1266351
0.01285639 0.4268089 -0.1215692
-0.05587753 0.3948983 -0.1321719
0.05819808 1.216886 -0.1078968
0.1183405 0.5930659 -0.1103874
-0.0580955 1.160136 -0.1161052
0.1054193 0.5621873 -0.1183158
-0.04853809 0.9994148 -0.1246598
-0.09687857 0.5941748 -0.1292396
-0.06438228 1.031449 -0.1232446
-0.0717357 0.9083846 -0.1256936
-0.08022383 0.852989 -0.1262602
0.0951883 0.6386662 -0.1215097
0.09136053 0.7132893 -0.1209329
0.08192576 0.9978565 -0.1154508
0.08879092 0.9427169 -0.1151211
-0.09731688 0.4329346 -0.1307029
0.04842638 0.4489905 -0.1252741
-0.03972665 1.253323 -0.1108526
-0.02877206 1.196324 -0.1134208
0.05126631 1.293305 -0.1041826
0.05438091 1.162152 -0.1117554
0.0839596 0.8507164 -0.1193595
-0.08794175 0.5645456 -0.1320208
-0.07065326 0.8111475 -0.1288712
0.08711959 1.061162 -0.1113859
0.002887889 1.352998 -0.1045216
0.1143284 0.4300993 -0.1157276
0.05422917 0.4517401 -0.1259439
0.08511741 0.5092245 -0.1249718
-0.09081565 0.7058119 -0.1282507
-0.06899893 0.6318222 -0.1320477
0.06971625 0.9312072 -0.1189974
-0.04374755 1.153235 -0.1168887
-0.04405544 1.048759 -0.1234722
-0.07893062 0.876282 -0.1258028
-0.08021262 0.4496693 -0.1334684
0.08882083 0.736843 -0.1210454
0.03810693 1.261336 -0.1070711
0.09404301 0.4551159 -0.1241358
0.1126866 0.4467962 -0.1170145
-0.02658025 1.266915 -0.1096256
0.003009241 0.442975 -0.1217928
0.04518015 1.085945 -0.1167004
0.03780872 1.184568 -0.1113281
0.08804771 0.4760484 -0.1249939
-0.03030472 0.9472564 -0.1232879
-0.07652938 0.5135123 -0.1331498
-0.07279765 0.5720036 -0.1328041
0.06709585 0.4993957 -0.1259075
0.02765769 1.263857 -0.1074793
0.04293494 0.49813 -0.1239501
0.0937997 0.6309119 -0.1220635
-0.01771597 1.151121 -0.1148205
0.06830233 0.9070447 -0.1198927
-0.05991741 0.8954036 -0.1270315
-0.02595848 0.9321191 -0.1227249
-0.0202795 0.4387835 -0.1244765
-0.06031248 0.4717951 -0.1322847
0.06192209 0.6966617 -0.1236056
0.07562205 0.6636421 -0.1239848
0.005304203 1.325634 -0.1055547
0.05781406 0.8766952 -0.1210381
0.04558855 0.9787165 -0.1197648
0.06174648 1.055168 -0.1179638
0.01908689 1.204073 -0.110549
0.03914038 1.095222 -0.1160516
-0.01610815 0.9558099 -0.1211972
0.08596728 0.7872671 -0.1208732
-0.06955592 0.5393693 -0.1325959
0.00549577 1.20555 -0.1107263
-0.001347669 1.148839 -0.1135064
0.04745521 1.048893 -0.11894
0.06079284 0.5830164 -0.1245954
-0.03993277 0.5572665 -0.1278227
-0.01494056 1.046427 -0.1200517
-0.02128057 1.110016 -0.1174549
-0.002440055 0.9368851 -0.119899
0.05900104 0.6629769 -0.1238152
0.05001428 0.9101601 -0.1205881
-0.04046715 0.6309202 -0.1274789
-0.02382724 1.005888 -0.1219969
-0.04112401 0.4755682 -0.1287696
-0.0304944 0.7872004 -0.1243079
0.07794435 0.6274704 -0.1245633
-0.01064114 1.251645 -0.1094047
-0.0271122 0.829671 -0.1234777
-0.05339931 0.7147177 -0.1294451
-0.05335518 0.5551675 -0.1304895
0.01959466 1.059648 -0.1168505
0.01291572 0.9479514 -0.1192045
0.05138394 0.8362302 -0.1214304
-0.01618874 0.8031587 -0.1217537
0.01508983 0.964106 -0.1190446
0.02377457 0.5416557 -0.12208
0.04600019 1.007553 -0.1197136
-0.04077903 0.6386569 -0.1275115
-0.0393442 0.679564 -0.1270207
0.01947615 0.9883845 -0.1186979
0.02822827 0.9217981 -0.119806
-0.003484953 0.5053286 -0.1221832
0.04659418 0.7381198 -0.1223803
-0.003918276 0.844593 -0.1205792
0.07306096 0.7589051 -0.1226643
0.04206702 0.7939827 -0.1214962
0.007702475 1.100732 -0.115147
0.01324244 1.035334 -0.1176891
0.01128822 0.902638 -0.1197067
-0.004842047 0.910253 -0.1202561
0.02329044 0.5608096 -0.1219917
0.03135856 0.6404145 -0.12198
-0.04249135 0.6462584 -0.1278148
-0.01095956 0.6920275 -0.1222493
-0.01279588 0.5586499 -0.1230269
0.0404193 0.7499759 -0.1218993
0.01816611 0.7092276 -0.1208612
-0.01944173 0.6178682 -0.1237126
0.008789917 0.8110001 -0.1205127
0.006814398 0.5725167 -0.1215758
0.01714255 0.7464844 -0.1208832
0.0183851 0.6147001 -0.121543
0.009138036 0.5925379 -0.1214476
0.2214911 0.2528282 0.05550641
-0.01435448 0.2646164 0.09198268
0.125177 1.449747 0.06600839
0.1632122 0.2439215 -0.02892322
-0.05058369 1.572315 0.04219321
-0.2219796 0.2542298 0.03147089
0.1780908 0.2452318 -0.004719235
0.136147 1.577694 0.00713643
-0.1937371 0.2616043 0.04722331
-0.1388188 0.2697016 0.12621
-0.08079099 0.2665928 0.1499216
-0.1375209 1.360119 0.01971429
-0.09800823 1.576804 0.01205813
0.1338685 1.378177 0.03902484
0.1214918 1.534415 0.04910348
0.1357026 1.345412 0.0347039
0.1403097 1.281193 0.04384102
0.1560266 1.116662 0.03415754
0.1657608 0.9806532 0.03637237
0.1621088 0.8792204 0.04892758
0.1659322 0.7714137 0.04815311
0.1660544 0.7329 0.05022009
0.179386 0.6356492 0.04324651
0.1845561 0.5349258 0.0493347
0.19783 0.37782 0.05717843
0.2119683 0.3073086 0.05483393
0.1350935 0.2575624 0.1243377
0.08487138 0.2602754 0.1685131
-0.0336306 0.2676428 0.103547
-0.2062778 0.4014378 0.02007033
-0.1898416 0.526913 0.02057243
-0.172804 0.7751138 0.02573681
-0.1715368 0.8737103 0.02239305
-0.1690335 0.9627936 0.01984212
-0.1585844 1.119346 0.02131297
-0.1503249 1.202299 0.0183402
-0.13978 1.324613 0.02276232
-0.01565873 1.553741 0.06803036
0.1223357 1.45059 0.07172899
-0.106954 1.579563 0.002795263
-0.0768491 1.576489 0.02465409
0.09721505 1.59129 -0.008116632
-0.1359877 1.403483 0.03391861
0.1297834 1.419977 0.05571124
-0.2068797 0.3874253 0.02056458
-0.1127674 0.2840118 0.1498437
-0.1263048 1.497064 0.04969057
-0.1457528 1.252243 0.02073682
0.145169 1.23317 0.02752297
0.1657614 0.8378979 0.04462479
-0.2000194 0.4271182 0.02263996
-0.1628176 1.057422 0.008302349
0.05712831 1.566717 0.05016242
0.1202863 1.58268 0.003797461
-0.1938394 0.3054213 0.03918032
0.1572866 1.067344 0.04900333
0.1861655 0.4792531 0.05301036
0.05217401 0.2811565 0.1479802
-0.04444015 0.29926 0.1172467
-0.2055794 0.4339301 0.01405671
-0.1673941 0.6800475 0.03735412
-0.1434958 1.275275 0.01880512
0.1994921 0.3375442 0.06111615
0.1908397 0.394693 0.05860519
0.01229947 1.53387 0.07683069
-0.1401219 1.32515 0.03222952
0.1215996 0.2827495 0.1472842
0.1012639 1.472177 0.08290237
-0.1106905 1.489374 0.06342124
0.1405984 1.28039 0.05152743
0.1635758 0.6497466 0.05602603
0.1609675 0.7561454 0.05360894
0.1627091 0.9678347 0.04661386
-0.1648269 0.9467264 0.03603286
0.1793424 0.4471503 0.05933424
-0.1715197 0.8130447 0.02639893
-0.1561447 1.151231 0.03760058
-0.1529089 1.189008 0.03178406
0.1994042 0.2976563 0.06519371
-0.1777309 0.5559883 0.03042388
-0.1114927 1.502704 0.05682512
0.1015714 1.573496 0.02667664
0.08014181 1.570346 0.03810545
0.0309214 1.543606 0.07270304
-0.1637228 0.2869715 0.07304326
-0.1174837 1.468203 0.06770623
0.1482255 1.194455 0.05803772
0.1495376 0.6692616 0.06629525
0.1063926 1.449042 0.09091704
-0.1067175 0.3015577 0.1515504
0.1568802 0.4397316 0.07101956
0.1796893 0.3376668 0.06792327
-0.1512065 1.204942 0.0310402
0.1562672 0.5689915 0.06376946
0.179291 0.4122034 0.06135518
-0.09396087 1.543342 0.04531827
-0.1606049 0.6939458 0.04725652
-0.1776322 0.3061649 0.05139199
0.1326098 0.2858924 0.1281557
0.1201592 0.2988948 0.149841
0.1196238 1.441757 0.07898375
-0.04972616 1.549376 0.06398972
0.1514137 1.061665 0.06385602
-0.04350662 0.3227436 0.1167331
-0.165024 0.8907592 0.03696705
-0.1586006 0.967182 0.05120793
-0.1404655 1.324358 0.04973955
-0.1795227 0.4033294 0.03939824
0.1488469 0.8450148 0.06669333
0.1494662 0.6057262 0.06811406
0.1445617 0.6925017 0.07208958
0.142153 0.7923075 0.07638533
0.1484838 0.9522277 0.0720498
0.1419749 1.257565 0.06433545
0.1320109 1.337594 0.07643958
-0.02983031 1.54095 0.0726772
-0.1567143 1.128023 0.04283445
-0.1610971 0.6834768 0.04676624
-0.1758297 0.4846554 0.03538192
0.1003102 1.566962 0.03498336
-0.1584552 0.8480685 0.05033305
0.08522896 1.563818 0.04361866
0.03041233 1.523744 0.07895426
-0.1818098 0.3289527 0.04482257
-0.06634698 0.3188557 0.1399674
0.1569747 0.3496941 0.07808806
0.1470155 0.9266385 0.07315986
-0.1574869 0.8903436 0.05293309
0.138039 0.306774 0.1150563
0.1468755 0.8167612 0.06884722
0.1622103 0.4173968 0.06849517
0.1440435 1.181795 0.07153445
0.1522479 1.101417 0.06032785
-0.137265 0.3224408 0.1314388
0.1440934 1.135947 0.07444213
-0.08787198 1.517837 0.06120656
0.09772226 1.45629 0.09332295
-0.1554072 0.7230726 0.05788251
-0.0550589 1.526794 0.07006708
0.1390381 0.6590033 0.08358956
0.1012624 0.3149198 0.1652427
-0.002117846 0.3272388 0.09568454
0.1396742 0.6136909 0.08358468
-0.1373475 1.385688 0.06362704
0.1300963 1.374058 0.07747842
0.1072246 1.426275 0.1033854
0.1450442 0.972725 0.07767743
0.1302808 1.342762 0.08133506
-0.1557943 0.8217328 0.05663745
-0.1477972 1.169504 0.0668702
-0.1513 1.113405 0.06203822
-0.1555388 0.9362051 0.05841569
0.01018227 1.511793 0.08337851
0.1410512 0.8599051 0.08063024
0.1376753 0.767773 0.088949
0.1422855 1.170983 0.07599697
0.07922399 1.476422 0.09119205
0.07505894 1.544797 0.05998604
-0.1605088 0.6329895 0.04940581
-0.1568283 0.8723988 0.05421947
-0.06963941 1.504141 0.07486936
-0.1098943 1.447972 0.08719406
-0.1574677 1.057239 0.04829152
-0.1699855 0.4138366 0.04666497
-0.1389416 1.293362 0.07549014
-0.1674548 0.4506084 0.04697144
0.1368561 1.219443 0.08323309
-0.1548661 0.9130505 0.06015913
0.1383393 0.6793804 0.08547504
0.1362964 0.7957976 0.0957882
-0.1360904 0.3320802 0.1334018
0.09884156 1.439376 0.1025823
0.099739 1.399046 0.1201137
0.1414434 1.135958 0.07942133
0.1516427 0.3604026 0.08239119
-0.1595905 0.6100152 0.0517474
-0.1508043 0.9860292 0.0702354
-0.06042086 1.525094 0.06872642
-0.1476972 1.238343 0.0558758
0.1069614 0.336519 0.162415
0.003320308 0.3341632 0.09759702
0.1363869 0.6837945 0.09386603
0.1358565 0.6226296 0.09924698
-0.1690075 0.3654222 0.0526568
0.1350079 0.7452115 0.1035233
0.1358784 0.9541047 0.09605642
-0.1462243 0.9678738 0.08374591
0.1347915 0.8840695 0.1018688
0.1254291 1.339374 0.09391577
0.1292512 1.259895 0.09535659
0.1311274 1.183264 0.0972034
-0.1454648 1.185417 0.07140135
-0.150976 0.8013027 0.07530981
0.1376645 0.5202868 0.09773432
0.06116436 1.473925 0.09686188
0.1378413 0.5978591 0.09059845
0.1384178 1.038967 0.08840574
-0.1601235 0.4370488 0.05950279
-0.1300514 1.404803 0.08671886
-0.09124835 1.453729 0.09562837
-0.06663789 1.490151 0.08267318
-0.1504096 0.5763518 0.08187263
-0.1446146 1.240893 0.06814393
-0.0836601 0.3457074 0.148298
0.1399929 0.9452049 0.08611825
0.141104 0.3606754 0.1019347
-0.1552757 0.3325484 0.08432277
-0.1449177 0.8898267 0.09401825
0.1268302 1.161047 0.1066844
0.06589478 1.448032 0.1111888
-0.1203144 0.3378206 0.1476797
-0.1529151 0.710057 0.06610642
-0.1501073 1.067062 0.06795727
-0.1472781 1.009244 0.07860567
0.1457867 0.4715582 0.08022039
-0.01400577 0.3669198 0.09905823
0.1344005 0.673848 0.1087765
0.134391 0.61884 0.1131863
0.1192789 0.3515361 0.1522028
0.07457439 0.3494585 0.1647442
0.1059802 1.368055 0.1163677
-0.1431975 1.123082 0.08170085
-0.1362848 1.170665 0.09301227
0.1377609 0.4375654 0.1109885
0.1320124 0.9952106 0.1055878
0.1197972 1.180919 0.1165315
0.1297809 1.093491 0.1048971
0.1331999 0.7590973 0.1147147
0.1363199 0.5343558 0.105386
-0.1444597 0.8522601 0.1003434
-0.03380742 1.482817 0.09135102
-0.1295957 1.380649 0.09070285
0.02644633 1.482936 0.09415641
-0.1341529 1.227279 0.09168669
0.1360465 0.5719205 0.1032622
-0.1496766 0.7713896 0.0827575
-0.06626709 0.3570527 0.1391572
0.1210826 1.20084 0.11325
0.1380431 0.4897641 0.0998869
0.1346993 0.5841131 0.1144791
-0.1414382 1.090491 0.08887265
0.06869096 1.418701 0.1258083
-0.0144985 1.467914 0.09922323
-0.1554473 0.4620439 0.06972232
-0.1496227 0.5551975 0.088476
-0.1406597 0.3638231 0.1260924
0.1286693 0.8497158 0.1277733
-0.1370581 0.9202071 0.110676
-0.1480164 0.7216888 0.09355726
-0.1582196 0.4130712 0.06554363
0.04286316 0.3617217 0.132063
0.1264838 0.3739336 0.1418042
0.1169345 1.237531 0.1154134
0.07418463 0.3788534 0.1640925
-0.1025735 1.400958 0.1158593
0.1253043 1.044783 0.1179935
0.1343455 0.5105709 0.1229809
-0.0113039 0.3892762 0.09968153
0.022235 0.368004 0.1091638
0.1250411 1.119815 0.1131144
-0.1430927 0.818554 0.1074597
0.1307575 0.6765668 0.1294113
-0.1331411 1.154674 0.1004033
-0.1330033 0.8582321 0.1224052
-0.1523758 0.4320099 0.0839006
0.1073627 1.297534 0.1195557
0.01378712 1.460408 0.1039145
0.1198886 1.041954 0.1272387
0.1350019 0.4451003 0.1239515
0.1303989 0.4017833 0.134796
-0.1256876 1.303869 0.09887937
-0.08095351 1.440164 0.1082299
0.1321811 0.5924552 0.1286584
-0.1416828 0.6721332 0.1187577
-0.1439561 0.7303179 0.1100456
0.04046058 1.437882 0.1172216
0.05877189 1.387427 0.1327656
0.1270413 0.9282343 0.1249184
0.1266535 0.7999963 0.135357
0.07847911 1.342134 0.1301394
-0.01108852 1.463029 0.1015443
0.1267107 0.7382048 0.1376438
-0.1429898 1.050051 0.08744736
-0.1385811 0.3821573 0.1295416
-0.09175293 0.3878459 0.1496891
-0.148574 0.4666598 0.1005501
0.1242135 0.38207 0.1452983
0.08990985 0.3853219 0.1668113
0.1281879 0.5207408 0.14159
-0.04336413 0.3867395 0.1169301
0.1244597 0.6370032 0.1444172
0.1186215 0.6300162 0.1513027
0.0277239 0.3855945 0.113994
-0.1216688 1.128404 0.1174668
-0.1321437 0.8098548 0.1271184
-0.1455 0.437208 0.1139914
0.1203185 0.8682399 0.1403503
-0.1435653 0.5342767 0.1188193
0.1093459 0.9547707 0.1436602
0.1154019 0.8862084 0.1437725
-0.1044247 1.229817 0.1214081
0.05875731 0.3783795 0.1533229
0.1303949 0.4542349 0.135755
0.01073864 0.4017758 0.1036942
0.1176135 0.5970966 0.1524813
-0.129578 0.9695329 0.1198018
-0.1432415 0.4925908 0.1199133
-0.149881 0.4147512 0.0974931
-0.1448866 0.454391 0.1156266
0.06910091 1.321971 0.1319169
-0.1327939 0.6959651 0.1315162
-0.1134415 1.325696 0.1103888
-0.1414112 0.7316995 0.1164404
-0.06682301 1.437261 0.1127094
-0.1059729 0.4114732 0.1517802
-0.1088569 1.305327 0.114505
-0.000175097 1.449905 0.1078816
-0.1312124 1.042166 0.1116673
-0.03294389 0.4052931 0.1079598
0.1161438 0.7644799 0.1495771
0.02892696 0.4075994 0.1152422
0.1028468 0.6420629 0.1598223
-0.1351599 0.7896874 0.1243384
-0.1043881 1.172389 0.1248118
0.1127815 0.5634665 0.1566865
0.09572829 1.119537 0.1406909
-0.1427761 0.44192 0.1216848
-0.1304942 0.6239141 0.1356604
0.08506433 0.4105814 0.1662058
0.101653 1.053873 0.142206
0.1130054 0.6931014 0.1542445
-0.1051369 1.330157 0.1159051
-0.0845883 1.378908 0.1247865
0.1053303 0.4621869 0.1615406
0.1123486 0.5491324 0.1572051
-0.1022694 1.263499 0.1204524
-0.1323999 0.7486464 0.1299373
0.1150856 0.866069 0.1455044
0.07697608 1.174027 0.1398414
0.02844159 1.384812 0.128995
0.08925506 1.221913 0.1353576
0.1003773 0.7542976 0.1578486
-0.03699322 1.428128 0.1163472
0.05425302 0.4163045 0.1482584
-0.1299828 0.5960638 0.1365481
0.1076186 0.7991681 0.1537337
-0.09307382 1.260716 0.1238135
0.1013918 0.9169648 0.150018
-0.09702712 0.4122088 0.1513893
-0.06234514 1.388501 0.1271396
-0.1057128 0.8038413 0.1433642
-0.0822271 1.188587 0.1284421
-0.08823878 1.121262 0.1303695
0.08199804 1.003215 0.1491486
0.08705556 1.096084 0.1441703
0.06651764 1.292364 0.1331768
0.09449057 0.6428601 0.1613644
-0.12285 0.5128866 0.1445969
0.08655762 1.064885 0.1459152
-0.03528792 1.424474 0.1175669
-0.06992992 0.4289471 0.1402615
-0.05718279 1.407049 0.1250244
0.01805653 0.4292346 0.1086452
-0.1130878 0.7143546 0.1446336
0.00049801 1.415912 0.1203406
0.08359837 0.9416929 0.151869
-0.100198 0.8834494 0.1407183
0.004763821 1.398831 0.124314
0.05517161 1.175928 0.1345368
0.0846293 0.7351775 0.1590229
0.08751082 0.8136488 0.1567442
-0.1139622 0.5612897 0.1479477
0.02339236 0.4296256 0.1118303
0.07309122 1.161885 0.1399339
0.05318679 0.4266188 0.1468251
0.07805812 0.9283815 0.1511467
0.09093644 0.5479923 0.1627082
0.09405705 0.5076852 0.1639932
-0.1067552 0.7738317 0.144046
-0.03826964 0.4374734 0.1127263
-0.06582229 1.179755 0.128421
-0.07577957 1.096259 0.1305535
0.06070707 1.000014 0.1408602
-0.1023972 1.010671 0.1341107
0.06883737 0.6581927 0.1552187
-0.09564933 0.6207742 0.1484182
-0.08735602 0.8279343 0.1408542
-0.07753111 1.337495 0.1247283
-0.04287023 1.348466 0.126406
-0.03143182 1.388016 0.1249191
-0.1248277 0.464055 0.1438799
-0.0551709 1.203606 0.1273191
0.06381103 0.9545006 0.1438334
0.0687886 0.9967682 0.1452516
-0.08977072 0.9162098 0.1381713
-0.07648455 0.8840128 0.1361684
0.065081 1.244472 0.1348588
0.07115831 0.7014487 0.1552996
0.06701508 0.7832288 0.1505521
0.07474564 0.5207177 0.1605895
-0.08879181 0.580317 0.1473488
-0.1031799 1.026224 0.1326695
0.07963599 0.8522962 0.154264
0.02711258 0.4423485 0.1149038
0.05971366 1.141525 0.1370128
-0.03632359 0.4543729 0.1117997
-0.05688333 1.174428 0.1277156
-0.05874898 1.135674 0.1282908
-0.08027451 0.7873247 0.1394504
0.04377634 1.017397 0.1318011
0.05005696 1.084043 0.1337635
0.03523522 1.276321 0.129782
0.05951033 0.682993 0.147706
0.02753995 1.209693 0.1280429
0.07849816 0.8392239 0.1543745
-0.08927529 0.5374273 0.1482284
-0.04503671 1.313053 0.1264143
-0.04404056 1.243434 0.1265179
-0.08967546 0.4589158 0.1495391
0.05283554 0.9791975 0.1368209
0.07096475 0.8373337 0.1512074
0.05610993 1.139409 0.1356192
0.04385355 1.176985 0.1311886
0.05680522 0.7004021 0.1450925
0.06938362 0.5634588 0.1579633
-0.09854689 0.6573788 0.1480298
-0.09668198 0.4752869 0.1508674
-0.09166919 0.6954163 0.1455552
0.04041845 0.9384242 0.1305924
0.0524417 0.4710615 0.1457777
-0.06645744 0.9760419 0.1317805
-0.01744729 1.37229 0.1258189
-0.06553718 0.8200774 0.1330305
-0.04315283 1.127779 0.126223
0.04174574 1.112798 0.1303066
-0.06543133 0.908685 0.1321149
0.02862336 1.275084 0.1289881
0.048512 0.6379369 0.137723
-0.07311695 0.5333939 0.140506
0.0374782 1.086623 0.1289501
0.03372936 1.242646 0.1293247
0.04044941 0.4692003 0.1292545
-0.06790999 0.7287599 0.1347805
-0.07751381 0.6527442 0.1410547
0.03239277 0.9415022 0.1269115
0.05501642 0.7591294 0.1426319
-0.06182298 0.7901893 0.131534
0.01353956 1.300104 0.1278461
0.04761535 0.7058302 0.1362319
0.007360199 0.4697352 0.1056281
0.05379083 0.7236668 0.1419604
-0.07460001 0.5178912 0.1416614
0.03873063 1.140247 0.1295602
0.02510994 0.9856817 0.1249095
-0.02819321 1.248994 0.125944
-0.01882928 1.150801 0.1242562
0.006353649 1.021674 0.1219844
-0.06552911 0.9537641 0.1317925
-0.05362539 1.039739 0.1280209
-0.02266083 0.4905298 0.1070659
0.03739074 0.6755254 0.1263645
-0.04078915 0.6032844 0.1188413
-0.01176588 1.329182 0.1267473
0.03057052 1.087254 0.1270717
-0.05627292 0.5436299 0.1283827
0.007129709 1.219296 0.1260917
-0.006302087 1.172521 0.1245576
0.02366282 0.9330428 0.1234375
0.04647016 0.8290985 0.1346173
-0.02369639 0.8435758 0.1187292
-0.03862539 1.095498 0.125536
0.03187472 0.6141362 0.1214899
0.04212513 0.5718063 0.1314452
-0.05501746 0.6541432 0.128046
-0.03945743 0.58003 0.117609
0.04552032 0.5202209 0.135883
0.004524768 0.9963765 0.1211364
0.01783855 1.149741 0.1259695
-0.01035269 1.224291 0.1254413
0.02985691 0.8518622 0.1236841
-0.03083419 0.9568531 0.1221919
-0.02420682 1.10535 0.1239799
-0.03365996 1.025726 0.1239054
0.02598507 0.6535316 0.1179048
-0.004772177 1.137558 0.1239276
-0.03976125 0.5385478 0.1169829
0.01044348 0.9365113 0.1203682
0.01172805 1.103344 0.1244257
0.001067058 1.011299 0.121275
-0.03130538 0.9126705 0.1217198
-0.02638346 1.062563 0.1235336
0.02887118 0.739073 0.1212091
-0.02427721 0.6261947 0.1129093
-0.002272614 0.5030621 0.1057262
-0.02679707 0.5815178 0.1122551
0.02295442 0.6189898 0.1159319
-0.01176123 1.066787 0.1225798
0.01448609 0.6066132 0.1123022
0.00845837 0.850019 0.1174825
0.01228503 0.6594896 0.1128148
-0.01520068 1.010456 0.1210687
-0.03470179 0.6833672 0.1185375
0.005067857 0.9298146 0.1192446
-0.005542518 0.9051402 0.1177895
0.01527876 0.7172426 0.1152459
0.01449439 0.7784917 0.116116
0.004242027 0.647321 0.1109968
-0.007311298 0.5947791 0.1093319
0.002158887 0.8741558 0.1176377
-0.01496209 0.5348637 0.1079325
-0.002136506 0.8858919 0.1175186
-0.008666033 0.7836528 0.1151838
0.02571469 0.5368708 0.1155444
0.002787716 0.7705322 0.1143536
-0.02424393 0.6503859 0.1139914
0.001707088 1.062785 -0.1172613
0.2218957 0.2596324 0.04615383
0.1761786 0.2541779 -0.006621855
0.1383194 0.255843 -0.08462557
0.1359306 1.394737 0.005360891
0.136936 1.328953 0.02286635
0.1338143 1.569394 -0.0407158
0.135319 1.481574 -0.0669434
-0.1359469 1.400284 0.00166876
0.2107602 0.3057029 0.03792994
-0.1013193 1.588994 -0.03278272
-0.1160293 1.495213 -0.08876228
-0.1426513 1.276436 0.01103772
-0.1433527 1.227921 -0.007394301
-0.1525579 1.148344 0.0002969113
-0.1622462 1.043073 -0.006497954
-0.1696112 0.9599433 -0.004281536
-0.1727764 0.829937 0.001049892
-0.1775246 0.7455276 0.004746149
-0.1803683 0.62539 -0.0004001432
-0.1902586 0.5561208 0.004255456
-0.1961149 0.4646441 -0.0009758095
-0.2192991 0.3173998 0.01054973
-0.1752487 0.2514887 -0.03692944
-0.1286186 0.2535771 -0.1029046
0.02619172 0.2530467 -0.120191
0.07073941 0.2546244 -0.1295279
0.1911035 0.4958499 0.03739179
0.1793388 0.6621807 0.03480047
0.1694452 0.9200183 0.02340174
0.1650452 1.021915 0.02407951
0.1575263 1.085031 0.01145359
0.15301 1.142369 0.02238035
0.1477387 1.179299 0.00677469
0.03181789 1.574253 -0.06233241
-0.1691364 0.9446972 -0.008450519
0.1433945 1.250188 0.02489323
-0.1712932 0.6813048 -0.006915686
0.1359063 1.390744 -0.004330125
-0.1239622 1.568504 -0.05869077
-0.1280425 1.426214 -0.05642162
0.1655533 0.2775954 -0.01813917
