# .PCD v0.7 - Point Cloud Data file format
VERSION 0.7
FIELDS x y z
SIZE 4 4 4
TYPE F F F
COUNT 1 1 1
WIDTH 1669
HEIGHT 1
VIEWPOINT 0 0 0 1 0 0 0
POINTS 1669
DATA ascii
-16.33722 34.0701 -12.42397
-16.33224 30.52423 -12.65311
-17.72716 67.97146 -6.070656
-24.92766 14.85443 -6.505748
-16.30523 55.06597 -8.481924
-25.45886 26.91409 2.288582
-21.92663 33.39461 -12.01012
-17.49927 26.35437 -12.60288
-17.12321 71.95164 -6.959114
-17.89305 38.01645 -12.02117
-23.24648 34.89249 -1.389989
-19.15687 69.53748 -3.966135
-25.57662 24.20824 3.858642
-18.14963 19.07838 -12.9759
-23.02877 35.725 -3.530957
-16.57637 57.35963 -7.518366
-17.9022 59.31857 -5.420479
-19.0488 38.63526 -11.75741
-24.60434 27.08017 -0.02810227
-19.15843 67.45438 -3.677726
-19.66444 24.80793 -12.83163
-19.35022 40.32048 -11.23828
-25.88691 14.2769 -8.724733
-21.26923 42.75852 -8.87386
-17.1648 35.73905 -12.20793
-24.88063 16.94626 -6.798792
-27.12354 12.68665 -11.50323
-22.49566 40.16777 -8.066111
-20.28435 42.94262 -9.838681
-18.00217 37.01909 -12.09453
-19.81866 43.89568 -9.79496
-21.93437 39.56227 -9.499795
-25.86974 14.69687 -14.50124
-21.99717 25.14807 -13.43561
-24.95306 15.22054 -14.79427
-17.92494 64.50826 -5.330909
-19.4597 60.34808 -2.926389
-20.40008 58.83174 -2.374694
-19.51882 67.12798 -2.570161
-18.82085 54.75402 -5.808908
-21.54126 53.96227 -2.1104
-16.97806 81.1767 -6.819623
-18.43979 80.79484 -5.451133
-16.16662 103.5867 -0.7257632
-13.13264 107.4938 -4.210814
-18.03222 16.71062 -13.1143
-20.22869 14.53586 -13.45196
-19.8977 15.15649 -13.32845
-13.585 18.78701 -14.97575
-20.02692 75.87322 -2.344494
-17.80261 75.93568 -6.256497
-19.52511 76.19101 -3.69961
-22.88735 37.99868 -1.748
-22.71922 41.33835 -3.714837
-24.618 18.37387 -1.535018
-24.20501 17.82882 -3.637885
-21.57309 29.28846 -12.89355
-21.1813 47.51731 -6.701447
-22.12834 49.1094 -2.30551
-21.84331 49.01882 -4.520535
-24.12663 30.00125 -10.48804
-26.09499 15.45226 -14.10031
-22.09943 17.46221 -14.0885
-19.58943 50.01986 -7.305675
-19.65903 50.30606 -7.104146
-24.13305 25.79937 -12.6124
-26.08869 18.26557 -12.8371
-24.35667 26.50841 -12.07136
-21.76511 22.66503 -13.64954
-14.81907 16.21519 -14.59307
-26.07369 21.44999 2.184919
-24.88017 18.9495 -0.8760198
-22.77969 38.92414 -2.298864
-24.45357 24.26429 -0.8320501
-23.54266 26.95088 -2.929695
-23.97525 25.30408 -5.915819
-25.23951 20.21346 -8.351688
-23.30714 30.1162 -2.96328
-23.95026 27.03655 -6.223989
-23.49676 29.57338 -4.982327
-23.32532 30.68478 -2.509361
-23.55921 34.63111 -6.672255
-23.54703 35.3116 -7.15605
-23.03104 38.98655 -6.997616
-22.88896 40.83556 -5.131306
-21.93082 38.81028 -9.850758
-21.87632 32.25335 -12.2974
-20.41582 27.68898 -12.88738
-23.87096 32.13262 -9.559595
-26.14071 18.37396 -10.47426
-25.52912 21.34317 -9.616149
-25.07947 21.16533 -13.2336
-23.10886 19.98302 -14.18355
-19.98884 17.70272 -13.23318
-24.98788 24.93304 -11.42703
-18.32199 77.4781 -5.613897
-25.42266 21.58567 0.5275906
-24.21404 27.23705 -7.187014
-25.11974 22.33059 -8.633131
-23.61757 31.80893 -6.081681
-18.38203 45.47356 -10.13768
15.5433 138.8753 -7.525619
12.42081 143.3783 -11.453
3.12888 137.753 -12.47768
9.335629 151.0714 -8.694182
5.428245 145.6288 -12.18145
12.68362 136.5965 -10.1339
12.10909 150.0451 -9.256104
1.782255 148.0871 -11.43761
7.037066 151.7879 -8.797827
2.101088 144.9062 -12.18708
6.43018 150.6489 -9.994718
0.05772189 140.4701 -12.62091
7.986521 149.6741 -10.35356
2.727688 139.4445 -12.63475
6.790024 138.6165 -12.73061
12.19637 149.6287 -9.601379
10.91087 143.1476 -11.9165
6.130266 141.2518 -12.76996
9.155223 138.9343 -12.37623
9.672897 143.5971 -12.17838
5.635179 141.9986 -12.69045
6.330988 144.1565 -12.4465
6.874906 144.9507 -12.30944
10.08884 141.0009 -12.22034
5.535807 143.1003 -12.56443
-11.68232 99.11801 -9.755665
-0.1188404 26.95115 -15.37919
-8.604376 89.73783 -12.0034
-6.53425 85.9154 -10.54645
-2.749578 110.4185 -7.715936
-12.50256 84.13876 -9.012972
-0.3030648 85.2645 -10.37921
-1.404086 103.5826 -10.17865
-0.3726251 114.3775 -6.855185
-13.37875 86.72326 -9.457045
-0.3714693 103.6296 -10.16852
-11.35271 98.81673 -10.11544
-8.20947 104.6221 -9.042527
-9.24042 8.805034 -15.53597
-11.70655 34.6042 -12.76599
-10.24813 105.7075 -7.534138
-9.321904 88.87205 -11.6287
-8.12061 136.224 -11.94369
-11.70919 97.97249 -10.15205
-12.403 85.48125 -9.448309
-1.419239 110.2799 -7.860176
-9.636411 86.12617 -10.40994
-7.625546 134.4358 -11.4434
-1.98858 118.5732 -6.536407
-4.923457 116.067 -5.868392
-12.40105 93.13957 -10.77764
-10.10034 91.87814 -11.95225
-9.745435 84.9936 -9.8365
-0.6337365 82.32745 -9.485682
1.121039 9.910543 -18.7209
-3.956065 79.54234 -8.98008
-9.639455 13.77404 -12.72783
-1.530392 54.4893 -9.185963
-1.659673 98.48281 -11.94593
-1.753572 100.4531 -11.33503
-7.087698 106.8083 -8.289146
-12.40343 80.81234 -8.579987
-5.979555 88.38047 -11.68506
0.3871945 9.72722 -18.43379
-1.397034 26.45631 -14.57846
-3.956847 69.89168 -8.660629
-4.272797 135.1479 -11.91749
-9.155577 8.571842 -14.97582
-9.655551 132.8228 -10.10498
-0.4691802 51.63095 -10.1862
-11.14568 48.94392 -8.135705
-5.915589 116.7104 -5.44218
-0.7152101 97.78789 -12.11365
-3.131409 117.0712 -6.265578
-8.835688 92.84067 -12.41387
-12.73657 82.81966 -8.70928
-3.58234 87.95996 -11.43785
-8.421127 83.92137 -9.608554
-2.318017 11.85788 -15.84639
-11.29732 32.09079 -9.437681
-0.8192702 62.87682 -8.313601
-0.9230275 72.85461 -8.764832
-9.807312 126.9736 -6.911174
-6.839808 135.5172 -11.92203
-10.61583 9.907631 -9.573253
-9.172579 8.786407 -14.63539
-0.4657915 48.20187 -10.83666
-11.94831 52.63812 -9.001867
-0.6066388 96.77721 -12.33124
-5.4417 117.4564 -5.601186
-7.735003 94.79365 -12.60872
-5.420102 94.86011 -12.79676
-5.999187 102.1466 -10.81184
-12.33527 77.65457 -8.695189
-4.792674 89.13035 -11.9203
-2.007539 13.88454 -15.95572
-2.332801 13.51532 -15.56022
0.7163916 24.19062 -16.15341
-11.74036 34.11415 -12.8948
-1.752127 57.56359 -8.749772
-1.707822 65.93795 -8.374964
-12.39045 68.5107 -8.609282
-10.53442 73.27451 -8.796095
-7.567516 124.0042 -6.543571
-8.002848 126.2239 -7.490011
-10.12537 21.8461 -14.54865
-9.53409 13.25389 -13.04058
-9.600671 12.23074 -12.68641
-2.143353 54.57875 -8.637025
-3.478527 57.15467 -7.686132
-11.54106 55.49448 -8.423034
-10.80683 50.24615 -7.860113
-2.626446 95.55038 -12.5662
-3.800333 96.44046 -12.50174
-4.934962 118.7919 -5.867373
-1.906842 80.3962 -9.115026
-8.58145 81.88029 -9.084881
-1.986072 83.15015 -9.689301
-0.2941467 16.35736 -17.11007
-0.6116759 33.0818 -13.98413
-3.591437 9.451463 -11.35495
-3.11298 14.11628 -13.51879
-2.72693 16.67678 -14.20267
-4.679826 11.50885 -3.914836
-11.31652 38.18492 -11.52804
-10.37647 58.58169 -7.53571
-1.027448 62.06143 -8.407996
-3.314868 64.42786 -8.243555
-1.570885 67.90027 -8.529908
-6.619268 66.75517 -8.450788
-2.970406 73.59867 -8.782582
-11.40303 74.43006 -8.808595
-6.050623 125.8279 -7.964458
-2.08696 126.7281 -8.793895
-10.82196 24.75098 -14.46252
-9.553045 11.98425 -12.84536
-1.872431 43.35338 -10.37261
-1.600711 39.92893 -11.58295
-2.404805 46.10153 -8.80451
-11.51187 40.1878 -11.52286
-6.260641 99.73566 -11.7397
-5.536002 101.2859 -11.20875
-2.616756 89.37836 -11.9256
0.3314636 33.45567 -14.25918
-3.570659 15.58519 -9.113258
-4.666357 10.80773 -3.88871
-10.79342 33.0058 -11.57642
-10.75551 32.09835 -11.1581
-1.142333 65.59008 -8.347328
-4.321471 75.58775 -8.81177
-9.458517 73.40574 -8.793853
-4.055642 130.2457 -10.20699
-9.977982 21.53708 -14.46415
-9.314401 12.36764 -14.28642
-2.356067 38.40199 -10.6712
-11.10584 41.42218 -8.831623
-7.345856 100.5273 -11.31012
-5.774877 104.9325 -9.43313
-8.332969 81.34199 -9.01388
-1.18103 24.50134 -15.11718
-10.65214 31.02288 -11.36232
-9.318208 63.42286 -8.08535
-8.424619 59.00328 -6.93894
-6.206593 72.35168 -8.76346
-7.577139 76.41083 -8.807974
-4.203314 132.869 -11.24398
-9.889745 12.34562 -11.81552
-3.885774 44.26828 -6.402846
-3.301811 121.2085 -6.803167
-2.094151 24.55904 -14.04244
-9.908711 12.78968 -1.568753
-10.5102 25.6219 -11.14975
-4.78086 62.11932 -7.826312
-5.061341 67.06188 -8.473314
-4.008466 123.3803 -7.450872
-10.69336 24.88733 -10.59768
-2.755521 44.42953 -8.492906
-5.817518 44.40086 -4.729545
-6.488912 43.32141 -4.30161
-11.44491 44.87379 -8.490446
-8.754673 13.62982 -1.383767
-11.76603 14.02127 -3.982166
-10.6497 30.63402 -11.23203
-7.524616 67.95994 -8.54963
-10.09714 14.71465 -11.44634
-1.831974 31.3177 -13.12544
-3.796253 41.45177 -6.563694
-7.127858 15.92397 -1.788929
-11.66097 15.22837 -3.876531
-7.462156 66.71545 -8.449582
-11.38771 26.31046 -8.433012
-9.998043 18.21166 -12.11602
-11.45911 11.06242 -7.225917
-4.209864 48.05809 -6.210336
-9.275746 48.51824 -5.738494
-10.32585 45.31866 -6.587271
-9.272669 42.85505 -4.565435
-8.261088 15.99435 -1.600402
-4.072334 56.80687 -7.276207
-3.33154 35.68042 -7.767744
-10.91633 38.20231 -7.685333
-3.881265 108.7686 -8.122946
-4.33435 16.13334 -4.910324
-11.25057 21.8501 -8.815492
-2.923073 50.66965 -7.619559
-7.413057 54.56778 -5.811267
-7.613295 44.86958 -4.260352
-4.937801 55.26029 -6.564629
-11.53646 20.1923 -7.581254
-4.473674 52.33879 -6.499029
-5.980358 50.3425 -5.350231
-9.649655 20.40512 -2.319338
-11.56902 13.67661 -7.026044
-9.811337 22.7568 -2.658716
-11.08954 18.60131 -9.140772
-4.377033 24.91143 -5.097219
-10.57781 15.1974 -10.24614
-5.395009 22.43916 -3.463012
-3.465714 20.56056 -8.81519
-3.549376 17.3785 -8.871017
-2.357683 22.18625 -14.01166
-11.0516 16.20087 -9.039667
-3.368781 20.6533 -10.06282
-3.610967 22.82094 -7.454749
-4.01149 11.99016 -6.150666
-3.472543 16.38742 -10.34833
-3.315866 24.74464 -9.433741
-3.083317 30.08261 -9.923876
-3.319283 26.49902 -9.048851
-1.835074 28.73438 -13.66474
-3.504244 27.07824 -7.744501
-3.631523 26.57373 -7.192542
-6.575816 28.58162 -2.983527
-6.801512 131.6378 -10.58828
-2.893955 18.19294 -13.46754
-2.246913 19.22377 -14.72767
-1.060819 20.63733 -15.88225
-11.22183 35.861 -7.94861
-11.53625 32.20249 -7.3957
-7.453238 78.86407 -8.843807
-1.949477 39.09278 -11.27415
-4.77943 13.16887 -3.746881
-10.44256 27.7472 -11.6338
-11.53035 30.7693 -6.85359
-11.60366 27.18506 -6.772149
-10.97413 30.24701 -4.751456
-9.094037 32.21437 -3.258686
-8.283984 23.65181 -2.228676
-11.2191 27.71777 -4.751716
-8.119048 29.02242 -2.692733
-8.830048 39.1216 -3.898041
-8.203923 29.5435 -2.753565
-4.156048 35.05863 -5.80737
-9.886119 68.63618 -8.606526
-6.809987 21.46509 -2.386467
-11.74035 19.20212 -6.320934
-11.72087 21.68269 -5.854711
-4.9336 34.75673 -4.720994
-4.805987 32.1864 -4.713125
-3.999114 28.1426 -5.991306
-4.183444 26.43018 -5.548752
-3.565017 27.97055 -7.407654
-7.140808 80.02002 -8.930499
-8.681818 40.9199 -4.049033
-11.40409 26.68495 -4.998513
-11.65532 23.9468 -6.781045
-5.899662 38.04332 -4.117634
-4.547518 40.08652 -5.429268
-3.933682 37.64755 -6.249058
5.386953 10.0622 -9.203874
0.6366916 65.02425 -8.301514
11.64551 88.79075 -10.86709
5.048702 11.83635 0.1560863
11.40421 53.44425 -9.133295
11.52543 84.3079 -9.283199
12.6077 78.53455 -8.609182
2.806479 114.3538 -6.530141
5.636218 57.56333 -6.723205
1.120221 133.5611 -11.38987
11.25684 94.29503 -11.36909
2.511519 113.6684 -6.742039
-0.08121947 126.7161 -8.797658
5.223224 10.78322 -13.25432
2.689355 20.02826 -9.816863
5.476466 68.77117 -8.598681
6.541853 12.641 -8.1055
1.28901 135.811 -12.0247
9.809428 132.2453 -9.762776
1.099367 74.0911 -8.790447
9.716626 130.2821 -8.828769
7.401031 113.704 -5.419582
10.0752 47.50388 -6.682845
5.946972 9.991962 -8.1439
3.937134 11.76573 -0.4346983
0.3401268 108.507 -8.429502
10.24585 72.65002 -8.778685
7.44059 132.9374 -10.94289
2.25162 125.6017 -8.379602
1.298227 133.9709 -11.51514
0.4106643 46.94041 -11.0963
0.8246881 84.2991 -10.03515
11.74885 93.85747 -11.13004
8.339162 114.7471 -4.656153
6.463683 14.17057 -8.438803
11.6863 11.76153 -1.97057
0.6488601 61.30456 -8.310139
1.353104 78.49218 -8.919196
9.888189 102.6807 -9.371222
11.62096 71.94695 -8.767203
12.88537 75.51353 -8.736453
11.60553 95.984 -10.82213
7.150305 122.9616 -6.259923
1.196122 128.7263 -9.570925
9.065033 125.8575 -6.727723
2.046046 19.35602 -17.17138
3.048524 135.2 -11.89261
0.9384779 47.50204 -10.35291
0.3459865 44.85031 -11.73203
2.349045 115.2716 -6.435375
2.197475 84.55039 -10.09765
9.216795 92.89641 -12.30377
2.479892 112.9048 -6.94612
10.18147 43.65434 -9.882234
9.992039 53.8774 -7.1913
6.927115 20.78499 -10.36054
1.855098 10.30855 -2.259775
0.3589464 58.09763 -8.967047
10.78237 62.65262 -8.098843
2.694339 102.8183 -10.50219
7.123951 102.1526 -10.66823
0.3089109 74.54086 -8.797969
1.761084 77.24132 -8.855981
4.00489 77.71543 -8.861018
9.317177 75.30065 -8.804212
7.53698 97.58653 -12.17336
6.705693 97.04626 -12.42873
-0.0321283 106.4185 -9.146272
5.736469 122.916 -6.830338
3.360209 124.8277 -8.067546
4.227463 129.9144 -10.05553
5.137023 129.0425 -9.635632
5.225708 135.0161 -11.90436
2.463624 21.80057 -16.30737
3.239796 16.71177 -17.10519
3.028525 133.2111 -11.31488
1.303367 44.91151 -8.452215
1.527313 41.49886 -5.891262
1.838324 40.99298 -10.3948
3.55309 85.32565 -10.34906
0.7310719 92.64785 -12.5626
9.190265 86.97635 -10.91104
6.719803 92.50338 -12.75477
10.02014 50.96453 -7.099685
7.470662 11.30325 -7.319021
11.7273 10.68206 -4.101517
7.052019 22.15305 -8.966252
4.729658 10.86504 0.1077853
1.338077 33.50595 -14.07563
9.789347 36.81544 -7.510502
2.803332 57.54613 -6.766205
9.993725 64.69408 -8.244523
1.568963 104.9994 -9.658291
3.873093 103.0607 -10.4093
6.629015 105.1243 -9.225704
6.689958 68.584 -8.590222
12.07436 71.38607 -8.749634
4.94236 96.50224 -12.58282
4.808798 121.4827 -6.569708
3.568053 128.9028 -9.624122
1.52616 11.63783 -7.121777
2.628434 26.48765 -14.89611
2.222926 134.2668 -11.61525
0.7567547 40.95678 -12.45778
1.656744 46.03073 -6.147245
8.052193 88.15961 -11.57051
9.448813 46.43332 -5.123278
8.794729 51.98756 -5.702528
7.938915 15.79899 -7.648303
7.001851 21.17802 -8.899923
6.716273 12.70984 0.4898973
3.603673 12.7285 -0.7781522
2.909717 30.01928 -13.15961
1.00538 37.27221 -13.32701
2.361821 80.39638 -9.095568
3.250808 71.66602 -8.734812
3.983458 64.00459 -8.150841
6.339928 72.23518 -8.758607
3.753234 95.04144 -12.67589
3.614272 110.0978 -7.666569
6.581055 124.8685 -7.370036
1.928678 22.50099 -16.44452
9.493585 41.66627 -9.057365
6.332821 88.94774 -11.95257
3.410628 90.61559 -12.29831
7.867279 82.97578 -9.368008
9.302828 48.32759 -5.614723
8.205675 52.8927 -5.372706
8.481108 12.8796 -7.071338
8.337873 30.71568 -8.60004
10.39183 34.63535 -6.496753
9.609445 28.7083 -7.149928
8.280603 31.85366 -9.138953
10.69361 25.43456 -5.763831
7.279207 15.99648 0.102052
1.76661 34.81906 -13.37574
9.192255 68.51373 -8.592492
6.648479 99.1337 -11.89187
6.50262 102.4694 -10.59976
3.320662 64.6441 -8.239296
4.350055 105.7329 -9.258071
6.044498 127.0043 -8.520869
10.44087 38.74859 -6.322036
2.066708 56.14856 -6.957765
6.413069 87.34616 -11.1983
6.171314 55.19268 -6.077191
3.886061 52.39087 -5.708147
7.462078 62.66417 -7.890384
2.141729 62.28122 -7.920728
8.347327 19.9617 -7.697531
8.164506 16.38369 -7.560328
9.157786 14.51197 -0.01684748
2.306098 36.13496 -10.81415
6.787472 104.8058 -9.348855
2.47683 105.0418 -9.628932
10.25186 38.73393 -4.447432
9.658434 41.35707 -4.320472
6.874717 59.9107 -7.21642
6.158985 60.09418 -7.292395
8.769508 38.80754 -3.36851
6.269896 58.93219 -7.000986
9.559118 32.72362 -2.810868
10.44134 21.9419 -6.119574
1.755017 34.91311 -9.203516
7.253509 95.85329 -12.56329
10.6542 36.13477 -4.745823
11.18274 15.41486 -5.019984
11.02121 29.34916 -4.628401
11.73128 13.69131 -2.533302
5.11699 107.892 -8.265204
11.02158 28.22743 -4.108055
10.83242 24.07813 -2.555138
2.398122 32.17162 -10.38546
4.502599 19.23208 -14.53269
10.24813 26.26214 -2.353424
2.206861 32.14891 -10.00886
1.353865 36.74265 -8.042233
11.71454 16.36393 -3.651419
5.645185 34.55764 -2.534494
3.798188 12.1914 -10.90156
10.95908 24.34886 -2.856414
3.943144 36.94212 -3.397004
8.962156 25.26436 -1.470044
8.003411 28.99108 -1.731667
2.208878 15.74429 -8.807091
9.59939 21.43365 -1.205242
4.28951 14.75303 -11.87612
3.726211 34.78492 -3.252666
3.844163 15.02891 -11.18468
1.743039 40.72973 -5.45891
2.018668 38.38631 -4.929478
10.29679 17.30396 -1.045544
1.708105 40.99372 -5.541232
6.896568 18.6185 -0.2684261
1.476288 34.73226 -5.453261
1.923236 43.83923 -5.577566
6.041119 20.06379 -0.5895263
1.434383 30.46992 -5.022022
3.618754 41.17327 -4.073507
4.806743 41.83015 -3.74109
4.883193 28.37218 -1.955816
1.356079 48.24403 -7.222918
2.851488 48.92177 -5.34787
4.325225 110.8005 -7.308422
8.013885 75.99706 -8.80677
5.140887 73.04265 -8.774936
6.094929 76.83084 -8.822495
7.467628 79.21328 -8.864366
10.805 77.09198 -8.768516
3.968314 21.5769 -12.17872
9.14348 85.08972 -9.939499
1.390767 15.84006 -7.073693
1.981977 19.18001 -8.62911
1.068407 18.61603 -5.175425
2.369018 16.66143 -2.310813
1.178219 19.87012 -6.736794
2.240244 15.99852 -2.378971
6.874957 19.32534 -0.3611734
8.366225 18.63013 -0.3684358
4.732866 19.62602 -0.9587913
8.706526 21.65956 -0.8703537
4.046082 25.11116 -1.947956
1.779849 21.08374 -3.52026
1.510633 22.64725 -4.129106
1.127043 23.74658 -6.710168
1.930114 23.30126 -8.85563
3.815001 22.85621 -12.02435
2.459696 27.40863 -9.975405
1.344311 31.7347 -8.055027
2.090183 26.5953 -9.336136
2.423481 25.59334 -9.828727
7.285449 61.59507 -7.641238
3.890121 81.93618 -9.328336
5.223529 79.7094 -8.963603
8.799969 92.11133 -12.37338
8.711715 94.32915 -12.41762
3.525494 26.5591 -13.03269
6.022603 50.94773 -5.039327
1.151281 33.86109 -6.180532
3.536625 28.34045 -2.614929
8.085196 28.28378 -1.649691
6.885162 49.68064 -4.651597
6.207771 45.94542 -4.117781
6.051669 110.472 -7.037534
31.24581 13.67697 -3.028898
19.6133 71.48294 -3.054524
10.11287 113.6907 -3.769657
23.93411 10.79121 -16.58702
10.26485 132.661 -9.725503
20.95047 51.19315 -5.903056
19.9776 84.99707 -2.114755
14.17576 36.43742 -11.89727
12.58943 121.6202 1.53312
6.131296 8.517043 -11.14448
7.622237 7.908248 -12.58731
10.53244 43.17331 -10.22989
11.55099 46.40886 -10.19597
13.46164 94.41938 -9.745014
9.175817 114.3235 -4.252155
13.2007 49.06804 -10.19841
19.19672 87.18408 -3.527001
10.994 131.2268 -8.532309
14.64744 80.35977 -8.052663
13.2799 87.08417 -9.607057
32.597 10.73504 -2.857045
14.31646 49.2955 -10.24044
32.03592 11.03536 -3.09705
21.83264 56.42466 -1.302474
13.15528 106.3157 -4.825311
8.964442 123.9998 -5.715745
14.94872 134.7606 -2.407884
5.598916 9.679886 -10.28591
19.94254 87.88707 0.01212068
13.59273 85.1002 -8.923712
14.0693 111.6746 1.790701
17.78067 45.4505 -10.41849
14.84558 45.74129 -10.82971
30.83439 17.78116 -2.621817
13.75099 60.82331 -8.304235
13.65726 79.89648 -8.352646
13.63552 69.29427 -8.535374
19.81314 69.38004 -1.932734
15.46979 106.9202 0.3739108
13.55962 96.00247 -9.218414
13.91739 129.4322 -0.3598029
15.00625 135.1001 -5.627337
18.52868 10.57952 -15.68738
6.276029 14.21249 -10.59628
11.91019 133.1581 -8.928291
18.54695 89.13174 -4.257831
13.7044 89.35085 -9.79558
12.83012 115.582 0.8848151
10.42011 42.09098 -10.35145
11.90067 53.0854 -9.391576
12.94445 56.15936 -9.146634
17.27666 46.0478 -10.45497
12.9454 42.80987 -11.05336
12.93406 41.77036 -11.18669
31.12026 18.90479 -2.234189
13.05264 59.32867 -8.668073
14.47375 61.02033 -8.028551
20.54118 78.69979 -0.3502087
15.99466 78.31761 -7.529334
16.18025 70.39998 -7.598033
17.00885 72.36473 -7.063737
16.88409 101.5495 0.3323525
14.18485 96.24144 -8.501474
11.81188 115.6715 -0.9965416
9.308867 121.8803 -4.294618
12.19744 123.3138 -0.6954518
11.43854 127.924 -6.041377
11.91512 128.9733 -6.227414
24.32097 12.87198 -15.48921
7.263782 14.80792 -11.69875
19.85686 86.13509 -2.068216
23.27574 49.94199 -1.934253
9.713654 39.18218 -10.31861
13.21123 37.41148 -11.71133
12.70735 39.08426 -11.46994
14.32959 60.50603 -8.184459
30.86619 14.49273 -3.020488
29.20074 17.53489 -3.005146
27.54233 22.5341 -2.802057
8.431444 30.84316 -10.56069
26.86898 37.8384 -1.400791
14.82665 66.80758 -8.046128
20.02686 80.21055 -2.635551
16.34447 77.86297 -7.352391
19.56071 69.87019 -2.978314
12.81531 102.497 -7.23699
16.16669 102.7639 -1.554522
14.60664 95.84236 -8.175117
12.4428 123.9589 -0.6045856
12.06021 125.5738 -2.951666
12.94477 128.419 -3.632586
13.78584 128.505 -0.01994415
7.268258 20.60641 -10.91576
7.022517 13.29301 -11.63295
22.66494 53.12553 -0.8943746
11.38069 36.85271 -11.48657
32.44403 10.47939 -2.985332
28.4874 29.39705 -2.050262
31.15843 19.9919 -1.808805
26.54056 35.31607 -2.256274
23.90109 33.3979 -3.398099
20.94256 58.72462 -2.167379
20.96654 54.00414 -4.435597
14.61544 57.10126 -8.734508
19.98112 59.29987 -3.679776
19.0328 83.50335 -4.528212
15.65316 104.2644 -1.752157
13.21062 98.36762 -8.713154
12.31398 122.2305 0.3901151
12.6626 130.3772 -6.221325
23.45014 13.96344 -16.14581
7.863834 20.82305 -11.52846
9.21102 14.70391 -12.80925
23.11734 47.0983 -3.041252
10.55517 35.32893 -11.38779
14.14068 108.1745 -2.290747
27.08723 19.62991 -2.869889
27.38572 22.232 -2.811826
23.87369 11.24214 -9.613975
23.25588 33.4547 -5.508417
24.12637 37.81792 -2.919513
17.93273 55.9286 -6.917292
17.15213 58.51131 -6.741069
19.43022 67.85955 -3.022179
18.82525 80.35001 -4.954574
17.91282 77.22918 -6.106469
17.97379 80.79821 -5.974743
19.90905 73.71728 -2.437863
14.72486 106.9117 -1.929953
13.21789 111.125 -1.81653
14.11571 107.2775 -2.921016
15.35282 97.49646 -6.499555
13.81166 132.8766 -6.382664
22.25628 13.07586 -16.7415
9.190729 11.65001 -13.01037
16.77872 36.93901 -12.29772
17.56702 43.90163 -10.90568
23.58531 16.80453 -5.676957
11.55799 25.24195 -12.48026
23.07313 31.87146 -7.045999
24.79129 29.67149 -3.059588
18.23605 59.16122 -5.633332
16.40667 66.90742 -7.175462
17.35401 63.34581 -5.840719
19.99972 76.31472 -2.447696
17.4456 71.94352 -6.672917
14.58437 97.44205 -7.579313
9.418232 20.8879 -12.39232
7.591861 15.2058 -11.9153
15.20582 38.50561 -11.91386
23.13632 25.6418 -7.97159
24.24771 37.33384 -2.87829
18.88605 53.63288 -6.937125
19.46059 72.29376 -3.568415
18.51269 73.7775 -5.418865
14.80342 106.1543 -2.311245
15.79337 100.753 -3.869452
16.78859 94.32076 -5.615641
16.84524 98.10617 -3.116551
11.80422 20.46282 -12.7632
12.39393 22.54362 -12.67463
14.64441 33.68166 -12.12892
23.7708 14.05177 -5.558033
14.38563 22.62076 -12.8028
15.39561 28.39645 -12.58813
17.41744 27.78306 -13.30218
22.80962 41.92738 -4.113776
16.81833 73.41712 -7.200642
13.95245 98.23859 -7.978315
24.08119 14.46267 -10.72319
10.49488 14.55251 -13.07732
24.30114 12.40483 -4.644813
23.17311 30.52344 -5.355024
17.24159 85.81284 -6.557944
18.1459 94.50939 -1.458718
10.36058 25.10066 -12.30849
14.35898 11.59832 -13.64116
24.10695 13.57948 -4.82759
16.99259 22.23346 -13.6196
16.45396 87.39869 -7.312661
15.02622 94.60106 -8.080886
14.94882 20.64864 -13.0589
24.48535 14.36726 -4.225821
14.56787 92.04593 -9.125915
24.17666 17.8565 -12.22819
16.42673 12.57019 -14.24772
21.50146 44.6608 -7.978985
23.47305 16.15542 -6.275497
13.62217 16.07148 -13.18138
23.77173 17.48763 -14.70055
16.161 16.20818 -13.80202
23.62006 18.7523 -5.248423
20.84438 18.16864 -15.76039
16.4297 18.46472 -13.71508
24.74349 18.48653 -3.696797
26.17459 19.84588 -2.984929
17.42873 19.73688 -14.04499
23.381 19.0989 -6.111723
23.42531 18.68114 -8.36415
24.85282 23.57724 -3.300493
24.54597 22.86641 -3.542851
23.7857 21.87535 -12.08517
23.81918 20.86513 -12.94637
23.70772 21.15457 -13.23153
21.46967 22.79005 -14.91096
23.12684 26.12116 -8.06275
23.3981 25.40477 -11.84609
23.18445 28.52025 -10.68841
21.66096 26.36355 -14.03239
18.86962 23.33273 -14.39275
18.33533 24.37338 -14.04777
12.22186 40.18344 -11.25645
21.29248 49.05563 -6.383014
21.33711 46.7134 -7.370795
22.08234 45.21671 -5.954384
22.25899 43.51002 -6.328139
22.77421 40.09402 -6.381008
22.30481 42.52966 -6.980858
19.00715 86.7833 -4.039358
12.89809 131.8842 -7.108524
18.5948 52.58612 -7.57958
23.09303 30.48112 -6.418723
16.20865 88.1803 -7.571916
25.33875 25.52088 -3.015483
24.13168 26.63578 -3.674042
19.48905 29.4449 -13.71844
15.9095 50.32039 -9.832242
22.6125 38.96298 -8.075745
20.44013 39.26868 -11.00681
21.53515 37.44026 -10.67773
19.85362 30.71991 -13.48489
22.10625 31.28378 -12.28258
16.02045 91.01262 -7.721419
17.24241 91.98895 -5.783935
22.29609 37.19328 -9.620028
22.5554 34.6795 -10.22953
21.40289 36.38136 -11.19473
22.73114 32.56782 -10.72313
18.90784 36.82498 -12.32626
17.02612 30.06294 -12.94811
15.99374 8.857636 16.92678
15.81065 89.23362 9.227061
11.88364 105.2189 9.177421
13.03744 37.91502 11.69874
13.07802 101.6391 8.653089
11.32768 105.2054 9.426558
14.87202 87.8571 9.827955
12.80034 101.6964 8.803578
16.80929 85.86471 8.99163
10.93446 124.6146 9.497311
10.59935 117.9423 8.728125
14.64709 100.0172 7.678174
12.45326 113.1149 6.895629
12.28866 115.8259 6.444663
26.80558 35.89545 0.2865175
12.93925 115.4918 4.81192
12.22714 123.6256 7.550152
15.06961 136.4568 -0.8031625
20.40208 75.23959 1.993189
11.36667 139.7061 6.991824
22.51874 53.14831 -0.5256628
11.19536 113.8573 8.279668
15.04216 9.705432 12.79688
13.86126 69.34619 8.54795
29.52476 15.26002 2.272052
13.68797 113.1946 2.799538
16.01657 105.6448 1.491984
15.81798 83.49329 9.681992
16.1891 101.1671 5.443241
16.57517 100.9032 4.631754
17.53002 95.91185 4.439314
12.77028 107.7208 8.369838
14.87715 11.61722 18.24206
12.32118 41.02733 8.222983
9.952472 121.4307 9.829791
13.22547 134.8903 10.42633
33.07301 13.32795 -0.5185737
15.04168 137.6635 -0.1059699
12.44707 41.74392 8.801644
12.57405 52.47239 9.138198
10.96754 119.4736 8.572959
19.581 89.43702 2.411666
17.71218 96.35366 3.329665
16.90338 87.23132 8.785607
14.37141 17.07713 17.13292
12.55694 9.590425 9.848814
19.84419 63.07188 1.378129
20.06335 71.16457 2.407724
20.02379 68.48682 0.7973396
11.20835 123.1969 8.893013
13.51102 133.7728 10.60835
13.25611 124.1648 3.015592
27.77733 10.4147 2.69467
33.91931 9.755672 -1.188076
12.20155 116.2158 6.537077
23.52935 49.33144 -0.7820728
12.48197 46.32013 10.45144
19.01622 87.78989 5.846475
19.31685 87.05775 5.418735
16.77691 94.29092 6.847487
19.38787 85.43702 5.770388
12.18297 120.7652 6.989573
13.00959 122.3944 4.203942
12.57623 114.0272 6.387019
17.13731 95.29723 5.781392
14.65704 108.0127 5.435825
14.09395 10.73054 11.55163
26.68826 38.9505 -0.8626524
12.37912 61.48377 8.387851
16.81311 78.7043 8.971393
20.42681 80.38363 3.301706
14.50569 71.57548 8.918995
13.05787 122.8657 4.635173
14.0595 135.6619 8.047173
13.22136 128.8285 8.775472
13.76895 127.6222 3.540939
28.08595 10.16819 2.734501
14.72953 137.4044 3.292698
21.91004 48.04797 0.1406879
12.85813 38.75446 12.24689
12.46963 43.06744 8.835497
19.5514 89.17894 3.060061
20.35374 81.94592 3.547923
12.39729 118.9186 6.000817
13.92208 108.1623 6.77182
13.76438 111.7976 4.625145
15.47413 12.41936 14.07561
14.08009 23.65643 15.18057
28.66329 30.52249 -0.05749923
28.1827 30.53673 0.5126737
25.48693 33.31785 1.098276
20.9338 59.69498 0.02531475
13.08948 67.12514 8.051394
14.13948 72.13361 9.059506
18.54967 66.18577 4.903718
14.56975 132.6202 8.640911
22.76681 9.533353 2.117012
29.38131 28.43145 -0.8247929
24.02908 11.65912 2.160655
12.56683 116.9175 5.599333
22.01827 49.88959 0.08341041
12.85469 40.0774 11.32623
12.98799 53.33564 8.077714
13.38977 51.29477 6.700915
19.71198 84.18169 5.254137
14.28574 18.14916 16.85433
13.28876 29.31686 14.74316
28.07787 33.61509 -0.7808751
25.35115 35.69898 0.8943089
23.15313 40.61435 0.5081634
24.20736 40.6377 0.5033341
14.34041 67.18694 7.955761
16.92375 76.36127 8.66606
12.84456 125.1807 6.716496
16.20662 10.48973 2.036438
32.13618 11.93779 1.56627
27.85663 15.80995 2.388209
12.0937 117.2772 6.648445
13.01765 37.22558 10.61068
13.00628 46.30525 6.240855
20.02234 86.43967 3.258582
14.75887 17.37907 16.22463
10.76352 10.16324 5.546466
23.97526 31.26029 1.161621
22.60322 35.86555 0.7239529
13.85682 28.71932 12.41418
19.084 76.24996 6.289848
16.96964 73.12585 8.155262
13.34568 128.0499 7.279062
14.20043 130.1643 3.572984
17.24553 10.89036 1.928203
29.38446 14.82291 2.346362
21.05467 53.50332 0.3902595
13.15854 44.15291 5.600421
15.24562 13.80905 13.59612
10.83482 12.17385 6.000535
23.2514 31.74037 1.031762
20.96559 35.62506 0.7149959
12.9946 31.28858 10.15007
16.8958 68.79014 7.301974
12.86056 126.0072 7.068457
14.278 130.7398 2.234668
28.95995 23.45511 1.410568
12.27457 41.20343 7.44768
15.25728 52.09709 5.179154
17.95343 55.62229 3.825195
16.40981 46.48266 3.636318
11.55098 12.89583 4.101693
18.82927 28.64135 1.267493
19.23184 34.82908 1.042912
17.24974 30.28644 1.758867
20.81197 39.09932 0.5917085
13.74986 58.60423 7.39711
28.22956 15.11261 2.427414
12.40031 41.36498 6.480949
12.8883 39.30019 5.296685
11.9757 36.38881 7.165303
15.16177 15.91557 13.80393
12.72409 14.13354 9.931433
23.73828 26.2607 1.380937
14.06739 20.80926 11.63631
14.49255 22.80403 13.74283
18.79816 72.5274 6.071431
14.77652 133.8464 7.443863
11.97677 35.38136 6.540288
15.00904 16.06944 13.23639
17.19775 38.16644 1.887699
13.44995 18.53886 10.70165
19.48966 68.35393 3.614697
30.26627 21.43307 0.9348772
16.47406 41.79516 2.631112
24.35808 22.17024 1.688618
20.71841 42.82194 0.4579475
15.95773 41.2692 2.945369
13.16737 17.44541 10.37389
19.07374 68.52404 4.695278
14.1998 38.95855 3.914327
16.83027 54.22839 4.691237
11.9543 16.33548 8.930109
23.74656 12.1238 2.101246
11.79502 32.09424 6.326906
17.27723 64.18085 5.801732
16.63412 36.66565 2.182282
12.90638 30.46048 4.225108
12.71427 22.83903 9.756377
12.91929 34.88728 4.668853
19.69187 53.10926 0.8965612
18.18792 51.42092 2.698814
20.13155 46.4746 0.5210009
12.12695 22.37747 8.940686
15.00119 30.68262 2.79155
18.56274 54.79519 2.521133
11.31685 18.25284 5.133862
22.753 15.40224 1.810174
17.38462 33.12593 1.72898
18.46612 28.69327 1.364234
11.22672 18.62108 5.611371
28.16747 17.98381 2.219157
17.53935 47.069 2.74298
15.60706 43.63292 3.656877
20.74597 22.4215 1.309273
16.62179 44.25629 3.023833
19.75336 16.12845 1.608137
20.23231 20.16419 1.412207
21.48642 25.80933 1.167881
18.23232 23.65237 1.489851
20.07892 79.17441 4.498007
18.2256 61.9087 4.445989
18.04884 61.01905 4.57663
17.6344 58.45633 4.670127
15.70244 61.63001 6.359506
16.98392 83.37908 8.985792
19.76463 78.54918 5.224902
18.57854 82.00041 7.425186
15.28007 104.6394 6.242313
20.37724 73.79951 1.126761
20.27871 76.18406 3.216811
17.88947 75.35875 7.691602
19.03157 11.29534 1.848275
17.42257 14.83017 1.811039
11.68944 14.43559 4.101933
13.6523 15.41427 2.730694
14.99275 15.54913 2.260097
12.73813 15.41018 3.205141
11.24641 20.81507 6.629502
18.91419 18.4019 1.56348
12.36907 18.48108 3.722606
20.2146 18.30302 1.500122
13.92833 18.72064 2.737098
26.63626 26.25702 1.655163
11.69811 29.5947 6.091448
12.41772 25.75788 9.255566
12.08693 25.60585 4.691832
13.71006 24.65293 3.156521
17.12186 27.05284 1.781289
13.67739 27.00912 3.334621
15.65443 26.41822 2.29707
16.01965 23.75042 2.089026
19.47189 27.93637 1.162351
17.42315 80.79612 8.627492
12.91501 12.59729 2.982945
15.76825 22.74174 2.147923
7.825031 104.8507 10.7595
7.06163 107.0722 11.08047
1.143213 44.26909 8.956674
12.97131 87.36712 10.20798
10.17586 104.6025 9.886673
0.27379 69.6914 8.673315
1.160704 76.43632 9.624928
13.37365 86.34325 10.22928
12.47778 95.52218 9.534739
10.42664 90.516 10.2059
6.61363 125.9534 11.9711
6.787137 86.40581 10.30513
11.66087 48.71246 10.94102
10.81726 50.90977 10.46868
14.79952 9.259416 19.21371
11.25139 35.21714 14.1441
10.57771 87.61905 10.26811
12.16242 98.60887 9.368248
10.49039 86.44647 10.28021
12.57808 92.41318 9.803392
9.717633 88.20337 10.28242
2.042514 111.1454 12.04299
9.323538 84.68552 10.27119
13.19876 26.5931 15.73818
3.891704 119.2285 11.75284
4.604431 116.8732 11.55212
8.598185 110.8715 10.23109
8.422832 100.8984 10.51234
13.97761 83.23602 10.21404
13.13884 82.86687 10.25714
-3.728546 8.787544 14.22965
0.4098675 67.2729 8.382335
2.070375 140.1205 8.986468
12.51476 136.3249 10.15265
10.7177 42.27851 12.08737
5.004669 118.5526 11.47575
2.020164 108.6343 12.24027
9.424697 97.84657 10.25723
12.12371 83.13245 10.25451
6.270506 87.30197 10.32532
-2.767009 10.762 15.37559
1.120733 11.49603 8.299522
3.674662 77.5531 10.00414
6.951749 132.4481 13.87204
10.47356 19.59548 16.17265
12.91994 11.73507 19.08966
0.2853868 51.53926 9.538418
10.55431 49.16951 10.48964
11.44584 44.9378 12.09445
8.856709 121.2508 10.57778
0.986932 92.41101 10.6502
3.866542 107.4275 12.24673
9.261355 100.9359 10.27087
2.117427 83.70704 10.24079
2.668933 85.50085 10.28564
-3.473506 14.81884 13.69505
1.980919 11.6289 13.82458
10.69212 62.32096 8.149098
1.458474 75.93419 9.577488
0.9277306 127.3698 12.62253
2.881241 135.4191 12.41249
5.862714 139.6272 9.436949
8.269583 10.56314 10.5225
9.594158 138.4037 10.18485
9.125614 136.9279 12.00861
0.7208802 51.80419 9.074288
10.85432 43.04213 12.10737
6.137394 116.126 11.04547
3.084542 93.80154 10.70281
3.921564 122.1848 12.02265
3.023626 107.2945 12.30729
5.174751 96.68092 10.82271
8.108886 103.7675 10.64432
12.71238 78.51675 9.98417
4.887794 90.35784 10.44233
1.588312 12.04333 15.51082
-2.689522 14.27364 14.9408
-2.102675 26.87709 13.41851
3.300014 11.91915 3.293032
2.885847 59.93295 7.319101
0.7580077 67.96572 8.435987
5.452615 72.56706 9.100645
12.29693 75.97647 9.669612
0.3257289 127.1083 12.58882
3.140961 132.2539 13.21466
11.4354 135.5332 11.95485
9.350536 9.243425 15.64331
13.64253 13.40685 18.9194
6.837483 138.6626 10.51644
1.006242 53.74937 8.142428
1.73244 57.40896 7.21701
11.5 52.83496 10.37606
9.517651 50.98749 8.60288
4.143336 97.8055 11.00697
5.640667 98.18456 10.89787
3.574015 106.9958 12.26837
3.035965 79.80609 10.00365
9.410398 82.17932 10.20444
5.018442 83.19248 10.22585
-3.155947 11.78901 14.80262
-2.437157 27.89613 12.71469
1.64155 12.22916 10.88266
1.772532 14.04695 11.58977
1.837442 17.31341 12.42196
12.24049 35.3383 14.13953
11.06413 29.37607 15.08427
9.991693 34.28226 12.56474
8.99053 58.7278 7.683544
2.425931 63.27457 7.952986
10.44646 61.41379 8.232986
4.716344 69.43469 8.560933
10.36126 70.25711 8.797062
4.187104 72.74529 9.095005
4.151625 123.3727 12.15077
8.853635 126.7941 11.48932
5.085428 137.4144 11.51058
8.289592 9.826956 10.79348
11.73059 17.34592 17.68928
0.861326 44.22181 10.08066
0.3974472 40.49178 11.44577
0.8543591 47.85314 9.363291
10.52285 40.10755 12.25689
4.888531 104.8415 11.7261
11.24271 77.43308 9.867949
8.345741 81.58408 10.17463
-1.664442 21.5043 14.63724
5.185295 11.13633 3.828753
10.09539 37.57951 12.11158
2.951422 63.3779 7.950627
4.645927 77.01237 9.787063
5.513428 77.76298 9.969723
1.182721 130.6655 13.02706
6.19365 134.2015 13.5544
5.690807 131.2232 13.52002
8.366328 10.22536 11.11769
11.97833 25.95687 16.22071
-1.085559 41.54572 11.62664
0.9893166 47.56588 9.012249
10.20998 43.27155 11.13405
7.097783 104.0978 10.9799
3.75936 82.97154 10.21374
1.425507 29.97916 11.6327
1.485833 30.17422 10.17437
1.470945 12.92959 10.09772
9.775399 31.03893 12.81344
8.593062 61.27361 7.740477
7.690705 59.72278 7.430309
6.01234 70.70375 8.940526
9.499533 77.79455 9.919447
10.71913 134.5391 12.90432
7.512486 130.8891 13.62593
9.691632 13.04571 15.86376
1.106399 50.57502 8.388872
5.07959 81.59287 10.16575
1.2499 29.43501 12.45693
1.721104 15.16008 11.31678
9.699722 28.28198 13.29386
6.086148 62.9229 7.843354
6.750511 71.17349 9.033712
8.798888 132.4668 13.80581
10.54367 18.64565 16.41057
1.241557 45.53289 7.97855
4.184597 46.4368 5.493854
9.295906 42.95339 9.069468
7.663621 108.6061 10.79146
1.321543 25.32274 13.16123
1.289717 14.13042 4.660038
7.878095 15.04978 8.142966
5.727787 65.78839 8.09703
7.076327 68.80338 8.424322
9.798594 10.89775 16.41789
1.384888 39.76861 7.316133
6.226741 43.45901 5.881723
0.8063838 29.40121 13.27178
3.305132 17.77961 3.573041
8.966464 30.28462 10.07048
6.280334 66.55239 8.134624
9.749022 17.15043 15.38652
9.103199 12.63865 14.31145
2.48838 53.34964 6.34016
9.571864 35.94394 11.13169
8.588521 44.32827 7.726176
7.528151 42.61544 6.664433
7.01342 111.3416 10.87787
5.566221 18.29009 4.382827
5.840259 58.2821 7.072507
1.47048 51.4076 7.244548
1.84819 52.12913 6.672985
6.464284 51.44497 6.419505
6.31151 48.7723 6.203638
5.634901 52.37155 6.320597
7.06262 47.63164 6.494959
8.752833 37.45777 8.387798
6.70268 112.3412 10.93829
1.014041 15.59475 5.934587
1.141393 16.61211 8.569584
5.411043 58.17408 7.041484
1.386423 33.83168 9.37177
5.590035 112.8027 11.3449
1.246747 29.92664 8.45277
2.350735 19.54832 3.94025
8.416677 13.91922 10.60703
7.321748 49.45592 6.711842
1.458916 27.49911 9.957224
8.780597 15.0568 12.36078
9.173497 16.36509 13.81298
2.916047 21.86328 3.743995
2.506281 22.19281 3.970428
9.196705 18.86801 13.46625
1.399547 31.91824 9.367827
2.242362 21.39954 4.118318
5.974286 24.60361 4.884612
8.854264 20.27359 11.75244
9.475389 23.8863 13.50565
2.501176 28.48217 4.345515
9.076241 29.19594 10.74492
8.622913 27.68301 9.200701
9.042094 27.42808 10.99508
9.052938 23.6782 11.97134
8.443351 23.95834 9.058634
0.3602535 17.71203 15.55437
1.646794 20.04762 11.00672
0.1271835 20.92284 15.13216
1.172147 19.21065 8.624003
1.537459 26.84968 11.64285
0.7138848 23.89662 14.27795
1.438929 24.39231 9.825292
6.169089 56.66889 6.854916
-0.5790854 16.63435 15.81098
10.03218 78.12619 9.939157
1.011707 13.24951 5.499448
1.658044 16.13246 4.200552
7.172898 39.16759 6.328136
3.535634 38.34982 4.750516
7.963433 19.37836 7.98059
6.803013 18.56344 5.765667
7.153804 58.11676 7.131236
1.157639 28.21669 7.349852
3.442262 27.59158 4.03615
6.746645 27.55382 5.704537
4.838487 29.95494 4.50042
8.613127 30.06415 8.838659
5.628345 30.29813 4.890755
6.258768 34.61537 5.494094
8.914032 31.79427 9.586928
2.977455 35.82474 4.634997
5.776894 33.37901 5.102828
9.022704 23.91876 11.75525
7.690269 80.35707 10.10017
2.163955 26.27498 4.553065
8.210273 28.89343 7.940508
1.122997 22.61207 6.254692
-5.3157 8.936743 2.969147
-5.400762 77.95455 9.845952
-7.470962 30.39465 5.010327
-5.979228 12.00014 6.23244
-9.814507 50.31047 7.384187
-11.71468 64.7282 8.209587
-14.01709 78.38927 9.947535
-12.06561 86.7139 10.264
-9.040448 103.9743 10.48366
-9.242154 51.81836 7.783173
-12.26688 135.5249 11.17608
-9.657826 127.0856 11.23909
-0.420318 10.61518 4.191782
-0.3927982 63.96306 8.398482
-0.9740046 113.7721 11.92955
-6.49395 109.7364 11.235
-10.26623 53.68857 7.570331
-0.8973966 122.451 12.11936
-8.143103 42.62256 11.52323
0.4045364 137.7145 10.84853
-1.094186 137.5451 10.98138
-8.299433 90.30405 10.46993
-8.58584 78.55544 9.916763
-8.343198 118.0366 10.2397
-8.464283 48.63063 9.165902
-5.032557 10.40348 4.4754
-9.136882 10.9024 10.78744
-13.8197 81.44207 10.18068
-1.967904 75.83661 9.597664
-8.533654 125.3094 11.15324
-7.936248 139.322 9.573197
-3.267231 9.729821 10.41964
-3.89832 139.4273 9.621729
-1.446966 37.99787 8.989053
-1.298033 84.50009 10.26023
-12.0987 91.2872 10.07652
-10.59847 56.14931 7.748093
-8.612343 44.61579 7.250573
-9.302996 10.54209 11.2105
-1.402353 57.66321 8.227042
-12.75676 82.83087 10.24328
-8.788514 109.5338 10.30631
-1.492298 73.79361 9.322027
-12.51103 78.54303 9.975317
-0.02962987 95.88473 11.0129
-8.228669 111.5815 10.36467
-1.555745 128.6437 12.78772
-1.132561 132.6397 13.00888
-4.836557 12.87218 8.925499
-1.56407 10.30777 7.206848
-2.859387 139.0294 9.920004
-1.449526 45.97247 7.635796
-1.490163 46.22046 7.462413
-0.0777609 122.6376 12.13829
-1.386309 93.08234 10.76454
-10.52674 60.41497 8.030534
-6.526767 119.4416 11.14615
-8.199 44.73328 8.639725
-5.408101 13.5365 4.541025
-6.475163 12.0945 6.920118
-4.830773 12.16021 9.501367
-1.606413 28.67914 8.887236
-1.521435 64.04388 8.276446
-11.69447 83.53423 10.24807
-8.137355 105.7369 10.76259
-2.316771 71.81586 9.041506
-11.2789 69.20538 8.584919
-2.640499 76.04929 9.62484
-3.275689 74.31488 9.399187
0.472035 96.1245 11.021
-9.275482 99.0661 10.60774
-8.601743 110.3072 10.31676
-4.059989 122.2147 12.01478
-8.304928 126.9091 11.70207
-0.2816135 127.9741 12.69973
-10.58164 135.9049 12.25472
-10.2809 137.3016 11.14566
-1.801893 12.24864 8.090241
-2.353848 13.94072 9.544051
-2.558808 12.41037 9.633008
-1.408846 47.63594 8.060428
-2.730235 40.83305 5.09083
-1.564662 112.1608 11.98961
-2.103467 88.853 10.4595
-11.4428 84.15969 10.26124
-5.641791 85.53905 10.30554
-10.38753 55.23704 7.680058
-8.450371 55.24506 9.935573
-7.597946 27.15196 4.340522
-4.819485 12.53436 7.022224
-7.922637 38.117 6.569633
-4.450893 57.17156 8.007417
-8.955 64.10751 8.700769
-1.308797 103.6834 12.07793
-2.063074 102.7637 11.92026
-7.322519 105.9279 11.08593
-2.416896 65.81712 8.364228
-1.652397 95.0754 10.96667
-1.223688 110.1282 12.13023
-3.321652 129.1898 12.8874
-4.574873 13.36756 5.103225
-0.9731907 12.80032 2.312565
-0.9576972 14.5421 6.472865
-8.343846 41.416 6.766703
-1.923442 47.83031 6.603225
-5.813302 124.1451 11.95688
-7.087588 83.50193 10.22136
-8.239337 45.91489 8.643404
-6.149014 15.9828 5.773077
-6.517095 22.93253 4.701472
-5.169508 15.2322 12.25275
-7.861116 34.80943 5.844856
-7.93693 101.4831 10.96333
-9.922308 69.14852 8.599505
-8.252083 66.18941 8.425581
-11.4026 72.48029 9.145328
-5.428828 97.55789 11.1491
-2.562524 125.8548 12.39899
-10.33592 132.8802 13.36846
-3.306268 129.9917 13.02765
-4.896265 17.25192 7.292018
-4.884213 17.67638 6.946241
-2.033604 13.66072 1.843612
-1.445127 49.6152 8.173806
-3.11342 88.80839 10.46464
-4.281886 86.9902 10.37064
-9.948552 83.27398 10.2252
-8.423627 57.19017 9.81134
-8.414578 56.19615 9.923116
-5.947822 18.3091 4.342176
-7.449349 31.24879 5.44282
-7.091989 28.07447 5.925754
-5.487403 17.17288 12.8106
-1.798777 31.68079 9.803134
-7.985589 69.8829 8.728233
-3.232388 100.1498 11.54227
-6.456659 103.1695 11.37732
-4.72964 64.68607 8.509322
-4.921297 106.4977 11.93973
-5.478157 130.4582 13.28514
-7.770863 133.4872 13.83129
-0.6571673 12.46953 5.375223
-8.169573 41.96098 8.358178
-3.453938 55.83088 7.019268
-0.875115 91.27261 10.60619
-5.622686 56.3032 9.574124
-5.434324 53.77758 9.591457
-5.649787 61.45945 9.255335
-6.205668 19.45839 4.947225
-9.282568 11.79876 11.06321
-1.487328 35.57926 8.98209
-1.514197 35.67811 5.277059
-8.322286 37.86202 9.299826
-7.197099 65.28215 8.573531
-5.292351 107.2562 11.85302
-4.700416 130.7301 13.27294
-6.24183 127.8276 12.45203
-5.343657 135.4695 12.87565
-0.5602171 14.38443 4.873884
-4.130516 46.37178 6.490109
-5.600674 61.91209 9.181741
-8.474796 39.71587 10.72986
-5.55781 59.47862 9.352923
-5.313595 14.66807 12.73624
-4.755968 99.51687 11.38189
-6.482859 106.9908 11.39313
-1.668598 23.60147 8.812473
-7.967344 39.62648 7.676001
-8.306746 38.5274 9.245218
-7.945573 15.30513 8.404554
-8.03171 28.94667 8.13971
-1.406607 34.3513 8.541132
-2.395077 39.28699 5.025538
-6.324234 136.0551 12.76781
-5.442425 39.21441 10.34133
-9.311235 16.84583 12.33801
-1.322314 30.97465 7.99364
-0.9855027 25.20749 6.520978
-7.247941 19.41346 13.61341
-1.048116 30.09839 6.297848
-8.946898 17.84374 10.04392
-1.613076 29.11966 8.935821
-8.97571 27.06144 11.55683
-8.709052 31.52401 10.08854
-6.576086 19.82204 5.776151
-7.286346 24.92505 6.606683
-7.523005 23.33 7.127915
-4.634718 112.7802 11.64675
-6.249334 71.87057 9.043055
-8.86004 75.69484 9.596909
-8.688293 73.53178 9.2961
-8.526158 78.19784 9.882514
-9.239399 80.5043 10.0771
-1.298975 40.19112 7.988997
-6.697985 64.48226 8.761158
-1.58068 14.68252 2.113991
-4.608061 80.06173 10.02483
-4.881999 43.66025 7.64547
-8.061873 19.2284 13.43217
-7.174581 92.93 10.6714
-4.320076 94.46557 10.90642
-7.880464 52.53738 10.98876
-1.537663 18.6537 2.66339
-0.8699902 19.62115 6.253971
-0.7526574 18.71966 5.765119
-3.097775 22.82041 3.157203
-1.574987 22.73623 3.279071
-0.8110822 23.19148 5.476399
-1.180779 30.05135 7.277621
-4.594319 37.45839 6.372932
-1.854961 33.44057 4.557337
-3.211463 30.63424 4.057123
-1.430332 29.20337 4.308531
-1.241238 30.5675 7.630961
-3.976523 21.48682 3.859521
-8.137888 28.69509 8.347731
-8.327518 25.7742 8.61679
-8.975386 27.16755 11.09808
-4.922374 16.6578 10.53496
-5.964296 50.76309 10.5986
-5.06202 27.18541 8.039435
-6.756979 42.76683 11.98282
-5.508444 39.85035 10.56629
-5.792325 42.71892 10.9422
-5.046324 44.70606 8.244341
-4.690518 43.57683 7.150746
-4.9511 39.52308 7.612779
-7.795649 47.39417 11.49589
-4.901964 35.10251 7.092144
-5.068095 32.36124 8.082445
-4.551358 35.51151 6.078887
-5.048836 28.28078 7.788177
-5.065011 29.03967 8.173371
-5.185785 30.90497 10.2771
-4.971586 23.21653 6.910986
-5.093026 24.5705 10.48702
-5.663244 30.54721 11.94283
-5.818753 31.16454 12.13473
-4.688508 25.18093 5.553885
-5.17231 21.8847 11.47266
-4.892399 20.55876 6.435236
-5.428638 20.00672 12.41606
-8.828367 30.81323 11.25999
-4.659543 48.90551 7.499674
-3.158927 48.49723 6.006927
-4.342926 46.40147 6.759767
-5.636184 33.65386 11.65684
-6.205577 35.13662 12.243
-6.400804 35.89655 12.36858
-8.282838 26.63277 8.557133
-8.098952 24.45861 12.95085
-5.43922 22.22458 12.23324
-4.714034 20.42073 5.474317
-20.5373 8.837535 3.167961
-23.34523 25.14914 4.989027
-15.79245 87.94744 9.42367
-10.75436 48.46908 7.603854
-14.8212 77.29944 9.700949
-13.78728 132.0507 10.34517
-19.44177 88.78648 4.03115
-18.00051 95.77938 1.020649
-20.29515 60.67898 1.434075
-13.34528 127.6512 6.818671
-15.43821 10.37287 13.57727
-23.10752 28.95519 4.539172
-12.64627 52.86158 9.163587
-6.914989 8.358861 2.497122
-9.677619 32.82088 5.067136
-12.15905 116.975 6.437017
-12.86524 122.2033 5.415731
-14.49274 138.387 3.536721
-6.951976 11.81613 2.656259
-13.0146 116.6289 3.485558
-14.82415 52.45234 9.334125
-14.03045 50.53901 9.739486
-22.5162 9.91475 5.869071
-14.50928 62.84463 7.702804
-12.09144 105.4442 9.098589
-11.7597 125.9901 9.064991
-13.00323 138.8221 6.084679
-6.71327 10.39804 2.592667
-19.8744 88.42919 0.6965206
-13.76282 86.46014 10.18903
-11.13385 43.2216 7.453224
-10.55895 42.08253 6.648658
-22.83496 18.45746 5.370738
-12.59984 63.32528 8.196347
-14.95691 81.03305 9.962896
-14.79776 68.90402 8.286185
-20.18423 70.74424 1.106442
-16.2085 104.9542 1.558241
-14.16854 94.4587 9.064817
-10.77368 125.8484 10.03717
-13.70392 135.3292 9.225369
-13.97818 128.8276 2.380758
-11.73926 10.16706 7.796839
-10.1231 11.31395 3.503205
-18.26469 94.72814 0.7640318
-20.46992 84.38521 0.9572644
-21.8383 41.60955 2.972657
-14.47271 109.4431 4.562371
-10.79104 110.9542 9.110119
-11.20992 45.54666 7.918505
-13.2941 44.34024 10.3753
-21.4766 29.55608 3.527786
-21.14416 34.07279 3.098366
-14.28361 60.34258 8.190776
-20.66381 81.06264 0.9346735
-14.87444 76.69475 9.615305
-17.67626 69.96342 6.93462
-20.27861 73.48174 2.138475
-15.23303 107.5547 4.26134
-11.67647 97.15733 9.900352
-12.78347 119.8848 4.566059
-11.64787 124.5373 8.669594
-13.07741 125.3423 6.047539
-14.59341 131.4865 7.79795
-13.39311 131.9921 10.93354
-9.061377 27.35108 4.271658
-10.30145 11.90948 3.720124
-18.76136 92.45946 2.821189
