# .PCD v0.7 - Point Cloud Data file format
VERSION 0.7
FIELDS x y z
SIZE 4 4 4
TYPE F F F
COUNT 1 1 1
WIDTH 1664
HEIGHT 1
VIEWPOINT 0 0 0 1 0 0 0
POINTS 1664
DATA ascii
-1.935851 155.6043 -8.852552
0.2090436 155.5619 -8.776592
-4.000633 152.2587 -8.897758
-3.138224 155.8418 -7.932005
-2.498352 153.8389 -9.565997
-2.051523 150.6233 -9.850561
-3.22239 150.1885 -9.6408
-2.087667 153.5782 -9.88461
-0.06816499 155.5752 -9.109081
-1.037883 154.2435 -9.062815
-0.5295131 151.2027 -10.51266
-1.332583 153.4087 -9.837432
2.097172 154.3388 -8.681853
3.526571 154.1342 -7.872665
3.062 151.5104 -9.56249
2.895771 153.3586 -7.902738
2.832766 152.5647 -9.184469
1.412353 154.2496 -8.890325
-6.806582 147.5229 -4.699311
-6.24353 146.3906 -1.568855
6.561353 146.7235 -2.778173
-4.583643 146.5321 0.6955245
-1.555066 149.0894 6.916177
-5.765202 148.6568 -4.842145
5.324616 153.9608 -1.851804
5.186285 151.6019 -1.65881
6.523612 146.1797 0.3042938
5.715262 152.8687 -0.606689
7.439367 147.3559 -6.544007
-5.278294 152.6713 -4.431731
-2.04353 152.5651 7.034094
5.816596 152.9475 -2.47129
3.005368 151.9578 6.495922
5.429975 152.6075 -4.012743
5.253311 154.8759 -4.051737
4.570937 150.3067 3.546573
7.191351 146.8571 -4.45519
6.758931 147.3943 -5.421959
6.192045 148.457 -3.884007
-5.52082 149.4627 -5.345229
-5.55415 153.6595 -2.439215
-6.830398 146.5804 -3.109558
-3.4258 151.5626 3.697995
1.551258 151.6112 7.824029
4.623784 152.3919 2.747893
6.295182 146.5942 0.1460461
-6.201011 150.1504 -3.690905
-6.01498 146.0696 -0.04731839
-3.683542 144.2961 3.148438
-3.924663 147.523 2.085966
-4.619862 153.4265 0.4617814
2.914495 151.1174 6.527106
5.463995 152.4228 0.3165996
6.280996 148.0641 -3.517599
5.536568 151.2623 -0.7735154
5.105842 151.287 -1.436514
5.153953 150.7881 -0.7874822
4.961063 149.1431 0.4987313
5.879813 150.5187 -5.552587
-3.720488 146.0557 2.311563
-1.618368 143.981 5.58472
-2.040689 148.0223 6.200739
-2.022924 149.4617 6.507365
-3.638966 148.07 3.426198
-4.747593 152.2967 0.5724551
-5.859625 148.044 -1.122014
-4.759509 148.7106 -1.098482
-4.982181 150.7436 -0.5388846
-4.494326 149.2219 1.032359
-4.143013 153.6967 1.477031
3.237182 149.2036 5.822581
5.168427 152.3963 1.134117
3.038181 143.9543 5.326764
6.024933 145.0014 1.354448
5.843266 149.8222 -2.367274
4.46013 147.731 1.162716
-3.181482 146.5792 4.198324
-0.00920424 150.9735 8.168207
-2.86411 147.7236 4.827616
-1.852512 147.5038 6.28948
-6.113815 146.7162 -0.6870517
-4.387547 153.4092 1.008122
0.1801929 143.9115 6.078915
3.558924 148.436 5.316524
5.857834 148.0903 -1.395995
4.851775 146.2229 0.7744064
1.472567 148.1412 7.018635
-1.233656 151.9784 7.966094
-1.770572 146.8012 6.226532
2.76895 149.0946 6.315365
4.026172 149.4277 4.665067
3.906423 148.1981 4.815742
4.705947 148.6511 3.306185
4.513117 147.231 2.108809
4.949072 150.3234 2.630641
10.73585 119.0333 -3.858218
-12.95787 86.08765 6.031415
-15.23462 91.78223 -1.19183
-11.64574 113.1277 -2.241468
-12.68929 145.7675 -3.602777
-12.76705 107.3433 -1.94996
-13.32058 102.8313 -1.913942
-13.81181 82.11498 5.094372
-11.23958 81.95114 7.352021
-4.313624 82.67647 8.16702
-11.92438 145.7574 -2.53881
-11.009 145.9168 -3.459052
-15.28218 82.75298 -0.2223776
8.991107 146.0063 -3.478145
-15.45016 89.60431 -1.008407
-11.48817 123.8743 -2.240276
-14.79934 89.2709 3.008669
13.54645 144.838 -1.34637
11.98397 145.8391 -5.290163
-11.69691 127.4554 -1.78499
-14.05193 83.72055 4.523257
-5.095354 143.5052 2.847759
-12.71451 134.8522 3.846014
6.50353 143.2965 2.508315
-7.813462 145.944 -1.880189
13.35583 87.94381 5.36172
-13.46539 136.4606 2.767659
7.403646 81.26476 8.224542
-8.766981 129.2617 7.605277
11.60881 83.50349 7.187353
15.15281 81.38125 -1.687652
15.36253 82.77148 -0.2195186
-13.41807 138.3891 2.10129
14.70156 93.82674 -2.499626
-13.86266 99.14612 -0.1532843
13.7928 99.54337 -0.8090269
12.02507 110.7219 -3.258164
12.61551 108.0678 -2.249789
11.20722 118.8853 -3.569662
11.50039 115.2014 -3.875021
-15.32386 86.26362 1.608303
-13.34041 89.19058 5.19421
14.21939 138.2994 0.768425
7.721298 146.0194 -2.467966
12.6365 145.6996 -6.374962
-8.37635 136.8849 5.087779
14.29499 81.28968 4.292775
-14.7618 81.29608 3.077894
11.38383 124.4315 -4.440256
-13.07169 144.5955 -0.8354492
-9.25246 145.9986 -3.703438
14.06246 145.6663 -6.014848
12.42631 145.8799 -3.212607
-1.322334 82.49926 8.17409
-12.51643 89.3369 5.872585
-15.41017 86.10533 0.2130692
-7.734773 82.94129 8.161916
-15.25819 85.5101 1.722993
-10.89404 119.4859 2.006489
-11.30411 127.7399 0.4816552
-11.45436 128.256 0.179894
-11.43809 123.7684 -0.5918919
-9.128926 144.8461 -0.02180688
-10.06855 145.624 -1.582687
-7.589972 144.7114 0.8995687
-12.50105 142.7475 0.4416761
-5.441822 140.1338 4.55988
-9.182266 145.9393 -2.907589
15.38057 84.10146 0.3257597
15.30195 82.71453 0.8285386
15.29009 83.81918 1.48489
10.79375 83.31447 7.604176
7.754855 140.6641 3.547737
7.356694 143.4614 2.106866
14.11492 143.8423 -0.6011135
14.17466 145.7017 -3.368311
12.14278 145.9324 -4.015944
11.98028 145.9168 -3.633985
11.39045 121.9377 -3.260287
11.5706 123.0636 -2.63769
-13.86034 98.91801 -1.339722
-2.36004 82.32117 8.181231
13.24841 103.0072 -0.3940618
-15.34492 86.99481 1.416472
-11.72279 83.18382 7.097519
-12.21068 82.40382 6.768204
-7.646997 81.97625 8.211839
-14.72163 84.67845 3.479271
-11.51858 120.2215 -0.8799644
-11.64717 126.1943 -3.014571
-10.9358 119.3658 -2.533509
-11.4576 124.9668 -0.48831
-11.56977 142.9557 0.5759968
-9.786996 143.34 0.9953653
-13.16472 137.2656 2.692936
-1.581214 141.0178 5.331836
-4.373754 141.4161 4.135452
-8.200365 143.6965 1.561903
1.883191 83.65495 8.10568
8.86666 83.85715 8.064094
15.32699 87.04548 -2.62496
15.42069 83.98843 -0.4276095
15.29754 91.79091 -0.9713791
14.21753 86.86255 4.31289
12.34897 131.7706 0.6666935
12.92853 134.2832 1.663231
14.02659 141.6297 0.4315994
5.839089 143.7308 2.509677
8.035976 141.4556 2.948902
8.191743 145.5405 -0.7675733
11.7497 115.5094 -2.546671
11.64018 127.9663 -0.992123
-13.79471 99.43427 -0.152116
-14.03748 98.19352 -0.1323795
-12.13068 110.2744 -0.8241224
-6.573616 82.83595 8.161439
13.25459 100.2738 -4.013258
13.96962 98.13587 -1.857777
15.09389 93.02604 1.08595
-15.42912 87.7066 0.3037379
-10.21803 82.91663 7.840869
-5.775993 82.90784 8.156917
-11.59864 116.0289 -1.190906
-11.888 131.5309 2.895455
-10.79988 125.3224 2.234873
-10.97615 127.2336 1.796259
-11.20293 143.4371 0.3925775
-11.01266 140.8971 1.885183
0.4697874 141.0351 6.119978
-9.4978 142.182 1.822121
-10.65407 142.3629 1.219818
-13.10215 134.0218 3.612168
4.024858 82.38393 8.18325
13.48616 84.66082 5.475713
15.33899 88.65314 1.501222
13.52263 82.50359 5.507133
11.77522 83.17186 7.095195
11.88644 85.26869 6.868598
6.332407 85.92467 7.837066
12.06126 85.60978 6.70388
15.45761 86.81866 0.02509398
12.67112 133.8674 2.004064
13.19823 135.997 1.851706
12.70179 134.9129 2.499712
5.459857 141.6524 3.753587
12.04816 140.1229 2.045887
10.16311 139.0314 3.184234
9.846551 143.9413 0.5948489
10.71804 144.1782 0.06706269
9.807419 142.9203 1.241733
12.20519 110.954 -1.638695
11.73502 115.9374 -2.487994
11.71764 118.7953 -2.426597
-14.02607 98.20432 -0.9723642
-13.31892 102.9493 -1.863054
-13.24487 103.9885 -1.641794
-8.702584 85.11667 7.927032
13.43331 100.1516 -2.957802
14.57813 95.30342 -1.862025
13.16148 104.6313 -3.129402
-14.65962 95.44953 -0.7434863
-15.15001 90.00868 1.992479
-15.34663 91.05392 0.5019566
-10.86383 117.8917 2.289204
-11.3388 116.9231 0.6853574
-11.56001 114.0044 -2.571062
-11.13851 121.4249 0.9922993
-10.52688 129.5224 5.223355
-10.46045 128.7511 4.494431
-11.29624 144.2973 -0.2139901
-0.1147385 138.2301 6.529403
-8.478669 138.8217 4.078856
4.789965 84.28332 8.064098
5.704391 83.66808 8.112902
15.14638 88.85545 2.175523
14.5394 86.18813 3.793171
15.31924 84.33669 1.259165
11.72356 129.6453 -0.004029839
3.738514 138.834 5.60339
12.91732 136.5628 2.452342
10.80442 137.6973 3.730446
12.36692 142.9369 0.4083481
12.6046 107.3057 -3.497934
12.31793 110.0476 -1.042159
13.32755 102.5368 -0.515527
12.28699 108.3861 1.398162
12.36117 109.3154 -2.506673
11.67076 119.3458 -1.696043
11.74588 115.4655 -0.7601011
11.79732 115.1288 -0.2162741
11.83941 114.8196 0.05389731
11.42038 118.3834 1.384735
11.32417 124.3767 0.4403176
-12.05204 109.0883 1.765923
-12.68258 105.3767 1.573045
-12.25476 109.4181 -2.114269
-6.365108 84.83743 7.981138
-2.966414 83.32754 8.12966
14.97295 93.93099 -0.9822564
13.23851 104.255 -2.485279
-15.15636 92.72177 0.3425564
-10.96807 116.6697 2.192154
-11.27049 119.3247 0.6442298
-10.38461 138.9814 3.148585
2.097008 83.24051 8.13625
15.28975 87.44038 1.453067
13.51523 89.72334 4.944475
15.18635 84.31052 2.129892
14.75696 86.98204 3.383367
11.64505 138.7394 2.91635
13.05735 104.4213 -4.04481
12.00583 107.8783 2.809802
12.52481 108.3679 0.2658638
12.69559 105.9763 1.380001
11.14386 107.933 4.467563
12.95962 105.2392 0.5409347
12.01635 103.9881 3.651965
-13.21145 103.3717 -0.4972392
-11.65474 112.8889 0.7294899
-11.98044 110.3709 0.662448
-12.17199 107.7672 2.378726
13.31912 102.8279 -2.129534
-8.241676 86.54835 7.700002
-13.20572 85.13007 5.791951
-13.48261 83.19055 5.501678
-11.13017 116.3055 1.736224
-11.25532 119.138 0.7233165
-10.50397 124.3161 3.069463
-10.0189 124.9822 4.15108
-10.91433 138.3419 3.366717
15.35536 91.14851 0.6036131
9.992763 91.90153 6.677734
7.358371 137.7881 5.322245
13.26184 104.1042 -1.639503
13.09978 103.0982 0.7055755
-11.77959 112.1524 0.4128906
-8.436536 84.51399 8.054363
-7.698332 85.66469 7.847419
-10.86986 126.1034 2.129307
-12.55392 136.3774 3.468651
-7.035667 140.051 4.056058
15.13013 93.18454 0.0540093
3.163039 138.9977 5.94831
13.27116 102.2872 0.2755304
-12.69231 104.7902 1.686656
-10.64723 112.1814 3.653225
-6.203643 138.2996 5.20753
14.65366 95.45773 -0.9593831
10.02499 86.19987 7.551127
13.60255 86.43426 5.219995
5.489942 138.2765 5.392887
8.495794 137.6065 4.738465
-10.70427 103.1787 5.419775
-11.14221 104.1226 4.921266
-9.792232 134.7932 5.694798
9.488684 138.5408 3.708426
4.158756 84.91734 7.982325
2.841362 87.97957 7.478061
-8.793121 131.8958 7.451657
9.779999 88.95958 7.123952
-10.92244 134.3078 5.31881
7.024398 86.02647 7.816205
7.380645 86.15237 7.795699
-8.271595 133.9378 6.78352
-10.55905 130.6479 5.927908
-11.56536 131.6181 3.90471
-9.591208 129.3268 6.90505
-11.16083 130.5828 4.304012
-7.413698 129.5166 8.313069
-6.20891 137.9596 5.375417
-5.982136 128.8626 8.605447
-7.072464 132.8941 7.802884
-2.608569 133.2811 8.056017
-7.186129 135.0314 6.626635
-2.474406 137.4792 6.259956
-4.682601 138.3593 5.611721
-6.240962 127.5586 8.419456
-4.198302 130.1129 8.732804
-3.932233 135.7074 6.99853
-5.343388 133.1749 7.972587
-3.729939 127.4048 8.876396
-2.275827 136.2786 6.861642
-2.13571 137.5265 6.272064
-12.26351 142.3669 0.7220066
11.47966 127.7028 0.1461061
11.3132 128.1254 1.414346
11.39471 129.4729 1.755386
11.76601 130.7886 1.325546
10.89776 131.209 5.304552
6.994205 132.0801 8.132569
0.1053086 138.7376 6.52252
10.80866 136.2236 4.483559
10.43219 134.7325 5.253147
7.533489 135.6366 6.276101
11.16914 133.5979 4.821373
7.400206 135.0779 6.599502
9.630046 133.11 6.375834
7.87777 134.6321 6.634765
5.222935 137.5668 5.81034
3.368041 130.7829 8.632257
5.890429 132.1403 8.29958
5.577511 137.1842 5.948141
0.3596988 135.7265 7.244323
6.532016 131.0746 8.458899
3.114294 130.9863 8.587678
6.304142 131.6076 8.410395
-1.795011 129.5989 8.727164
-2.296255 130.2149 8.660072
-2.023899 132.4557 8.248054
0.1071621 131.5087 8.41611
0.9127237 130.8502 8.540592
11.58226 120.8479 -2.664439
11.41593 119.1613 -0.186521
11.22678 119.7663 1.978948
-14.75633 95.05495 -0.6412983
-14.17033 97.29704 1.176326
-13.55705 97.39355 2.896981
-12.20064 102.7561 3.250223
-13.28747 98.97791 2.736904
-12.57552 100.7511 3.256547
-13.11725 100.7973 1.96381
-9.813357 100.0725 6.080416
-12.50031 103.434 2.664973
-10.97748 102.6664 5.17572
-13.18182 102.6746 0.494263
-9.617506 98.44304 6.064625
12.08083 112.2241 -0.2769217
9.968235 114.6979 4.954886
11.77049 112.4313 1.409953
10.36111 111.3762 4.585328
9.810122 110.6015 5.256804
5.996107 112.2493 7.692658
8.936316 113.3183 6.003478
10.73663 117.0833 3.668883
9.922964 115.7568 4.933764
8.13674 110.4683 6.569561
6.711178 111.9732 7.33527
6.364802 109.7085 7.542285
11.61665 123.0203 -1.509471
-7.202413 86.83186 7.698936
-1.692042 86.98887 7.671502
-1.537687 85.08923 7.956258
14.88943 92.01842 -3.26359
-10.4002 119.8316 3.246222
-9.676816 120.9664 4.643876
11.73412 105.655 3.927893
-7.904281 91.14691 6.983103
-12.06446 96.49702 5.062808
-14.35866 88.72942 3.88872
-9.463861 96.01652 6.294899
-12.38239 95.25393 4.979874
-15.04626 91.43617 1.970035
-12.64113 96.89315 4.379522
-10.37601 90.45224 6.800416
-10.6842 92.9944 6.332088
-15.02789 91.90005 1.723682
-12.43274 92.85219 5.454166
-11.27479 94.65415 5.815666
10.11826 101.2151 5.946923
13.79349 99.53938 0.05468724
13.95763 98.68914 0.8397678
14.4408 96.67319 0.7822469
14.6719 94.94315 1.571034
13.84139 96.54782 2.880987
12.84311 97.22456 4.088767
7.69075 89.06623 7.269084
7.72688 90.98908 7.009958
13.07055 94.38312 4.588857
13.72417 90.55847 4.592594
9.30881 91.59338 6.818938
13.10967 92.80905 4.866971
11.81539 94.45776 5.607925
12.72689 93.26257 5.156291
-1.401225 135.9457 7.027333
6.068246 130.5709 8.639423
10.74342 128.3111 3.835887
10.06073 122.6762 4.971185
11.32922 124.6986 0.4353727
11.25129 122.7708 0.649976
10.56468 122.1585 3.937417
10.82816 119.8308 3.412046
-0.5516065 128.6827 8.835098
10.37099 129.6935 5.693997
9.252973 128.6545 7.009248
10.8706 123.9689 2.430768
8.131327 126.5762 7.48127
11.30059 119.829 0.9160624
11.10521 121.132 1.953987
2.989935 140.3235 5.716103
2.870099 135.1255 7.454004
-0.7224124 135.9365 7.031907
-9.010266 99.09569 6.395242
-9.918263 101.8056 6.068511
-2.676526 110.3209 8.667961
-5.508339 100.7153 7.516091
-7.530789 98.07726 6.727611
-7.557906 96.08231 6.627763
-6.381132 100.6093 7.310848
10.75948 119.5194 3.640985
10.55725 117.6021 3.960329
7.891122 110.5544 6.701781
6.810032 108.8801 7.418604
5.149425 113.337 8.07533
-11.17503 90.98306 6.41946
-2.49522 89.56304 7.169132
-3.245523 89.15411 7.256226
-6.020961 86.6459 7.730519
-7.199029 87.50893 7.623142
6.627568 90.28682 7.064753
3.887879 85.88458 7.848241
6.242563 91.71008 6.913088
-7.885764 90.17097 7.102047
-9.49761 91.13358 6.873778
-0.001862117 91.16404 6.933326
-2.224866 95.7419 7.1448
-2.758433 87.3728 7.615987
0.5597368 91.37588 6.925712
4.289623 88.46679 7.3815
-8.758877 121.332 5.945704
-15.00227 92.35773 1.459745
-9.640367 127.5554 5.730082
-7.190973 125.0252 7.752095
-7.593484 126.4811 7.640983
-7.511188 128.0974 7.960577
-5.789102 126.8456 8.521889
-9.366055 122.5601 5.305224
-7.536148 122.8258 7.381302
12.78674 102.4819 2.224377
13.32094 99.95078 1.971373
11.4251 97.22418 5.160437
10.8665 99.63961 5.373371
11.0295 101.3928 5.20874
7.877809 103.1231 7.169346
12.03421 98.0663 4.691043
7.731737 93.69023 6.686119
11.21983 95.30809 5.740071
-0.7309017 92.05467 6.885969
6.465549 97.5377 6.818779
1.328972 139.4056 6.55913
1.919987 136.9761 7.08315
2.803732 129.3742 8.761109
-1.546257 127.6994 8.957969
-0.5068307 127.2458 9.006831
6.943447 125.1058 8.002542
8.904414 123.5066 6.437186
7.90377 121.703 7.15899
8.554111 121.9014 6.614648
3.775907 125.6768 8.962052
1.398962 125.2771 9.221766
8.552151 122.885 6.695404
10.4157 121.7244 4.291476
5.780373 127.3668 8.545612
5.499814 127.3707 8.607146
4.756522 122.8554 8.866726
2.947083 113.6973 8.665769
4.078437 121.2663 8.888923
7.920581 119.3023 7.02293
7.997416 116.6396 6.838931
8.35034 119.1947 6.676859
8.523222 115.9246 6.413373
9.14691 115.4596 5.866198
4.365954 114.5964 8.381687
6.450511 112.7714 7.498338
5.036488 115.5486 8.243234
5.834368 115.974 7.950209
4.171895 118.3077 8.660772
3.152835 116.1967 8.736444
3.472824 115.6851 8.655603
2.492173 117.2481 8.892553
-0.4922347 118.8602 9.049892
10.79759 120.1291 3.490501
3.811128 136.5178 6.696653
-6.393322 96.7051 6.779473
-4.900617 98.54253 7.203806
-2.316546 97.94116 7.472911
-1.38049 97.54602 7.512223
-3.06491 96.80652 7.186908
-2.083528 94.24465 6.988433
1.625011 94.69757 7.08731
-0.7050489 98.75255 7.788067
4.329877 108.3566 8.480393
-3.329639 99.28741 7.595637
-6.363232 92.57095 6.817774
-11.12841 93.42065 6.065174
-6.376538 93.92096 6.75035
-5.786162 90.9654 6.972851
-2.658825 92.20593 6.863677
7.701869 109.6316 6.874165
7.735676 108.7821 6.96472
8.596159 107.4617 6.722012
1.660069 113.8599 8.838895
-1.106937 114.1769 8.871259
4.127881 108.8471 8.521534
0.2810987 110.3493 8.849541
0.4009409 111.7257 8.841234
-0.9138618 111.423 8.811806
1.692913 109.7316 8.855066
-3.095552 112.7506 8.561365
-3.866601 111.1908 8.403514
-8.745083 103.1674 6.761885
-8.003087 104.8594 7.131134
-4.747394 107.7514 8.379157
1.985315 110.1976 8.807509
-5.870129 109.5868 7.757713
-7.853515 87.89254 7.569881
1.408373 92.01667 6.891926
1.919174 91.31148 6.93784
-9.921869 119.0691 4.25766
-8.19493 122.2186 6.672371
-10.31954 126.3346 3.837516
-10.21809 121.1612 3.626416
11.63638 102.2132 4.438839
11.59143 104.161 4.317884
11.601 106.5151 3.995103
10.68771 105.2363 5.336008
6.987464 106.2578 7.559661
8.567942 103.17 6.892932
6.914996 104.93 7.610301
4.123363 104.6177 8.48447
1.092358 108.0584 8.948478
-1.873056 108.6075 8.86597
-1.663643 104.6727 8.89239
0.2643471 105.5415 8.988587
-1.390502 108.0786 8.942179
-5.31093 103.9315 8.060789
-6.9758 107.0456 7.527746
-5.379245 107.3104 8.156491
-7.217362 105.9287 7.448253
-7.677301 109.5713 6.833993
-7.861478 107.771 7.022069
-1.6221 104.156 8.83141
-3.70232 100.318 7.757602
-2.824004 100.8476 8.031142
-9.547422 104.1655 6.34345
-11.77053 106.7522 3.573257
-11.51214 105.931 4.229106
-5.379899 101.7747 7.743211
-9.849312 110.8819 4.952191
-7.399334 102.7856 7.309213
9.085375 102.0475 6.590925
8.542522 103.3603 6.901541
2.936954 104.912 8.766184
2.554251 104.132 8.731177
8.391844 104.2627 6.957076
5.187472 102.5534 7.91734
8.927174 94.52277 6.507699
7.456037 97.86514 6.704505
2.989661 103.1887 8.501854
3.487561 98.00769 7.319075
10.13411 96.29335 6.061704
4.291955 95.69897 6.955202
0.5673029 98.76591 7.799525
5.249019 100.0767 7.443374
0.150809 97.54588 7.572947
2.4554 94.29019 6.985452
0.3634388 96.36862 7.374922
3.592841 88.55853 7.364511
4.403317 89.00603 7.275575
1.927634 134.3751 7.701724
1.180255 124.0208 9.240521
4.634662 127.8343 8.760081
7.000367 127.1867 8.146867
6.61759 116.947 7.667779
4.192186 116.5768 8.54548
4.320629 134.8425 7.382915
-3.796582 91.25121 6.93316
-0.05199756 94.87836 7.173934
1.775311 90.61568 6.984191
1.694797 91.28958 6.938145
-0.8217677 92.5002 6.880979
-0.3344257 104.7449 8.948274
-0.1048346 101.5992 8.411407
0.5013629 99.86687 8.028556
2.754862 98.84637 7.597042
-9.144365 110.1036 5.75507
-10.81237 109.5224 4.267222
-9.627377 102.5046 6.276282
5.528591 90.96925 6.980013
-0.6847047 126.5286 9.088407
2.448947 124.5361 9.237589
-1.256503 105.081 8.943555
-5.69352 113.668 7.755462
-10.4517 114.5606 3.6816
-9.27886 117.2297 5.309243
-8.010938 112.4911 6.437534
-8.365562 114.1194 6.194648
-11.34994 112.6397 2.041545
-9.912317 111.5593 4.800225
-5.143039 112.9948 7.958086
-6.249701 114.9223 7.582288
-2.228241 124.3744 9.229623
-8.405115 116.4128 6.222849
-6.455565 116.436 7.563936
-7.700001 120.8748 7.033729
-5.311077 120.125 8.329795
-7.684625 118.3173 6.869874
-4.41072 122.3571 8.814514
-4.779883 124.8282 8.809262
-2.20154 120.5133 9.043965
-5.432967 125.1903 8.630686
-3.362365 126.4565 8.969166
0.6932844 121.3074 9.141091
-3.008322 115.9303 8.691855
-1.342841 116.5285 8.942883
-0.8132727 116.5509 8.963754
-1.436051 115.7108 8.903299
-3.578126 113.179 8.461822
-1.218796 122.6866 9.189552
-0.6953003 123.5457 9.20659
-0.1413674 122.2216 9.166672
1.600477 121.1182 9.115802
3.653411 119.1722 8.809885
-4.246334 115.0837 8.357159
-3.356112 132.9642 8.178489
-15.10919 40.14662 -3.362137
-14.26727 45.08959 -0.9559307
-14.30927 50.10654 -1.570862
-14.1701 51.1274 -1.289415
-13.20932 39.87087 0.5790579
-7.687611 71.2637 7.769068
14.28597 79.95091 4.280509
3.455037 38.90889 5.268568
-13.366 41.1741 0.7815461
-13.62348 46.22134 0.6306493
-14.6518 58.4911 0.3021132
-14.6773 73.95327 1.875772
-14.54546 68.41199 0.4249317
-15.14683 80.57146 0.9468975
-11.83457 40.11724 1.260169
-7.044012 79.52099 8.268672
-11.04125 80.71281 7.49909
-5.139389 48.9092 5.042116
-3.228249 76.28671 8.162948
6.242786 38.91395 4.056573
0.5733503 43.53362 6.195776
-14.85354 75.79015 1.270546
15.00725 43.14148 -3.192618
15.05566 41.89222 -3.839983
14.21608 55.23434 -0.7424017
15.13941 79.61527 0.1187989
11.44787 72.84765 6.988573
-12.54789 46.16241 2.53792
5.936564 75.89494 8.162554
14.27639 56.99499 -0.1193827
-13.82241 39.85815 0.0666384
14.66055 71.76584 -0.2127567
14.00586 63.48668 3.153192
14.37164 64.72318 0.5467745
-11.90693 75.84961 6.906828
-14.11164 79.54138 4.483579
-14.93338 76.71239 0.2929797
14.69946 39.50022 -1.478294
14.88552 41.35504 -2.796986
12.695 79.18698 6.376545
14.82707 75.83337 -0.8881935
13.36329 66.43427 4.42208
13.55717 78.05673 5.322839
-13.99543 53.86392 -0.1712741
-14.33572 49.25801 -0.7920488
-14.38015 39.40041 -0.7589896
-11.19472 39.69786 1.584327
-14.62368 54.78332 -0.4166154
5.038804 43.00224 4.489812
-4.5549 79.58957 8.253095
-14.49269 72.55232 2.544864
11.16741 39.38695 1.342403
15.08695 43.57219 -2.601499
14.65803 46.35832 -1.361691
8.895156 79.71489 8.159244
14.80267 74.31043 -0.4784756
13.30645 80.38881 5.78292
13.96699 77.6478 4.674871
13.7602 75.37804 4.79885
14.61572 77.84834 3.068337
14.19413 72.52022 3.652611
14.28723 72.24422 3.272682
14.6591 71.27966 0.09657469
-14.54484 46.542 -1.677792
-14.14886 51.29442 -0.2516111
-14.52885 43.23733 -1.902411
-8.36229 42.91142 3.02218
-10.1117 40.03655 2.152631
-4.515555 40.25352 5.259233
-14.55184 55.78517 0.7805848
5.522206 39.12805 4.396499
14.08034 57.77961 0.6405099
14.52076 53.61082 -1.063691
-3.536878 80.64738 8.235172
-14.27348 69.7616 2.768435
-11.27711 78.5221 7.440479
-14.57072 65.8288 1.47155
-13.76138 60.48907 3.37855
6.894548 40.45308 3.62843
14.15535 45.04074 0.1403331
10.63289 40.87427 1.439544
14.38568 42.41719 -0.8957035
12.7004 45.39041 1.941146
4.193394 80.22038 8.230752
14.27533 62.01353 1.018923
12.93861 77.71696 6.127912
11.16629 80.76468 7.497956
14.87882 75.87186 1.326953
-14.47366 53.93598 -0.6900904
-13.8543 50.56883 0.400376
-13.00487 41.88857 1.136991
-9.613721 40.33005 2.423179
-7.575733 42.59883 3.565281
-7.737349 41.57639 3.525384
-8.271141 40.14831 3.270317
-0.5772846 39.93322 6.125673
2.120409 40.11982 5.729167
14.06365 51.54949 -0.8036106
-8.20932 81.29331 8.185121
-5.077503 80.17716 8.25813
-14.34836 70.23751 2.403965
-14.80748 74.39989 0.513257
-7.60062 78.15442 8.268537
-14.09597 62.65557 2.226691
-14.32929 62.20509 1.074826
-13.12707 77.80585 5.839684
7.687653 40.40721 3.180644
13.29168 41.68425 0.9354834
11.50054 44.72434 2.370875
13.77276 46.72096 1.000633
14.2062 47.61549 0.475516
8.653165 80.3808 8.188873
4.441929 78.69267 8.213583
3.585157 78.25587 8.208451
14.38722 65.10106 0.8735121
14.48978 60.07615 0.5769742
14.49534 70.01713 1.793647
-14.31064 41.80932 -0.1989851
-8.409157 40.829 3.147171
1.653326 40.67298 5.861818
2.176558 42.51058 5.766225
5.836538 42.76355 4.053515
13.73239 55.98669 0.6932487
-4.090586 78.28175 8.2382
-2.138317 79.56441 8.240054
-14.29452 70.50663 2.849769
-8.990583 78.0547 8.145092
-11.04878 70.10179 6.930299
-13.49247 77.10844 5.319221
-12.61563 76.57378 6.350264
14.29262 50.47812 -0.02499486
14.00623 50.89677 1.769004
13.23892 54.33817 3.392161
8.930583 77.70225 8.106833
7.90248 77.47982 8.218527
13.85344 66.49075 3.420605
13.35889 64.43375 4.266766
12.65754 60.20209 3.911569
-13.81691 54.42313 0.7258706
-12.31427 46.19497 2.686718
-14.03652 44.74793 0.2272546
-3.073956 43.842 5.963691
0.7095758 40.73399 6.054146
-2.332446 42.42655 6.050286
9.564423 42.66031 1.765036
14.07974 58.42551 0.74616
13.90644 52.61444 0.349371
-13.75047 64.06681 3.924696
-13.68096 68.42103 4.061171
-13.31702 62.39603 4.261357
-12.03258 78.5385 6.931129
10.01816 44.74947 2.150883
3.762979 76.05766 8.147201
4.599998 73.27327 7.954267
5.592451 72.58688 7.895296
3.583604 71.07259 7.699876
13.5704 61.03955 3.107602
13.24681 59.87691 3.219188
-11.16598 45.21067 2.329365
-12.04018 47.59793 3.123883
-7.442601 47.67317 3.52044
-0.7533149 39.90175 6.112328
-0.8946139 42.05951 6.216456
-13.94082 61.40641 3.539404
-13.13356 49.40882 2.468485
-10.06588 48.34465 3.281207
-12.11996 46.08203 2.657162
-13.09118 64.20007 4.874218
-12.74485 50.1829 3.118413
-10.38638 48.19535 3.281332
-9.853509 45.74677 2.470135
-7.826515 42.51477 3.406517
-12.7691 54.47597 2.926219
-11.64288 59.11694 4.894461
-9.312015 62.88943 6.748764
-11.12506 52.02904 4.329086
-12.40312 58.12514 3.714072
-12.46186 65.73398 5.531463
-8.935842 49.91519 3.566973
-12.32905 56.29612 3.89484
-10.32619 55.48896 5.256409
-8.29939 51.78059 3.995497
-5.716877 51.24433 4.728828
-9.977315 50.51598 3.934832
-4.901363 44.50404 5.176424
-5.305697 53.95285 5.143856
-10.85942 60.2049 5.839523
-7.084033 52.77995 4.261754
-5.939136 62.1551 6.050413
-8.454369 53.89125 4.547145
-9.26894 54.50656 4.870945
-11.24626 53.86719 4.744966
-5.355268 54.24788 5.129916
-9.408093 55.39098 5.131436
6.110772 73.91728 8.028739
12.63785 76.19025 6.405188
14.53103 76.19321 3.063742
12.84858 74.347 5.956933
-14.08736 47.69608 0.3548011
-14.59073 78.47416 3.195213
-7.205174 73.86263 8.021791
4.80524 51.59781 4.236192
14.266 71.74462 3.253943
13.66625 67.72868 3.855798
13.35583 68.06029 4.551237
13.00756 65.23553 4.759992
11.52004 66.77081 6.158478
10.96629 65.95036 6.38582
12.70629 63.42926 4.610951
11.31443 60.1504 5.479527
12.37307 58.62659 3.840654
11.53278 58.97332 5.568797
11.66393 59.20951 5.011756
-8.758338 76.1206 8.160831
0.05045521 76.53969 8.165527
0.7944401 78.71009 8.221288
0.4773278 72.60557 7.867357
-0.9184671 75.37348 8.101161
-1.590906 74.63599 8.054258
-5.247276 72.1314 7.840937
-8.85783 73.36113 7.974073
-5.128852 74.06296 8.020316
-7.032691 71.72596 7.819509
-10.11515 74.85474 7.788816
-7.211491 69.91847 7.584541
-8.89168 65.2423 7.027674
-1.607239 73.7103 7.975646
-8.536073 74.8254 8.088817
-7.837736 73.71713 8.020562
-13.01672 68.79129 5.237589
-14.32416 73.01012 3.212257
-11.32557 67.94324 6.519485
-11.23529 65.71388 6.213242
-13.61272 71.53875 4.624584
-11.523 64.6897 5.855597
-8.974671 70.67318 7.590002
-13.29579 71.85823 5.137206
-10.56953 74.27891 7.637301
-10.58446 73.32533 7.5721
-10.87206 75.43741 7.481157
-11.22168 71.08739 7.0002
-13.65202 72.60914 4.685845
-13.23183 74.22891 5.467891
6.147445 75.10573 8.119198
1.042794 45.68526 6.181836
-6.509923 47.56128 4.074759
-3.937492 46.46861 5.720789
-5.222918 45.16034 4.98897
7.081413 46.6387 2.891065
-3.829426 44.41756 5.715873
-6.837752 49.80197 3.948461
7.81163 42.6951 2.782629
-1.160794 44.48101 6.335907
-5.992971 45.53716 4.500544
-4.053997 48.1077 5.703812
-5.127919 49.47067 5.053909
-3.46667 46.99816 5.967587
-4.501186 51.35687 5.535402
-1.94434 48.36399 6.471243
1.08399 48.6991 6.26718
-0.587591 50.22042 6.635977
-2.591641 53.10784 6.554886
-3.041637 53.33573 6.433171
1.565564 51.39027 6.171098
2.72357 51.75574 5.576066
3.613055 52.28093 5.004386
0.5320403 49.41719 6.442667
1.866277 49.11423 6.00374
10.64491 45.54785 2.550592
8.962237 45.9013 2.343759
6.8413 44.27025 3.22818
10.47834 46.08352 2.688514
6.774555 47.52614 3.039558
5.118691 49.24334 4.049751
5.727357 46.02655 3.830478
-0.1442074 74.81566 8.065923
-0.1840741 72.70776 7.877805
-8.507631 47.53136 3.022031
-8.299267 64.2001 6.86005
-2.67614 64.467 7.202013
-7.986716 65.40988 6.995965
-4.858838 66.32182 6.981846
-4.749568 68.64861 7.392228
-8.25896 61.67477 6.402617
-4.681499 65.32779 6.828644
-6.521913 61.93399 6.051307
-7.303812 62.54259 6.329804
-7.248777 61.11229 5.99797
-6.37742 53.7195 4.56247
-6.723262 58.29234 5.314896
-5.950304 58.32507 5.391916
-4.89151 60.36219 6.065017
-3.820364 58.03986 6.312165
-2.53733 56.03593 6.727501
11.66785 74.65936 7.008895
12.0333 72.45019 6.560042
6.855053 71.47364 7.781752
12.76711 71.99548 5.864202
13.11708 69.74696 5.162323
8.660759 74.0758 8.048784
5.874577 74.6806 8.085837
9.913677 77.10407 7.951028
13.56812 45.92143 1.168542
11.84929 58.16829 5.16428
9.707384 55.80493 5.135365
10.5514 56.31268 5.231816
10.07995 54.16805 4.80238
-3.192469 69.25349 7.49696
1.23114 72.02602 7.806037
2.144403 73.12698 7.923274
-0.9056441 70.33631 7.614498
-2.779893 67.00886 7.314225
-1.475813 70.78954 7.668704
-2.314187 72.60719 7.871189
-13.84606 74.46236 4.444141
2.692979 47.32136 5.613304
-1.368943 56.28449 6.9724
5.610548 57.07483 4.741883
5.324441 58.09042 4.997691
6.528984 55.61918 4.501664
4.397042 55.53336 4.73001
1.714854 55.35614 6.193416
1.205423 56.64194 6.481298
0.809439 58.3163 6.692234
-1.674231 59.72226 7.110772
5.898698 60.51165 5.584217
3.559831 56.65042 5.199744
6.808622 56.48064 4.754343
5.163658 58.56063 5.11394
1.607636 61.02498 6.492945
-2.201687 61.95874 7.175133
4.624524 50.99462 4.345589
3.476563 59.42537 5.524729
9.781446 65.30022 6.890309
2.749006 64.9359 6.590715
6.69787 52.46839 3.790349
5.949471 53.71157 4.074946
12.24285 53.08519 3.901713
11.31508 55.16998 4.841982
8.088629 48.10345 2.929034
12.41349 47.46759 2.413768
12.68542 49.53435 2.41651
10.39209 48.24375 3.383634
8.453646 59.14479 5.765916
9.662678 57.3095 5.473774
-1.348399 64.09023 7.306111
1.752316 62.74969 6.561378
-1.579785 62.19547 7.258052
-2.944559 60.47706 6.871037
8.341871 64.5095 6.956748
10.08489 54.91314 4.955398
13.65561 51.27062 2.248765
10.06167 60.31649 6.239442
3.923353 63.50993 6.201983
6.342591 63.16401 6.306827
2.519994 67.42644 7.130914
3.651276 68.44149 7.297357
-0.514281 68.66936 7.436907
-1.641763 65.22297 7.313474
-3.500436 63.10428 6.87376
4.09103 63.72841 6.243287
7.687391 52.59672 3.985493
10.30776 50.50455 4.034408
11.22079 52.12121 3.999199
8.657667 62.00923 6.491728
0.06687327 66.07358 7.246013
-0.4213286 64.81629 7.277522
5.532391 65.72578 6.78771
8.634843 63.55148 6.818748
5.963119 68.48682 7.35502
4.670849 71.99677 7.818405
9.556403 64.51233 6.888254
6.666168 66.62584 7.090256
10.93729 67.59341 6.659034
7.761589 68.63741 7.437514
11.85169 71.06408 6.538723
8.870858 69.24126 7.498377
10.55005 62.03081 6.399747
-4.860206 54.28121 5.447136
-4.271317 55.55109 5.876225
-4.283415 57.98704 6.061692
-7.12604 55.70082 4.779911
6.016294 50.45493 3.540113
7.720773 49.45142 3.202296
9.655331 51.06387 4.075457
7.996119 72.6038 7.95914
8.204353 71.23315 7.743528
6.30328 70.67125 7.674213
4.161043 50.99112 4.657277
-13.34517 51.77122 2.245607
1.177237 67.45554 7.220655
0.3899491 64.0961 7.105651
-0.5308233 57.52435 7.029088
15.23771 86.5406 -3.231607
-8.338405 85.43179 -11.3582
-13.01698 99.79903 -4.874285
-10.56091 121.8336 -4.651609
0.206172 104.2345 -11.78415
7.253223 108.2177 -9.321812
-11.2667 145.8229 -5.961527
7.444347 103.9085 -11.34155
14.45177 90.70605 -5.234684
2.827541 82.32663 -10.34175
-3.470805 84.74741 -11.49452
6.667506 110.1233 -8.804246
12.53868 100.4614 -6.365664
1.614669 116.6889 -9.907262
14.35721 92.42197 -4.747863
-11.32141 87.99052 -10.24549
5.909657 117.793 -10.18569
-14.97894 89.19608 -3.489174
11.06202 115.1766 -4.656648
10.1521 120.509 -4.690048
12.21281 131.3615 -9.868329
14.98824 82.98575 -3.391778
-12.98551 104.9956 -4.035473
8.545393 119.5204 -8.557576
-6.947762 106.8032 -9.984219
12.56711 90.49929 -8.677166
7.850198 121.0329 -9.60011
9.913136 145.6885 -7.990712
12.37547 133.6336 -11.06467
5.57411 147.15 -9.681246
-15.20062 84.40221 -2.764636
-5.663096 106.8604 -10.19984
-11.11083 82.88056 -8.890903
-7.697638 116.3826 -8.145111
-12.29574 84.80869 -8.39397
11.78918 108.9886 -4.905693
10.88317 102.3526 -9.1929
-7.327693 83.67454 -10.61194
12.31653 83.51044 -8.148839
-13.40404 100.8973 -2.792559
-1.765487 114.9397 -8.871295
-10.96315 138.7449 -12.48468
-11.59105 142.9651 -11.3994
14.65731 89.64807 -5.029347
-13.37607 101.2782 -2.862698
-12.8775 101.362 -5.269305
-13.57738 97.8193 -3.552608
9.01434 118.261 -5.791831
-5.885231 119.671 -9.940686
-6.850844 114.0845 -8.154565
-7.696164 120.0283 -9.464463
1.900018 147.2894 -10.99158
8.290146 118.6036 -7.479064
-8.67139 112.951 -6.3325
-11.50293 97.37686 -9.132712
-11.61823 110.4779 -3.501597
-12.87301 130.7631 -7.878459
-8.38353 122.5723 -9.73
-10.65486 122.5737 -5.700964
13.15795 100.7694 -4.312753
-12.95164 142.3439 -11.37041
-13.02829 145.6358 -6.297536
-14.00825 145.0922 -7.943138
-7.101474 142.582 -12.69777
-12.24857 145.3634 -7.703549
14.32585 91.01521 -5.455064
11.68173 81.91561 -8.250956
11.21408 84.41972 -9.275473
10.16128 103.3682 -9.787944
13.22339 98.5824 -4.576628
6.186051 110.4266 -8.947429
12.73585 105.7242 -4.560596
11.59326 109.9793 -4.7581
10.65961 114.1015 -5.484306
-6.371446 110.1672 -8.726876
5.28266 110.9028 -9.043718
6.655465 115.5368 -9.163976
7.198381 116.7469 -8.868291
9.875334 119.9705 -5.314471
10.21031 122.6721 -6.153594
10.45171 142.1726 -12.16438
12.80996 144.266 -9.723675
5.27769 146.285 -10.84447
0.6123744 113.2059 -8.942823
-7.602068 118.4892 -9.405434
-4.599537 84.97202 -11.60989
-11.1794 104.4564 -8.361774
-13.24759 103.1877 -2.961712
-12.85584 104.1965 -5.220649
-10.86168 111.5569 -4.541886
-6.930852 113.3906 -7.44879
-9.132532 107.0617 -8.959544
-14.08983 95.21369 -3.567958
-12.64745 82.62292 -7.620536
-15.07991 85.77393 -3.476627
-14.7925 86.70036 -4.718742
-8.340125 117.6317 -8.154863
-9.864792 117.0941 -3.782943
-10.119 120.2052 -4.158771
-11.41338 124.2303 -3.533623
-11.22179 132.7073 -11.49866
-10.95054 138.3095 -12.48314
-12.8147 131.2147 -8.638829
-11.00094 145.3328 -8.47007
11.17525 88.62957 -10.58598
13.63451 93.74783 -5.79249
9.988958 84.56681 -10.11804
12.89555 99.08176 -5.494778
12.63946 99.08871 -6.198817
12.5821 105.9667 -4.937362
7.90325 110.143 -8.313771
9.402167 109.8441 -7.72918
10.41061 112.0886 -6.297675
-6.619864 101.7971 -12.54213
4.534361 106.4321 -10.62197
-4.726748 108.101 -9.78407
10.55711 117.6769 -4.401943
8.013271 118.3055 -8.279347
9.471955 114.6011 -5.92034
6.608783 114.9433 -8.394773
7.275004 121.9683 -10.48773
11.07566 127.4676 -8.593843
10.92101 128.254 -9.370934
6.03717 145.6146 -10.99244
-4.114612 145.9252 -12.17623
0.09274074 146.813 -11.42474
10.14903 138.3721 -12.69659
5.153287 117.8471 -10.49554
3.472886 112.0385 -8.89656
3.958448 121.5687 -12.11131
-5.773368 116.3369 -9.215842
-6.219337 83.84561 -10.83274
-9.386423 102.0216 -10.88087
-13.52183 99.23083 -2.930108
-12.00201 103.0154 -7.422533
-8.735381 113.9145 -5.922595
-10.63012 110.9397 -5.414241
-8.586217 108.3485 -8.697279
-14.98227 88.64925 -3.737334
-14.91614 91.15662 -3.591329
-8.824297 82.549 -9.861994
-12.51401 83.38955 -7.887635
-8.533723 116.4492 -5.59307
-9.598149 116.1287 -4.295596
-8.947644 116.3225 -5.124649
-9.268363 119.4428 -7.570772
-10.36998 121.9203 -6.461028
-11.59038 125.5349 -3.849083
-11.58685 134.2009 -11.76189
-1.557828 147.2234 -11.09432
-8.400121 145.7682 -9.151659
-13.93933 141.1267 -11.61242
-11.61886 126.0853 -5.029264
-9.983054 145.9015 -7.074554
11.82815 83.85792 -8.641875
14.89143 88.43675 -4.613497
14.05604 93.11031 -5.124478
9.474114 82.58801 -9.686599
6.425832 82.98476 -10.30778
5.623991 83.09502 -10.45232
12.31332 102.8842 -6.873251
12.818 97.99313 -5.967699
12.59042 99.78242 -6.235909
12.40299 104.9438 -6.163996
9.074542 112.1781 -7.036976
6.932113 103.0018 -11.96531
7.757408 99.45317 -12.77133
5.251158 107.173 -10.18678
3.587161 108.6349 -9.988621
-5.833661 112.7551 -8.48692
-6.027071 105.8517 -10.66535
8.507084 118.1432 -6.402209
8.955079 120.1168 -7.346706
9.563844 124.8667 -9.067286
8.290835 122.1655 -9.318096
11.68364 136.2673 -12.1656
11.29748 136.1002 -12.26867
10.05269 129.4389 -11.00146
9.852995 129.9332 -11.41522
10.55821 126.7463 -8.780449
2.65621 146.5643 -12.09747
10.31003 140.1758 -12.62322
9.511258 141.0231 -12.76465
5.092335 112.215 -8.740338
7.73912 123.7068 -11.0164
-2.643389 118.7321 -9.457269
-0.3604551 83.7346 -10.9828
-3.157661 84.02302 -11.08982
-12.48969 100.5676 -6.406587
-12.72309 99.63666 -5.811774
-12.01144 108.0545 -4.956808
-9.763348 113.2879 -5.420828
-15.27969 86.90056 -2.833496
-14.45371 90.18138 -5.323051
-13.20575 93.35638 -6.863267
-10.95316 88.64114 -10.79443
-10.57246 85.01021 -9.994426
-7.830028 84.4352 -10.97991
-12.12851 86.16077 -8.875142
-13.06185 86.41917 -7.763592
-12.97424 85.68382 -7.806437
-11.55786 84.66346 -9.030305
-13.59718 95.7166 -4.750513
-8.509991 117.8516 -6.484051
-9.019459 118.7339 -7.374071
-9.326113 117.9099 -4.759434
-11.57403 125.4811 -4.014287
-10.4932 123.3835 -7.488678
-11.54829 138.0229 -12.32958
-4.704873 146.0087 -11.71145
-4.625158 144.5107 -12.6338
-7.728228 145.1572 -10.79728
-8.816857 144.4163 -10.95786
-12.20839 143.2132 -10.96209
-11.98882 127.8348 -5.720582
-11.73737 126.9266 -5.739336
-10.68808 129.8732 -10.65855
-5.170624 126.2883 -11.21937
-11.63243 128.5488 -8.385168
-10.32234 130.5239 -11.29542
13.77793 88.80514 -6.896057
11.34229 89.87808 -10.52967
13.8549 91.82713 -6.250299
12.37326 96.8595 -7.42673
10.24734 83.80502 -9.746405
11.35317 83.34676 -8.926155
3.338297 86.05724 -12.32484
5.584277 86.85193 -12.81911
13.12171 96.76781 -5.509368
11.56339 103.7991 -8.091157
9.50416 112.0329 -6.889416
-6.329252 104.2785 -11.49972
3.832143 110.088 -9.479845
-6.53359 107.1318 -9.917
3.041563 110.9588 -9.279491
8.861098 121.9686 -8.883669
10.8934 134.6391 -12.22781
6.975314 123.0318 -11.56625
9.065982 128.6486 -11.16078
10.37595 145.369 -8.784878
8.476589 142.4423 -12.41479
8.18693 143.7189 -11.80541
5.253986 114.6249 -9.469302
6.265747 122.2297 -11.7863
-3.832124 116.5872 -8.963699
-5.323931 85.00083 -11.6009
-10.8469 100.5447 -9.633682
-8.147809 84.29465 -10.80495
-12.34555 86.91029 -8.752184
-14.13253 94.52438 -3.835647
-11.0699 125.672 -6.93095
-13.58429 137.1859 -11.69132
-10.2133 127.19 -9.525774
14.04888 87.064 -6.48231
11.99602 87.22617 -9.308897
12.1433 94.87803 -8.578555
12.12284 97.89642 -7.747485
7.818629 112.0076 -7.586047
3.237036 104.8829 -11.47659
-1.912304 104.9338 -11.43403
-0.0195717 105.3811 -11.28384
2.452161 102.77 -12.49137
-0.3561249 104.4757 -11.668
-0.8994633 106.2055 -10.92488
1.337534 108.964 -10.11682
-0.6552075 110.0442 -10.0459
8.445128 123.6371 -10.42561
3.807084 123.2207 -12.45782
9.102787 124.8469 -9.941503
9.480011 145.5036 -9.042974
8.282033 136.8617 -13.17383
7.828782 143.2282 -12.22077
6.618114 142.7286 -12.7139
5.19243 143.8299 -12.5492
12.18738 145.2033 -8.38765
2.604172 118.8407 -11.16815
2.470449 116.5238 -10.08582
4.715421 118.7086 -10.90138
-8.655216 124.6789 -9.937327
-6.666213 124.4837 -11.25986
-12.99017 100.678 -4.904746
-11.14664 98.97906 -9.37466
-12.54522 91.77382 -8.519794
-12.75617 88.69701 -8.352397
-8.890045 124.7331 -9.692545
-8.229088 128.2817 -11.41121
12.37739 86.06599 -8.672152
11.37328 88.07906 -10.25046
12.7554 92.26373 -8.122483
11.96268 96.89305 -8.368603
10.68273 98.03082 -10.42585
11.5543 88.66886 -10.09135
7.348323 86.76756 -12.42867
11.65183 105.0486 -7.512891
-2.612983 106.1713 -10.8237
-2.388026 106.4145 -10.71907
2.019096 103.6437 -12.06685
-0.9538394 108.6058 -10.2741
1.575699 107.1534 -10.63286
5.211937 121.9486 -12.01212
9.901257 125.5094 -8.755368
8.644534 137.2085 -13.08282
6.383119 144.5817 -11.61892
4.066016 114.6502 -9.426165
1.831538 114.6576 -9.00717
-5.779368 120.8974 -10.60696
-4.51713 123.3577 -11.0328
-3.664125 124.8566 -11.06214
-5.278368 125.7293 -11.00591
-1.939774 130.3737 -13.0353
-0.5736868 123.3823 -12.06034
-10.22964 102.0275 -10.0225
-13.21329 94.39926 -6.395767
-6.126506 85.9427 -12.19521
-8.326231 124.9131 -10.43787
10.81608 85.1773 -9.918148
11.65271 87.38796 -9.788367
10.84362 87.21699 -10.64294
12.18311 92.81239 -8.99633
11.62161 98.42284 -8.69166
2.453124 102.0699 -12.76625
-0.3996696 112.0538 -9.501209
-2.314232 114.9195 -8.962526
10.64443 123.6646 -6.257424
-4.483334 125.8599 -11.23586
-9.642845 102.0628 -10.62213
-9.029182 98.97073 -12.00708
-10.55638 95.34735 -11.14117
-2.643993 85.53335 -11.99748
8.705735 87.45107 -12.14211
13.40305 91.95158 -7.097289
10.27993 94.74929 -11.64518
-12.30426 102.752 -6.836673
-11.43083 105.3479 -7.656365
-11.58479 106.43 -6.938856
-12.3868 92.41093 -8.666265
-1.156669 86.68346 -12.70371
0.009528023 85.90529 -12.21993
6.627038 87.20879 -12.82043
11.0292 94.62454 -10.6351
-12.36078 105.348 -5.984305
-12.62822 103.6867 -5.955084
-11.68177 97.00108 -8.85788
-8.42068 86.03013 -11.57853
-10.2749 94.0654 -11.67559
-7.566381 94.09422 -13.6782
-10.92271 92.98415 -10.90916
-10.87966 96.88055 -10.36471
11.46167 91.58617 -10.30418
9.486012 100.3587 -11.19682
10.15011 96.23508 -11.55169
-11.67273 107.459 -6.163687
-9.121671 92.36728 -12.81163
-9.161952 94.71642 -12.67109
-8.266014 94.18292 -13.29701
-7.229194 94.74631 -13.76767
-7.586526 101.8134 -12.10583
-0.4997599 97.47437 -13.98566
-8.593023 96.98931 -12.74813
-8.684289 97.73154 -12.62113
-10.54307 99.17155 -10.29705
11.84287 89.95977 -9.786705
9.281197 90.00281 -12.61303
7.706994 91.62091 -13.70556
8.443339 92.75441 -13.31192
10.46194 96.61128 -11.04676
-9.726631 86.85588 -11.2637
-10.12053 88.64314 -11.68159
-10.01473 89.7896 -12.03344
-9.669946 91.26283 -12.37902
-7.084261 89.49126 -13.70129
-4.185178 86.53568 -12.68352
0.1893827 87.20213 -12.98324
-3.672685 87.96519 -13.4108
-10.62375 89.28915 -11.28832
-7.130916 97.74997 -13.42497
8.763138 91.53326 -13.11703
-6.691607 100.1027 -13.056
7.510346 90.83215 -13.73137
11.39204 107.88 -6.414596
11.66221 105.74 -7.208027
-2.137235 113.0634 -9.428006
-1.617467 116.1854 -8.861643
-3.576597 109.5239 -9.417637
-2.022938 117.1634 -9.005484
1.954543 115.9087 -9.646285
-4.067218 111.7683 -9.076362
-0.6960304 116.1172 -8.971442
-0.1210768 108.4552 -10.34934
-8.461442 143.9325 -11.55244
-8.62918 142.2832 -12.54202
13.58075 84.46788 -6.850368
12.17422 100.8265 -7.213107
9.12216 106.1163 -9.433087
6.763914 101.4831 -12.59928
9.124164 133.0852 -12.69268
6.819918 135.5517 -13.4151
10.42565 136.0337 -12.52405
0.896872 141.1059 -13.48184
6.911884 139.7415 -13.50031
6.574879 137.586 -13.55764
2.774448 141.3189 -13.42048
2.64099 138.2098 -13.64614
5.7487 137.0728 -13.6021
1.459754 143.301 -13.27628
1.921999 141.0083 -13.48148
0.9434726 144.767 -13.03987
-9.012579 85.10487 -10.8735
-9.046483 139.4277 -12.97284
-8.267792 132.141 -12.88004
-3.163724 140.2288 -13.61309
-3.971751 143.59 -13.22817
-5.494538 142.5516 -13.11365
0.250681 144.5714 -13.2219
-10.09603 132.9958 -12.22455
9.538631 137.6428 -12.84377
3.672631 103.4086 -12.20609
0.2714927 120.9159 -11.23852
8.321898 97.64742 -12.86745
5.552965 124.8494 -11.54116
4.254961 124.3772 -12.08893
3.782906 126.5418 -12.50442
0.214978 123.4568 -12.39852
3.823855 115.7389 -9.924189
-7.337664 126.2674 -11.27923
-0.6515881 124.2454 -12.42432
-3.089825 126.4695 -12.42169
1.464987 127.348 -13.07248
-1.325285 127.7276 -13.03666
4.026585 129.0547 -12.93015
3.045822 123.9489 -12.61226
1.856242 130.0422 -12.95783
1.512002 135.6566 -13.54926
3.521718 128.3558 -12.98558
-8.726662 130.4217 -12.25968
3.333393 128.9046 -12.9784
-1.470649 128.8234 -13.04093
-4.060135 131.623 -13.12372
-2.84359 127.8978 -12.94554
-2.744354 117.3267 -9.001144
-0.6723639 117.8669 -9.469797
-3.457322 119.6969 -9.95708
10.58484 101.329 -9.85096
0.7196122 86.74039 -12.72706
1.495288 85.27589 -11.81428
-8.573792 99.86095 -12.08989
9.105652 94.90719 -12.66598
-2.766412 90.4169 -14.21212
6.067814 95.40998 -14.09581
7.600799 98.42425 -13.0982
8.826845 98.29189 -12.36574
7.435209 96.89602 -13.4432
6.073534 96.97575 -13.92467
-4.813576 87.69818 -13.31084
-7.416063 92.69981 -13.83677
-5.589643 87.95486 -13.37824
-5.757895 91.74943 -14.28764
-3.927507 91.29131 -14.37095
0.581963 93.24946 -14.36148
-2.547725 93.7464 -14.37215
4.234837 91.96159 -14.38665
3.514653 90.82799 -14.2927
1.805098 92.11362 -14.35356
5.039632 93.5967 -14.39508
-0.8656504 93.8233 -14.35025
0.9285734 95.01972 -14.278
4.824945 88.7382 -13.82383
1.363539 89.74345 -14.0576
4.511797 89.62785 -14.12596
-1.582589 88.24179 -13.50272
-7.635693 143.6457 -12.07131
-9.747094 142.1911 -12.33317
0.2399226 143.5255 -13.40079
-9.443405 131.3735 -12.18613
-7.717652 130.7129 -12.66906
-10.16111 130.6885 -11.49094
-6.435187 140.0761 -13.51011
-8.142483 140.5928 -13.15989
-6.11766 138.6237 -13.6143
0.6283857 145.4523 -12.79367
-2.729169 103.0886 -12.3372
0.1713564 119.7043 -10.5933
10.38885 101.6794 -9.959555
5.860806 127.9633 -12.25875
-4.409884 127.0033 -12.07104
-7.091923 129.1248 -12.09473
-7.903439 132.1212 -12.96513
-6.2194 132.9202 -13.30835
-7.440444 131.2073 -12.84834
-6.587003 132.9303 -13.30955
-6.628798 134.2482 -13.41741
-8.381735 138.2289 -13.16995
-5.492441 130.298 -12.95183
-2.07411 136.3372 -13.57941
-5.161342 138.0965 -13.63072
-3.33324 137.5153 -13.61363
-1.960806 136.6593 -13.59327
-0.7288541 133.1134 -13.3224
-3.02761 133.3348 -13.35563
-0.8122088 138.5419 -13.63843
2.035539 136.7589 -13.60049
2.125539 130.8872 -12.98715
-3.081454 130.6107 -13.05309
0.1144619 139.6465 -13.61102
3.383463 132.7856 -13.2528
-2.381907 139.4893 -13.62427
4.242805 137.6095 -13.62969
3.805146 130.3192 -12.90294
6.344711 136.3044 -13.51557
4.333449 134.5508 -13.46628
9.066747 128.8897 -11.2874
-2.203257 139.8884 -13.60814
-4.782939 139.653 -13.63372
-6.608769 141.6566 -13.18305
-0.8741741 120.2366 -10.23838
2.877672 96.86092 -14.11685
-3.527577 93.79832 -14.39027
-4.230507 93.9985 -14.38997
2.424406 94.4574 -14.32579
-0.8541461 98.11932 -13.88055
-2.478797 97.18888 -14.04573
-4.189586 97.95467 -13.96841
-1.243758 96.82298 -14.08801
2.450587 95.74709 -14.229
1.772289 98.59471 -13.80803
5.520204 129.1666 -12.73175
-6.303624 139.8608 -13.55709
0.7142123 133.8407 -13.41594
5.024492 130.5056 -12.87761
6.960255 130.1149 -12.5844
4.577302 97.3372 -14.05021
3.574957 98.91856 -13.75835
-3.7785 96.43436 -14.16793
-3.445942 101.0821 -13.20851
-2.619077 99.45511 -13.64909
-4.968354 100.4689 -13.36499
-0.5132921 99.15677 -13.66091
0.09709443 101.5897 -12.90375
1.215691 114.286 -8.809389
14.83766 44.18734 -4.279884
12.62436 78.51714 -6.668861
13.3326 54.49829 -3.804928
14.67058 44.94717 -3.668662
4.858932 41.45858 -9.807996
-4.090532 41.82473 -9.699641
13.57234 41.93152 -8.543344
9.035691 42.28024 -9.606533
-11.5362 58.08807 -6.097106
9.439571 43.38501 -9.266548
-0.08370865 41.40366 -9.812169
12.5502 70.01936 -5.07656
-12.15858 79.87323 -7.452439
14.06138 81.22047 -5.359155
12.87464 80.90307 -6.999424
5.532757 81.6535 -10.05022
-14.98789 41.29988 -3.363332
-0.3984587 42.9875 -9.322185
-14.39337 52.16693 -1.750248
-4.92886 81.43744 -10.01071
-13.2018 41.41969 -8.965158
14.33764 67.75204 -1.013958
-14.77675 44.7607 -2.849945
