# .PCD v0.7 - Point Cloud Data file format
VERSION 0.7
FIELDS x y z
SIZE 4 4 4
TYPE F F F
COUNT 1 1 1
WIDTH 1665
HEIGHT 1
VIEWPOINT 0 0 0 1 0 0 0
POINTS 1665
DATA ascii
10.77179 120.9097 1.646983
-11.74818 135.4281 7.231711
11.90831 127.8437 -1.511453
10.40078 136.0493 8.457766
-9.988141 119.3106 0.3018381
11.18087 127.0941 5.564828
-11.08507 133.3108 8.780883
12.39119 135.2866 6.002658
2.141284 138.282 10.07518
-11.73287 127.8339 2.106096
9.699488 134.5706 9.665668
2.686481 121.413 13.24538
-9.39876 123.0487 9.481753
10.73153 133.3577 9.186772
-6.334369 142.9603 7.011431
-7.540681 139.1291 8.516861
-11.21465 130.6734 8.05774
12.10716 129.8053 1.726686
11.25992 124.0329 0.07272547
-11.60869 126.5245 2.603595
-11.53734 127.9933 3.540823
11.74585 128.3605 2.040982
11.51077 125.4012 0.3872766
11.84178 126.8134 3.043026
-10.72119 119.5592 4.381822
-9.550226 120.1441 8.75621
11.06033 121.3958 3.72795
11.09164 121.8786 2.421097
9.454784 121.5287 9.241227
5.787097 121.2275 12.46082
12.0123 132.0123 4.348623
8.689487 137.9179 8.601496
-4.951139 139.1918 9.27675
-8.922856 122.2114 10.01218
7.761202 121.6127 11.24564
-11.05721 122.3518 1.156019
12.20247 130.0411 1.476683
11.55758 129.567 4.396963
11.30731 123.3695 1.699566
-11.38962 123.8696 3.51844
-12.1834 131.8566 3.971375
-11.83478 131.4177 5.436539
-11.33135 131.4279 8.164077
-11.224 129.0998 6.084977
-11.33277 129.3964 5.991127
-10.648 130.7631 9.815383
11.35006 125.9114 4.311273
11.19495 123.1142 4.80478
10.96924 121.1225 4.976562
10.6079 120.2708 6.072056
0.4927282 120.5902 13.27694
6.097578 121.4984 12.35617
-9.227044 138.2611 8.205211
11.49327 135.4169 7.494843
11.09088 138.0683 7.19972
7.644553 139.2471 8.400269
5.098798 142.1621 7.836412
-9.388655 121.067 9.175931
8.422758 120.581 10.32733
11.66343 131.7001 5.878801
-11.54544 125.4257 1.478072
-11.47083 124.7458 2.517662
-11.91452 132.9613 6.749237
-10.85646 128.0724 7.646576
-9.831767 128.8568 10.37955
-7.981003 128.8031 12.13603
-9.125793 121.5072 9.711959
-2.279539 121.5039 13.30226
-7.26766 120.8063 11.47925
-0.1158433 121.9803 13.40201
1.250145 123.2804 13.47997
-9.918001 135.4237 9.158005
-5.267757 138.9792 9.313245
11.67202 134.3168 7.340975
7.704862 139.6238 8.195069
4.500531 140.8595 8.580811
1.324871 139.3285 9.580369
3.669877 139.4281 9.379138
11.03219 136.8999 7.670596
-9.675805 124.5803 9.018636
7.916053 122.9629 11.26595
7.170447 123.0204 11.84634
-2.544413 122.4253 13.39896
-7.355009 122.1346 11.6743
-4.115687 124.5914 13.27368
0.5866135 124.7759 13.50602
-12.31012 135.6021 6.302859
11.56394 132.8629 7.180817
-7.130762 128.4162 12.37635
-10.98355 123.1388 5.790195
8.47912 121.6729 10.55514
-6.463894 120.931 12.03175
-5.346642 126.4937 12.58688
-2.494411 125.254 13.44452
1.249462 125.0719 13.50036
-1.808693 124.7848 13.51286
9.078097 134.4981 10.22889
-10.35671 124.752 7.625163
-0.9563162 127.5289 13.17241
6.318351 138.1533 9.439859
-8.178952 128.0146 11.62014
-7.509338 128.6761 12.32694
-11.58455 126.3944 4.433124
-11.17736 122.1808 3.29419
-7.442431 127.3661 11.6983
-1.72772 129.0842 12.96309
-7.977224 126.6326 10.99449
-5.649749 127.8316 12.56312
-3.495892 130.1948 12.9264
-5.229517 129.1785 12.9333
-10.86612 122.7078 6.147399
-8.63844 126.8375 10.41199
-5.353153 128.9907 12.89446
-4.495882 128.4522 12.87523
1.742083 143.3043 7.594074
0.6819707 140.702 8.901902
1.14759 141.7071 8.42173
-0.699626 139.3375 9.574003
3.462765 141.7887 8.329433
-0.8003514 142.162 8.153398
-1.729345 144.2981 6.942366
-3.588864 144.015 7.153145
10.99409 121.6936 1.889177
11.47567 124.9249 2.580663
11.04644 125.6049 5.687823
10.9653 123.3628 5.823123
11.33248 123.3696 2.642195
-10.58401 135.5226 8.614352
-11.42016 132.6708 8.198402
-10.89333 133.297 9.143474
-11.12449 134.9066 8.175756
-7.12997 135.6109 10.5348
-6.405844 140.0735 8.451115
-6.417458 136.2811 10.4173
-4.102472 136.3017 10.91155
-4.305253 135.891 11.10159
-4.956478 133.6034 12.09711
-2.572107 131.7793 12.67204
-2.619506 137.7147 10.34244
-1.473958 137.8639 10.31219
-1.754612 139.8342 9.317146
10.85479 122.7976 6.158014
10.19197 125.0517 7.99778
11.64217 128.1628 6.037687
11.46737 129.0803 6.596948
9.524612 125.1909 9.225985
6.339272 127.0199 12.16764
6.305822 123.7214 12.46645
5.072504 125.0252 12.95179
4.248002 126.5313 12.94621
8.436532 123.7897 10.7612
11.55828 128.536 5.04354
11.51643 133.3848 7.752775
5.458179 133.0993 12.25733
10.41142 127.8762 7.893982
6.935359 125.8893 11.8605
11.31658 129.3744 5.808605
10.63498 125.8036 6.795299
1.024657 127.085 13.24492
11.54705 132.1364 6.759049
11.49011 134.7134 7.602304
10.19923 133.5648 9.780302
10.52422 129.1714 9.427036
9.650159 131.3033 11.20383
2.224631 127.817 13.06929
8.827165 133.2004 11.11308
6.962955 133.7354 11.64439
10.89681 130.7743 9.257592
10.2556 129.4937 10.24341
10.16329 126.7258 7.995745
9.566646 130.8775 11.36063
8.849864 129.7743 11.83419
6.153525 126.0589 12.3128
7.129481 131.3441 12.49269
3.465756 129.1942 12.96663
4.215701 129.4235 12.97719
6.628631 132.1182 12.43474
2.32623 129.5184 12.93981
-11.12163 124.141 5.369172
-8.815401 130.3177 11.92107
-8.730812 129.7839 11.94638
0.3619927 138.556 9.970272
-9.030928 134.7899 10.06179
-5.157475 134.196 11.81752
-8.633984 132.4722 11.4098
-6.214859 134.5238 11.43821
-6.068357 132.6389 12.36795
-4.351587 141.1861 8.470912
0.8391727 130.5863 12.82757
-0.3539149 131.8643 12.60119
3.381112 134.2166 11.96566
-3.310792 133.4077 12.28007
-1.040295 135.3694 11.48398
2.55651 137.4933 10.46419
0.6429279 136.4007 11.04103
-1.272367 136.1305 11.18756
1.09441 133.6264 12.14635
5.419257 131.9158 12.67441
3.470686 132.2564 12.63201
2.884042 131.7785 12.7176
0.004567203 132.9089 12.351
3.262946 134.3256 11.92436
0.6101797 133.0802 12.30142
-12.26731 128.6609 -2.485268
-12.38334 130.8849 1.626328
-12.34101 131.9683 2.874824
-12.49433 133.3826 3.738407
-13.05067 135.5704 4.70249
-12.59332 136.808 6.395829
-12.09241 138.9329 6.36725
-7.847589 142.3478 6.759116
-8.737288 141.8659 6.634001
-7.794374 144.2084 5.754661
-5.978168 144.946 5.247219
-5.545673 145.4359 4.395219
-6.521395 144.1324 6.159557
9.580843 141.5547 6.379271
9.715791 142.2221 5.935437
8.889265 142.288 6.289313
12.88719 136.1747 5.678566
7.142729 143.4198 6.44967
5.610661 145.5559 4.065984
12.31913 129.3057 -0.3578968
11.90441 128.1181 -3.571869
12.90325 135.1737 4.428447
13.06362 135.8862 4.959018
12.34558 130.6222 1.291109
12.23888 139.8566 5.887684
13.48149 137.3226 5.500379
10.85559 125.2457 -2.724345
7.290586 122.0988 -3.888352
2.415191 126.3543 -6.263614
0.5553135 124.3739 -5.586105
9.14958 120.4607 -1.808249
7.454548 121.4599 -3.5733
5.948349 121.4355 -4.252754
9.469934 122.71 -2.775665
1.285624 130.3514 -7.404544
1.110564 134.4288 -8.215956
0.6283629 128.4643 -6.871384
1.970063 134.2849 -8.311232
-0.161122 125.8489 -6.071657
10.05452 121.7425 -1.270206
9.838957 122.5986 -2.295655
3.930166 140.1026 -9.222622
0.27342 139.4845 -8.545215
2.715384 147.1845 -6.618131
9.605614 125.7131 -4.51337
3.728637 142.7459 -8.450137
1.572935 119.4619 -4.311853
0.2474709 147.1018 -6.637814
8.424515 120.7613 -2.594326
0.2145688 134.1396 -8.111007
1.744202 127.7465 -6.690057
0.03371213 138.8652 -8.546757
1.472195 135.7325 -8.466889
3.03675 139.077 -9.007884
1.39469 138.9421 -8.686355
3.483363 143.7002 -8.064891
1.130336 147.55 -6.528687
3.815753 143.0523 -8.318219
6.957798 123.0047 -4.506617
2.749942 119.7528 -4.267374
0.3858617 125.3758 -5.916219
-0.01025256 128.9174 -6.986207
2.088504 142.7216 -8.232724
1.363967 146.1912 -7.359824
6.137264 122.6468 -4.562342
1.948334 120.7518 -4.45633
5.162003 122.751 -4.836758
-0.09083168 123.621 -5.343069
2.774793 125.5473 -5.992109
4.067743 126.8438 -6.478733
6.201582 123.4163 -4.903424
2.058682 131.8975 -7.863163
11.22657 127.6914 -4.300937
9.113116 127.922 -6.355831
10.18885 127.8025 -5.575994
5.082519 129.0953 -7.45164
4.60315 133.8202 -8.849067
2.956032 133.2288 -8.325481
7.142851 128.2647 -7.076192
6.080855 141.361 -8.979163
2.677432 130.9836 -7.747205
4.021772 130.6751 -7.929013
4.710348 136.9093 -9.194722
5.472697 139.0088 -9.307093
4.419785 147.6298 -5.614232
4.758932 145.3023 -7.209716
11.4985 127.9703 -4.068117
-4.950548 141.7655 -8.876824
-4.406248 135.8602 -9.036231
-4.868474 137.1638 -9.199355
-5.784764 142.8633 -8.391647
-5.246521 145.5882 -6.87342
-5.600885 147.3756 -4.554517
-5.461637 143.2449 -8.199305
-12.08727 128.6776 -3.678652
-5.652857 145.8781 -6.529637
-4.65361 134.3931 -8.941657
-4.254384 132.9554 -8.605805
-6.228837 141.6107 -8.866367
-4.270437 132.571 -8.528163
-4.315044 129.3066 -7.417018
-4.403717 141.1953 -9.024775
-3.87124 138.4938 -9.19632
-2.909834 132.8731 -8.242236
-0.8887037 120.6462 -4.45426
-0.6227204 127.99 -6.739901
-3.985508 137.9406 -9.184777
-1.612693 147.1438 -6.827227
-6.642146 124.7211 -5.373047
-5.780189 121.9868 -4.482919
-1.943887 125.9682 -6.132734
-7.519375 121.9634 -3.811752
-2.224616 119.9934 -4.339752
-9.066042 122.7677 -3.233833
-9.314033 121.119 -1.967262
-9.80335 119.9032 -0.4620473
-11.09346 125.7804 -2.514615
-9.783681 120.572 -0.955615
-2.117275 123.4731 -5.293436
-0.4809152 138.1489 -8.540712
-3.497912 126.3937 -6.312529
-7.782357 121.2002 -3.322165
-8.868603 121.6107 -2.740807
-11.2842 126.909 -3.064714
-9.967223 122.7122 -2.21818
-1.75362 135.3545 -8.444581
-2.73273 135.3065 -8.631001
-3.214789 137.5609 -8.995095
-0.6813605 142.6905 -8.35701
-4.248226 139.0157 -9.275181
-1.414524 119.3732 -4.386741
-2.268475 132.8906 -8.094362
-3.629677 126.4009 -6.320304
-1.517466 147.3075 -6.691294
-1.482744 144.376 -8.231973
-0.6108217 123.9142 -5.438055
-7.996319 125.9428 -5.46465
-4.992068 124.5262 -5.590462
-1.025491 124.3254 -5.573587
-1.732861 139.9309 -8.734446
-3.056816 120.6132 -4.434372
-3.887236 145.3241 -7.382797
-2.731047 146.0892 -7.249787
-2.327349 125.7026 -6.04377
-6.241528 124.0175 -5.163435
-4.981803 125.2907 -5.903948
-2.828258 122.7263 -5.054233
-1.943004 145.1113 -7.953774
9.336394 114.4826 -0.5554947
5.713538 119.079 -3.670598
9.306244 117.9162 -0.3327982
6.687639 114.9984 -2.755105
1.22956 117.9665 -3.646803
4.57733 118.7502 -3.914698
3.505128 118.2971 -3.680579
7.355126 117.9468 -2.384573
8.578191 116.9805 -1.135551
4.043629 115.574 -3.538051
0.6494973 116.4075 -3.888208
1.270722 115.4515 -3.537342
8.14593 115.277 -1.676175
5.001984 118.7888 12.16448
-10.31878 116.3229 2.533335
-9.776333 116.503 0.7059991
0.445813 118.2458 13.0531
-4.71081 119.661 12.44441
-7.710615 115.3817 9.918934
-10.54339 118.4941 4.582753
3.586973 119.5796 12.81645
-3.844412 118.6944 12.5468
-8.217055 118.6231 9.980418
3.779903 117.4856 12.48971
9.44624 116.4643 8.046738
6.756143 115.6144 10.64824
9.853119 114.612 0.2523732
3.063032 119.9412 12.98469
0.6757687 119.9688 13.22155
-10.20764 115.7655 1.706365
-10.2204 116.4206 6.015107
10.64209 119.1028 3.938091
7.446297 119.9878 11.10628
-10.10905 119.0316 0.8624781
9.567717 118.4201 8.197666
10.22591 116.1956 1.936968
-1.018332 119.1084 13.13669
0.4387538 119.1427 13.13748
1.259855 119.3635 13.13903
3.054071 119.2821 12.89175
9.983307 118.9727 7.53406
10.28524 118.3489 6.362899
10.40811 116.7777 3.181849
3.845968 115.6311 12.30779
9.635452 117.0469 7.72663
-2.305922 116.5737 12.70107
9.393856 115.4499 8.157212
-10.48403 117.6578 4.175893
6.715127 116.2218 10.73535
-10.57906 115.2814 3.715874
-7.074163 117.3908 10.6664
8.824908 115.9613 8.916355
0.3230181 116.1452 12.88552
0.2905889 117.9455 13.02719
-10.25934 116.3418 2.20575
-7.594415 116.0018 10.03041
8.066357 116.3447 9.703737
-6.630461 117.358 10.94641
-2.238828 116.1769 -3.892277
-0.432942 118.0806 -3.541045
-2.740957 119.1991 -4.278648
-8.95654 114.6157 -1.044244
-7.529163 118.9237 -2.493308
-8.062037 118.5776 -1.96072
-7.099538 117.638 -2.534207
-3.109316 117.9605 -3.771902
-0.3679954 116.8077 -3.840134
-5.724344 117.2133 -3.180529
-8.711546 115.9121 -0.9958965
-8.234421 115.9031 -1.512675
-3.651474 117.1 -3.671723
-0.8711656 16.58194 -7.102179
-3.672709 15.81901 -10.67274
-4.159217 16.37841 -11.10638
-9.839481 64.55868 -9.125789
-4.036543 15.24608 -10.99171
-10.12184 40.81098 -9.609155
-10.1388 33.32116 -9.824794
-8.998377 34.02686 -10.65234
-8.596594 32.72127 -10.95671
-9.465802 44.06464 -10.06434
-9.564779 47.10019 -9.905795
-10.19155 55.25305 -9.096438
-9.716761 98.71101 -7.200171
-10.78819 102.7939 -5.260194
-10.07991 96.55013 -7.66431
-10.32224 111.5332 -0.8149527
-10.16542 112.6709 -0.3827603
-9.755862 97.12082 -7.957902
-10.36559 91.53193 -8.925518
-9.420704 58.67202 -9.669759
-9.267055 68.63431 -9.435647
-9.652015 72.78651 -9.013721
-10.59417 86.93798 -8.626235
-9.702114 87.74657 -8.771979
-9.837169 81.34518 -8.725063
-9.597317 52.52661 -9.71482
-9.769008 22.24524 -10.42511
-7.86111 15.06244 -11.56653
-3.498551 16.93904 -10.49585
-5.285994 15.60785 -11.6332
-9.885887 74.34734 -8.817698
-10.01587 56.15665 -9.22767
-9.879277 86.60258 -8.722525
-8.534148 16.16826 -11.27333
-9.407708 26.52902 -10.55403
-9.386807 20.35323 -10.72824
-9.243315 15.1787 -10.88763
-9.505492 40.75209 -10.11137
-9.195192 80.17645 -9.056005
-10.64288 88.33524 -8.691773
-9.594765 84.02507 -8.800138
-9.302187 66.48397 -9.497586
-11.27056 89.4208 -8.767882
-10.57616 92.10281 -9.004793
-11.42122 108.5543 -1.420319
-9.170235 22.29973 -10.82115
-10.77151 104.8517 -4.333058
-10.36808 100.5783 -5.909097
-10.42413 71.45734 -8.559948
-9.897759 69.63976 -8.932396
-10.36336 61.79379 -8.770204
-9.143482 65.70374 -9.656705
-11.17995 83.92676 -8.426975
-10.33678 75.3188 -8.555009
-10.17898 71.57104 -8.706806
-10.50515 67.42712 -8.550948
-8.827123 21.38564 -11.04569
-3.836777 17.97923 -10.8813
-1.052843 44.46658 -8.056293
-8.906981 65.44204 -9.84146
-2.397373 42.92979 -9.490033
-7.392725 24.0824 -11.58557
-0.8248938 22.1407 -7.238298
-3.56345 108.9314 -4.953166
-2.824446 76.40199 -10.02576
-4.547957 66.52938 -10.80171
-1.631719 24.71138 -7.968482
-1.861795 21.93158 -8.227045
-8.833858 84.1746 -9.154028
-9.21796 96.57126 -8.938939
-0.9961557 95.20975 -9.366018
-4.549377 92.16803 -10.20535
-1.626533 113.203 -3.57759
-4.616812 73.63555 -10.77532
-8.78312 99.04163 -8.168642
-8.464793 58.2132 -10.35494
-7.335349 111.9832 -3.225356
-0.700335 114.4655 -3.360655
-6.230718 57.43996 -11.08948
-0.7666461 79.91946 -8.870783
-0.4760245 108.4819 -5.103496
-8.311744 44.96223 -10.78917
-6.204683 47.66266 -11.30279
-7.327073 23.04531 -11.61469
-8.299044 64.02094 -10.28944
-0.8213145 60.63544 -8.323779
-1.382306 39.84859 -8.213966
-3.042933 112.1561 -4.034983
-2.169416 19.43465 -8.572348
-4.175127 41.6988 -10.86731
-7.220029 26.72149 -11.56075
-0.7854068 25.58389 -7.335677
-8.057006 22.42103 -11.41154
-7.205838 104.4477 -6.80058
-5.556536 99.03639 -9.303226
-9.073019 110.0868 -3.206431
-9.859161 113.9358 -0.1076997
-6.471729 114.3196 -2.966801
-1.200263 104.1143 -7.44738
-1.526644 50.28864 -8.700121
-8.328909 73.21362 -9.875236
-3.5236 113.7587 -3.567381
-2.908361 54.04586 -10.07322
-0.8770466 41.95662 -7.818386
-7.570212 79.09357 -10.0606
-5.386005 110.8964 -4.120962
-5.993713 89.35526 -10.19762
-6.006644 18.55296 -11.74631
-0.6739513 49.52813 -7.843885
-0.9402617 50.18364 -8.118249
-7.182639 49.58921 -11.13526
-6.378663 51.9059 -11.23199
-7.468889 44.48098 -11.16615
-0.8507127 35.10969 -7.620071
-0.8460258 65.48934 -8.493838
-2.152995 64.72297 -9.585711
-6.881775 59.6367 -10.99399
-2.351859 56.42987 -9.634461
-8.839096 56.30144 -10.21296
-2.277416 22.30488 -8.687781
-8.077826 23.38925 -11.39615
-6.540003 23.85422 -11.67586
-3.548311 17.9224 -10.58868
-1.945296 33.34522 -8.574279
-2.414702 31.48722 -9.131664
-8.242472 35.43422 -11.07522
-1.71183 102.8133 -8.141967
-1.474921 107.0429 -6.372151
-8.06144 103.1846 -6.98159
-1.659391 94.17875 -9.57016
-3.736326 93.39159 -10.06375
-5.180573 108.7642 -4.984615
-3.413794 109.7495 -4.641997
-1.473675 73.50517 -9.162538
-1.245364 80.01153 -9.128081
-7.750834 81.28713 -9.871985
-8.227186 84.77852 -9.490684
-0.6180443 68.51545 -8.410106
-2.491428 69.78761 -9.832569
-7.617694 72.38914 -10.33048
-0.4052563 89.92263 -9.076134
-6.763526 84.66959 -10.14461
-6.593164 18.9169 -11.76502
-4.456041 48.5062 -10.99366
-8.59664 52.54719 -10.47441
-6.844912 49.12659 -11.22143
-7.482607 43.40489 -11.19149
-1.246952 38.88631 -8.069209
-6.170309 42.43513 -11.36209
-9.034647 68.57459 -9.618231
-1.278264 66.3082 -8.866725
-2.763372 64.65679 -10.03869
-8.30384 63.08099 -10.32845
-6.813691 54.59839 -11.112
-7.015026 23.35223 -11.64637
-7.469163 29.56388 -11.47888
-3.384326 20.2198 -10.39297
-1.01506 29.40552 -7.678033
-7.672543 35.1071 -11.31246
-0.3526626 100.2886 -9.093102
-7.828622 103.2866 -7.07044
-9.377266 95.34819 -9.222403
-2.285001 97.34933 -9.544439
-9.042001 94.71407 -9.226492
-6.802552 111.9405 -3.460713
-8.36856 111.8995 -2.762115
-2.49349 107.5 -5.748313
-1.395136 107.2638 -6.18002
-1.153392 84.45109 -9.179288
-8.725784 82.52266 -9.276927
-8.305308 82.67847 -9.524926
-1.910004 66.79782 -9.402102
-7.36996 72.90833 -10.42228
-1.872658 92.16862 -9.645767
-3.947234 19.12422 -10.938
-1.544346 47.62058 -8.631381
-8.581244 45.59058 -10.65199
-7.651451 44.6394 -11.09087
-1.902149 42.90861 -8.945175
-1.84281 38.36285 -8.674985
-6.731624 40.29443 -11.38104
-4.135706 40.39265 -10.91319
-8.464128 65.93243 -10.11389
-1.905869 60.42157 -9.298616
-6.031667 60.93944 -11.02303
-8.135357 57.50578 -10.56345
-5.608538 59.80889 -11.03265
-2.666609 22.97833 -9.348086
-8.032392 30.21044 -11.24859
-4.992987 21.12031 -11.48709
-4.348847 20.92101 -11.19281
-5.924287 24.11805 -11.62787
-2.628069 21.33838 -9.185276
-2.620181 28.01485 -9.341545
-2.948001 27.68098 -9.837401
-7.554881 31.66083 -11.4137
-7.872018 34.46852 -11.23412
-2.384159 104.5887 -7.226611
-7.790365 96.18123 -9.182735
-9.234776 102.2268 -6.54866
-9.518475 106.5212 -4.672061
-2.125129 94.85069 -9.699924
-2.27229 92.98172 -9.782067
-7.080019 91.64433 -9.728781
-9.557204 111.9523 -1.732852
-6.169242 111.6051 -3.704713
-5.490892 109.0782 -4.82452
-8.317439 109.0443 -4.142033
-5.45989 79.55131 -10.6747
-8.185218 85.56403 -9.469311
-3.447213 66.68104 -10.4121
-3.887105 69.73094 -10.56598
-5.830473 66.84479 -10.94445
-6.256911 69.5573 -10.84317
-6.738203 70.07565 -10.73793
-7.165623 72.20603 -10.51374
-2.711665 74.41641 -9.980465
-3.16545 85.28097 -10.11679
-9.119252 88.35548 -8.940378
-6.487938 90.7426 -9.997128
-2.367209 45.53839 -9.517079
-3.093636 48.37823 -10.18151
-1.8388 36.12687 -8.565823
-7.287147 68.10114 -10.57443
-3.853177 63.55925 -10.60673
-4.315854 60.67072 -10.78902
-2.284251 24.91721 -8.74225
-3.678687 27.23653 -10.7334
-6.420263 30.56032 -11.58824
-2.948764 24.91297 -9.799311
-4.291523 31.05793 -11.06476
-2.007908 37.46579 -8.829547
-3.084789 31.65568 -10.10322
-4.676388 100.4173 -9.059314
-1.626438 98.56502 -9.377827
-4.921547 99.97338 -9.165512
-2.867117 100.7651 -8.959697
-7.408881 97.72554 -9.172806
-6.962552 102.5807 -7.778268
-6.297127 104.7683 -6.929919
-3.407927 75.92028 -10.32094
-2.942784 77.97253 -10.07831
-3.969465 82.99357 -10.48537
-2.33259 84.74603 -9.742319
-4.259619 70.75256 -10.6985
-3.004619 70.52999 -10.15369
-3.700998 45.91108 -10.62347
-2.540961 46.14042 -9.683614
-1.606568 59.76265 -9.001982
-3.332745 27.34338 -10.34588
-3.692084 30.21626 -10.69829
-2.643794 33.94774 -9.596539
-2.801416 36.06009 -9.82972
-6.354706 96.51868 -9.584742
-5.108149 100.9376 -8.858665
-4.239204 81.1984 -10.57524
-6.636333 85.96342 -10.13729
-4.738667 74.7343 -10.80232
-5.745679 73.20263 -10.84787
-3.823387 32.53744 -10.77
-5.904136 35.70541 -11.41777
-5.806922 81.70158 -10.57847
-5.431026 88.12931 -10.36248
-2.230499 86.91901 -9.70124
-5.533184 77.28194 -10.72282
-6.331141 85.05862 -10.28761
-6.855074 53.37426 -11.10932
-7.65136 53.26802 -10.90915
-1.599518 53.47784 -8.864076
-3.825654 52.03638 -10.64954
-3.08553 87.82481 -10.05357
-5.097151 89.92941 -10.31104
-6.320988 89.52372 -10.11973
-5.734956 92.18462 -10.08245
-5.707608 94.42636 -9.909297
-4.652798 92.5614 -10.17177
-3.738393 91.94586 -10.17613
-4.655113 44.18647 -11.07036
-3.96126 42.53225 -10.78065
-2.851609 39.12316 -9.92891
-3.626745 38.06598 -10.5996
-5.630463 57.90052 -11.06723
-4.623501 56.20295 -10.92227
-4.245968 107.6029 -5.668195
-6.311253 41.66614 -11.37044
-3.56251 102.716 -8.18771
-7.896041 84.39814 -9.671319
-3.518838 47.40348 -10.48035
-4.296374 49.48811 -10.90732
-4.166925 36.25601 -10.97224
-6.662845 95.84256 -9.573339
-4.543198 104.8974 -7.069006
-4.446537 79.28301 -10.6648
-3.582628 73.72688 -10.4261
-6.061263 27.63609 -11.6238
-3.142328 56.34872 -10.30384
-7.51572 106.8097 -5.490607
-7.042434 107.1757 -5.435436
-5.737075 95.99544 -9.770916
6.304497 20.21846 -11.33351
7.252272 28.11752 -11.4759
7.761141 82.34986 -10.09196
2.966269 23.32014 -9.10672
5.797012 43.94994 -11.09804
6.867135 95.8679 -9.476958
2.11369 52.9838 -9.054511
0.9277872 112.2706 -3.956577
7.414794 51.75439 -11.19565
3.192436 26.10122 -9.4253
5.507822 31.78058 -11.08339
8.387548 66.59418 -10.70826
6.939073 50.2364 -11.20032
0.3950849 36.88981 -7.541362
7.823132 79.42954 -10.2523
6.990952 85.75699 -10.2524
7.858873 74.90653 -10.44001
8.079244 67.6352 -10.72542
8.793161 99.85049 -8.246548
8.841356 104.9885 -5.732154
6.366482 30.24964 -11.31175
0.707932 76.81606 -8.81972
8.294323 112.9649 -2.338242
9.338925 106.0511 -4.981578
3.742314 18.23984 -9.833452
1.541267 110.0774 -4.420931
1.27096 87.91971 -9.332067
-0.5697953 33.29124 -7.418661
-0.3752798 39.94526 -7.547742
7.161054 86.66537 -10.13033
4.493051 19.15093 -10.50423
1.484408 55.32044 -8.5737
-0.08647682 53.55984 -7.923924
5.370866 17.22807 -10.99413
-0.2303779 65.55652 -8.26223
6.524304 60.23103 -11.07858
0.8974117 102.9603 -8.075005
8.076441 96.80643 -8.917135
2.175288 78.96139 -9.562901
3.14358 113.2648 -3.64888
7.511198 112.0742 -3.172028
0.9678795 89.88851 -9.295877
7.075902 64.07603 -10.97855
0.4969125 78.72429 -8.816582
4.345137 39.95408 -10.59213
-0.1952929 99.74791 -9.206535
7.463029 59.61509 -11.07407
0.06823512 114.8148 -3.283806
-0.1433981 104.9005 -7.055293
9.439286 110.0574 -2.855675
6.154205 112.9938 -3.310991
5.06678 17.80396 -10.85805
4.093206 19.40846 -10.22397
1.438141 19.76391 -7.422944
4.955724 28.72984 -10.82397
-0.03632364 25.58893 -7.212019
1.508567 25.84192 -7.589062
5.102873 34.61559 -10.91545
1.726447 30.75125 -7.978979
0.05617406 32.9942 -7.400563
5.150069 38.5815 -10.95774
4.223886 41.21611 -10.56083
2.05367 38.49894 -8.47549
5.460033 41.74321 -11.06647
7.245852 49.28706 -11.21624
7.103631 50.25212 -11.20692
5.110641 58.12943 -10.845
5.11799 61.16225 -10.86568
0.691554 62.3951 -8.364561
5.41875 61.74213 -10.92753
7.825571 68.52835 -10.72648
6.596092 73.24824 -10.80742
6.229185 71.44397 -10.85387
8.538013 77.35466 -10.06158
8.035197 77.54284 -10.26385
1.144789 80.17258 -9.056756
2.811136 83.83513 -9.936436
0.7818574 85.38507 -9.113812
6.300565 90.32334 -10.15588
6.520147 93.65682 -9.823163
1.023642 94.48222 -9.401778
8.947164 96.14342 -8.46555
8.197262 99.38983 -8.793855
8.31294 105.1917 -5.974252
6.850799 103.2184 -7.538282
1.61696 106.3614 -6.554295
8.688812 111.9788 -2.502043
7.158427 111.7216 -3.442148
2.528361 108.2439 -5.313271
1.706875 113.625 -3.50993
3.289298 21.57714 -9.435626
-0.1089846 20.33739 -7.005654
1.892946 19.73727 -7.722922
7.279907 24.42618 -11.50457
0.148992 23.79874 -7.179562
1.014642 29.88017 -7.492287
6.331424 35.16825 -11.27917
0.5942762 32.79707 -7.444167
3.859714 34.85789 -10.20669
6.590821 37.91125 -11.32503
6.459366 45.8899 -11.2115
0.8344421 50.13863 -8.075938
6.25299 53.10675 -11.12727
7.234314 56.66554 -11.14497
7.711752 57.32702 -11.09858
1.568339 59.75708 -8.774589
2.559243 68.67576 -9.715628
0.9882761 74.74334 -8.850389
-0.3500563 83.1236 -8.805979
5.127794 88.32062 -10.43716
0.2712706 84.88165 -8.98409
1.239488 85.92944 -9.233899
7.884988 90.144 -9.522139
8.228493 95.58575 -8.861327
2.039733 100.6259 -9.006071
2.934817 106.1254 -6.51537
9.003706 109.3007 -3.641839
0.6186628 108.8292 -4.936232
6.56185 110.7736 -3.965667
5.776295 22.24728 -11.16525
3.118195 19.54842 -9.17125
1.692145 22.15668 -7.611163
2.705797 34.54037 -9.077373
6.238488 32.55661 -11.27271
-0.1581796 44.22878 -7.66998
-0.3131287 41.17357 -7.573653
6.869095 51.67267 -11.18897
1.236775 51.37695 -8.242425
4.786956 52.18604 -10.80383
-0.3143332 56.86086 -7.986132
0.258588 52.92648 -7.970273
4.833785 57.34543 -10.7836
4.180373 56.86075 -10.54559
3.355415 57.00611 -10.13314
-0.3370487 64.86486 -8.219093
1.374734 60.96765 -8.630983
1.329338 69.24525 -8.814422
0.8413188 66.86389 -8.576412
1.197815 76.45986 -8.971464
1.268882 72.45693 -8.881298
0.658432 83.27627 -8.985981
1.423781 78.07888 -9.099389
2.821935 89.78761 -9.911921
2.376106 86.47145 -9.726315
2.630794 96.98988 -9.639544
0.4416181 94.1977 -9.289732
0.9828718 102.5654 -8.285347
5.819627 106.7572 -5.864773
0.2085475 105.9992 -6.707905
3.283749 107.5312 -6.113527
4.989774 111.571 -3.939965
4.565593 109.0795 -4.880702
2.313227 23.3642 -8.268616
3.705989 25.54256 -9.922634
1.123508 22.06938 -7.318998
2.344573 32.83441 -8.601418
2.524257 38.22792 -8.963475
5.038748 52.12896 -10.88076
5.747085 49.19364 -11.07864
2.985177 49.40757 -9.724325
5.458817 57.54911 -10.92074
5.917765 60.73289 -11.02291
3.349775 61.4374 -10.15525
3.318027 63.16574 -10.12656
5.018335 67.37781 -10.81964
6.818904 82.15416 -10.50705
5.540339 85.52271 -10.57157
4.295165 84.99987 -10.4166
4.364007 87.05569 -10.36654
3.820511 78.93991 -10.37397
5.402384 88.49735 -10.41854
7.61918 106.3885 -5.669859
4.092432 109.576 -4.712853
3.756711 107.7677 -5.887676
5.096167 108.6441 -5.06078
4.562335 25.20357 -10.60846
2.356735 27.79571 -8.435452
3.078449 35.9468 -9.508
2.412999 36.13072 -8.768076
5.97867 38.62497 -11.18334
1.502502 50.60913 -8.439894
2.890618 61.67573 -9.860011
4.182454 65.38798 -10.57792
6.91315 67.75289 -10.88649
6.818328 83.91331 -10.41241
2.586369 81.54751 -9.817746
3.749469 87.6139 -10.21916
6.629231 89.35661 -10.11976
3.41321 109.6159 -4.72842
7.40992 102.2743 -7.676799
6.353645 104.0536 -7.291532
-0.5491151 31.43979 -7.437941
1.549003 40.82803 -8.195202
5.623339 41.17734 -11.10308
4.95789 41.00162 -10.87164
2.679923 61.44667 -9.703521
4.442291 62.75383 -10.67976
3.124474 67.121 -10.05892
2.537777 91.61353 -9.833402
5.826876 88.90673 -10.36829
6.810151 91.33479 -9.923586
3.782621 103.9274 -7.610294
4.341448 39.40282 -10.5809
2.86024 67.09286 -9.899453
3.037555 68.26957 -10.01637
6.047178 91.31041 -10.13853
5.687684 99.89536 -9.068781
3.175425 42.61718 -9.730625
2.681617 43.91527 -9.328392
4.723264 95.53553 -9.92916
4.007501 96.44473 -9.839378
3.381927 101.6369 -8.69549
3.983665 102.766 -8.218655
6.505737 100.8309 -8.597315
4.725307 95.98595 -9.86019
3.283 100.0573 -9.180177
7.537856 95.49128 -9.277598
6.910294 99.45908 -9.028311
1.838706 46.23347 -8.617381
4.422406 97.52885 -9.696286
4.072307 46.29032 -10.46523
1.477407 47.8962 -8.334638
5.78245 72.78654 -10.83871
3.005199 76.91214 -10.02155
6.904944 77.82307 -10.62733
3.855886 79.72343 -10.37513
3.469698 74.52613 -10.22576
4.314464 76.27731 -10.53411
3.226581 73.05155 -10.11425
3.663062 72.43724 -10.31197
6.277669 29.63773 -11.29057
8.591238 83.59847 -9.530172
5.426941 112.2983 -3.681313
3.31151 28.82992 -9.63575
4.275091 29.42372 -10.45382
4.115712 55.75641 -10.54423
4.014595 55.43311 -10.50025
2.666413 31.7653 -8.939599
5.405278 43.41848 -11.0298
4.139234 98.15414 -9.603532
5.843927 80.33622 -10.69049
3.441319 34.06606 -9.823952
8.907514 18.59672 -11.57158
8.400726 22.51424 -11.5271
9.297388 23.7488 -11.44825
9.517709 76.15195 -9.13075
8.887059 91.98049 -8.712538
8.581727 72.66116 -10.34972
8.664522 21.46072 -11.53011
10.91552 109.3586 -1.665825
9.289299 21.3467 -11.50345
8.52081 18.05472 -11.58326
9.547264 65.30918 -9.984576
9.194758 50.79211 -10.80059
9.92564 52.4498 -10.366
9.953931 104.9883 -4.896573
10.05421 62.31114 -9.764717
8.621469 63.87463 -10.68114
8.962363 76.81333 -9.706697
9.110011 59.01079 -10.57137
9.61316 79.5213 -8.608069
8.801529 78.24221 -9.769193
8.812388 66.78169 -10.44857
9.377049 58.06751 -10.45316
9.43586 99.49162 -7.898474
9.735287 72.39677 -9.267281
10.51253 96.49239 -8.508451
10.38885 108.5338 -2.877538
11.16609 107.3838 -2.695567
9.759443 84.11311 -8.156412
8.909681 24.92683 -11.45454
8.368264 15.45644 -11.61305
7.413025 16.03877 -11.5416
7.956034 29.21068 -11.47277
8.126306 32.26107 -11.42045
8.513962 38.33354 -11.27635
8.840648 45.86314 -11.062
5.288413 16.6746 -10.95341
0.9040548 16.31343 -7.04989
7.260605 17.38686 -11.54423
9.21134 20.50125 -11.5244
0.1831781 16.5341 -6.860018
8.373978 41.27505 -11.26266
8.886386 65.94349 -10.43053
9.269437 68.96722 -9.995645
9.019175 76.56258 -9.665359
8.924891 79.18723 -9.553081
10.11584 87.46931 -7.834128
8.645073 48.47231 -11.06372
9.156457 83.15547 -8.931753
9.382435 92.12246 -8.348021
9.27865 95.97729 -8.457493
9.317064 48.75681 -10.80231
8.237339 54.96212 -11.09269
8.82553 79.63532 -9.629501
10.37923 111.5903 -0.8139604
10.14474 112.1348 -0.8356267
9.8606 98.72746 -7.7883
8.591558 29.6012 -11.41136
-10.83024 111.7662 7.1254
-13.86101 22.36005 11.56652
-11.81721 108.8273 6.979424
-14.01731 29.18461 10.79617
9.637453 105.294 10.49082
-11.46964 52.73954 13.18136
14.23935 57.25497 9.326468
-8.663892 16.95145 14.52377
-5.749625 18.41393 12.77588
-6.685694 18.61475 13.35496
-13.98446 49.35827 10.33541
-14.05884 56.33451 9.8132
-9.219114 17.18112 14.72866
-13.78974 18.88663 11.83295
-14.35371 67.67477 8.714449
-14.11632 73.45972 9.047493
9.763568 108.8711 9.851462
-13.30447 83.42098 10.02306
-13.51584 88.32459 9.410049
13.49625 95.19459 8.192877
-9.154024 95.82007 11.22595
-14.17524 96.53555 6.373106
-11.93569 110.2082 5.160728
-12.24409 109.4561 3.027065
-10.48521 113.6817 1.085767
-10.82255 113.7319 2.562059
-10.03297 114.7019 7.173538
-5.551973 115.0308 11.42711
14.30864 77.63358 8.346337
12.42745 51.49754 12.68956
8.343464 17.37992 14.48305
11.40445 18.05368 14.79859
13.1432 30.21414 12.87555
-10.08036 16.28667 14.93591
12.63786 47.31042 12.64504
-13.36817 34.74276 11.99934
-12.70683 26.61489 13.321
13.5102 29.54679 12.34238
14.48051 25.8166 10.20278
11.83406 110.994 3.677755
14.46756 53.2042 8.800793
13.89406 46.98609 10.95145
13.38993 102.0492 5.109756
-5.686525 110.0873 12.00058
12.53174 20.94791 13.95645
-12.93167 28.19182 12.9734
12.66927 106.5775 5.298402
-10.78356 113.3501 5.889328
-12.95724 93.91743 9.035618
-7.043067 112.6559 10.73882
10.65492 114.5441 5.028226
13.15617 93.42582 8.956649
10.70507 114.5007 3.176358
14.24625 74.84718 8.520884
8.426255 105.6467 11.16957
-13.83438 23.94779 11.55132
13.2547 103.3607 4.810356
-6.768703 86.33794 12.23605
9.348728 23.15084 14.7414
4.510952 16.89793 12.19967
5.094626 114.4165 11.68447
10.80225 112.8928 1.176779
10.20875 114.4612 6.746732
-13.82533 26.58122 11.42828
-13.16425 19.32206 12.95714
-8.710331 17.55509 14.50903
-7.590838 16.98259 13.93522
-0.8620377 16.88662 11.05395
-14.07264 35.28185 10.48171
13.93041 28.85419 11.71264
-10.23491 63.09662 13.18659
14.34094 63.54379 8.683887
-12.67834 77.20387 11.07382
12.56543 66.92422 11.85148
13.75269 77.75026 9.503638
14.05333 97.8817 5.813448
-13.82217 92.82446 8.353603
-3.62671 114.1123 12.39071
6.860459 113.812 10.64918
-10.81998 113.8707 5.056441
-10.81391 113.4521 1.931463
3.628637 17.87018 11.81148
4.295271 16.62023 12.10058
12.03753 35.53585 13.66006
14.49736 23.91063 10.23706
12.80702 105.4569 5.182054
9.826381 114.0158 7.715295
4.64961 115.0622 11.93608
12.66389 107.4982 4.327506
11.06442 113.1083 5.003535
-13.22817 31.06219 12.43115
-12.85845 22.78924 13.28926
-12.12808 26.145 13.84204
-13.73927 19.72483 11.91797
-13.2717 17.18308 12.89779
-9.869516 19.7555 14.82707
-13.89297 36.0761 10.9071
-12.74751 44.90604 12.48649
14.04864 33.95955 11.23617
13.98029 37.31767 11.23165
-13.66067 58.36128 10.57371
14.22087 44.84766 10.34159
14.43183 58.00705 8.609581
14.41803 51.94346 9.091698
-13.6686 76.2256 9.780838
14.32815 70.55119 8.473104
13.7378 66.97073 10.08985
14.01056 74.26568 9.116886
14.33218 69.82874 8.469444
14.44064 75.98625 8.085656
14.383 76.83463 8.203127
13.79074 89.62168 8.934414
14.33277 89.12961 8.347083
14.53668 92.22362 7.362868
14.23874 94.28424 7.372067
-13.06455 93.67345 8.974072
-13.72706 98.27955 6.620828
-14.18026 85.24814 8.8264
-2.414708 114.6052 12.72012
-12.55965 101.3655 7.641972
-10.79549 113.1491 6.058924
-11.61627 111.4533 2.762223
-11.7152 111.2587 3.656299
9.550218 17.9873 14.90034
13.96003 25.19312 11.79578
11.13986 16.74322 14.9444
14.46425 25.05811 10.3008
12.66727 107.695 3.824599
11.36593 106.1443 8.665545
9.282781 111.9389 9.153866
10.24991 111.4009 8.338211
3.478701 115.0837 12.42806
9.151679 111.1462 9.628496
12.08698 109.8476 4.702659
-12.54792 30.69785 13.32672
-13.69243 23.07073 11.9022
-12.10549 27.23199 13.80289
-13.8679 35.52268 10.99362
-13.62619 40.43123 11.33654
-14.209 42.963 9.925436
14.26044 37.78436 10.50456
14.52135 40.69629 9.382529
-14.21099 50.69404 9.647976
-13.72163 59.74765 10.38949
-13.4344 67.9878 10.53419
-14.1458 66.43236 9.228013
13.682 49.82006 11.2039
14.2235 59.64474 9.227797
14.4774 61.00578 8.348972
14.10503 50.77238 10.2303
-13.73131 75.27207 9.727041
-13.50553 81.57645 9.831663
14.12024 62.6316 9.338685
14.08539 82.17606 8.92497
13.83048 96.76198 7.135845
-13.23802 99.49673 7.19235
-14.45176 86.62825 8.488125
-6.750447 114.9054 10.6476
-7.44705 113.5817 10.28837
2.324789 112.6221 12.77451
-12.25318 103.1759 7.501346
-11.94409 108.9738 6.418138
-12.87074 105.0655 5.209858
-1.861068 17.25125 11.20701
13.7599 27.31315 12.04456
14.27039 31.36896 10.73607
12.48864 106.2165 6.16686
12.57596 102.6559 7.110941
11.12997 107.7691 8.646716
4.233227 112.3392 12.28493
7.550431 111.663 10.62972
-11.21138 22.35093 14.48681
-10.52758 19.21651 14.83916
-11.24135 24.07203 14.40924
-13.55086 38.05182 11.57978
-14.19279 44.12192 9.941895
13.88859 31.55493 11.70536
14.28042 39.52502 10.35621
-13.67911 56.81747 10.63654
-14.14655 65.4565 9.263865
14.36846 47.25604 9.647011
14.38666 44.46852 9.710443
11.29403 55.47332 13.13808
-10.98934 75.06754 12.40819
14.7252 83.99448 7.919724
12.63226 82.51599 10.80503
-13.27707 97.76814 7.738435
-12.95952 87.80689 10.06106
-13.56703 84.22028 9.671037
-7.377748 115.1091 10.1965
-4.565793 112.8682 12.05905
-3.046035 112.8914 12.60273
1.984595 114.7592 12.73193
-12.49773 107.3942 5.61038
12.42848 107.9089 5.606979
11.99798 109.2323 5.979008
6.007318 111.0801 11.64561
5.390465 104.1957 12.31503
-12.68495 33.44051 13.09489
-10.82019 26.09748 14.52151
-10.852 25.57739 14.52747
-1.676282 18.12126 11.18347
-13.0206 39.14405 12.4095
-12.88513 41.16908 12.50662
13.51448 36.20298 12.14124
12.43385 38.52703 13.2252
13.39309 39.90012 12.13696
11.32834 47.60571 13.47969
12.78122 44.48849 12.61605
-13.44957 56.48757 11.09046
-11.86252 56.93774 12.71334
-9.202579 61.37479 13.32949
14.03221 59.04832 9.874501
13.73243 54.18328 10.94932
12.68124 50.99965 12.47461
13.21445 49.01551 11.96346
-13.39238 76.65491 10.20157
-12.45639 76.81804 11.32242
-12.84636 79.88414 10.73382
-11.00293 83.80663 11.78513
13.37419 79.53303 10.17368
-12.86563 90.64709 9.709727
-12.37013 98.30438 8.710317
-11.51386 100.1033 9.316754
-3.81148 112.5934 12.4392
6.092556 108.4919 12.03789
7.114859 109.433 11.40238
-12.23285 32.25669 13.52359
-13.3134 34.87843 12.09297
-1.094525 20.88452 11.12937
-13.20598 35.67965 12.26113
-13.20386 41.72868 12.02756
-12.2794 43.28616 12.94142
-13.17713 49.08186 11.73368
13.79558 42.95139 11.33547
-11.65327 53.45264 13.0083
-12.45869 56.73826 12.24298
-12.67117 64.11544 11.7148
10.68546 53.55207 13.44636
11.69861 54.90154 12.98295
-12.63266 73.51243 11.27345
13.46669 86.16196 9.662152
-12.91273 91.7955 9.495749
-13.15673 95.26543 8.553306
-12.71448 99.89487 7.908201
0.4505367 111.9584 12.89362
2.682657 113.0057 12.69915
-13.04002 29.22197 12.81405
-11.00205 34.76164 14.07426
-9.812721 35.50565 14.22654
-11.30124 39.0388 13.83213
-11.67814 42.43517 13.47394
-12.78983 47.41811 12.31441
13.11728 37.31496 12.58041
-9.539239 58.08604 13.44376
-13.80191 63.48717 10.0816
12.99345 56.82063 11.91676
10.00268 52.40517 13.64665
-11.52192 75.71965 12.0689
11.75915 83.79497 11.29267
-12.32546 94.77583 9.491209
7.91988 108.4381 11.1377
10.91342 108.656 8.662711
10.68836 106.6923 9.372771
-9.359874 30.66454 14.35299
-9.231645 31.64832 14.31572
-9.5284 36.11177 14.21713
-12.42216 41.23407 12.91493
-11.24731 46.41507 13.50648
-10.61549 60.25917 13.21095
10.82719 55.39105 13.31065
11.44253 54.14154 13.13524
12.20597 87.27563 10.68764
-9.15485 99.83231 10.84556
-10.36069 40.72778 14.06795
-11.07899 42.82704 13.73759
-9.736374 45.82587 13.93779
-9.098008 44.25482 13.90249
-11.56553 47.90862 13.30019
-9.703107 49.89295 13.76499
-8.273585 53.71196 13.42279
-11.08055 51.68394 13.42307
-13.26275 51.10323 11.55557
12.00427 84.15899 11.10882
-10.37779 103.8423 9.947984
-9.313642 33.27546 14.24761
-6.836639 33.06784 13.23319
-8.765498 39.27115 13.98732
-5.914885 35.62275 12.67717
-6.472881 37.52117 12.95373
9.930564 84.46941 12.04363
8.748072 76.33249 12.71517
8.043599 83.9096 12.36031
-10.19018 96.92484 10.65587
11.7661 99.15686 9.074317
-5.430108 36.40706 12.40774
-9.618046 55.35529 13.56853
-1.787181 62.91658 11.66969
-10.62091 58.65751 13.30963
-8.200871 57.33278 13.29847
-7.438821 59.19976 13.00151
-6.559267 58.0947 12.69097
-6.012239 58.693 12.46776
-10.27898 60.75013 13.30643
-5.338912 58.39825 12.21669
-6.777886 56.11686 12.8101
-9.827325 92.35992 11.33646
-9.032174 38.81237 14.08142
-9.383533 36.38739 14.19692
-9.81974 50.14755 13.76289
-6.938968 47.75272 13.01412
-8.042811 48.09215 13.50322
-6.565058 39.45424 12.95918
-10.51249 56.90883 13.40447
-3.468374 56.64301 11.74092
-9.624977 87.10703 11.8998
-8.701694 96.88906 11.27829
-8.85559 98.85426 11.05014
-1.696518 52.88964 11.52741
-1.487609 54.59011 11.54244
-6.118046 61.84523 12.47495
-6.291927 53.98809 12.63422
-9.633801 54.81982 13.60399
-8.086761 51.3844 13.4305
-6.682079 50.8201 12.83348
-6.989379 49.64455 13.00292
-7.60822 48.05374 13.3378
-7.872359 94.93584 11.63997
-7.576351 94.91186 11.70696
-6.714415 98.29398 11.63485
-6.39408 40.48213 12.85002
-5.284802 62.74036 12.17018
-4.058601 52.79944 11.845
-3.566503 53.96655 11.71641
-4.80317 52.61708 12.06984
-5.12507 98.6171 11.89841
-4.826279 45.80153 12.08649
-5.263466 42.03718 12.2871
-4.704872 45.09902 12.04667
-3.712934 62.84972 11.83111
-4.90768 51.84789 12.1114
-3.333697 50.63042 11.65418
-9.329686 93.37863 11.40608
-1.476191 47.10078 11.40513
-2.319122 48.36002 11.50108
-5.078016 44.37729 12.18494
-4.368338 49.31983 11.93737
-1.9535 48.27445 11.45747
-5.220367 62.41469 12.1575
-7.195631 63.02345 12.83415
-3.872926 60.20972 11.8458
-1.985912 52.01484 11.5286
1.105984 46.33668 11.3897
1.276973 55.65255 11.54581
-2.771491 58.71724 11.68473
-0.4979503 58.98534 11.58132
-2.164995 51.14149 11.53067
2.270189 54.89172 11.60618
-1.178933 45.44351 11.37309
-2.337504 62.53095 11.68986
-0.4471279 63.88036 11.67088
2.144173 47.07955 11.49073
0.236006 60.76822 11.61269
4.295161 46.9688 11.96193
3.204563 47.29336 11.65511
1.654854 47.3767 11.43812
-5.899041 19.52582 12.85424
-7.098509 19.04154 13.60474
13.58464 24.12805 12.52269
12.28952 20.46811 14.16534
13.24161 19.51166 13.27121
14.07557 18.94598 11.73429
12.62545 26.50466 13.62554
13.73954 69.22108 10.01267
13.37852 60.88544 11.23956
13.92472 67.81658 9.687264
13.26351 76.95596 10.5276
13.12345 74.62314 10.83576
12.51359 91.97355 9.770351
13.83659 93.98883 8.09183
11.69138 94.2411 10.03705
13.55457 98.93437 6.811336
12.18686 94.68433 9.601021
12.7929 98.3134 8.223692
11.52596 99.83183 9.223404
11.1347 98.58458 9.832352
9.035146 99.39825 10.86911
11.92652 93.19804 10.0267
6.99005 98.35867 11.52503
9.015712 93.99675 11.38113
8.867383 97.17624 11.12463
7.188679 104.3204 11.72588
8.349527 98.53878 11.1568
11.01538 92.76359 10.68596
12.13932 88.18102 10.60827
-8.253069 110.3386 10.55234
12.18914 27.09336 13.92348
13.27398 28.5482 12.77874
12.51332 29.8856 13.59197
-11.20687 70.44781 12.56743
-13.75582 69.38525 9.903554
-11.80969 70.7282 12.18534
-11.51972 68.62859 12.51319
-12.09233 68.90161 12.00893
-11.36454 70.6425 12.48469
-8.327836 69.85728 12.91748
-8.971254 70.25439 12.93995
-8.284112 71.70129 12.85088
-9.563113 69.87577 12.96274
-10.25099 67.56496 12.98522
-9.070655 63.47004 13.23348
-2.464297 67.4928 11.784
-1.402194 67.31646 11.7473
-9.762331 66.01687 13.11286
-11.83047 65.97441 12.39733
-10.08728 62.18578 13.24615
-12.35761 65.13164 11.97297
0.9968305 64.72747 11.69805
-6.642738 68.56703 12.55502
-6.168978 66.25433 12.44022
-1.819199 67.75871 11.76252
-1.301624 65.70402 11.71521
-13.0631 82.54408 10.36981
-10.01139 85.14777 11.97551
-13.04317 85.09315 10.21387
-12.71436 87.26236 10.3293
-11.95267 81.05164 11.44166
-8.177669 86.4621 12.19512
-10.95047 90.266 11.07355
-8.205259 80.92329 12.48443
-10.09485 86.27105 11.83902
-10.31291 89.13307 11.48
-10.51135 84.22472 11.95886
-10.5254 81.07475 12.1293
-1.651327 83.33028 12.05142
-10.18833 91.19979 11.32202
-9.310933 90.47172 11.68012
-10.25635 77.76014 12.44136
-10.0655 79.69187 12.36961
-10.74686 82.8689 11.96823
-9.448965 78.76458 12.53595
-9.062039 82.80556 12.34405
-9.311144 80.65778 12.43463
6.591565 109.3665 11.68008
3.302823 108.9258 12.92231
6.162554 106.8049 12.12344
6.760935 107.3831 11.84266
5.521799 104.8797 12.33078
0.272281 106.1675 13.2579
5.152523 102.7009 12.17515
8.308201 103.0963 11.23482
4.67698 107.5221 12.67172
4.223349 111.4937 12.38619
1.873169 110.1193 13.01541
5.347829 103.3518 12.24159
1.54553 99.79733 12.30638
7.830935 98.25961 11.32174
1.401702 106.6288 13.28298
10.62527 102.1646 9.765052
2.176765 108.0503 13.12825
3.951864 102.3387 12.40211
11.19076 106.0695 8.895122
11.86172 102.6696 8.267287
10.22456 104.8762 10.03416
11.13429 104.0021 9.227286
-6.457833 19.31755 13.20323
-5.942288 20.62796 12.85363
-9.313177 24.00413 14.5477
-4.402598 27.5077 12.01245
12.06743 50.67062 12.92821
12.57118 80.80443 10.99249
11.57242 81.26467 11.61776
-11.09872 100.4489 9.596554
-11.51075 111.1516 5.782019
-11.06636 111.4375 6.856684
-10.93065 108.7884 8.602769
-11.60171 106.3685 8.205194
-9.911133 108.2306 9.906145
-7.924859 111.8251 10.34248
-5.847238 108.7837 12.11246
-8.684799 111.0541 10.02536
-7.437104 21.36058 13.79586
-10.46194 22.58192 14.71244
13.16414 46.98471 12.11465
11.70102 48.31141 13.25572
11.10765 46.14133 13.63053
12.10262 44.75582 13.19828
11.06182 45.52186 13.6541
9.725203 39.9004 14.1124
10.80892 39.83174 13.99155
12.13827 41.17582 13.27869
9.806054 42.50152 14.00661
-13.2275 29.01981 12.52682
11.41527 38.24643 13.90713
9.109209 33.0625 14.30381
10.7964 38.95457 14.03594
10.74249 35.2457 14.21696
12.56797 31.58773 13.46005
11.42029 41.27396 13.69318
7.476269 38.19056 13.6894
13.13625 31.34938 12.7983
12.36592 34.36755 13.43932
9.737601 38.73936 14.14022
11.83107 31.97048 13.98725
7.600875 36.10626 13.80428
0.5479206 108.5123 13.16256
-2.761523 111.996 12.75378
-5.232763 110.0821 12.20807
-1.308496 107.4613 13.24288
-3.06696 109.8354 12.91372
-3.623925 109.2528 12.84298
12.42587 55.54549 12.46117
-6.915428 32.17821 13.31247
-6.598653 38.14287 13.01166
-7.01534 39.13956 13.21591
-6.116232 39.84263 12.71973
-5.666379 42.53558 12.45208
-0.2052349 42.66875 11.31241
1.026618 44.41259 11.36182
1.743433 44.09713 11.39662
-8.123321 94.42833 11.62322
-4.920489 96.60269 11.99709
-3.287408 98.16741 12.12579
2.361794 94.06194 12.19547
-3.558583 102.0067 12.41619
-0.4229076 100.4766 12.4367
4.231009 45.47364 11.95991
1.404202 52.34535 11.50487
1.54575 53.97492 11.53711
2.000139 52.28837 11.54572
0.8751966 54.75313 11.51363
1.630451 57.89456 11.60379
1.41494 56.90955 11.57572
2.755075 52.82708 11.6343
3.701503 57.60421 11.82896
3.236346 59.86852 11.76614
3.712101 67.45322 11.90889
4.494085 59.04407 12.02891
1.285425 62.14319 11.66525
4.760601 59.08736 12.10199
10.79762 57.11252 13.23861
5.485514 63.29515 12.3176
7.03246 58.49282 12.96215
6.502604 56.78656 12.78786
4.109263 54.83062 11.91148
0.3492308 62.82222 11.65256
0.4158295 67.07719 11.73494
6.658423 57.87074 12.83147
5.740441 55.27689 12.4836
3.344239 53.35087 11.72412
4.329037 53.30106 11.97247
7.873959 55.27612 13.37027
8.399964 53.54961 13.58502
7.222656 51.31159 13.24948
8.949177 52.91312 13.6971
9.113975 51.93911 13.73281
4.774145 49.17034 12.13117
3.410559 49.84179 11.72674
11.68983 20.73654 14.52624
12.62531 63.61606 11.96302
13.12501 61.21111 11.58558
13.5004 72.05753 10.35764
11.20033 71.1619 12.46325
10.99532 67.47311 12.70224
11.67529 89.11307 10.78573
-12.27116 105.5276 6.913726
-9.637911 103.6642 10.54921
-11.01046 101.8956 9.447334
-9.887905 102.4349 10.35379
-7.744349 99.66887 11.30346
-6.286792 102.4429 11.87495
-9.781775 72.94839 12.77514
-9.166489 76.42586 12.68502
-5.154425 67.81931 12.1338
-7.095325 67.64269 12.70479
-1.428248 70.42883 11.80827
-2.109864 70.9042 11.83223
0.3982678 74.54974 11.8817
2.28998 85.2709 12.11534
-6.705298 80.86781 12.36357
3.727757 21.34922 11.8221
8.320023 96.16612 11.36557
4.952132 97.9938 11.9198
4.402772 94.43975 12.11495
6.417066 99.25427 11.5954
4.773566 98.57376 11.92314
3.672489 99.45892 12.07327
1.94923 98.28875 12.21437
2.966519 100.1827 12.19137
10.4035 50.03163 13.66665
7.88642 82.25429 12.43057
13.10283 81.74544 10.48854
12.56146 78.50076 11.18792
9.52667 76.38677 12.65886
10.9559 76.52901 12.25179
8.743176 77.38554 12.6852
9.533371 77.14604 12.60156
8.875314 77.44038 12.68559
8.746658 79.3399 12.57092
7.759861 49.84903 13.50645
10.88224 44.38203 13.79828
9.140565 45.31436 13.96588
7.707642 46.11242 13.5797
-9.905803 26.99146 14.55743
-11.74811 28.57219 14.01259
-9.594039 26.29641 14.53251
-8.543348 29.42758 14.18808
-7.414962 28.91229 13.67877
-3.579967 22.41712 11.7068
-3.78024 25.72671 11.76508
-5.668733 28.69377 12.60376
-7.118445 31.64499 13.45002
-8.013924 26.0107 14.03702
-6.121829 26.7543 12.89199
-4.86264 32.32734 12.16158
-7.482287 24.39233 13.7976
-6.300449 22.65606 13.06216
-5.887921 34.69078 12.66891
-7.691536 23.15018 13.91973
8.998955 40.72087 14.05962
6.574809 42.12478 13.10697
-1.250989 103.5442 12.9933
-5.332505 108.457 12.35955
-6.018089 108.1884 12.09629
-4.88906 105.9178 12.58807
-4.71128 104.9888 12.59535
-1.938537 102.1959 12.69456
-1.7541 104.2496 13.06824
0.4707907 103.9254 13.08675
2.175649 103.0512 12.83465
1.400056 98.50579 12.25875
1.380868 99.25481 12.28298
0.04871992 99.09764 12.31668
1.943053 98.93601 12.22786
-1.146443 20.45487 11.12881
9.946939 85.69514 11.9269
9.140305 87.80122 11.93035
5.028793 90.56802 12.19378
9.146817 92.43305 11.50751
7.724447 88.44953 12.11319
-5.815055 41.08926 12.53972
1.175613 40.72691 11.33299
-2.563002 41.35753 11.46505
4.717513 46.28244 12.12038
6.206561 44.52816 12.86864
