# .PCD v0.7 - Point Cloud Data file format
VERSION 0.7
FIELDS x y z
SIZE 4 4 4
TYPE F F F
COUNT 1 1 1
WIDTH 1662
HEIGHT 1
VIEWPOINT 0 0 0 1 0 0 0
POINTS 1662
DATA ascii
-13.96153 102.0397 2.086307
-15.43216 96.40872 1.413189
-2.601954 109.3313 13.04743
-12.17825 109.6959 3.464583
-10.55015 115.1106 4.951223
-12.48135 108.7091 3.256545
-6.455256 114.8302 10.88262
-6.430836 68.32847 17.1005
-15.97671 73.25284 -0.9269997
-15.94825 72.52506 -0.8732087
-16.90224 72.56293 -0.4180273
-17.21656 71.02977 -0.0583261
-16.92082 74.51161 -0.6884336
-15.84583 84.03218 -1.198072
-16.03159 69.73293 6.240886
-13.4117 68.22215 11.95758
-11.21734 67.96783 12.14274
-10.15392 68.23561 12.07066
-10.2753 70.57012 12.07912
-3.14384 89.86514 13.12304
-5.053723 90.66532 15.20671
-6.953714 82.16403 15.43407
-16.16215 88.15722 -0.414554
-14.24974 100.5206 2.971254
-15.3121 95.75694 2.784337
-2.856967 104.5408 13.72566
-6.488276 100.7605 13.45863
-6.900295 99.11961 13.48018
-4.765316 104.6562 13.26968
-5.948421 105.8001 12.63182
-10.53237 114.9882 5.215546
-9.948771 115.9532 7.131587
-4.815981 111.6239 12.12707
-6.255743 116.3431 11.08232
-5.910854 116.8255 11.3494
-17.93094 72.44439 3.474074
-15.64724 70.54524 6.839911
-6.335725 87.14672 15.39723
-5.966212 81.5644 16.05
-13.59086 100.9346 3.838234
-6.627957 101.1487 13.31721
-5.366495 101.7761 13.67566
-8.160873 103.3196 11.53661
-12.84806 105.5223 5.113104
-12.23684 108.4444 5.985621
-7.323198 121.0652 11.5046
-6.367735 118.4938 11.41071
-5.602992 70.41463 16.6672
-16.11343 69.99507 6.054182
-8.438527 69.09404 12.58034
-8.862761 68.53607 12.34121
-5.588626 90.92188 15.18628
-6.796938 80.11271 15.79688
-7.517289 76.53419 14.12516
-7.305082 81.68867 13.66059
-14.78893 98.69925 3.10671
-13.37487 103.2099 4.119343
-14.87218 95.31551 5.13249
-8.017242 101.012 11.82414
-6.988224 98.16914 13.53792
-12.11231 109.882 4.28288
-7.44072 115.789 10.19126
-9.159167 117.7678 8.701175
-7.735179 69.79959 13.42535
-7.686683 70.35494 13.70012
-5.077946 76.43854 16.14002
-4.536325 76.16295 15.57629
-17.35695 82.31006 2.41921
-16.82059 88.34726 1.064393
-8.071806 100.0751 11.81397
-11.85065 110.9036 5.076554
-9.513522 113.6129 8.374952
-8.319571 111.7403 10.10091
-13.7318 69.27348 11.65884
-7.720759 67.06515 15.819
-7.646616 70.5759 14.79616
-6.63261 86.00082 15.31165
-5.749335 76.35223 16.40724
-17.17039 85.51237 1.609134
-17.45659 82.73698 1.347463
-17.04912 80.43799 -0.1718525
-16.71433 80.01211 3.722169
-12.34492 101.5378 8.739598
-10.08141 98.73455 10.82191
-5.104401 114.4417 11.71701
-14.65789 71.06842 10.12574
-5.580612 68.76656 16.74761
-7.133747 72.25542 16.32177
-6.601105 84.53851 15.44204
-6.000907 74.45432 16.62685
-16.98409 86.93372 1.0731
-16.23628 80.14228 -0.8942245
-8.649777 105.6481 11.07139
-7.481005 108.5157 11.3642
-10.61799 97.94836 10.67587
-6.668187 111.6038 11.17977
-7.328041 113.5492 10.40883
-10.43373 70.36956 12.09285
-7.369522 80.56663 13.5156
-17.49743 78.90305 2.893543
-8.787158 108.2906 10.71911
-10.74183 105.6894 9.695252
-12.17028 100.4911 9.234811
-8.056594 111.1974 10.42774
-6.084651 107.8289 12.15431
-7.279718 79.08442 14.87931
-7.916108 79.52727 12.78169
-11.41244 104.8659 8.79016
-6.963274 106.8438 11.97888
-10.35195 111.218 8.281959
-9.728007 111.6408 8.907476
-7.407835 77.56424 13.85455
-9.027633 103.0704 10.98614
-12.31843 101.0245 8.911652
-9.626418 108.4601 10.07986
-10.4041 110.457 8.647532
-7.400043 74.59438 15.52126
-7.560867 73.66029 14.981
-7.747077 73.90746 13.22305
-11.38315 101.4921 9.851017
-4.692533 107.2099 12.75619
-12.31575 85.46734 10.9968
-12.64483 101.1031 8.450625
-10.95957 101.3857 10.16151
-7.690335 80.90636 13.02634
-9.164994 73.73126 12.22375
-13.24518 102.5848 6.207664
-8.179205 72.06407 12.76793
-13.2232 103.4713 5.48664
-13.2966 99.56529 6.770838
-13.07481 103.0297 6.206421
-13.31725 97.59621 8.357216
-8.880309 77.01472 12.48264
-16.36133 76.25484 -1.053329
-15.64206 79.29089 -1.213264
-16.36894 92.30827 1.537747
-16.56954 90.55541 1.99836
-16.53633 87.87836 3.040102
-15.39204 89.29297 5.349701
-5.129696 97.19296 14.52228
-17.56091 71.79353 0.1463873
-17.05828 73.04131 4.458713
-18.1125 70.92035 0.9453716
-12.03106 70.39156 12.1528
-12.26996 72.01184 12.06114
-13.16524 72.30137 11.74097
-12.46459 72.90718 11.98045
-12.88315 74.71575 11.72255
-11.04131 76.01515 12.0154
-10.55085 77.10808 12.05929
-13.62681 74.77 11.20058
-14.00095 76.09368 10.60532
-14.62089 76.15543 9.494233
-14.97728 76.38387 8.308769
-15.27115 84.90786 6.590197
-15.2131 79.59735 7.102356
-15.28217 81.03723 6.693077
-16.6101 80.86729 3.74765
-15.49206 80.06682 5.992196
-10.03341 80.39195 12.29612
-15.86936 81.84966 4.704623
-16.65406 84.4101 3.263092
-15.48241 80.43482 5.991428
-15.06281 81.50352 7.545261
-15.66137 84.65455 4.879324
-15.30868 84.93997 6.438782
-14.63938 82.82215 8.561266
-14.55811 86.41539 8.268504
-14.78045 84.54488 8.054153
-14.91202 86.56838 7.504318
-16.2694 86.26912 3.59577
-15.01816 87.8941 7.082305
-15.11336 89.10133 6.59706
-13.56755 85.04305 9.87268
-13.52162 84.66779 9.977171
-12.03748 84.75697 11.25697
-12.65648 82.81108 11.07215
-12.5288 108.1528 4.744067
-10.96474 107.2038 9.059545
-10.89771 110.8629 7.555122
-10.70385 110.3022 8.286976
-7.890348 99.45777 12.13066
-8.874304 116.0248 8.843064
-7.722031 66.36648 14.59325
-7.40005 86.02379 13.35954
-9.892151 88.82263 11.60359
-7.30198 83.85118 14.13902
-17.16058 75.66115 -0.4082868
-15.89221 77.2375 -1.129445
-7.799187 82.68418 12.78625
-11.89828 104.9984 8.052749
-13.80056 97.75406 6.571858
-14.25528 93.85523 7.512542
-15.27348 92.26099 4.654903
-15.05138 93.04708 5.685881
-15.10627 92.06784 5.890163
-14.14427 94.62779 7.581908
-14.37686 94.41978 7.069073
-6.203384 96.07742 14.3333
-5.648108 91.76749 15.11685
-7.781884 92.69411 12.4908
-17.3424 71.43097 4.35946
-17.68724 76.25578 3.119465
-17.91534 77.55155 1.097942
-15.77964 75.9211 5.725379
-16.31114 74.91882 4.985048
-15.18948 75.99555 7.513299
-13.70296 80.33865 10.37292
-13.46817 78.76992 10.8685
-10.75021 80.66898 12.09957
-14.13153 73.39564 10.7798
-15.98221 77.34386 5.11376
-10.46061 82.34054 12.11807
-11.35468 83.16709 11.76851
-10.69642 85.12531 11.80279
-12.39072 83.43046 11.17899
-9.960671 85.47618 11.93352
-10.85338 87.33444 11.52932
-10.68465 91.53474 11.16543
-10.07173 87.43005 11.69234
-8.306328 86.0809 12.29419
-9.485164 90.05331 11.57712
-9.712188 89.93456 11.53838
-10.17383 90.39662 11.40445
-14.48115 89.15263 8.055323
-18.00649 76.91727 1.647211
-17.62875 75.33396 0.1757521
-12.82636 94.22974 9.415778
-7.91471 93.16666 12.33937
-10.63436 91.98861 11.14698
-9.199816 95.00334 11.30987
-9.469386 96.7375 11.13524
-7.523444 97.72934 12.90002
-10.98002 95.20477 10.75599
-12.00428 93.44681 10.29507
-6.26259 93.07943 14.72577
-11.59364 94.12323 10.51133
-6.528569 93.88586 14.44919
-12.56581 96.10983 9.474672
-18.16357 74.6198 1.593836
-15.6952 74.40605 6.081196
-14.96687 72.0413 8.850123
-15.8695 72.23212 6.076293
-13.86848 92.65184 8.406665
-13.94472 90.55511 8.591896
-2.921235 63.78474 11.7007
-3.193109 72.07452 12.66022
2.48743 66.45483 12.07648
1.115714 67.54643 11.3753
-3.297989 80.81625 12.98469
2.666673 121.3868 13.25027
-1.85547 95.57119 12.61189
-1.409737 88.24243 12.08025
-1.94332 90.87657 12.33518
-0.07404232 119.3945 13.16496
0.8257194 122.1091 13.40544
3.744008 121.0321 13.03986
15.6357 85.57412 1.912339
6.852084 63.6041 12.4375
16.21954 63.70696 10.15661
17.80452 64.7317 -3.019988
15.41634 75.30183 0.06063414
16.30361 63.60843 -1.106943
11.66382 111.391 4.243742
10.2157 120.0291 7.456917
3.713886 97.40577 13.31431
15.4204 91.62633 2.701043
15.7139 93.66557 4.555433
15.39685 87.80096 1.822992
0.9054027 120.482 13.25663
16.6958 64.41531 2.197205
17.98685 63.92725 -3.079356
-2.892319 65.39682 11.57794
-3.327558 69.66171 12.86817
-1.718463 80.83515 11.60417
14.45341 98.39391 3.251543
11.97294 110.2272 4.816152
10.38991 116.9533 5.398156
4.408998 119.3402 12.49816
17.32213 64.00935 8.674434
16.12207 81.39868 1.512258
16.63762 65.4695 -0.5621841
16.76271 65.16502 -0.7361398
-3.376829 71.63877 13.09526
2.438052 64.31211 11.91416
2.724624 65.9761 12.15698
-2.890234 79.76718 12.42767
12.16604 63.83863 11.46306
15.43781 91.04015 2.693096
-0.5257277 97.11996 12.80122
12.55231 106.383 6.049498
11.60308 111.3856 4.981394
1.216135 113.9096 12.84999
8.446446 119.0186 9.911969
8.042997 120.6003 10.71444
17.28553 64.06236 9.020521
16.53861 64.23823 3.295941
15.95023 74.60825 2.073841
16.74111 65.57211 1.984927
16.24779 69.64673 -0.7723311
16.54629 65.06477 1.211019
-2.353355 67.61178 11.09741
-3.029884 70.80424 12.19004
1.286612 64.98157 11.28643
6.24589 64.77291 12.54762
-2.320632 77.34155 11.68854
7.755516 65.2342 12.41939
12.00703 67.02563 11.57966
15.37636 94.3167 5.223429
15.27394 87.39395 1.421905
14.64423 99.38363 4.048896
-1.659316 97.23595 12.69421
-2.185203 86.3943 12.14898
13.10801 104.4535 4.755986
-1.054002 103.8906 13.13099
-0.9729496 101.184 12.94355
10.51301 114.0912 6.156049
10.47985 118.5397 5.064535
1.622672 112.4362 12.88918
2.689729 115.0755 12.65292
-0.2041372 109.9698 13.06851
1.205468 119.8964 13.20141
5.863296 116.7289 11.36975
16.19432 65.65316 10.04027
13.9269 64.75459 10.98314
17.23688 66.8628 8.590933
15.62857 71.87349 0.827262
16.00262 75.19276 2.184598
16.43374 66.51066 -0.6807218
15.90615 68.81013 0.1361097
-2.251563 74.98158 11.46764
-2.08673 72.62142 11.15363
0.6188778 67.00259 11.04288
5.097015 64.4002 12.55714
-3.053798 75.585 12.52218
0.019307 81.63515 11.82128
15.42955 88.69427 1.983039
14.42617 97.07719 5.581636
15.85825 84.29855 2.182066
-1.749808 96.82912 12.67385
-1.453263 89.71895 12.16789
1.54545 88.76442 13.00909
-0.01799733 83.30756 11.92764
-0.4355256 81.0434 11.63381
0.9710675 79.71716 12.15029
14.00737 101.696 4.364817
13.15885 103.5894 6.048239
-0.6201512 102.8277 13.09802
0.4151737 106.0976 13.28032
4.24822 108.0666 12.79179
-0.7629974 97.59956 12.77172
9.835315 116.6048 7.356012
1.207111 111.1221 12.9996
10.31249 118.276 6.110226
17.20183 66.70374 8.704568
17.01197 66.86242 6.376857
11.75551 65.75838 11.61959
15.69683 73.09085 1.346683
15.4638 81.31044 0.5495067
-2.519844 68.9791 11.31483
-0.0935701 67.84768 10.81311
7.229817 67.5247 12.59771
3.677373 67.4683 12.55406
15.87473 90.96799 3.455832
14.6113 99.56653 3.986425
13.73144 100.3476 5.527944
0.6795139 97.05619 13.15425
1.154415 86.65006 12.70971
-0.7025527 80.49799 11.54839
-0.726656 77.25207 11.31426
12.45917 104.7709 6.911466
3.323838 104.9982 12.99791
4.360251 103.2142 13.04186
4.631692 102.4656 12.94871
10.00685 115.7043 6.966122
6.655816 116.5592 10.82682
8.692161 116.689 9.10021
17.16464 66.83213 4.658858
11.39941 68.09686 11.76262
7.645833 68.53238 12.58402
10.45976 69.82114 12.03653
15.73313 70.11783 0.2959278
17.37307 69.24794 5.880027
16.29296 74.07832 2.747699
16.80366 81.78481 3.650934
4.15847 67.54653 12.63897
2.203608 68.69978 12.08047
16.43263 88.1114 4.76193
13.66235 97.57574 7.413533
-0.2105772 92.39401 12.52866
3.100494 88.33861 13.42638
-0.6496888 76.70665 11.30458
12.16141 103.7035 7.706868
0.1451719 97.19348 12.99091
16.97706 66.44596 6.403199
14.54139 68.12472 10.71356
8.599038 65.51772 12.30463
15.66551 75.5531 1.463461
15.9591 77.04307 1.99855
16.87099 80.05495 3.710316
3.396878 69.66399 12.59026
16.59477 85.23147 3.733275
14.36343 93.83012 7.143311
14.51428 94.70367 6.338068
14.27753 92.55339 7.791008
2.445732 91.99915 13.44662
5.433569 90.07074 13.19393
0.7226086 98.0994 13.22861
9.408096 115.924 8.068
8.435963 114.8688 9.331223
7.101727 68.67825 12.66446
8.163153 72.08791 12.61262
9.690451 70.82957 12.24558
9.08671 71.09621 12.39057
17.36512 70.26858 5.675376
16.89655 78.28935 3.601181
14.58484 93.28072 6.783227
1.292837 93.3002 13.17859
12.02696 99.38625 8.67558
0.4818578 96.11532 13.03163
11.80573 69.14243 11.66281
16.18708 74.22099 2.543686
17.38746 71.09058 6.364196
15.82106 71.52288 1.536218
16.92274 81.06891 4.307755
13.78153 96.82131 7.410447
3.349792 92.10875 13.57755
1.30378 82.09391 12.49581
5.966039 114.4898 11.18586
9.955791 112.6531 8.143896
15.77547 68.20288 10.04793
17.02136 73.96255 7.373682
17.01934 74.06078 4.272267
17.14843 75.63102 6.219391
16.78666 80.11633 6.213584
2.982984 91.51843 13.52449
6.118502 88.64008 12.90764
5.742287 88.16145 13.15288
1.456018 80.87224 12.49172
2.747419 87.21854 13.29864
4.255468 116.462 12.20271
4.888838 117.5092 11.99145
14.80363 69.04327 10.54718
15.39719 68.10836 10.29667
12.24276 72.10777 11.51232
17.02624 78.67294 5.647879
16.8799 75.48507 7.274483
15.93894 74.58879 8.918183
2.133087 92.08662 13.3764
0.5197345 84.64543 12.26186
5.335331 111.9305 11.83692
17.23001 69.66387 7.989508
17.42212 69.76537 6.539091
15.85667 75.4891 8.836272
2.369452 84.95554 13.07875
3.540566 113.8797 12.41412
4.483751 111.1904 12.35042
11.08085 72.43389 11.89831
17.13937 70.86437 7.927421
15.92994 73.10435 9.189922
14.42802 73.61649 10.39816
13.64522 73.43989 10.87064
14.52414 76.85912 9.957429
2.51488 85.30425 13.14218
5.70639 111.1521 11.7875
15.42821 75.06647 9.418189
5.551268 111.0634 11.88983
4.134757 84.00688 13.35634
3.004545 81.39252 13.07877
5.188706 107.0724 12.56415
5.448578 108.5049 12.31134
4.087684 109.3789 12.72674
6.178028 104.1289 12.20978
6.899428 86.4554 13.04874
4.482403 82.23934 13.30185
8.438193 109.3043 10.89702
8.690519 106.0915 11.12779
6.520496 83.64406 13.04449
7.95833 88.26716 12.31051
6.879643 82.54828 12.92081
8.128591 81.93169 12.62657
8.637203 107.5505 10.93261
7.579114 81.26662 12.75782
7.308504 79.28028 12.8545
4.87316 77.61647 13.14472
5.095157 78.77152 13.17529
10.19156 80.08356 12.19806
11.01436 81.24657 11.88975
10.41403 112.7673 7.269519
9.545362 113.5271 8.401443
7.86149 108.5322 11.17075
7.985266 110.7132 10.59065
10.82898 110.2753 8.202254
10.51746 110.1617 8.797148
12.17982 109.0142 5.579053
11.8711 108.4975 6.99152
11.90235 107.1655 7.595919
11.95149 105.0088 8.022873
10.12995 105.1532 10.20823
11.81637 106.6963 7.980989
9.607982 106.1287 10.57914
9.223365 104.3738 10.82378
10.0896 102.9756 10.79797
12.6775 100.6857 7.795723
5.73376 94.74505 12.98883
-0.2252974 74.35683 11.20897
-0.9325081 71.29509 10.8806
2.544413 98.05001 13.46905
2.205229 96.09915 13.50074
3.823693 95.34761 13.47754
5.095019 95.85204 13.19358
5.661456 96.0356 13.0297
7.156038 93.08957 11.98247
4.38254 94.31478 13.43918
3.14744 98.71242 13.28174
7.053284 97.42381 12.42912
6.391925 98.42386 12.40215
8.012043 94.15225 11.47061
7.61871 93.3748 11.73054
8.696667 101.5731 11.70223
8.292211 96.40847 11.27866
8.770403 101.0011 11.67932
8.838091 98.82344 11.23041
9.682076 102.8786 11.02806
6.906274 102.5987 12.34777
0.5087712 87.03895 12.40863
1.670247 79.24295 12.49746
4.126696 78.91019 13.15902
2.411388 76.66439 12.65838
5.540593 77.38961 13.10746
8.195423 76.49912 12.68413
8.272972 75.71051 12.65998
6.54614 73.04378 12.89223
8.971582 76.61826 12.5133
10.05431 72.74746 12.19012
11.95769 74.05749 11.60008
10.21186 76.46343 12.18943
13.18717 75.78828 10.96496
10.64435 75.16798 12.05004
10.40874 78.24884 12.13753
12.27877 80.96295 11.18389
12.07819 79.00916 11.40326
3.38764 101.1972 12.93942
4.886825 99.91683 12.61314
1.120489 70.16486 11.57785
3.625965 74.46059 12.86482
6.5941 71.81023 12.84503
6.706853 74.32499 12.90137
2.363147 71.4876 12.32794
2.277339 69.67436 12.18426
1.1585 71.3998 11.67764
1.804239 75.095 12.27705
3.03199 74.05492 12.72677
-0.1342764 76.79133 11.40691
13.19276 97.11034 8.203565
7.108989 88.70621 12.52523
7.475945 86.26788 12.87331
10.79143 87.07961 11.54596
10.4039 89.53278 11.42755
10.27768 88.07802 11.63752
11.42382 89.41819 10.94608
8.483082 90.88384 11.78599
15.68926 67.60067 10.16142
16.70506 79.59612 6.591692
16.01797 81.67582 7.373711
13.90399 78.78799 10.21527
15.23123 77.99685 9.127488
14.98425 79.03139 9.216349
14.21348 80.16822 9.787042
14.2613 79.59133 9.828636
16.07596 88.33662 5.806531
15.75699 83.37313 7.407041
15.29293 87.07416 7.300669
14.32394 85.09815 8.907328
14.98429 81.82266 8.712588
3.718744 105.8748 12.94869
8.823417 93.8163 11.31733
8.9661 91.85825 11.6134
9.500462 97.77708 10.5834
10.31147 99.49788 10.17658
12.57909 95.7375 9.092247
14.64147 89.08835 7.89405
13.74706 90.47131 8.848899
16.38243 88.66076 4.70384
12.97866 88.57517 9.949967
13.60788 83.15752 9.946227
16.28992 88.0994 5.319957
11.91463 85.85296 11.06417
11.76508 83.51945 11.36988
10.65231 81.69567 12.03322
10.43307 83.05866 12.06496
12.84385 84.57995 10.53315
11.47052 98.00703 9.776715
9.568578 92.06799 11.45364
10.62821 95.85121 10.66978
11.11211 92.73798 10.77156
7.039234 92.61515 12.08592
12.79795 92.58578 9.476435
14.66394 85.99358 8.359846
-0.08811298 66.96619 -10.5732
0.2353705 71.09444 -10.17477
-11.31587 65.441 -5.581318
-1.359196 118.5092 -3.919713
0.02281302 71.48235 -9.959902
-5.197983 65.67669 -10.96502
-15.34522 68.56999 -5.384349
-9.907449 67.90319 -10.19985
0.330094 65.85608 -11.26989
-15.98618 72.55098 -4.914736
-10.72025 90.79094 -6.966098
-3.986539 65.66817 -9.92347
-1.028371 112.5295 -3.849202
-14.76198 85.18028 -3.089686
-14.51243 71.37605 -4.757102
0.1778595 115.7568 -3.590863
-14.053 78.98467 -3.330559
-10.40789 116.8125 3.116456
-12.81253 105.4864 -0.1376014
-0.721397 74.3407 -9.4228
-10.05576 119.5698 0.3335103
-13.046 103.2782 -0.1460168
-4.897533 65.84975 -10.67253
-5.06848 118.3446 -3.729341
-14.01407 74.77119 -4.013075
-15.53411 65.06987 -6.04342
-10.33939 117.1597 2.638524
-9.790364 120.4994 -0.9124735
-0.7450936 65.21527 -10.17087
-2.424575 67.03822 -9.283086
-0.4207405 73.31873 -9.591909
0.1313815 69.7775 -10.26313
-9.736577 66.13572 -11.92199
0.4605636 94.92272 -9.174662
-13.01257 105.883 1.047464
-10.25488 112.7526 -0.1994102
-2.754782 118.0428 -3.844832
-14.67125 69.88889 -5.016652
-14.45478 68.57975 -5.091334
-19.10142 66.79865 -6.528276
-17.92866 66.60431 -5.703551
-8.974654 120.1668 -1.848033
-9.017104 117.7245 -0.6713023
-9.822717 115.7123 0.6387932
-9.978557 114.911 0.6879253
1.111583 74.74591 -10.49043
0.295085 71.88189 -10.14224
-9.488239 65.48103 -12.56418
-9.973055 65.74602 -10.15196
-14.87919 74.92437 -4.441429
-13.98502 96.17273 -0.1175555
1.014391 94.85672 -9.291636
-0.5845022 87.55179 -9.237191
-13.46587 103.1456 0.5180548
-0.7671578 106.578 -6.209436
-10.6798 114.7622 2.881122
-4.55193 117.1943 -3.631334
-1.707835 114.761 -3.620831
-11.52622 66.14379 -5.435678
-14.46088 74.89603 -4.246935
-15.62917 75.3081 -4.603503
-18.94529 67.14229 -6.310405
-16.05493 68.96404 -5.358138
-8.28936 115.1276 -1.550657
-0.509158 77.98412 -9.321944
-1.917904 76.79163 -9.193666
-8.909861 65.87576 -13.13402
0.4089501 85.37051 -9.247099
-10.19084 67.51936 -7.619829
-14.352 89.67406 -2.179765
-13.64809 100.5708 0.2163149
-14.3741 83.27285 -3.141938
-0.7237789 92.46201 -9.298008
-0.3133354 96.34054 -9.229567
1.155949 102.6057 -8.359588
-13.41811 101.7457 -0.9930359
1.166111 103.5648 -7.785556
-10.1902 113.7297 0.3750976
-10.13609 113.2136 -0.08571474
-9.881281 112.3483 -1.109169
0.4654031 112.8364 -3.898456
0.7766243 108.2606 -5.77755
-1.842196 116.7075 -3.660371
-14.98869 66.96138 -6.458926
-17.87077 69.59996 -5.418379
-18.19794 72.44339 -6.250002
-17.33573 73.23084 -4.916436
-15.13639 78.41637 -4.037919
-17.38955 75.77895 -4.798957
-17.25774 77.57215 -4.645341
-9.271954 116.0786 -0.2369387
-0.4524082 70.71673 -9.71889
-4.285629 69.99921 -10.01157
-9.681147 68.25605 -11.65735
-14.06629 79.50523 -3.268217
-14.22165 84.92668 -2.573989
-14.10512 97.50806 -1.231895
-13.36436 98.84468 -2.954745
-14.00492 99.57112 -2.070632
-14.75139 82.09077 -3.534532
-1.23143 90.15038 -9.476526
-12.58345 106.2991 -0.438706
-1.349888 103.8603 -7.63791
1.128855 101.8204 -8.681734
-10.78345 112.031 0.274016
-7.259688 116.5056 -2.296503
-7.225395 117.7909 -2.471661
-11.18029 65.91218 -5.605172
-17.60638 74.85683 -6.223414
-17.62909 74.3353 -6.393955
-16.61356 78.49839 -4.175244
-14.32196 70.79388 -5.663239
-4.272951 73.89932 -9.901494
-3.791668 68.21648 -9.719566
-8.967508 66.67979 -12.89505
-0.6863394 82.69225 -9.171832
-15.21708 88.71457 -2.751552
-14.81866 95.48753 -2.575972
-0.659446 91.18237 -9.275742
-0.9133202 100.5352 -9.123475
-2.579427 99.39123 -9.397315
-2.231669 101.5133 -8.792623
-0.4535595 88.08241 -9.213917
-1.640344 106.8492 -6.133907
-9.245687 111.0713 -2.543371
-10.09253 111.1053 -1.810548
-1.234442 109.8909 -5.007376
-7.104385 118.8868 -2.803514
-1.143627 113.9151 -3.691126
-17.5955 72.48765 -6.858845
-16.20629 69.83854 -6.818279
-15.33401 80.77393 -3.711257
-15.19963 82.308 -3.45735
-2.477032 73.67617 -9.258323
-1.968106 71.74265 -9.256477
-5.173786 70.33086 -10.78368
-6.416968 71.77148 -11.92479
-2.130908 88.60544 -9.669694
-2.46668 102.9161 -8.18152
-2.933292 104.8395 -7.11061
-3.489899 102.2453 -8.482156
-5.573796 104.3001 -7.321733
-4.882875 104.2872 -7.388499
-6.363883 104.3779 -7.200086
-12.69954 105.8009 -0.3697231
-8.475754 106.6573 -5.504787
-0.7083703 111.0713 -4.878034
-4.953096 113.8763 -3.478978
-16.39219 70.98817 -6.801991
-15.8411 70.57178 -6.47253
-17.08855 79.71046 -5.275038
-2.410119 71.0248 -9.264737
-5.515384 68.84039 -11.17977
-14.26387 90.56781 -1.867395
-2.684725 89.38357 -9.805623
-9.096139 104.3421 -5.88538
-8.807153 104.4283 -6.041511
-9.475944 109.1769 -3.404563
-7.437605 111.7714 -3.295804
-11.76726 69.69646 -5.131521
-9.977836 68.02632 -8.884891
-15.33276 70.06184 -6.173174
-16.88116 73.13324 -6.740443
-15.65761 72.49625 -6.04688
-11.22437 78.15034 -5.312129
-15.0168 81.83513 -4.707654
-3.96641 78.82165 -9.62725
-2.783606 77.53283 -9.29053
-6.240141 75.96775 -11.56772
-9.89617 69.65801 -9.754027
-0.7246509 75.52462 -9.354297
0.04410051 77.74999 -9.533947
-2.498802 80.37766 -9.258992
-4.540095 73.03583 -10.10744
-1.605425 85.44741 -9.402861
-2.223613 90.30933 -9.767554
-6.349071 87.73122 -10.71037
-7.825599 102.5886 -7.391888
-1.506113 108.7765 -5.562382
-3.90681 112.4838 -3.832206
-3.516938 111.8227 -4.647485
-5.17134 109.0518 -5.245921
-6.506967 113.4236 -3.30679
-9.956761 68.35455 -8.996059
-9.850966 71.07172 -9.897997
-8.633946 70.88844 -12.42829
-9.701143 66.96877 -11.91634
-15.84863 74.72002 -5.904807
-15.87821 72.20689 -6.239081
-3.87277 80.62257 -9.551898
-5.134987 79.53587 -10.40667
-7.002558 71.838 -12.25793
-14.87917 94.50284 -3.160545
-8.78443 105.1336 -5.746927
-6.819246 113.8316 -3.099395
-5.085966 108.0508 -5.407653
-8.72555 71.59651 -12.29894
-7.236353 72.91026 -12.27655
-13.56199 70.39271 -5.440158
-12.10157 72.89485 -4.91852
-14.38484 78.7259 -4.724609
-12.52485 76.75586 -4.584438
-12.72442 74.95632 -4.686413
-10.75095 75.26051 -5.866886
-3.755357 82.77383 -9.537831
-1.702677 77.01717 -9.193046
-11.19489 98.8157 -5.123948
-8.820993 103.6562 -6.373729
-5.281699 110.2083 -4.573704
-9.737722 73.35934 -10.18367
-9.7342 73.32298 -10.21199
-10.11336 72.09287 -7.403474
-11.27049 70.50167 -5.397656
-10.96789 74.72032 -5.593111
-15.10049 76.54636 -5.321502
-14.10209 87.61559 -3.770423
-8.012831 74.32382 -12.24421
-10.53556 100.0639 -5.899651
-5.212521 99.2897 -9.298973
-10.20413 104.7627 -4.896633
-8.891126 108.279 -4.217231
-6.396269 108.4863 -5.166395
-10.13533 74.53586 -7.170032
-10.59854 79.00851 -6.113068
-9.525547 81.14125 -9.073304
-5.103617 83.39774 -10.14813
-10.41035 100.5967 -5.865676
-7.215333 107.828 -5.345545
-9.8256 78.82585 -7.822337
-9.952023 81.92145 -7.224313
-7.256332 79.07732 -11.73553
-11.55089 103.5533 -3.80496
-10.08989 79.13135 -7.017976
-9.841798 76.83271 -8.026855
-6.861681 83.50755 -11.22185
-10.85303 100.3914 -5.427225
-11.85965 103.3583 -3.384014
-9.389129 77.02386 -10.67109
-5.51595 87.4089 -10.2508
-11.0697 104.0692 -4.379154
-9.163863 102.1639 -6.691416
-10.34464 102.3966 -5.556272
-13.53713 101.3986 -1.265233
-12.40966 103.331 -2.566128
-13.65459 101.039 -1.898902
-11.50271 101.789 -4.184831
-10.21882 106.4719 -4.073296
-10.70134 109.0033 -2.357752
-11.6263 108.0377 -1.430378
-1.673119 82.95475 -9.247453
-13.20618 67.47699 -5.588415
-13.79672 97.5815 -3.051884
-14.98912 93.76465 -3.250188
-16.48734 83.68697 -4.149848
-1.908941 95.05997 -9.616374
-4.369778 93.27522 -10.09807
-10.62135 110.106 -1.596836
-16.40453 84.45939 -3.88691
-14.1957 83.44707 -4.10025
-15.11469 83.6684 -4.589341
-3.303104 75.27628 -9.426444
-15.48106 90.46672 -3.757561
-14.46399 91.9568 -3.813376
-14.16256 94.13473 -3.648045
-13.20726 95.79503 -3.498396
-11.6234 97.19364 -4.562147
-10.65919 95.61913 -6.609483
-9.328598 97.14206 -7.874612
-7.267089 95.73077 -9.491063
-11.68436 91.31265 -5.744642
-9.73584 94.82808 -7.974619
-7.873652 95.55592 -9.263076
-10.47825 93.61574 -7.144478
-6.966484 94.89586 -9.781246
-6.532858 94.21676 -10.01721
-3.998689 99.85705 -9.315524
-3.240074 80.72293 -9.384271
-9.191925 67.80145 -12.54414
-6.74588 78.08054 -11.67445
-5.567295 79.86223 -10.79531
-7.792412 81.11584 -11.53406
-8.93084 78.61448 -11.13034
-9.593336 79.4841 -9.138602
-12.75585 79.27005 -4.353929
-7.691069 97.98071 -8.81368
-6.710087 86.42532 -10.92385
-9.394389 91.74486 -8.487348
-6.522049 88.85374 -10.70786
-8.756496 89.92178 -9.780233
-8.602931 87.91338 -10.20435
-8.880681 89.82246 -9.607366
-8.63892 87.14686 -10.27648
-10.29547 82.25391 -6.654689
-11.77524 83.73452 -4.810596
-6.641263 92.57835 -10.26299
-9.016791 88.25762 -9.478928
-8.838521 85.49617 -10.24321
-9.42084 83.65186 -8.813587
-10.57289 85.04276 -6.53573
-10.54124 84.01506 -6.461896
-12.00017 81.9989 -4.57641
-14.54577 83.46955 -4.25789
-13.00977 82.94463 -4.0582
-9.33847 79.32648 -10.38017
-4.083357 98.32184 -9.58921
-3.708765 96.09885 -9.891887
-5.081052 97.79063 -9.599933
-5.531733 98.5078 -9.428469
-11.73588 84.95921 -4.992552
-13.88418 83.01752 -4.05337
-12.32761 84.16129 -4.270517
-12.82904 90.69138 -3.859942
-12.19884 91.26632 -5.058549
-11.89365 88.25198 -5.242557
-11.76862 86.57736 -5.193385
-12.77307 92.64433 -3.705629
-12.04882 91.84276 -5.239971
-12.1777 95.60075 -3.951772
-11.50082 79.99275 -5.021756
-11.02175 87.13981 -6.258748
-11.66959 87.26333 -5.448312
-10.59806 87.52864 -6.792906
-11.09878 88.4101 -6.326699
-11.76922 94.16032 -5.173423
18.59207 63.8859 -3.136269
20.21021 64.64405 -2.61425
17.71704 73.46365 -2.051813
19.12702 68.63819 -2.737339
1.926048 67.747 -12.6498
10.23171 119.5964 0.8732662
15.24576 89.41479 1.279576
0.3089459 117.5147 -3.765811
4.985186 66.14071 -13.09067
10.63486 114.8628 3.213624
10.39442 118.0509 2.701732
11.3428 112.4603 4.145724
10.40787 118.59 2.254582
4.658539 65.27046 -13.30649
0.4341127 117.9745 -3.835501
2.923797 67.28506 -12.98434
1.829991 118.9736 -4.010247
2.848727 63.82243 -13.31656
1.257258 110.2368 -4.895384
8.161963 119.1906 -2.08302
1.126567 118.1969 -3.87088
1.493551 93.79405 -9.52601
2.694267 118.2874 -3.874339
3.325228 90.6011 -10.71578
18.43098 78.51612 -2.252431
2.07162 84.07816 -10.48616
2.351959 104.3879 -7.335124
7.981355 118.5228 -2.031145
9.589747 116.851 0.3512931
1.124645 68.73074 -11.61231
0.9346724 66.08719 -11.77199
5.006195 117.0779 -3.513079
19.90943 67.5165 -2.756984
18.02382 75.4145 -1.747441
17.21872 66.04676 -3.690223
16.67536 86.97387 -1.504906
16.35392 90.90371 -0.7376789
2.070464 110.5351 -4.771083
9.604916 118.3162 -0.07928645
1.648127 72.06988 -11.6297
1.625348 70.89369 -11.79107
1.374621 66.10929 -12.17588
3.541345 115.8791 -3.566456
2.026079 115.8112 -3.576567
16.13578 77.30451 -1.0865
16.59509 75.76434 -1.46606
14.50394 64.8983 -2.858727
1.437475 83.00938 -9.929811
16.07158 81.39044 -0.5566018
2.833034 100.8242 -9.004869
14.39903 98.83315 2.612411
13.36356 104.7702 3.552559
4.399739 108.5473 -5.36739
8.059013 116.2249 -1.637206
7.013262 65.3474 -8.565018
1.064455 70.94302 -11.06173
5.856591 64.69141 -10.96382
2.770921 66.05408 -13.16697
3.029771 113.8281 -3.610015
20.33976 67.17142 -4.353137
19.69799 66.69576 -2.683459
17.37988 78.46775 -1.189752
18.48146 77.14079 -1.887479
18.40176 75.21455 -1.856926
18.20983 72.40475 -2.273681
14.03823 66.796 -2.919033
1.401861 80.86771 -10.09334
2.628987 87.65334 -10.6833
15.59308 82.03593 -0.3150659
16.60199 90.00703 -0.1924591
16.77866 89.37422 -0.3081497
2.682495 91.80533 -9.998929
2.587272 101.1005 -8.920318
14.49894 99.23656 2.09606
14.33183 100.4905 2.137723
2.484083 106.1741 -6.585711
4.754744 104.2709 -7.394608
12.7696 107.3814 2.874976
13.87633 102.273 3.242885
12.02182 109.8076 1.807562
9.731274 115.7421 0.4769837
7.279769 68.24765 -8.592984
1.326537 74.95945 -10.70014
2.591197 69.60209 -12.76812
5.812529 67.3088 -10.82509
4.391145 114.8606 -3.483128
20.19756 68.52692 -4.215797
20.17736 70.01351 -3.808979
16.41937 80.22406 -0.8076955
17.2427 72.22263 -2.264678
18.2082 67.30374 -4.24988
17.27111 70.04079 -3.726985
15.29612 65.60296 -2.790795
2.312269 79.46469 -11.30335
2.052123 77.50198 -11.26312
3.00583 77.33141 -12.16061
3.431179 85.19969 -11.47702
4.864376 83.69444 -11.54162
17.42622 83.66749 -0.8309066
17.15483 86.09922 -0.8691342
16.01371 88.92268 -1.07022
2.97569 96.34898 -9.845782
2.502581 90.26439 -10.17466
4.940053 92.22483 -10.79044
4.820218 89.97112 -11.02193
1.928864 96.71127 -9.557488
3.73988 102.6807 -8.291039
15.136 97.67204 1.083088
13.47023 100.4674 0.2559061
15.87773 93.95914 0.2812891
3.555214 101.9421 -8.61807
12.39197 108.6434 1.904302
1.779864 110.0706 -4.934284
10.68297 113.8967 1.870194
10.83149 112.0103 0.1153828
11.37582 112.2755 2.967403
9.711871 65.17873 -9.629025
2.169889 75.32151 -11.64821
1.676173 112.1417 -4.186868
19.24729 73.68365 -3.277747
18.2618 75.22993 -1.807082
12.01393 67.85332 -8.579711
11.62275 66.7954 -9.179019
12.68106 68.63857 -5.334522
4.577767 77.82216 -12.24363
4.114522 75.98212 -12.51547
2.678506 84.60048 -11.08525
1.750216 87.25616 -9.835472
2.02444 90.26582 -9.773885
2.440585 101.5624 -8.765971
15.10724 91.2543 -0.5253648
5.553713 104.0042 -7.47049
12.17477 109.2498 1.582278
4.656973 109.1407 -4.919793
4.538963 106.6219 -6.163499
10.52301 66.40971 -9.729074
3.483113 69.15553 -13.03724
6.261134 67.84382 -9.108232
4.956076 114.3635 -3.441348
19.42529 72.77519 -2.813411
14.86525 69.8875 -2.349876
11.14153 66.99381 -9.501002
12.94422 71.77271 -3.962573
5.053244 80.18034 -11.63167
17.16192 83.4254 -2.041929
5.063365 98.52162 -9.508438
14.15515 92.90881 -0.6896915
12.46444 105.7825 -1.217598
11.53379 109.4446 -0.5511636
3.262025 72.69521 -12.74829
4.121411 70.4286 -12.91973
14.16996 70.04173 -2.534822
14.49841 72.04671 -2.269514
18.77672 73.46585 -3.800596
11.391 68.6472 -9.21886
5.044282 76.45837 -11.96282
3.968561 87.15662 -11.40073
17.19516 81.32397 -0.7750955
16.81281 82.10562 -2.285049
14.13704 84.75616 -1.955154
16.24226 86.26553 -1.500067
14.74181 85.32272 -1.19501
14.26881 79.99176 -1.730598
4.372537 95.72206 -10.18896
4.120027 93.9271 -10.5196
4.558867 106.3219 -6.320952
8.998822 114.1313 -1.229105
7.685553 113.7984 -2.461661
7.770695 113.4021 -2.540209
4.763721 112.0208 -4.097253
12.37964 71.28553 -5.634529
14.40785 73.60719 -2.208913
12.64161 68.16727 -5.696236
4.762846 86.76546 -11.39883
16.31265 78.67229 -2.088318
14.84295 80.12064 -1.503429
5.744876 96.73476 -9.802755
4.578605 92.93388 -10.71526
7.898261 95.32797 -9.142409
8.422926 94.9922 -8.923987
12.87496 105.0906 -0.1678873
7.183238 111.0191 -3.740931
5.658616 74.72863 -10.40063
10.82573 70.54338 -9.478286
9.847312 68.34314 -9.663058
7.820532 73.5544 -8.843451
9.368044 71.83914 -9.395959
11.71761 72.81142 -8.242837
12.15968 71.39746 -6.829584
9.183282 66.13207 -9.2976
11.87396 73.84964 -7.251989
5.363662 77.36295 -11.09452
16.55196 77.69514 -2.272191
6.679164 92.12747 -9.778938
7.708223 112.8289 -2.884938
6.101365 75.65263 -9.416374
5.537405 73.82826 -10.9517
5.696527 70.82404 -11.35938
17.72314 71.57581 -3.854514
18.34492 73.57808 -3.867174
15.01435 74.43356 -1.904883
8.114215 69.64104 -8.830636
13.63985 68.4731 -3.13246
5.397645 81.19302 -11.16415
14.6705 77.76814 -1.694386
7.526901 93.36501 -9.517483
12.83179 104.9545 -0.4858995
9.469326 112.1832 -2.027099
5.732397 77.05299 -10.1784
10.95198 75.12096 -9.056489
4.654403 72.88145 -12.62337
12.43466 72.58339 -5.09677
15.10017 75.4771 -1.854854
14.05719 78.01415 -2.054776
14.57781 79.33053 -1.660021
13.98171 75.56536 -2.328707
11.59195 81.24804 -5.956406
5.550608 89.56318 -10.65669
6.498808 111.3066 -4.032098
8.402972 109.872 -3.714624
6.653676 107.0636 -5.565389
7.445747 74.08497 -8.812366
11.86997 73.40948 -7.353468
5.98685 72.97047 -9.567288
16.95688 76.32862 -2.775322
8.273133 92.35224 -9.325799
11.3433 93.16098 -6.111185
10.41677 93.85805 -7.298193
12.1639 105.2134 -2.176506
8.192141 109.6207 -3.954868
10.28507 107.5056 -3.599347
9.688868 105.4519 -4.975406
8.592632 76.54857 -9.285058
7.689673 77.93652 -9.028882
11.65425 76.10325 -7.589779
5.765807 71.00522 -10.50056
13.47909 73.70954 -2.929913
13.24277 75.60777 -3.161127
13.47816 79.96053 -2.610055
12.80485 102.4644 -1.106989
6.847232 109.114 -4.59446
10.66849 106.5269 -3.709309
8.986393 104.9764 -5.653518
8.696006 77.03839 -9.358381
6.421936 76.82983 -9.159915
9.35157 78.41342 -9.44856
12.02008 79.52097 -5.060118
11.43253 105.1162 -3.43372
7.946239 108.8901 -4.549682
9.901948 109.8587 -2.732097
12.55293 107.2508 0.485948
7.583534 106.1474 -5.809555
12.66926 79.67746 -3.770876
11.55025 101.1539 -4.115931
10.64262 101.6808 -5.318594
10.23255 101.0884 -5.982278
10.5345 90.70646 -7.244255
10.38554 114.6744 1.750843
4.133885 67.41551 -12.92119
14.69157 88.74774 -1.179943
14.16234 98.42033 0.04966658
12.79093 97.67446 -2.234993
13.37709 95.6159 -1.109833
6.332995 87.11857 -9.667737
13.09658 82.60858 -3.124372
13.84311 82.89677 -2.175092
13.26553 84.07473 -3.166761
12.51358 87.04226 -4.483018
13.62807 88.18545 -3.175296
11.67934 80.33854 -5.880328
11.02232 84.27284 -7.291214
11.98832 78.59031 -5.277371
11.37123 86.92148 -5.771368
11.44196 78.32477 -7.706222
7.494764 97.77135 -8.935959
7.071636 98.81062 -8.884503
5.889577 102.7754 -8.036808
8.914496 103.6057 -6.344616
9.289624 103.4055 -6.166599
8.103271 98.58773 -8.502238
7.962935 102.8951 -7.180098
8.872404 100.0823 -7.499703
7.384305 99.58498 -8.564232
8.911939 100.7331 -7.30865
10.76678 97.62184 -6.015669
12.83888 96.91663 -2.418994
12.16466 95.36261 -4.400166
12.82784 99.23127 -1.507878
12.75392 97.27634 -2.582114
13.13916 98.67156 -0.5984367
10.48107 111.4991 -1.14029
11.83244 74.86212 -7.226579
11.13022 85.55599 -6.336943
12.15498 77.60953 -4.98232
14.62329 89.93488 -1.056407
12.09268 94.27685 -4.652257
13.7993 93.13347 -1.308039
7.410064 84.75362 -9.17996
8.113663 85.70791 -9.237708
8.889452 83.02536 -9.357772
10.61389 85.40948 -8.213654
9.844923 85.20927 -9.101136
10.48331 84.93536 -8.564984
8.970573 89.77324 -9.236034
10.93926 83.06361 -7.987803
10.14023 82.54646 -9.118849
7.299938 89.35007 -9.384334
11.36659 90.48488 -6.152679
6.988969 89.10117 -9.44232
10.04937 87.00384 -8.793674
11.67763 91.17863 -5.828868
12.01638 91.84228 -5.11701
11.54855 93.30975 -5.698152
12.37523 92.14035 -4.552418
13.51568 91.73345 -3.022077
12.60665 89.08224 -4.549619
12.12283 86.87985 -4.866822
12.06598 94.72938 -4.615223
12.31728 95.24264 -4.203098
10.98974 79.14914 -8.614926
11.2732 80.47988 -7.664587
8.555285 81.22424 -9.32057
10.87633 81.61654 -8.394736
10.37188 81.35902 -9.012224
5.183633 84.76837 -11.14844
-13.85384 132.5728 0.3883459
-11.08695 121.5647 4.409964
-11.68896 125.268 3.745902
-13.48816 134.896 4.417017
12.34953 145.8149 -0.9646567
-6.56968 123.0146 12.33394
-2.798975 122.7795 13.42099
-1.764049 122.9373 13.46895
13.1656 137.2057 5.771737
-12.95768 145.2328 2.420274
14.55366 138.9948 4.847734
-6.97192 146.7396 -3.972794
-13.35627 141.9009 4.810305
8.394341 142.9573 6.13638
-13.78769 136.175 4.719868
-11.16677 145.7253 -2.427236
2.196781 123.0831 13.46284
9.939768 120.5554 8.158048
2.356659 138.0767 10.17061
2.839136 140.5043 8.949601
10.85031 120.4751 5.106358
12.61179 128.9786 2.254901
13.72106 132.5939 0.9516361
13.54025 140.0965 5.206341
14.97789 140.3863 4.549708
11.03003 121.2334 4.49888
4.736045 142.6241 7.733377
-7.104427 146.3914 1.34868
12.47011 145.8867 0.8117074
6.951635 146.7099 -0.8245753
12.85416 142.675 4.611916
15.01434 137.7822 4.012095
12.83436 145.3741 2.178496
-12.4528 143.4977 4.325282
-11.6455 140.8961 5.813841
13.47752 134.87 4.243597
15.11114 137.3364 3.421969
11.94198 141.7333 5.280476
-11.25126 139.8113 6.469479
14.17595 135.0707 2.595768
10.66814 145.6416 2.295856
9.967879 142.1607 5.849437
9.934472 144.6255 4.201336
7.650645 142.0672 7.005463
9.807809 145.7153 2.176334
-11.14411 122.393 4.977423
2.218847 126.223 13.38074
10.71425 120.9813 6.175264
-11.76644 145.7743 -1.516241
9.80845 145.916 -1.987079
-11.21514 145.8858 0.7528639
-14.73642 137.2719 4.241461
-13.89457 134.6794 3.316933
-13.55596 132.6957 2.314792
-9.578837 145.3154 3.493286
14.56715 138.7192 4.860497
10.39941 139.7767 6.852519
7.641796 141.4328 7.342793
-9.616493 143.6156 5.133809
-10.85407 139.9737 6.586132
13.43687 137.106 5.48112
9.838641 140.6715 6.706154
7.360094 138.8611 8.727535
-11.83891 125.5986 3.066144
11.33675 124.0267 4.840808
-9.742917 145.9756 -2.474907
-8.510646 146.2848 -1.346996
-14.29681 137.1337 4.655173
-12.01531 135.8698 6.930136
-13.48314 133.2584 3.170241
-14.76709 135.0169 -0.1457997
-13.76504 134.0992 3.114211
13.80178 132.6873 0.6000636
13.01042 130.559 2.037799
-9.841628 142.5561 5.680665
-10.35375 140.1816 6.729021
-8.568615 139.304 7.997336
12.80818 136.2445 5.943538
10.99443 137.0802 7.587139
6.73944 144.8458 5.219554
7.495636 141.6413 7.295392
3.438852 141.3835 8.506096
6.546895 138.5766 9.154599
8.778755 145.859 1.628502
-10.58451 122.3508 7.033303
1.435006 125.5485 13.43284
11.88877 126.7826 3.998062
10.51027 123.6954 7.42071
-9.942543 128.0166 9.79636
-9.645402 146.0179 -0.1742802
-9.401643 145.9875 0.644565
-12.99096 130.1806 1.75292
-11.96446 128.5221 4.770258
-13.30274 133.4012 3.868955
13.65083 133.3398 2.382611
11.45613 128.0658 6.16449
13.31474 132.4513 2.76106
9.922638 125.5992 9.068529
13.24167 135.4667 5.050046
9.52527 135.9759 9.123769
7.25726 135.2676 10.67608
-11.60732 129.0513 6.175852
7.525317 123.3147 11.6878
9.452357 122.4581 9.358207
-3.803305 122.8385 13.30449
0.7373671 126.5671 13.28598
-8.420613 146.1172 0.6236982
-13.57433 135.8085 4.856649
-12.59883 136.4425 6.306797
-12.13859 132.755 6.370295
-11.93826 129.8718 5.611453
-11.04656 131.7416 9.16923
11.32075 126.0372 5.750025
-7.111463 142.5904 6.926089
10.00686 139.1879 7.325756
-10.22651 123.7008 8.063449
7.517261 122.5239 11.60895
9.58862 124.519 9.424069
5.674602 124.1587 12.8402
8.884183 128.5849 11.5333
10.34883 127.258 8.718238
-7.64395 124.8363 11.72674
4.121852 122.1624 13.15692
-8.034429 145.8606 2.497509
-7.231754 144.4688 5.590159
-10.99993 136.5903 7.851003
12.0494 129.8475 5.202109
-6.559494 142.4268 7.227153
-5.503998 141.498 8.053488
-4.471873 139.8269 9.042518
11.60374 134.1987 7.495771
8.381941 137.306 9.087186
9.617443 135.4934 9.316858
7.037018 138.6959 8.927217
-11.06797 124.297 5.92311
12.05234 130.7658 5.647556
9.249852 128.2963 11.02391
8.364952 126.6862 11.4212
-8.22885 126.4655 11.49502
4.888303 123.1257 13.10189
6.334458 128.9817 12.85017
-0.753652 126.0512 13.31838
-7.524578 138.1745 9.008884
-3.510483 139.8185 9.194592
11.1839 132.6734 8.624518
12.69645 134.1335 5.509518
12.89761 133.1641 4.608398
11.92163 132.1742 6.573107
13.1206 132.7373 3.688249
9.774804 131.0627 11.11208
11.35527 133.2332 8.166162
8.581862 125.2562 10.92913
-8.361195 124.3025 10.99915
0.09658401 127.6371 13.13069
-6.1623 140.8132 8.168462
12.5626 131.3684 4.476158
2.541079 128.7956 13.03579
10.02271 131.6875 10.75474
9.413516 130.0044 11.43777
7.259582 134.3122 11.22322
6.147779 136.1275 10.576
6.614801 131.6494 12.56675
5.257913 130.8828 12.91147
4.903184 127.9598 13.01313
8.146609 126.8165 11.64689
8.711022 128.9538 11.793
3.669382 125.2875 13.33421
10.67296 127.982 8.24556
2.422059 128.5559 13.05753
-6.134426 137.6599 9.742993
4.602609 138.4346 9.722566
-1.155411 138.9526 9.774757
4.351315 141.0431 8.520717
5.221001 137.1795 10.24751
-0.09178041 138.8321 9.849221
-1.926384 138.2766 10.08296
-5.114738 135.6593 11.06321
0.8670757 136.2076 11.12917
-1.167677 136.7373 10.89105
-4.659508 137.0039 10.44691
-3.790437 134.4759 11.81118
5.044247 130.9879 12.89488
4.267443 129.3314 13.01315
4.40093 123.3201 13.23927
1.230389 128.3472 13.06145
-0.03667296 124.6733 13.37926
-0.4679914 126.3207 13.28499
0.3517314 130.3728 12.71238
-4.902479 130.0854 12.98919
0.2088223 132.0673 12.39325
-2.698332 131.2953 12.74923
2.626498 131.1627 12.76823
2.139203 131.5103 12.65767
-3.585676 128.2674 13.09969
-6.066169 133.1287 12.14266
-8.632517 131.9274 11.7852
-2.856726 132.0067 12.66222
-5.546015 132.8417 12.3611
-7.860861 131.3081 12.29086
-7.687464 133.625 11.46634
-10.87737 128.7221 8.003503
-9.718359 129.7616 11.05933
-5.333574 128.5792 12.97998
-5.092247 127.4319 13.01731
-8.648078 128.2128 11.63045
-7.793159 137.7134 9.141538
-7.412401 135.0543 10.74463
-7.039517 137.0336 9.780552
-8.979271 134.6484 10.19515
-4.29197 135.6971 11.18451
4.044245 135.7748 11.19439
2.165306 135.7747 11.33203
6.736687 133.3745 11.90429
6.065997 134.7657 11.35601
1.891087 130.0347 12.84595
-1.008214 132.2098 12.40034
-9.18749 132.3883 11.28673
-3.88959 125.8409 13.27137
4.926703 131.7612 12.74067
4.550349 135.9024 11.06718
-9.526559 135.8926 9.199133
-12.49423 130.8839 4.496879
-11.52901 134.6324 7.705019
-8.723502 135.7233 9.765457
-11.43755 130.5188 7.345855
-10.84336 126.0873 7.118624
-11.62545 126.0883 4.575646
-12.54519 129.7307 3.437749
-10.25615 125.7246 8.375959
-10.82485 127.1 7.484646
-10.70569 124.8762 7.111149
-11.81494 127.4691 4.682349
-11.81783 126.8182 4.268295
7.405973 146.0042 1.885504
9.655155 139.2066 -8.490796
9.167387 145.8073 -4.200723
14.20381 133.5281 -0.800532
-10.27474 142.9293 -7.501347
-14.26918 134.5666 -5.008654
11.09824 121.9654 2.095326
-11.06608 132.5037 -7.17601
11.61396 139.1151 -8.028927
12.07479 141.3761 -7.663839
-9.789404 140.2313 -8.424387
14.14194 135.0695 -5.915145
-8.895956 145.5927 -4.912312
10.22529 142.4059 -7.805543
-4.549984 119.7824 -4.147907
9.853978 145.4872 -4.633788
14.0725 133.1723 -0.4454395
14.60121 134.5362 -2.279858
12.7364 131.8636 -4.983912
4.167191 120.5094 -4.37415
-14.48923 134.142 -2.935711
-11.7432 139.3751 -7.985954
-3.504078 142.5491 -8.517538
9.693941 145.5734 -4.500253
0.3444491 123.5071 -5.4113
-11.65595 144.5341 -5.490154
12.90476 134.7704 -6.764929
2.086024 141.4757 -8.73836
-10.9791 139.7081 -8.138665
13.78202 133.9287 -5.13582
5.830194 140.6895 -9.189852
-13.79906 136.106 -6.811042
-7.518559 144.5074 -6.932322
7.166595 143.0092 -8.081951
10.85557 141.8711 -7.813185
-9.659592 140.7822 -8.392552
7.956052 143.3175 -7.786396
-8.979245 142.5374 -8.049969
11.03599 121.2836 3.173186
-11.27107 122.5574 3.850307
-3.47046 120.7796 -4.470737
12.69605 133.2161 -6.002937
11.33357 132.7421 -7.079696
13.15277 130.4976 -0.3315575
-7.800946 145.1529 -6.178355
5.952391 142.6414 -8.496464
-14.62196 134.6576 -4.325308
-8.641018 136.3217 -8.724952
-2.001774 141.7787 -8.66309
11.89012 125.7956 1.017753
12.3907 127.6816 1.888391
-2.774002 123.2576 -5.294164
8.647816 142.7531 -8.003294
-13.53928 131.7756 -1.843511
13.01055 134.4184 -6.505157
13.29839 131.6192 -2.854167
-14.15086 133.1744 -1.473966
-6.849709 142.7079 -8.345674
-2.756521 139.3549 -9.218225
-7.490008 142.0394 -8.487988
5.281971 141.2798 -9.023726
-12.33207 137.5057 -7.75459
-10.82642 137.4424 -8.136112
11.34568 123.2124 1.858805
10.79799 121.273 1.238007
-9.597763 122.3041 -2.423023
-10.40163 122.048 -0.8657895
-11.81629 125.4411 1.375552
-12.06549 126.3708 1.746307
11.41327 125.5351 -1.298398
-0.5409672 140.4762 -9.064089
-13.03902 129.9658 0.07487077
12.72538 130.3119 -3.016258
12.48744 129.437 -2.541806
6.481311 140.3581 -9.158123
-2.783268 142.0407 -8.605367
-9.083754 121.9041 -2.693079
-12.36693 127.5789 1.382794
-4.293939 121.6419 -4.689931
8.653059 120.3331 -2.217616
11.60981 124.8116 0.8382934
2.617476 119.4848 -4.13525
-12.3323 128.7856 -2.209217
11.418 131.6742 -6.573913
7.121704 140.3907 -9.057877
7.519255 136.4548 -9.036477
-10.27486 134.1366 -8.051117
-5.073112 136.7576 -9.220526
-7.517867 122.6283 -4.108544
-10.37906 125.289 -3.570694
-11.8524 127.4379 -2.09629
9.304889 122.1823 -2.692204
10.58666 124.3225 -2.463355
11.69671 126.2335 -1.02231
11.85195 126.0727 0.07526361
-3.953869 122.7932 -5.0852
-12.80106 132.2574 -5.176315
11.15337 133.1792 -7.353235
1.733132 140.3813 -9.129726
5.127127 136.4993 -9.216319
-7.041293 140.7264 -9.068113
-5.975524 135.063 -9.168697
-3.923647 136.6305 -9.176731
-10.2924 122.3867 -1.311368
-11.75421 127.9612 -3.13675
-10.88934 125.1145 -2.561621
-6.758064 122.2994 -4.287707
10.90585 125.4563 -2.77558
11.51069 126.4321 -2.014563
5.319472 120.0654 -4.070319
8.133854 122.4283 -3.721942
-0.5510786 120.5464 -4.445293
-12.32407 132.7708 -6.278428
-8.168244 127.2825 -6.327267
-9.569963 134.1907 -8.31997
-9.621131 131.0102 -7.637301
11.67916 132.619 -6.7243
6.546508 130.2232 -8.228307
9.163214 133.0272 -8.353835
-4.635053 135.206 -9.073151
-8.759023 125.4302 -5.023865
-11.66937 129.2987 -4.730086
-6.170086 124.4338 -5.374962
-10.8451 128.5444 -5.315941
-10.18787 128.9169 -6.250877
-9.410854 128.5835 -6.624519
-8.521474 130.2763 -7.958993
-6.852383 126.624 -6.257997
-7.29169 128.5202 -7.212739
-6.253864 129.5032 -7.845627
-5.145106 126.1213 -6.235385
-3.365867 122.3812 -4.983432
2.171241 120.4571 -4.418749
-10.93413 131.1527 -6.779626
10.62985 129.0985 -5.909859
-4.141127 138.5932 -9.304828
-6.875971 123.5234 -4.780954
-9.801165 130.6526 -7.410996
-1.187687 121.9135 -4.874709
-3.599566 122.0526 -4.870837
7.502457 130.3689 -8.201475
-1.886985 138.3588 -9.222783
-2.476998 128.2874 -7.188263
-1.70104 124.782 -5.85384
2.047115 121.7631 -4.820911
1.105031 122.1791 -4.965775
0.08147119 128.181 -7.126342
-5.67819 139.8167 -9.271076
-6.23574 128.2302 -7.15555
-7.272493 129.1286 -7.579351
-4.313847 126.7198 -6.541515
-9.437709 134.8137 -8.441539
-8.797806 133.5614 -8.550261
-2.881733 133.1126 -8.673378
-5.248841 130.9917 -8.342291
1.012881 122.0654 -4.930367
4.943885 126.3186 -6.31631
-1.874015 137.0691 -9.16642
-1.204347 124.8149 -5.868334
-3.672908 128.6388 -7.346167
-1.822769 127.8701 -7.021251
11.1794 129.3495 -5.442997
8.460505 126.1123 -5.565085
8.942783 123.6646 -3.825046
4.581117 126.9617 -6.597405
7.477832 128.5215 -7.201218
7.596471 124.9524 -5.211213
3.908923 127.9659 -7.044505
7.361428 123.3665 -4.524053
3.852588 130.2249 -7.969756
-2.419064 132.5718 -8.53828
-0.9120982 136.6851 -9.131921
-1.279453 129.8967 -7.754088
9.664301 124.6757 -3.931183
2.155444 129.7829 -7.735335
4.441799 129.3204 -7.644592
6.872849 131.7942 -8.786175
5.976337 131.2944 -8.569582
6.465735 131.8121 -8.810108
4.14125 121.3616 -4.620676
1.539874 133.4165 -8.723241
