# .PCD v0.7 - Point Cloud Data file format
VERSION 0.7
FIELDS x y z
SIZE 4 4 4
TYPE F F F
COUNT 1 1 1
WIDTH 1659
HEIGHT 1
VIEWPOINT 0 0 0 1 0 0 0
POINTS 1659
DATA ascii
-2.574718 112.1618 11.84935
-0.1884911 111.0525 11.97122
-2.766141 110.9387 11.98234
-2.580925 108.4939 12.25861
-3.833261 106.452 12.19029
0.644213 102.2305 11.77433
-3.27317 102.6337 11.57953
-2.577878 104.1581 12.05783
-12.62614 111.2281 6.897654
-10.62695 113.8468 8.326214
-9.789054 110.0845 9.665333
-12.91421 109.8632 7.266593
-9.67418 108.5804 10.01476
-12.24311 109.4445 8.252726
-13.10221 105.3451 8.502339
-13.25385 109.2138 7.12808
-13.54179 108.6706 7.009838
-8.415337 107.1047 10.58887
-9.608864 105.2776 10.01173
-13.15763 106.7664 8.266027
20.31108 76.30785 3.044231
19.63577 71.33308 4.104898
18.68164 73.23742 6.340879
19.40592 71.9722 4.797716
19.24381 75.15497 5.741735
18.42649 72.41666 6.564098
17.51371 72.1121 7.522312
14.45884 71.98137 8.974388
13.52042 71.48269 8.954008
11.94891 70.8323 8.821507
14.27371 70.39322 8.699464
19.51906 76.27151 5.439719
19.33957 77.37016 5.983637
17.33583 77.13948 8.364059
18.28094 76.97526 7.498318
13.53238 73.63161 9.337318
16.69043 76.31566 8.735908
14.55903 73.80896 9.167637
14.79422 74.45468 9.253613
13.19946 76.37991 9.71976
10.28236 76.70176 9.716763
13.04976 74.75458 9.504186
11.21654 74.56676 9.449367
8.409695 74.19624 9.362248
19.25262 89.26553 4.26602
18.92124 88.91983 5.463939
17.43706 90.99059 7.283381
19.08212 86.77828 6.040993
19.78662 85.65285 4.562948
11.95484 52.41864 4.576344
9.468036 116.1191 9.287806
9.570653 116.6411 9.283874
2.049662 112.1565 11.85548
2.183923 110.974 11.98586
7.696104 110.9262 10.49598
15.23849 56.57296 5.098854
18.4213 92.86497 3.91032
17.95853 93.31519 5.007463
17.82235 94.45702 4.523922
17.97845 94.52535 3.800152
17.14059 91.35947 7.548531
13.5501 108.7891 6.939237
7.19028 105.2836 10.92168
8.771749 106.8963 10.46412
11.03325 104.9882 9.484309
9.485323 107.149 10.17711
10.37074 106.5832 9.816266
7.253273 100.0227 9.948054
7.163185 100.6189 10.08756
9.082917 107.767 10.3294
5.22245 104.9603 11.58812
2.604632 110.0823 12.09886
6.697957 109.8794 11.1006
7.140701 108.4388 11.07545
6.280339 105.2671 11.25969
0.6755193 106.8119 12.32588
1.722914 109.0347 12.22562
1.821823 109.9989 12.11085
-3.334562 105.2276 12.14008
4.370775 105.2975 11.91839
2.582791 104.7402 12.15979
3.973091 103.3042 11.55146
-3.212235 107.6964 12.29194
1.802373 105.9054 12.29268
-1.339983 104.6745 12.18889
10.08838 110.6194 9.394703
9.304622 112.2839 9.442047
5.826548 112.2398 11.2635
8.090435 114.5013 9.963908
13.22632 96.64442 8.834993
-17.61027 63.0555 5.052432
-11.66353 60.94854 6.497201
-14.11321 65.726 7.587526
-16.22791 61.41695 5.751298
-16.52221 59.32639 4.945754
-17.6916 61.17929 4.183874
-12.50664 60.35256 6.344785
-6.294967 62.97802 6.992972
-9.59047 60.72841 6.431195
-13.62322 59.68335 6.12993
-9.388063 65.86281 7.700812
-13.16667 65.91579 7.727077
-9.843104 62.83353 6.965405
9.866505 58.00317 5.713614
10.89921 58.03783 5.712294
-15.19513 87.91158 9.674163
-0.700547 95.78796 9.715413
-12.632 91.56507 9.745688
-8.773816 89.4465 9.96042
-17.5864 83.97282 8.416563
-15.86238 86.7889 9.442384
-14.12295 99.1386 8.055555
-1.337273 58.26676 5.823049
-4.266881 54.43156 5.007463
-4.823378 57.64545 5.66936
-2.587014 61.02693 6.502552
-1.006288 55.40926 5.206535
4.08923 55.2188 5.168858
-11.09026 98.39861 9.132144
-13.69505 96.61926 8.698017
-17.2121 68.45332 6.921816
18.97939 68.25046 4.731994
-2.069345 70.19746 8.634014
15.53304 88.95763 9.387594
11.31734 96.14678 9.228961
-4.820522 93.91813 9.473118
-10.08362 93.86839 9.440166
-3.633596 97.29574 9.906806
3.305447 98.4099 10.28263
-4.252567 97.80553 9.965785
-12.90762 91.93662 9.673537
-3.439505 93.85438 9.487716
-1.34865 97.95912 10.40398
-4.110642 93.14914 9.547031
-4.907644 93.05801 9.556093
-0.7528462 99.93303 11.11689
2.803486 99.34798 10.68906
2.759201 100.3565 11.03197
-9.186636 89.85271 9.924599
-6.220128 93.48666 9.507468
5.971553 99.82894 10.18813
1.517522 101.7768 11.62777
2.941684 97.42063 10.04243
9.181412 97.21171 9.348506
3.729302 101.0508 11.07319
5.226217 97.49149 9.795633
12.3249 99.67208 8.841399
9.93047 98.59557 9.308057
6.589904 100.3112 10.14972
9.514531 99.64966 9.441809
8.913015 101.3778 9.783808
-5.992215 110.5455 11.3171
-7.234939 112.644 10.50095
-8.23764 110.0996 10.36476
-5.498091 108.3633 11.75242
-5.927456 104.9534 11.33837
-18.01066 59.09558 3.08898
18.92853 82.23472 6.887683
18.95646 84.14748 6.711217
20.23383 84.0208 3.380339
20.0612 81.9998 4.520821
16.06093 81.43497 9.49238
18.63183 79.73212 7.278069
18.07625 81.77341 7.985329
17.79254 82.4855 8.232251
16.34812 77.31983 9.122271
18.89008 79.43246 6.915918
17.81766 83.91195 8.226453
18.19928 85.81221 7.655333
12.08015 84.76685 10.25229
19.35715 85.55844 5.754199
17.98644 85.47285 7.93875
13.0072 84.55123 10.25735
15.62381 86.35892 9.604608
4.359229 75.37462 9.505272
5.993498 81.88535 10.11788
12.28366 94.95824 9.296916
10.58321 94.22369 9.413366
10.58484 93.02611 9.529378
15.02402 93.63545 8.673429
13.17647 93.56207 9.380951
15.10026 92.27679 8.956382
9.683322 90.92667 9.795259
9.628093 91.43982 9.728709
13.49909 90.98428 9.729925
16.20978 90.32999 8.689028
7.585809 103.1296 10.4539
7.611082 101.0544 10.07236
5.793932 101.4806 10.65386
14.92367 96.42064 8.053087
-14.25309 64.12879 7.153959
-13.27891 62.92911 7.002173
-15.00957 60.49675 6.046504
-10.07187 66.89764 7.953774
-7.953105 58.70118 5.900087
-7.609863 59.02124 5.984453
-2.72881 58.39174 5.850167
-5.407168 60.57602 6.388419
-5.36369 63.61177 7.146846
-5.834359 64.06384 7.257673
-2.899224 59.24779 6.05765
-7.241615 62.83351 6.959233
-1.025186 59.34861 6.084172
-3.63279 61.0952 6.519704
0.001522091 62.16507 6.786858
7.352684 67.9492 8.176838
0.4807649 64.60922 7.386265
3.652687 64.46204 7.352809
-10.76644 62.39986 6.86153
-0.6194984 89.91894 9.892554
-12.02375 86.89978 10.19448
1.606369 54.98343 5.11828
7.433552 58.18723 5.782621
4.426096 55.80604 5.288646
7.731511 57.96673 5.726243
7.83112 60.68512 6.419591
-15.44564 98.45909 7.090946
-0.7795197 65.79838 7.669888
-0.5352633 66.34162 7.796991
-0.1720423 69.03529 8.394868
3.693777 73.82498 9.276815
5.388399 73.05721 9.161922
2.400397 74.90194 9.433
6.581715 76.3022 9.635311
11.06641 78.01632 9.865906
8.955597 77.94499 9.841325
-11.97544 74.41692 9.411843
8.163519 76.7417 9.700514
9.658648 77.52591 9.801263
-2.903389 76.76443 9.678277
8.247934 76.11431 9.626504
3.079651 75.7297 9.549007
-3.221688 71.72398 8.926229
-10.69929 72.76957 9.156052
-1.5275 73.9751 9.294127
-1.310436 73.69982 9.252303
10.53227 79.49197 10.00633
2.594045 76.96305 9.701224
-2.105762 76.35255 9.62596
-1.398546 79.08038 9.913821
12.46188 82.24362 10.2098
11.31896 83.2897 10.21651
3.854382 77.06794 9.717013
-3.290632 71.92238 8.961666
-5.49191 75.8306 9.571209
-5.551991 77.26535 9.747531
9.093261 84.76214 10.20804
12.50469 83.76196 10.23213
9.510238 82.63477 10.17818
6.972931 84.40401 10.1886
5.580627 76.3702 9.638618
0.0632737 79.19989 9.924432
-4.368254 72.93056 9.136705
-3.326033 74.17245 9.327576
6.784458 81.7212 10.11549
8.8656 83.71759 10.19676
3.454121 79.31097 9.938253
0.02820056 79.97805 9.984428
3.174987 83.97143 10.16653
-4.073292 77.43967 9.761087
-9.253618 75.52282 9.552489
7.809762 84.46491 10.19639
-10.34344 88.82555 10.0292
-11.31356 91.9391 9.69189
2.44977 91.62688 9.708358
5.903988 93.93957 9.479305
5.271152 94.68307 9.450732
7.400113 70.91363 8.792977
6.987172 74.99668 9.470035
17.6944 80.02755 8.367819
18.21563 90.68484 6.185057
14.09737 89.44712 9.797643
10.02332 88.75951 10.04019
12.98194 86.12093 10.2456
11.55379 86.73103 10.20034
7.16104 93.4062 9.509879
-12.0707 62.41411 6.871428
0.9143797 61.03309 6.504532
4.751044 61.93174 6.731407
2.807875 60.40613 6.347039
11.60977 65.31797 7.575901
4.005428 65.05872 7.496469
1.390271 65.74848 7.658361
11.6344 67.41302 8.08202
1.046968 65.56699 7.615381
5.432605 67.88064 8.152905
5.443565 68.5341 8.296345
1.937666 67.64522 8.093055
9.292264 62.65792 6.922203
4.725314 63.29041 7.06836
6.348555 65.40613 7.583716
7.030596 63.22654 7.056229
10.26737 63.85844 7.216082
6.668045 64.89912 7.462564
9.834272 67.82745 8.163845
6.683275 64.26379 7.308852
-0.6180084 68.4252 8.264943
4.659552 70.66391 8.72962
2.863477 70.71086 8.732683
6.834899 69.6284 8.534065
-17.0891 78.6162 8.765607
-0.6060191 81.71594 10.09137
-15.58598 77.0576 9.395818
-10.7711 78.67864 9.939693
-15.37863 79.84274 9.747367
-17.92296 85.56392 8.004814
-14.30987 80.3065 10.04612
-16.17245 80.96645 9.421436
2.800756 95.46446 9.546977
1.228528 94.52686 9.479529
19.8827 80.29684 5.03604
9.914738 89.58819 9.95606
1.290421 58.7339 5.93573
4.217733 61.0919 6.519784
-11.89295 78.38023 9.930364
-11.20811 80.1977 10.07148
-13.2972 82.67203 10.19645
-12.73727 79.13979 9.997083
-14.8646 82.37809 10.01857
-5.252903 78.53564 9.880264
-14.82705 85.94479 9.938206
7.393578 93.07793 9.539575
1.336823 92.14702 9.651707
-12.45956 82.54118 10.21334
3.068177 94.14973 9.483274
6.934255 85.98959 10.16781
6.776931 87.13476 10.12062
6.515035 90.58929 9.827541
1.112775 89.58797 9.924802
3.112264 88.87021 9.989684
5.852837 86.09618 10.15814
5.071814 84.20058 10.17587
-0.1151745 85.92466 10.1436
0.2326829 80.91321 10.05026
2.549486 81.51558 10.0863
-13.35933 83.64091 10.24344
4.521682 90.65131 9.817246
-0.2916449 90.05778 9.878698
6.447095 85.0156 10.18416
0.8982734 81.83311 10.09891
0.4437899 90.77226 9.804901
-0.7298328 91.33518 9.743894
-3.905785 92.1077 9.660872
-10.35029 90.701 9.843921
-10.52754 88.17179 10.08994
-7.18147 89.80777 9.919335
-8.471576 88.88469 10.01056
-8.673873 88.42972 10.0493
-2.456645 83.66692 10.15376
-6.285014 88.79784 10.00502
0.8420907 84.54107 10.16015
-0.9844595 85.29869 10.15462
-5.273068 86.24262 10.14479
-0.5434378 82.10516 10.10935
-4.385541 87.12109 10.10735
-4.558834 87.7904 10.07042
-6.895872 87.82568 10.07812
-7.738486 83.39741 10.17293
-2.596162 82.36521 10.11914
-5.945685 87.57297 10.08976
-4.165205 91.52113 9.727369
-1.196412 88.11068 10.04307
-1.249026 80.51837 10.0239
-10.53608 83.79581 10.20687
-6.771172 84.95737 10.17456
-8.436425 85.20276 10.18359
-2.901567 84.52271 10.16269
-9.915144 83.85656 10.19949
-7.796976 82.51279 10.15085
-9.419877 82.5091 10.16461
-6.410161 83.72864 10.16965
-8.249578 79.83003 10.0077
0.1417381 88.55364 10.01051
-2.107372 92.26559 9.641408
-9.674335 98.00895 -11.33128
19.13861 59.73219 -2.350112
19.1235 60.27145 -2.472334
18.57993 74.31378 -5.323464
-12.03082 119.3139 1.201025
18.37083 57.90505 -4.376204
18.64806 51.39426 -6.138296
15.99682 102.0555 -2.542381
-8.259189 113.4207 -4.67871
0.4690726 52.03314 -8.10838
10.21448 119.514 -2.472255
-5.990637 113.3957 -5.369629
11.82853 108.2826 -5.081316
-10.02184 118.0629 -2.642467
-11.44271 116.9051 -0.6507753
-5.090942 119.1297 -5.761266
-11.7198 117.6632 0.3688738
6.159886 115.0202 -5.067647
11.88742 117.3714 0.7598091
20.46385 80.80349 -0.9764418
11.67404 119.1004 0.2049218
14.2313 110.6234 1.202453
10.6756 119.2938 -1.797661
20.03784 85.99608 -1.295205
-8.541363 51.5395 -8.173286
7.366115 118.9403 -4.740186
-15.22761 51.54678 -8.009231
-19.64474 51.00746 -2.660317
-19.47905 52.29127 -2.257778
11.51497 119.4055 -0.2220235
-19.33918 51.58519 -1.233528
-20.17453 70.87318 0.4759311
-20.63346 80.50201 1.547705
-19.17718 90.25569 -1.885815
-8.729188 114.1905 -4.247047
-19.41268 61.23434 -0.8757981
-12.07007 118.3487 1.603504
-12.36511 114.7697 0.3183211
-2.728345 51.46817 -8.182834
4.87918 119.0295 -5.798437
-19.38573 61.82629 -1.488284
-5.622945 117.7669 -5.324791
-19.18607 56.52177 -1.747179
-4.920906 115.5552 -5.394185
-14.32228 110.4817 1.82588
-8.487981 118.5262 -3.972511
-16.44878 103.9445 1.563681
-19.88645 85.77397 -2.039496
-13.94136 80.84579 -8.272761
7.665529 115.5995 -4.458218
9.153851 117.7895 -3.420348
7.025789 119.7584 -5.107672
-3.260494 116.2838 -5.72549
5.431832 119.0875 -5.622234
5.855262 116.4175 -5.138634
0.2668951 54.90997 -7.766994
6.307931 51.72008 -8.153518
17.8195 53.03444 -6.422117
-11.3821 73.82578 -8.799581
-19.05479 51.18159 -5.704564
-19.34455 52.38753 -1.657142
-11.62813 112.1178 -3.107593
-4.28676 117.4652 -5.699621
-7.212476 110.7069 -5.950537
17.74512 95.52235 -2.122228
-14.1638 102.355 -5.704357
11.87953 116.3138 0.1654766
2.8737 117.768 -5.988642
-5.419107 116.624 -5.284816
5.640674 115.4124 -5.188984
2.650318 114.5736 -5.730495
17.85991 82.47039 -6.043718
-20.33364 74.51427 -0.4098246
18.59824 55.84426 -4.384393
17.58424 52.14455 -6.957641
18.81455 52.49364 -5.408428
15.62862 96.67752 -6.425185
-16.7651 59.19012 -5.989178
-5.168345 53.9098 -7.868201
-19.26023 54.93335 -2.310308
-14.47995 107.4651 -2.069632
-12.00276 114.3419 -1.067445
11.25928 112.154 -3.476379
-17.56817 97.52179 -0.5022444
-15.27138 102.8921 -3.61823
9.14334 113.9399 -4.09117
-1.829478 116.0698 -5.716429
4.899101 115.6663 -5.396017
4.871119 113.0772 -5.661514
3.421467 116.1681 -5.7289
15.77819 60.02832 -6.781445
-6.690246 51.27771 -8.208182
-20.56721 77.56582 1.214116
18.00357 61.39084 -4.754258
11.81257 53.23001 -7.95108
7.92233 52.58234 -8.036486
19.04303 56.98096 -3.066799
17.3169 52.80489 -6.920372
18.95832 52.23886 -5.212018
15.87813 98.5918 -5.001938
-16.66974 80.46914 -7.03893
-19.2146 58.42167 -1.854613
-12.26997 52.93993 -7.98214
-19.19112 54.55431 -3.104637
-14.22666 110.7277 2.309765
-12.81302 114.3555 2.954673
-14.2788 110.2033 0.2944732
15.33462 106.6664 -0.4205804
11.96124 112.9187 -2.140595
16.26667 100.215 -3.063625
-15.67371 106.983 2.195462
-16.4369 102.7988 -0.4156072
12.00756 114.1507 -1.159635
19.63272 66.10206 -1.753287
19.64187 73.9055 -3.195795
19.89839 75.8459 -2.681321
3.544765 52.55232 -8.04201
1.12543 51.26674 -8.212729
-20.05027 69.19781 0.7494307
-19.93736 70.36334 -1.495921
18.09275 55.64241 -5.207769
5.922046 51.51101 -8.182405
12.4416 52.15982 -8.087864
20.39171 83.14812 -0.9863786
18.40265 90.82466 -3.825043
20.34586 80.20037 -1.576347
18.10098 93.71236 -2.739644
-20.5742 80.20005 -0.1601026
-20.64235 81.18372 0.9600931
-19.55855 85.08144 -3.18071
-19.25683 59.49562 -1.686464
-12.91346 52.72824 -8.008247
-17.30547 51.46761 -7.37182
-19.06802 56.78609 -0.6964661
-14.2031 110.6471 1.084075
14.15801 108.2608 -2.179058
13.70882 111.2784 -0.0585865
16.64426 102.2151 -0.2043076
17.7583 95.84008 -1.617009
-17.10915 100.476 0.6784468
-18.70446 92.66459 -1.147444
-19.14574 91.27042 -0.5076126
-16.32661 103.9922 0.6053092
-16.58671 100.4865 -2.02058
11.12575 114.7034 -2.164658
12.75271 110.5559 -2.853243
9.591512 111.5657 -4.890872
1.536528 115.3562 -5.607769
19.47315 63.79761 -1.704301
19.30591 62.86804 -2.212898
19.27508 75.08231 -4.154709
-1.873737 53.05368 -7.975235
-19.95351 67.75517 0.8713562
-19.68098 64.88171 0.5623639
-19.9206 71.25664 -1.900503
-20.5781 77.95312 1.669275
17.82333 58.0304 -5.065005
16.31426 59.60957 -6.360227
15.03816 53.04982 -7.831304
19.07511 86.97712 -3.808405
19.16806 78.89107 -4.349679
17.0465 95.40218 -4.45193
19.44996 88.69563 -2.047996
-20.47038 84.15163 0.7216411
-20.16525 86.68635 1.584895
-19.97399 87.60356 -0.04649125
-19.41975 90.01654 -0.7595326
-19.27427 60.46655 -1.741563
-9.667973 52.91745 -7.986039
-12.99188 51.70781 -8.153554
-11.69946 53.90757 -7.859471
-18.69704 58.63721 -3.75985
14.83282 106.741 -1.817447
13.86679 110.7916 -0.3408109
11.63898 112.9334 -2.558777
12.18413 111.2232 -3.11969
10.44139 108.6522 -5.849699
11.21467 106.4771 -6.484654
9.607117 109.174 -5.968318
15.39579 104.4328 -2.22199
7.199728 109.8574 -6.276879
16.67976 100.7437 -1.461647
14.95359 103.497 -3.834555
17.56498 97.10226 -1.105753
-17.19966 98.64862 -1.398206
-17.75175 96.92838 0.588638
-17.75618 92.70986 -4.408279
-17.59879 96.37153 -1.887938
-17.7 93.8129 -3.864653
-10.79603 86.6336 -10.43383
-16.9303 94.77639 -5.06678
-19.15129 91.4813 0.2377005
-15.94646 104.3112 -0.790314
3.428976 110.9654 -6.334872
-0.5056179 113.6044 -5.89477
17.72748 68.5626 -6.08082
19.38206 71.02934 -3.565841
18.66244 75.15706 -5.189522
-19.83453 69.78345 -1.789007
-19.91456 69.18044 -1.157468
-18.88513 66.49548 -4.05547
-19.04396 70.01383 -4.256743
-18.25229 66.96922 -5.235443
-19.46748 62.45412 0.4730561
-20.26664 73.83883 -0.7916213
-19.32419 73.29245 -3.930887
-20.5195 76.41564 1.110736
16.04099 55.35736 -7.054188
16.87899 58.61957 -5.928965
17.02098 56.59286 -6.072583
12.41832 56.73629 -7.577172
13.47665 58.01287 -7.493345
19.7512 86.9088 -2.025433
18.56582 93.06348 -1.35127
19.262 90.16418 -1.597051
-20.16567 78.30614 -2.098259
-18.69034 78.63734 -5.10837
-20.15651 86.45018 -0.08146066
-7.355369 52.82505 -8.000519
-8.03737 55.38011 -7.699315
8.992269 110.6639 -5.544015
15.11442 101.5833 -4.699941
-16.44461 101.7181 -1.507559
-15.88194 104.451 -0.8667863
8.912771 113.2503 -4.443287
19.05532 64.41244 -3.357253
17.53926 62.43503 -5.470433
19.68112 72.18863 -2.917326
16.77821 75.63767 -7.146895
-3.165119 52.02877 -8.107587
-1.928802 53.67171 -7.90054
-20.0712 69.28796 -0.05396901
-17.74028 66.73488 -5.829846
-20.39921 77.27349 -0.9913602
16.55038 57.39611 -6.340419
10.61315 58.52773 -7.525136
12.39 56.20305 -7.611465
6.410217 54.08561 -7.851899
8.155748 56.46661 -7.626941
16.30921 97.13644 -4.994764
-15.89696 76.8695 -7.632565
-13.15078 53.99554 -7.853487
-11.53337 61.53212 -7.754206
-10.78232 60.05121 -7.607042
-13.77914 58.49153 -7.479546
13.90574 103.6463 -5.397774
19.15919 67.06733 -3.555264
16.24023 69.0134 -7.434884
18.98023 72.92831 -4.611868
-5.717611 54.1242 -7.842025
-2.865587 55.25654 -7.73406
1.609081 53.00385 -7.983782
-19.06741 74.37411 -4.528041
-15.39273 78.62914 -7.772762
-19.16619 73.51232 -4.268902
-16.88812 76.63461 -7.020884
6.86567 54.85774 -7.764021
-18.54947 77.77467 -5.30359
-19.57522 81.64776 -3.661536
-17.58955 78.06881 -6.3929
-15.93472 78.34503 -7.561954
-15.28233 57.94529 -7.035161
-15.10353 102.8839 -3.971116
0.1291379 52.54409 -8.040563
-19.18018 76.16145 -4.342521
-18.24685 71.39284 -5.67311
5.805985 52.05232 -8.108011
8.327909 57.34658 -7.57239
4.491573 70.45155 -8.669415
-16.0553 57.90179 -6.628105
-16.42168 56.74574 -6.504792
-16.82643 59.69683 -5.931489
16.22175 67.79195 -7.393336
-14.93731 70.20623 -8.19094
2.789571 53.71624 -7.897639
-18.77166 58.27177 -3.6349
-14.20781 59.70857 -7.410807
-16.1572 64.95267 -7.116033
-16.24621 67.18301 -7.300498
5.317142 55.82222 -7.688209
-14.33792 77.74252 -8.246021
-17.85035 54.21325 -5.976598
13.80968 68.47201 -8.46525
17.93684 69.28644 -5.935982
-17.95339 64.4907 -5.258614
-15.82533 64.12823 -7.236197
-13.8363 68.57023 -8.426854
-15.90608 69.76387 -7.721636
-14.3612 69.61972 -8.319127
-13.98103 71.15473 -8.510719
-13.66187 67.54391 -8.380691
-6.534734 61.09975 -7.737875
-17.03714 70.14407 -6.916327
-18.689 60.76694 -3.728193
6.264205 63.53536 -8.002192
-18.37512 62.85156 -4.420612
-15.63132 64.34193 -7.393036
-12.17558 60.33047 -7.617213
-17.95573 60.85451 -4.822937
-10.95067 64.35397 -8.141098
12.63403 68.78024 -8.60366
8.999843 68.03841 -8.540441
15.82155 71.72614 -7.791134
-8.854725 63.04668 -7.959726
-10.89054 63.07996 -7.961554
-11.61178 61.61756 -7.764692
-8.521254 60.97322 -7.711038
-10.21835 61.12837 -7.715804
-13.43093 105.5129 -4.915578
-9.579848 113.2147 -4.125851
-12.4957 113.3674 -0.8094676
-12.00527 111.0017 -3.4867
-10.95858 110.802 -4.465446
-13.06534 111.0966 -1.92829
-13.82213 109.446 -1.954907
-14.29546 108.5109 -1.67264
-7.669498 112.0526 -5.363027
-8.669581 111.3527 -5.355425
-7.751566 109.3596 -6.375834
-13.9655 106.8086 -3.441405
-6.398865 108.077 -7.182662
-4.191411 112.1841 -5.954706
-3.716572 108.6968 -7.205729
-1.961868 109.3655 -6.920026
-4.445901 108.955 -6.989646
5.846246 113.8774 -5.297483
19.87425 82.73129 -2.855199
18.95368 83.55805 -4.617257
19.47738 80.20842 -3.843076
18.67598 81.40955 -5.121209
19.00939 88.44685 -3.495347
18.84787 87.75612 -4.067148
16.91663 86.81524 -6.864935
17.61927 85.11009 -6.201185
14.79648 85.63262 -8.410514
17.29521 88.36069 -6.366374
14.85008 85.08302 -8.328188
10.89668 116.083 -1.875562
17.91839 91.86132 -4.484904
17.67298 90.90207 -5.326166
17.10951 92.14681 -5.906029
-18.71303 89.97691 -3.446796
-18.85879 87.99736 -3.890312
-18.29969 91.42191 -3.797265
-17.98746 92.00546 -4.236832
-16.08028 94.21483 -6.820185
-16.99103 91.95869 -6.17395
-16.54283 89.60078 -7.129792
-15.26924 95.54659 -7.450689
12.81122 106.5142 -5.104463
11.89938 106.2717 -6.079785
8.990432 107.7118 -6.903589
7.8145 106.4291 -7.983232
16.15537 97.312 -5.182601
13.31384 103.5476 -6.154484
14.45417 92.95959 -9.081725
13.90426 96.48935 -8.681356
14.49606 102.8581 -4.997168
-16.01698 95.99675 -6.161265
-15.81022 95.3981 -6.729988
-19.94383 84.8271 -2.225814
-18.18773 80.41576 -5.754499
-19.19524 82.35782 -4.313062
-17.70477 81.12647 -6.209074
-17.55909 82.25385 -6.346795
-17.94338 82.70241 -5.906375
-15.02085 85.29498 -8.248476
-13.76185 82.98033 -8.484584
-13.09125 79.96671 -8.465797
-10.93199 83.54216 -9.052551
-15.86218 79.89679 -7.498775
-11.49717 82.06492 -8.743377
-13.90746 83.66001 -8.534958
-17.77447 86.55881 -5.922374
-16.52283 86.41972 -7.223589
14.02725 103.949 -5.043756
-16.02404 101.6123 -2.795213
-13.78815 101.9989 -6.383775
-15.8834 98.44012 -5.063987
-15.29804 101.4513 -4.428391
-13.95522 102.3775 -5.983938
-14.15992 104.1911 -4.733751
-12.66944 103.4026 -6.907278
-10.32007 103.132 -8.853653
-10.82436 103.265 -8.47317
-14.57242 100.7001 -6.003961
-12.75369 101.096 -7.963235
-10.85161 101.4038 -9.394499
-14.10283 94.96365 -8.970888
-13.70547 96.00278 -9.054941
-11.44994 96.10518 -10.84196
16.12743 65.61343 -7.219251
16.45589 67.44594 -7.18597
16.29615 63.45491 -6.803175
-15.46432 77.13842 -7.887945
-12.11996 72.35429 -8.774736
-3.82481 73.42796 -8.762225
-11.75116 75.49532 -8.79932
-13.96442 73.17298 -8.53999
-16.89424 73.09629 -7.153393
-15.8212 55.1904 -7.217559
-11.73487 77.53369 -8.724812
-7.48094 75.7644 -8.781144
-11.6191 76.69641 -8.767315
-7.432938 75.97036 -8.778498
-10.33221 74.54865 -8.796918
-4.481175 76.46845 -8.770225
-5.261993 76.52279 -8.769966
-3.934132 73.62753 -8.765466
-5.879013 73.74839 -8.774236
-3.216994 72.64742 -8.747539
-10.4254 71.55024 -8.738791
-4.868887 66.79765 -8.416153
-8.962159 70.97865 -8.710421
-9.886455 70.33598 -8.678046
-8.028791 69.71398 -8.63839
0.8944596 71.70481 -8.714364
-6.369936 67.89371 -8.517035
-12.50749 73.25066 -8.750179
-10.76186 67.94947 -8.548956
-5.552645 70.145 -8.656523
-5.780909 68.91488 -8.585959
-2.07544 67.73627 -8.490577
-7.701175 66.22999 -8.368434
-5.220196 64.88217 -8.198035
-11.1473 65.54571 -8.30802
1.901113 68.82574 -8.57455
-5.361871 61.60435 -7.795894
-1.776746 68.86545 -8.57683
6.800776 68.11662 -8.536256
2.960852 67.69621 -8.487182
-4.421315 63.27104 -7.992575
0.5071858 68.49442 -8.553156
0.1904824 69.9444 -8.641779
2.339364 71.09154 -8.694072
3.17686 71.32832 -8.702819
2.238267 70.60088 -8.673487
3.656837 66.98231 -8.425018
3.714989 66.16856 -8.342761
7.367214 67.00925 -8.443423
3.896827 62.90402 -7.934466
4.457636 71.75089 -8.71837
6.85586 57.46648 -7.588314
-0.9278499 56.53873 -7.640125
4.23405 57.08228 -7.613334
-0.7394164 57.43249 -7.618711
1.342406 63.0161 -7.954591
-0.8371534 59.8428 -7.661962
2.804613 61.85084 -7.820207
5.540133 59.34872 -7.619718
4.741809 62.35207 -7.864801
-14.51361 70.5125 -8.336415
13.71083 71.86072 -8.600024
12.79324 84.63165 -9.043665
9.936455 68.8736 -8.614118
16.55364 75.24059 -7.333112
4.903079 68.4368 -8.552028
11.66497 74.49469 -8.794105
6.442724 70.49133 -8.677359
11.00408 69.28695 -8.645407
6.08624 68.68353 -8.574932
9.111905 69.27313 -8.631157
6.585176 72.30466 -8.737404
5.871785 66.60339 -8.395665
-7.719913 59.9353 -7.628974
-10.78935 58.94352 -7.544581
-10.16172 58.01296 -7.526814
-12.46794 105.7639 -5.828724
-11.03771 106.7801 -6.435679
-7.707374 107.1262 -7.553824
-10.29908 108.549 -5.964155
-2.528755 111.7881 -6.098441
2.205574 112.8939 -5.873764
0.7397985 111.5659 -6.117638
7.444473 112.4105 -5.307254
4.903768 112.4312 -5.801217
6.987062 111.3609 -5.771843
6.411625 111.0598 -5.972923
7.397435 110.1412 -6.136028
5.025801 109.3459 -6.750392
3.776253 109.0271 -7.033771
2.176234 107.3547 -7.985551
-3.102532 108.5847 -7.285638
-18.50356 55.32117 -4.757428
-18.44303 54.19614 -5.24533
15.10658 84.66738 -8.13297
11.74827 83.20064 -8.877757
18.07737 59.84785 -4.660149
15.6367 62.64675 -7.131509
15.62681 63.79392 -7.316226
13.48729 64.58243 -8.129005
6.456151 62.03833 -7.818633
4.227363 63.75589 -8.0378
8.824606 62.13868 -7.81431
6.64544 61.20444 -7.735772
10.71944 60.99746 -7.68654
16.28337 94.7411 -6.298896
15.73299 93.28678 -7.574394
17.18238 91.28645 -6.022902
14.32805 94.59162 -8.831117
-4.91337 86.81675 -10.86234
15.30758 89.68208 -8.49367
-14.09614 93.15938 -9.378901
-15.71707 91.67234 -7.952358
6.676532 100.5308 -11.3947
12.68659 104.0331 -6.571905
10.00751 104.6067 -8.242465
9.482514 99.14754 -11.04634
13.58559 95.34382 -9.361092
14.94837 98.06911 -6.799887
-9.064912 83.63635 -9.220913
-3.687707 78.10736 -8.765562
-11.34525 78.87552 -8.646953
-8.572202 77.19431 -8.754242
-13.40241 86.22952 -9.289695
-13.17253 87.98735 -9.881445
-13.23689 87.23718 -9.656376
-11.07332 87.89369 -10.82202
-11.73398 89.63662 -10.97281
-11.4694 86.02645 -9.9394
-8.674737 87.80506 -11.34879
-12.25863 89.41791 -10.67522
-8.709327 89.25279 -11.82917
-8.053994 86.62305 -10.79674
-10.57601 86.3729 -10.35883
-5.948136 85.18283 -9.989045
-5.438816 87.5775 -11.26669
-2.658978 86.37447 -10.63824
-0.4060856 87.68929 -11.25407
-7.157907 85.55521 -10.11871
-2.471502 87.65249 -11.25338
-4.958603 88.39772 -11.63985
-4.448574 90.54273 -12.36204
-4.430661 90.0788 -12.24105
-6.483921 89.35445 -12.07369
-5.006145 83.63505 -9.431058
-6.132541 83.86477 -9.456576
-9.704325 80.71353 -8.717312
-7.807647 83.69277 -9.317211
-8.785081 83.20238 -9.125958
-9.645297 82.71375 -8.961467
-5.800182 78.46095 -8.749909
-3.972576 78.576 -8.767981
-3.602594 79.90689 -8.824646
-3.29061 81.33469 -8.973539
-1.558015 79.61174 -8.820932
-4.712457 77.73808 -8.761924
-4.059376 76.43729 -8.770278
1.379635 76.35925 -8.768363
-1.00021 75.50829 -8.771158
0.7167801 73.12308 -8.750138
-2.015922 77.08987 -8.76871
-0.08283877 76.5759 -8.768675
3.152949 76.34087 -8.767502
1.03405 75.56335 -8.770246
5.792014 73.06641 -8.753744
4.864012 74.67754 -8.770576
-17.85367 86.68993 -5.822437
16.27302 77.74796 -7.387903
14.15379 83.20498 -8.372031
17.35463 81.63773 -6.514228
12.88942 80.05589 -8.489138
16.66035 82.02029 -7.069099
18.20409 74.31026 -5.796228
16.69443 71.98392 -7.301358
13.95895 76.4213 -8.467872
17.01299 71.27857 -7.028373
12.962 74.45188 -8.719262
15.84136 77.14794 -7.680833
15.36741 76.26759 -7.976128
7.263615 78.88284 -8.739514
11.0731 75.96823 -8.781125
4.245523 78.35068 -8.766088
12.24017 76.68501 -8.745728
7.831394 75.00979 -8.777283
7.556096 77.92102 -8.741421
12.22593 79.93145 -8.585089
3.170271 80.57842 -8.886047
9.971004 82.05221 -8.83936
13.76252 81.93516 -8.375274
5.680627 76.38988 -8.765595
9.303178 79.28503 -8.697835
10.82426 80.87184 -8.680035
0.2221205 80.94077 -8.955183
7.946738 82.47639 -9.024064
7.023278 80.38094 -8.796752
10.10672 83.07948 -8.988405
8.968819 83.28658 -9.132604
6.475874 82.59844 -9.129538
9.027982 81.73377 -8.845808
5.347843 80.11179 -8.811666
11.6135 87.2883 -10.43325
11.06429 86.57866 -10.31621
11.43257 85.20658 -9.564209
19.32141 78.58663 -4.073017
-10.80129 99.68609 -10.13921
-9.367396 99.64964 -10.9447
-8.477749 98.87444 -11.54504
-7.627347 97.33611 -12.18806
-5.415751 99.84113 -11.73699
-8.580993 101.8393 -10.39241
-8.827175 94.83861 -12.32979
-14.85226 96.16187 -7.736091
-11.10315 96.58223 -10.95334
-7.059659 91.75997 -12.6248
-5.045165 92.82893 -12.77954
-8.661805 95.36737 -12.31994
-6.23731 60.58281 -7.688478
-5.491658 66.3373 -8.371683
-2.361373 63.36549 -8.003234
-4.232109 60.62947 -7.702617
-5.47086 59.61341 -7.630401
5.14045 59.31989 -7.622569
-1.513178 64.28002 -8.116026
-9.117957 57.50948 -7.552594
-4.19309 57.84888 -7.5963
-3.349424 56.45063 -7.635126
-3.696196 58.38404 -7.599706
-7.764377 58.72153 -7.57188
-4.591179 58.45353 -7.598739
-11.09105 107.0245 -6.271783
-1.477087 108.1885 -7.527797
-0.5274449 107.6242 -7.845772
1.208058 107.4551 -7.945037
-3.262155 96.89706 -12.45446
-0.2035793 105.338 -9.080771
-3.657085 105.5617 -8.943291
-1.520515 105.5468 -8.968725
-4.482451 100.431 -11.50513
2.62941 92.74553 -12.67113
1.14258 104.6919 -9.429975
-7.600644 102.9806 -10.13219
-5.542945 100.818 -11.3796
-10.80114 105.1917 -7.471511
-7.969975 105.3207 -8.660773
-8.314144 106.6829 -7.701684
-2.235095 103.4783 -10.09581
-4.238182 101.825 -10.92134
-0.1824591 103.5293 -10.0577
-3.699027 99.44366 -11.82064
-0.8805354 99.51856 -11.75889
1.99457 103.6363 -10.00978
4.64308 107.7921 -7.582856
13.86825 61.87827 -7.689915
10.96489 62.76611 -7.868646
8.917092 63.25887 -7.946949
9.910976 62.76436 -7.87902
11.07719 64.06421 -8.041234
8.472271 64.32507 -8.105237
13.27668 88.18117 -9.859697
16.06724 87.82262 -7.664621
15.49305 87.01858 -8.105728
12.87166 89.42946 -10.3158
-3.813435 91.49163 -12.53856
-11.02549 89.15938 -11.19241
-13.14569 91.54037 -10.28826
16.21443 80.00775 -7.337191
-1.897286 86.44612 -10.67619
1.505673 89.44411 -11.958
1.225835 80.00118 -8.853753
4.509586 78.88406 -8.774972
1.821051 82.23318 -9.162851
-4.369757 97.26669 -12.41927
-10.33687 92.59128 -11.88688
-6.973917 94.32579 -12.71749
-4.731782 93.88759 -12.7921
-1.094003 92.83848 -12.64894
3.732883 100.3642 -11.49384
-2.451343 95.47157 -12.63662
1.0139 91.85146 -12.53376
-1.430119 88.8572 -11.74069
4.138693 96.88486 -12.4881
-3.179862 90.15968 -12.21654
1.487523 88.48475 -11.59541
4.566643 96.19548 -12.62339
3.335645 86.93828 -10.92904
2.456583 90.44617 -12.27123
6.796432 93.31258 -12.76936
0.4506077 92.72601 -12.64233
4.445348 92.11771 -12.66748
-1.962231 59.41808 -7.63855
0.3212053 60.27843 -7.689891
-0.4218183 63.53176 -8.021166
-4.395416 65.59299 -8.280827
0.6030931 63.50454 -8.015682
4.144495 104.2607 -9.686374
6.220826 104.2637 -9.64894
2.766877 101.7735 -10.92251
3.543288 105.4539 -9.002867
-6.96066 105.1551 -9.016159
-3.383153 106.6517 -8.340343
0.357693 99.76482 -11.6757
6.264145 100.081 -11.62568
5.26828 100.7716 -11.38246
2.493271 99.95023 -11.61452
7.396531 100.475 -11.28806
9.028306 101.3015 -10.4334
1.112424 98.80714 -11.96927
-1.25353 97.74561 -12.24451
8.939667 103.115 -9.597437
11.13623 103.6499 -8.069711
10.87658 101.8384 -9.16443
8.895656 98.62556 -11.49302
9.746301 100.3098 -10.47926
13.16982 99.72903 -8.193138
4.451816 97.17648 -12.43249
5.197797 96.8764 -12.51897
6.814142 97.82398 -12.214
9.427691 94.71864 -12.13219
7.778708 96.62001 -12.32735
10.4895 101.394 -9.62396
12.40188 100.5814 -8.520828
4.3791 95.83305 -12.66903
2.812535 96.41206 -12.53109
11.89122 102.0138 -8.298049
9.596702 97.82831 -11.41398
12.79377 97.02124 -9.573286
10.3007 94.20721 -11.83018
13.15969 93.01453 -10.21029
12.7035 91.74256 -10.60104
10.81227 90.60381 -11.53301
9.411965 90.90111 -12.04361
10.77414 95.6711 -11.38182
8.028388 94.01011 -12.59725
-15.12698 93.10136 -8.327905
-8.864184 91.9409 -12.33043
-13.58757 94.01252 -9.711152
-13.19167 93.35774 -10.14376
5.156737 88.44869 -11.65626
5.93293 87.56713 -11.29049
7.727141 86.0948 -10.48672
7.235952 88.16578 -11.61084
1.850598 86.27629 -10.60375
5.737338 89.77974 -12.19891
9.259846 92.72341 -12.2695
5.17876 107.4564 -7.709067
11.596 101.3171 -8.859587
10.29914 87.72005 -10.97301
-1.653824 85.87065 -10.40589
2.467588 87.84114 -11.33903
-2.402319 83.67207 -9.529783
2.709152 84.57466 -9.838686
-3.314063 82.65086 -9.219483
2.056079 82.75881 -9.267958
1.315266 81.02716 -8.957791
-9.234799 101.6315 -10.19671
12.85198 132.7817 -7.810991
13.17764 124.2391 2.176038
11.53782 122.729 -1.697225
14.17129 130.9747 -0.5495833
12.73931 122.2429 2.057092
14.23054 132.1458 -3.895957
15.36939 137.894 -8.964935
20.42067 147.9682 -6.05315
13.18785 123.6358 3.451127
14.82127 135.86 -7.704514
1.490599 120.7579 -6.813189
14.46044 133.0321 -4.375409
-0.02103032 128.9742 -9.650944
2.661194 119.797 -6.923019
-1.444127 121.9036 -6.952645
-0.04735146 120.0346 -6.614306
-0.2910579 128.2109 -9.343246
-1.069028 119.8127 -6.367929
13.21261 147.2138 -10.64392
12.74314 150.7514 -8.378765
4.217355 129.0822 -9.670642
9.188761 139.2943 -12.38264
13.26224 143.3667 -11.18853
4.249097 130.5407 -10.32683
0.01460533 125.1462 -8.189571
12.85332 123.5197 1.281402
12.07491 120.782 0.749694
16.72106 149.5848 -8.445304
17.66952 147.2863 -9.356738
4.274411 133.2551 -11.37483
14.57383 133.5428 -4.879403
10.9383 138.34 -11.6478
15.64146 137.6016 -8.632767
17.25899 143.8434 -10.10959
5.733847 120.0384 -6.533159
0.1928661 122.4406 -7.162551
2.334183 119.7439 -6.676275
-0.4944396 121.6505 -6.953399
14.23268 131.1055 0.2090877
14.10422 129.9964 1.247804
2.490976 127.0998 -8.914728
10.70336 119.9662 -2.772925
12.26137 121.6459 0.7905543
12.035 120.5531 0.5683417
13.45714 148.1888 -10.25058
13.04686 145.9001 -11.00058
19.80901 147.3978 -7.734097
16.79856 142.249 -10.05575
2.058057 132.0284 -10.91371
14.90484 137.5236 -8.980168
11.05475 136.8503 -11.14692
8.861075 120.1432 -4.796364
-0.6513647 126.2331 -8.588518
0.788315 123.536 -7.600763
14.51551 134.9924 -7.111605
14.15034 131.5291 -2.484684
13.38432 129.2011 -3.093036
13.65014 126.615 3.329383
-1.075355 131.6826 -10.7659
10.86911 121.4312 -2.147784
10.67698 122.1668 -2.858899
16.63484 141.9072 -10.05127
6.518108 136.2769 -12.195
12.19149 144.2798 -11.44025
12.66671 138.3914 -10.78602
13.17603 142.4154 -11.21588
14.10611 140.6022 -10.58142
14.3256 142.6311 -10.81868
0.9289809 128.6287 -9.511387
4.744021 123.3816 -7.301803
14.077 130.5843 -0.7650499
-0.7565088 130.9554 -10.47923
3.466122 131.5878 -10.76063
12.92585 130.0671 -5.431271
4.321397 130.8869 -10.47606
7.305468 134.5413 -11.54202
5.269936 133.0117 -11.23822
13.09616 141.262 -11.17608
12.52599 142.5342 -11.43595
4.876027 122.826 -7.03441
6.855234 121.7944 -5.892515
9.031404 122.7373 -4.962169
11.21092 124.7807 -3.827294
0.499226 127.6655 -9.129589
11.09012 124.9071 -4.135014
12.66852 126.2389 -2.023671
10.357 124.0241 -4.388563
11.81061 146.483 -11.09021
15.72157 146.7979 -10.23367
3.946266 125.4568 -8.239217
4.167148 123.8218 -7.579108
9.915288 133.942 -10.47696
8.01568 132.5808 -10.63018
7.825007 130.073 -9.564559
9.621595 135.3791 -11.18018
9.260354 125.684 -6.465064
8.340749 126.4098 -7.430923
6.091022 126.1428 -8.078887
6.769193 127.8453 -8.766264
13.12142 126.6235 -1.014351
11.56226 126.7779 -4.951705
8.816268 128.7719 -8.455935
8.491958 128.265 -8.364837
12.2084 128.6499 -5.48691
12.80086 131.6261 -7.012187
12.7103 134.1599 -8.77812
12.78448 132.2477 -7.516565
8.756015 133.5496 -10.77929
11.94269 132.5286 -8.550768
16.21809 146.3299 -10.186
9.20798 135.5697 -11.40156
10.63633 134.7249 -10.47693
12.07658 127.1306 -4.278741
13.33815 128.2342 -1.96097
11.78214 130.349 -7.32244
10.41387 130.9445 -8.75472
7.560314 130.326 -9.779359
-6.02106 121.881 -6.309761
-4.864035 120.1599 -6.073872
-7.898714 122.3503 -5.545908
-3.179321 121.9595 -6.984018
-17.58418 148.9061 -8.531137
-5.784527 131.5429 -10.71171
-10.01856 138.2373 -11.97689
-3.939273 126.4503 -8.609174
-3.115215 131.6448 -10.76164
-10.29149 140.2275 -12.12874
-16.13597 149.9178 -8.446492
-12.91429 122.3069 3.031327
-12.77148 122.9883 1.456097
-8.123301 120.0743 -4.501722
-14.12184 130.5503 -0.1612016
-14.01624 129.2881 1.84683
-13.82365 145.962 -10.81481
-18.56221 145.0712 -9.550726
-13.20235 124.3632 2.298533
-19.12264 148.3475 -7.736954
-14.62778 145.0835 -10.73672
-4.030638 120.4458 -6.436271
-18.47312 148.8284 -7.891963
-10.97891 122.8098 -2.73942
-11.03263 133.1372 -9.500156
-11.07807 138.4155 -11.61524
-17.01884 142.5259 -10.11136
-2.364518 122.7935 -7.29257
-13.3468 124.636 3.031439
-11.28992 119.8721 -0.795095
-15.3928 148.0154 -9.935135
-11.89851 144.8144 -11.44956
-13.81023 127.7706 2.112967
-12.08832 133.2205 -8.800199
-12.4982 134.9838 -9.448483
-14.06928 136.5785 -9.054383
-9.125178 135.6154 -11.43554
-6.698849 134.2482 -11.53756
-2.581972 129.03 -9.669374
-2.869314 130.8469 -10.43985
-12.88974 137.2519 -10.25926
-13.91128 139.6037 -10.45649
-9.242293 135.1347 -11.21461
-13.42819 143.4941 -11.14691
-16.37676 143.0125 -10.24594
-4.240943 124.4334 -7.804554
-11.68832 125.0717 -3.232921
-12.16418 145.2088 -11.31612
-15.36691 143.569 -10.5635
-13.65913 126.9388 1.605595
-13.96148 130.9016 -2.820509
-14.2508 130.7882 1.578352
-8.64028 132.5864 -10.4027
-13.63871 135.8274 -8.961782
-8.209163 133.1652 -10.78925
-9.078703 137.0311 -11.97603
-12.39501 144.8847 -11.3095
-17.56407 143.6523 -10.02405
-6.761828 124.2363 -6.980239
-2.163786 126.505 -8.691813
-12.87008 128.1681 -3.43929
-11.8654 128.1398 -5.499592
-13.49397 129.669 -3.181615
-8.080772 132.951 -10.74057
-4.061192 126.9501 -8.815554
-13.33915 127.7648 -1.375193
-13.71301 129.4427 -1.69581
-12.40366 129.0263 -5.438846
-10.13784 133.0121 -9.948922
-10.66459 124.0612 -4.051415
-5.802612 125.7429 -7.972876
-6.555437 125.0635 -7.467016
-13.53912 131.1418 -5.040998
-11.21512 128.9485 -7.005918
-13.27751 132.2844 -6.854785
-11.40236 135.2577 -10.30328
-10.67612 129.8614 -7.966919
-8.426952 131.9044 -10.16848
-10.17942 130.4868 -8.658334
-6.465506 127.1795 -8.505226
-5.137518 128.2351 -9.254736
-7.222249 127.2681 -8.325214
-4.489167 128.4948 -9.425627
-14.55721 148.2866 -10.01152
-9.071719 120.4514 -3.923864
-12.67831 123.8807 0.1935957
-12.65735 124.0927 -0.04508807
-11.59113 125.682 -3.972939
-11.3052 122.9639 -2.312068
-9.814308 122.0893 -3.878242
-11.37436 121.4054 -1.197793
-8.217048 120.5044 -4.580617
-6.778683 121.3332 -5.75109
-13.77612 128.1774 3.746424
14.0923 148.4303 0.4667749
-18.66257 149.9744 -3.706979
18.04342 148.7638 -0.9527916
-18.40264 149.6968 -6.747242
-6.193666 119.5688 11.25756
16.58822 147.5295 0.5641814
-12.7107 120.6121 4.709247
3.238679 120.2459 11.89086
13.28282 151.7525 -4.353875
-19.57884 149.1025 -5.261915
-18.33408 150.084 -5.813448
-14.86654 151.4953 -6.262311
-15.03379 151.644 -4.737181
-12.98079 151.389 -7.196679
-16.48924 143.4984 3.040051
13.66276 129.1694 7.498349
-12.91986 129.769 10.50861
-12.49097 119.3659 3.39931
18.48396 150.1516 -4.353024
15.97691 149.6586 -0.9128498
10.03216 119.5439 9.448443
-15.69823 142.8557 3.942863
11.49149 119.9263 7.968036
11.86548 124.4039 8.055155
14.80051 132.7067 4.847772
15.86797 144.3497 3.016554
15.70633 142.9967 3.901607
-19.70327 148.8444 -5.798342
9.453774 144.1981 5.126099
13.38729 125.2543 4.355468
7.061222 149.7992 0.6381629
11.77185 150.5811 -1.804966
-18.30825 150.2317 -4.894621
18.01488 150.2393 -5.945733
17.52535 146.814 0.6123125
12.52668 151.7663 -5.452613
15.92502 151.0876 -6.59917
-15.80796 151.4235 -3.923359
17.62059 150.65 -5.331216
-14.91288 151.5314 -3.569726
-16.30372 151.0919 -3.083191
-16.60926 150.6133 -2.268921
17.74619 149.6854 -1.751453
12.05286 149.0715 0.7200693
10.75912 148.0507 2.394596
-10.54203 129.9655 12.53779
-5.956322 121.4525 11.63376
12.84015 126.6083 6.515787
13.28239 124.3832 4.045441
-5.649369 145.3417 5.183487
5.420655 147.12 3.832357
9.623986 130.7641 13.25544
-15.11505 145.1767 2.860844
-7.362592 145.5184 5.873415
-12.69929 146.5367 2.478893
-12.64545 144.7245 3.947187
-12.13251 143.6609 4.988237
15.11033 151.165 -7.073815
11.6406 151.7074 -4.90101
-12.1736 151.4118 -3.317389
-13.38334 151.2408 -2.643311
-7.094208 142.7371 6.943667
-14.59963 131.3667 6.232347
-10.50272 122.8922 9.478685
-2.707481 145.3715 6.165328
12.49149 123.0796 6.861305
10.60473 121.6165 9.282457
12.96738 122.2988 4.227701
13.04089 126.6712 6.122245
-9.919767 150.485 -1.29153
9.592536 150.7773 -1.838016
5.85832 149.5977 1.58322
5.462419 147.9912 2.911622
11.42166 127.2826 9.006225
-11.76076 144.4795 4.330926
-7.391583 146.9199 3.867553
-11.68464 146.9871 2.843634
-11.15991 148.4553 1.235503
-15.67246 150.4736 -1.684735
-17.23001 148.5105 -0.4146712
-16.49693 148.4858 -0.116736
11.41394 151.6227 -4.459769
13.36845 151.1776 -2.481073
-13.29809 148.9687 0.4170671
15.90599 150.0908 -1.277055
-14.70806 132.2712 4.415814
-12.72691 120.947 3.578873
-13.17169 126.8017 5.89754
-4.205975 119.7358 11.72763
0.8877095 119.699 11.89002
-3.328292 146.4647 6.239759
6.608768 120.5802 11.32461
13.55875 126.6326 4.359494
13.79504 128.5114 3.87352
9.398674 121.3846 10.22156
-8.222414 149.7097 0.1975047
-6.831937 148.2176 2.156436
8.581311 149.6566 0.2704223
6.44083 147.1178 4.153611
4.346589 145.6542 5.249122
14.5097 136.5793 7.691121
-14.87856 141.5572 5.286588
-14.97416 140.5414 5.691405
-7.532963 145.6435 4.603713
-6.965829 147.4057 3.986196
15.0044 145.143 2.931296
13.05356 145.3324 3.377388
15.52999 141.8758 4.610276
12.36654 150.1225 -0.8154501
14.27565 151.7033 -4.371572
-13.08233 148.5088 0.9331666
-13.60934 135.5293 9.363494
-14.62431 132.9366 8.27991
-12.47953 122.5902 6.717275
-12.03566 120.2784 7.107117
-13.16463 125.1489 5.577326
-9.894575 122.8735 9.954172
2.071516 119.4501 11.88242
-1.219312 146.3185 6.031365
-1.037521 146.1712 5.582765
2.36499 121.605 12.00683
12.41874 124.2868 7.292718
10.60715 122.6682 9.382485
9.512166 125.1898 10.05169
8.69367 124.8863 10.61409
7.985179 122.7852 11.1485
7.784807 121.5113 11.14575
7.963294 124.1674 11.11153
14.55485 131.7 4.04289
14.30485 130.7472 3.854718
-10.80677 149.9798 -0.3419823
-8.788142 148.8261 1.564587
-6.057447 146.9173 3.309488
11.32034 135.7723 11.84685
13.65785 136.7428 8.814594
14.85291 132.784 7.203032
-4.538164 144.5513 6.83045
-8.656967 146.0242 4.999237
11.31205 144.3297 4.545637
-13.38465 148.3949 0.9378895
-10.05954 148.137 0.925279
-14.4505 131.3676 3.111852
-14.51377 131.0322 7.013048
-14.3144 132.9678 9.284302
-13.52719 127.732 4.817846
-10.78024 120.3337 8.907393
-3.12592 146.4807 5.360889
-4.321128 146.0478 5.014808
-1.129949 145.5501 6.550483
-2.429052 144.3854 7.078535
-4.413585 143.8991 6.318036
-2.903541 143.9107 6.61358
7.119703 121.3383 11.3337
8.866879 120.7908 10.49253
14.71548 132.0795 5.340009
12.25704 128.266 9.611211
2.382451 145.9426 5.845343
6.045589 146.1577 4.083318
6.921194 146.8594 3.350229
14.15643 137.719 7.821999
-9.625537 144.7507 5.040319
12.33097 145.7745 3.09478
11.21419 142.1492 6.570492
-13.69632 127.0206 3.147021
-4.075079 146.2832 5.447216
-0.9321485 125.3798 12.25816
14.16357 130.3252 7.871651
11.87832 129.4202 11.36912
13.27558 136.2669 9.475062
11.9589 135.7522 11.29593
10.16533 135.0692 12.89605
6.744987 132.3193 13.83742
12.46087 137.5993 9.490796
11.34533 133.9857 12.6649
12.04691 137.656 9.796959
6.724392 136.1184 12.75497
11.73946 145.4843 3.447378
-13.52324 128.9674 7.305237
-13.185 130.2464 10.4528
1.568481 144.5997 6.487964
-1.16298 124.1074 12.23446
-3.116735 122.9061 12.11692
-3.797323 122.943 12.09915
7.210583 145.7039 4.169087
14.82337 133.2708 7.396094
13.21341 132.8355 11.1659
11.44077 130.5285 12.295
-5.022062 142.349 8.308254
11.06672 146.1725 3.208056
10.30802 148.3153 1.652118
-13.27842 127.6371 5.682851
-11.47326 131.5237 12.62132
-12.62131 130.3404 11.20784
-9.466792 130.8542 13.29668
0.7548395 145.7676 6.494576
-1.842389 144.4052 6.067225
1.460392 144.55 7.055979
-3.387636 124.4133 12.23157
-11.10882 127.2855 9.488638
-8.780064 127.304 11.04422
8.485112 147.0384 3.911563
9.467756 147.3243 2.263689
13.21576 130.8057 10.75988
-10.49422 143.4943 5.4105
-8.849794 143.2158 5.952087
-5.247776 143.3899 7.073406
-13.78078 131.774 10.21188
-13.39872 134.2453 10.49299
-0.5590674 144.7304 7.395632
2.246506 144.5938 6.549206
-9.534173 127.996 11.46085
4.831216 144.6512 5.624304
-8.236042 142.6485 6.562156
-2.115088 142.8995 7.662985
-12.75698 131.7259 11.60481
-12.07668 138.8051 8.846533
3.449653 143.0508 6.81876
-11.23724 128.2646 10.79956
-11.4693 124.2576 8.573402
-12.43464 138.9849 8.514642
-1.809722 142.0586 9.222424
-3.377435 144.0788 6.362753
-11.64295 132.9772 12.61949
-12.90325 134.5764 10.98384
4.106559 144.6818 6.917981
-9.857249 126.15 9.734078
-13.07607 141.4071 6.522541
-12.19334 137.4499 9.708258
-5.271456 143.8342 6.562502
-11.11406 131.9295 12.91722
8.946627 142.8471 6.252385
-12.49614 123.2424 6.854181
-12.10987 121.4071 7.274909
0.3914192 142.6636 7.161294
3.635999 142.2032 7.549127
-9.806332 121.3907 9.935689
-4.195737 126.0135 12.07072
-11.34837 124.0119 8.699039
6.877656 144.7883 5.673223
5.912092 142.4538 7.995327
7.113406 144.5592 6.158195
9.771292 144.9574 4.600443
10.18632 142.5233 6.384719
9.35075 141.9986 6.991581
8.491598 138.2777 10.76646
3.564898 140.9661 8.881606
-1.228804 143.0646 8.140144
7.344887 143.8056 6.677479
9.177683 145.7815 4.971125
8.344899 146.6004 4.52164
10.63892 139.6544 8.866331
12.1176 140.3895 7.760333
6.629257 140.5551 8.686402
9.39112 139.3957 9.436606
-0.9727178 140.406 9.208968
3.468557 140.3364 9.020758
7.655752 138.2255 10.95535
-15.1327 139.7229 5.823927
-4.823316 145.7604 5.495132
13.11834 146.9533 1.915826
-9.361981 124.4661 10.24854
-8.654334 123.6796 10.7825
-7.76731 124.9714 11.06385
-8.484859 129.9928 13.18287
-13.05791 137.737 8.844025
-9.465816 139.504 9.26883
-4.144691 140.9101 8.403701
-1.651639 140.5219 9.72049
-3.966032 139.9766 9.950935
-4.579208 140.2195 8.799925
-1.233724 141.3945 8.503845
0.6649517 140.4704 9.779271
5.536373 139.4199 10.08657
2.249583 139.8556 10.46083
5.545444 138.3407 11.04099
8.470932 137.7726 11.29493
-2.194255 138.6627 10.49017
6.534257 138.8724 10.45539
4.704449 141.4423 8.560826
11.12428 130.4195 12.44155
-4.639389 127.0383 11.93867
-6.53253 129.3778 12.88699
-4.843277 128.1222 12.01026
0.2139215 128.525 12.32324
-1.632819 128.2505 12.27146
-4.89085 128.9737 12.56453
-5.427054 129.5756 12.94045
-2.949429 130.4236 13.20608
-9.540646 142.25 6.67259
-3.678026 138.7027 10.65184
-10.28768 138.5077 9.981466
-8.258609 137.1426 11.92961
-3.424816 138.6674 10.65819
-1.379594 137.4609 11.29483
1.096697 138.326 10.6614
4.087019 140.0591 9.243655
9.031303 129.5432 12.81924
3.237217 130.9873 13.37696
-1.790988 130.7733 13.26964
-1.124113 128.3236 12.29483
-0.743634 132.8693 13.37865
1.225504 131.3131 13.37502
1.009514 131.772 13.46155
-9.06974 131.8225 13.68479
-0.5122236 128.5808 12.3603
1.609423 126.5756 12.18773
-0.7390217 125.0247 12.26049
5.494236 133.6624 13.60071
1.011629 125.1965 12.26084
6.92259 125.7946 11.30234
4.907646 129.0652 12.61372
7.854474 131.6417 13.79988
5.330259 132.5634 13.67313
-10.49767 135.5972 12.499
2.622955 127.6469 12.03278
6.082071 130.7984 13.50583
9.948668 130.1857 12.92335
-8.330294 136.3538 12.61209
7.161283 127.9457 11.84233
-7.771507 133.7389 13.76669
-4.396739 132.6721 13.58549
-11.10833 134.4534 12.69734
-3.489127 134.0463 13.25444
-7.108007 136.7835 12.30202
-9.279671 135.8336 12.80549
-11.05192 138.4976 9.641572
-8.889497 137.6816 11.28999
-6.806603 139.4981 9.825557
