# .PCD v0.7 - Point Cloud Data file format
VERSION 0.7
FIELDS x y z
SIZE 4 4 4
TYPE F F F
COUNT 1 1 1
WIDTH 1653
HEIGHT 1
VIEWPOINT 0 0 0 1 0 0 0
POINTS 1653
DATA ascii
23.5577 63.95421 10.86782
24.09455 60.81474 -8.924754
22.18958 59.85423 -9.906074
-6.067247 77.11288 10.02597
-5.719914 80.06741 8.248674
-10.02097 94.93365 10.04894
-7.679042 93.85655 9.590398
-22.56842 65.11716 2.72744
-21.9513 65.64872 -6.283069
-20.32567 65.43041 7.703747
-20.44082 66.86292 8.489043
-10.67621 41.72229 -12.41545
-10.13715 97.10108 -12.8237
-13.74178 97.28481 -10.64571
19.94758 47.64957 -10.3239
12.24977 53.23324 -11.84077
0.2594433 26.96183 -6.078022
12.45048 94.82554 9.907218
9.967639 72.66078 10.76217
10.78205 74.92464 9.945895
23.37326 70.81124 13.49628
24.9598 65.34546 12.85639
25.88833 62.99246 -3.762811
-5.9867 77.24244 8.329816
-5.439202 77.92018 12.3709
4.965614 90.45966 9.586541
-9.701914 92.00118 11.1648
-23.19785 68.86174 1.702503
-20.17475 67.77677 6.612068
-21.43534 55.64037 -11.92218
-8.406978 45.18512 -8.886909
-16.4759 93.98013 -9.800095
15.41994 51.01118 -12.90816
20.58127 48.01185 -11.35348
14.2303 51.96236 -11.03686
6.912198 33.9184 -19.10535
6.653593 22.90308 -11.0125
11.265 78.63007 14.31569
4.994393 79.53848 8.548366
9.958937 76.9212 11.33673
24.01622 66.72871 11.51068
21.01823 61.6358 -10.03776
8.232333 56.28581 -9.807432
-22.57365 69.77421 15.43027
-22.10085 70.65055 11.42955
-17.91452 98.92632 -3.953618
-23.3346 71.29207 1.196042
-19.29628 58.88131 -9.992888
17.35598 49.55309 -10.38883
16.80448 56.00761 -10.39648
11.94442 50.07463 -12.0016
-3.179637 29.77022 -11.34934
-2.702486 28.62976 -13.67419
6.603972 33.8145 -20.76137
5.582683 34.04894 -8.982826
10.5269 76.81291 16.2416
23.46881 69.43956 11.11303
22.61746 63.08447 -9.594377
-21.47554 73.20188 10.50587
-17.96157 98.06403 -3.745906
-9.045467 79.75371 13.16439
-24.36686 69.53764 0.01710408
-10.51448 42.27089 -10.22269
19.73869 49.19029 -12.89811
1.037244 28.21447 -6.136828
6.754001 35.91261 -19.67694
6.971675 37.05841 -18.19649
15.32966 93.60461 9.256056
8.569847 76.85699 13.60789
11.03584 77.62708 13.76418
9.974455 82.87524 15.25819
9.215104 82.53394 14.20261
10.97231 75.87691 9.828598
16.89076 62.23178 -9.797299
25.81225 63.71775 -5.369463
-12.1663 93.1988 11.29126
-19.41346 96.39758 -5.330943
-9.253032 85.26117 10.22088
-9.264755 77.98083 12.53688
-9.166136 79.20437 9.770454
8.426744 38.66628 -14.14267
10.83792 36.80636 -12.44559
15.90564 55.58794 -10.47352
11.06469 77.00053 13.89454
6.754726 81.92662 8.089778
24.1374 64.55278 -8.451488
-19.91692 73.41923 7.424255
-6.799777 77.1962 8.790596
6.865215 39.22285 -18.71567
-2.263878 31.62278 -7.827788
12.19011 79.62495 9.987549
21.77028 66.84768 -9.616498
24.48862 66.90638 -7.593705
-20.15749 69.76183 7.789168
-9.492127 81.18535 13.26241
7.485178 39.96563 -15.74786
14.42329 54.84724 -10.85681
18.97128 57.59845 -12.83667
-0.9172322 31.05931 -6.665049
21.9472 65.6316 -0.5780066
23.99945 63.87631 -0.4730804
-9.310022 80.73483 10.95063
-10.36106 84.42056 13.7151
13.11253 53.62107 -11.44165
16.9463 58.71074 -10.39565
13.83989 57.34304 -11.02865
-1.560802 30.51403 -7.001292
-19.84353 73.58929 6.632452
16.88704 57.21658 -10.40388
5.987018 28.48689 -9.072926
6.170968 32.509 -10.87129
5.548247 30.62046 -8.575593
5.614771 31.71199 -8.823062
0.7758784 30.19072 -6.250868
-20.23091 74.39036 8.579748
-10.59379 79.8118 14.68843
-22.503 72.71763 1.8324
6.515982 25.65788 -11.29804
4.777446 35.46307 -8.109049
-0.7338473 31.83729 -6.638816
-22.40523 76.19979 1.459774
-20.37811 72.70341 4.531603
-20.99937 69.53842 3.89489
-23.59993 75.35362 -1.152966
-1.578119 32.65469 -7.187197
-2.533556 35.10262 -8.510123
-21.48781 74.37572 2.656238
-19.54157 88.55116 3.84967
-20.51395 78.22472 3.436393
-3.397376 95.60432 11.06339
-3.981194 96.96983 9.721819
-1.418286 94.72758 11.51399
-0.7619723 91.71891 10.31883
-1.673683 95.2678 11.60719
-5.246877 94.62875 12.19085
-7.772953 90.2226 13.59783
-7.147319 89.60046 9.970628
-0.1124305 78.53149 11.38464
3.25476 78.26354 8.204901
4.106112 77.77505 10.69241
1.349 80.8783 8.914523
3.816886 78.21331 12.05954
-19.37076 68.50581 8.115074
-16.70968 69.08475 8.843297
-19.60427 71.422 8.283389
21.57325 62.95486 -0.5817313
20.51288 59.05357 -10.23167
3.508533 87.82912 11.51628
5.707028 89.96604 14.06605
9.605168 95.93889 11.02769
6.840751 95.57069 8.80527
-18.01353 53.09049 -11.46122
-16.82315 55.42154 -16.43474
-9.353742 40.26958 -8.667012
-6.622733 37.19483 -12.67971
-6.623695 38.05547 -12.85572
-6.716704 35.93597 -13.81663
-7.108488 35.31443 -15.84655
-7.044328 35.75873 -15.5661
-8.755748 42.7442 -8.632265
-6.611546 37.87604 -12.56076
-6.813115 41.23114 -14.77369
-7.802823 44.88639 -9.333924
-9.261327 46.73465 -9.042572
-9.707274 49.53417 -9.530372
-10.61555 46.30517 -13.68982
-7.090401 46.0114 -10.3455
-1.142521 95.56602 -11.64183
0.1000198 95.54748 -10.81728
-1.403193 95.20815 -11.84125
3.464501 95.88618 -13.72647
0.4954093 96.45152 -11.27704
-2.530411 95.28073 -12.5878
-3.77794 93.97813 -13.90819
-2.039668 93.71928 -12.15109
-4.955514 93.95214 -14.11376
18.28156 98.61829 -0.42164
17.21677 99.40268 -1.567285
17.50209 97.48067 8.386374
15.46138 92.62695 9.351421
18.05672 96.01809 8.673083
17.8691 97.98512 6.206269
12.33956 97.82471 -12.30029
7.827316 94.32121 -14.23894
4.886298 93.02949 -14.35048
6.304263 96.21059 -13.50738
7.751413 96.62175 -13.74866
3.560843 94.76476 -14.22838
5.790261 92.71064 -14.62522
2.569148 96.90977 -12.09351
5.206031 88.59146 -15.87436
13.46647 86.80311 -13.31759
13.21528 92.04781 -13.10292
12.56248 58.31244 -9.326242
-17.67634 73.00024 8.000218
-18.19722 70.83341 7.668684
-19.99653 72.7174 11.47878
-19.95473 69.81055 12.17001
-22.73906 72.10251 12.42777
-23.01003 71.71011 12.90936
-21.56175 71.86566 15.12371
-20.36623 71.2337 14.36057
-17.025 60.09523 -8.913473
-24.81287 67.34734 -7.92985
-24.13286 64.57647 -7.978325
-22.05622 64.39096 -7.492457
-21.98159 64.87955 -7.475124
-19.71333 55.30759 -15.58338
-1.988686 30.81779 -17.51818
-1.98387 30.68478 -17.69063
-2.264976 32.80754 -15.19696
-6.249599 34.10725 -19.95828
1.430015 28.66841 -19.91582
17.85159 98.35355 -4.97998
16.95916 100.3452 -5.194886
16.92012 96.93873 -5.93478
20.3355 70.82644 -7.749164
20.47255 68.05477 -5.222024
17.93758 58.60365 -10.14455
-19.81227 70.61503 -3.715172
-21.26479 69.80376 -2.950585
-22.8391 64.221 -2.899097
-21.59707 67.23927 -2.945076
-20.74344 77.72941 -2.885069
-20.99694 69.50246 -6.288272
-23.08148 71.23816 -5.525175
-25.05643 70.13133 -5.355359
-26.22013 69.49422 -6.043741
-14.65466 50.0081 -13.81393
-19.32035 49.2321 -10.51584
-18.7394 52.10681 -9.593176
-19.1229 51.07286 -10.07074
-15.53207 49.47964 -11.99327
-19.08122 51.86113 -10.10454
-14.73811 52.62236 -13.11353
-13.78604 48.88886 -15.29083
-12.04172 51.96473 -15.62832
8.159799 73.97354 11.28738
18.6193 89.01482 9.364767
16.57883 76.49721 8.974661
17.80575 77.71202 8.770748
20.46988 68.91843 3.708117
-0.7818565 79.13486 11.75875
0.2563328 79.01382 10.99565
1.435717 82.95709 8.843756
3.169687 82.69914 8.703484
-0.06895137 82.80702 10.80235
2.167107 85.48487 8.654841
3.166265 84.66942 9.024774
-2.877553 90.4191 11.58656
-18.06207 95.95412 8.018663
-7.984359 75.39053 16.85025
4.956345 40.63205 -22.53347
3.436554 38.21127 -22.50696
6.395874 38.64951 -21.13173
3.555226 42.26184 -22.07601
2.624571 29.25817 -17.60192
6.309329 75.99966 16.18926
4.901605 79.95341 16.32123
-1.972612 81.18408 11.75113
-5.941602 83.03468 8.95931
-5.725345 80.97729 8.477728
-5.592736 78.68374 11.49147
-3.294127 85.6685 10.31486
5.033085 80.49652 8.466917
8.14113 81.75605 9.548527
6.641517 78.03532 7.967494
5.623502 84.00683 12.30817
5.822606 87.0228 12.33336
7.148839 79.04552 8.363544
6.130254 87.69044 12.822
5.20191 84.26472 11.38769
3.804396 82.45471 15.34427
3.234284 86.17205 13.78764
4.370636 82.90929 15.82235
3.376059 80.35668 14.7106
3.923736 81.53407 11.2762
3.641221 84.20739 11.78305
-16.64267 96.42205 -5.179776
-17.13085 94.25537 -5.474068
-16.15962 93.69785 -7.876559
6.089908 91.60381 12.72501
20.07139 52.21589 -11.28961
-2.480179 33.75996 -14.38869
-2.933137 35.47077 -12.56717
-2.251299 33.81915 -15.25084
-2.950257 25.73626 -8.615882
13.76446 90.31559 10.59958
13.89305 91.47541 10.64404
22.12822 73.20325 9.932139
21.70885 66.96171 8.929776
21.48767 71.28405 8.967163
21.17867 66.59229 8.039755
20.57293 67.74499 3.293976
20.89113 67.79334 0.8708813
20.22892 70.79846 5.361363
-7.917547 98.54791 -11.87665
9.530043 82.40075 14.86653
16.02737 61.15347 -9.692795
-13.19795 92.76708 9.903269
10.23691 40.63455 -12.73944
10.87407 40.74014 -12.47591
10.46168 84.31217 10.49241
19.47207 71.26996 -9.063116
15.72387 52.57216 -13.07256
-9.530681 84.17701 13.17042
-7.670722 85.60139 8.811408
-9.871215 86.50012 13.10389
-12.13384 83.75991 12.86819
-8.499016 87.71484 9.067663
-7.52522 92.05186 10.68126
-7.178232 88.56149 10.59274
-7.160947 85.02132 10.69109
-6.953101 83.64294 10.48831
9.747028 54.7268 -12.85548
7.511611 63.64523 -10.76062
10.25352 63.65831 -12.57624
7.179714 55.00251 -13.21223
3.034457 33.00342 -6.789769
5.695458 30.10065 -13.53798
6.038089 33.37211 -12.28797
5.257028 37.64914 -8.927847
5.111476 33.03257 -14.32443
5.439323 28.13158 -14.11342
-19.96306 74.45928 11.06108
-20.1783 75.95277 13.5497
-20.83588 72.53093 -3.014379
-19.4362 72.93867 -4.473483
-4.809688 91.50961 10.77954
-4.386202 88.96583 8.62972
-5.420698 87.09674 8.781485
-4.604631 85.43002 8.462622
-3.687013 90.3767 9.683641
-3.868169 86.74508 9.143904
-3.893798 85.51077 8.658849
-5.008196 86.3747 12.8125
-5.375258 81.24492 13.89976
-5.370042 79.54614 13.59782
-9.301937 77.54777 15.47323
-5.977658 82.72899 14.83744
-6.68409 82.09097 15.51609
-9.31784 81.52929 14.10713
-5.54621 79.61482 14.32152
-5.553173 86.64393 14.1633
-7.870815 92.12251 12.94404
-5.695501 88.13336 13.96807
-5.170738 86.10418 13.42364
3.376349 76.10868 14.30066
5.440955 78.26139 16.53915
22.38232 66.51278 -0.5075186
20.86945 66.04514 -1.553426
22.14182 69.79491 -0.7304085
20.4141 68.97906 -3.899674
-16.36397 57.19757 -16.25477
-7.136113 40.71646 -10.09682
-6.453671 36.5232 -19.73929
-7.06641 37.10107 -18.2551
-2.881055 42.39493 -18.76807
-11.04744 44.69926 -14.75201
-6.631926 44.14382 -13.70006
-2.496824 89.74487 -12.46422
-6.912111 87.29994 -14.08874
16.79696 92.28761 8.015265
16.18615 91.42812 8.855227
16.38528 90.24931 8.718241
18.79305 95.1457 7.924745
17.80307 89.57732 8.35352
18.66481 93.06969 6.851982
18.23075 94.27761 4.312753
17.37695 98.01978 4.592103
18.37225 67.37907 -5.130149
17.83912 68.46826 -8.682529
19.92044 71.27028 -3.296553
18.04935 71.45187 -6.044639
18.5039 68.37298 -8.931531
17.77713 72.13725 -7.431326
19.30542 68.53534 -4.100004
20.55797 71.55016 -6.087644
20.44781 71.56596 -4.984251
20.50254 72.35683 -6.95506
24.14945 74.62319 -3.481415
20.72363 74.65102 -2.071022
20.57852 75.22019 -5.711483
18.46865 77.65501 -7.00102
20.50208 78.79949 -2.984779
20.45122 79.42738 -3.059813
20.45895 81.94559 -3.289279
21.28347 82.52489 -1.794689
19.26742 94.19421 0.9957159
21.29542 81.90259 -1.823298
18.58371 81.40424 -5.489258
19.80017 79.38857 6.526775
18.97001 93.9453 -1.228936
19.15233 87.62686 -3.422075
20.01284 78.88583 -2.915181
20.40481 89.66937 -2.220866
18.95986 77.23376 -5.393805
18.34456 75.83817 -7.384068
18.73101 73.19996 -5.139431
11.85816 95.19289 -11.47402
13.81352 92.60161 -11.5141
11.30261 90.81165 -12.1561
14.52277 90.10405 -12.73274
3.555555 93.34215 -13.71847
8.650752 90.87966 -13.88444
5.866693 86.90465 -16.18599
6.156717 88.20844 -15.93751
3.353523 92.21435 -12.73398
4.621742 97.47845 -13.06825
-20.63739 75.96421 13.86971
-22.4703 76.20206 13.18115
-19.95321 77.3313 12.64205
-19.97345 78.77312 12.83078
-19.9264 76.99822 9.466245
-19.72416 79.5376 8.559561
-19.05267 74.92851 7.774812
-19.10141 80.9912 7.619475
-16.29309 74.18361 10.80438
-16.22307 75.00132 11.19823
-13.65127 74.08705 13.88194
-17.30257 80.71185 9.84534
-13.1788 79.5579 12.90106
-16.32191 78.53418 11.65283
-13.24788 78.72158 13.10583
-14.78227 76.69474 12.93977
-14.2858 78.82367 12.57744
-12.38777 78.52864 13.85179
-18.00408 96.00346 -2.17003
-19.78712 95.78972 -5.062722
-19.58444 92.16875 -2.313906
-19.84286 93.66434 -4.453907
-18.86074 89.99669 -3.811183
-18.45473 90.90463 5.814701
-18.14248 96.34096 3.39997
-18.28166 92.27239 5.015779
-19.52894 89.7757 3.24787
-20.74371 85.49854 1.792716
-21.62923 86.24345 -1.815104
-21.82165 85.13167 0.204119
-22.50362 83.16664 -0.8951297
-21.67607 83.89095 0.7946928
-19.98199 80.05572 4.743615
-20.12073 78.67426 8.40257
-19.60378 78.92474 6.92654
-19.35806 62.43327 -6.727474
-17.49647 61.58451 -6.548663
-25.60431 66.76325 -7.905667
1.662136 29.47756 -22.35862
20.99811 92.85947 -3.018547
12.54268 61.33363 -9.149345
-16.36649 54.6479 -12.24277
-15.52077 58.40466 -12.60547
-16.12009 62.16421 -12.10936
-15.79475 52.25433 -12.66611
8.186528 73.70864 11.67367
-0.6840389 85.46255 11.20177
-19.20007 92.67123 7.126788
-18.72125 91.29243 6.768441
-19.51366 89.0993 7.846298
-19.10703 87.12724 7.064756
-19.46497 90.30259 10.31296
-17.2766 90.91078 7.719837
2.397367 35.63541 -22.3236
4.615667 40.96176 -22.53429
1.769882 37.91938 -20.24024
2.541799 39.00757 -17.5945
2.366242 42.5972 -20.81022
2.753711 30.71559 -17.35873
-1.025113 84.74593 11.51977
8.653926 80.86094 11.69136
8.880946 81.08276 13.7014
-9.518509 89.08846 11.07409
-10.1258 89.89619 12.59128
-12.20939 90.04653 11.46983
-16.62231 93.76024 -8.431808
-16.03453 91.19023 -8.002939
-15.91803 96.57912 -9.110996
-17.3556 93.42323 -9.710146
19.5646 70.72649 11.55702
19.44191 74.96262 10.63915
5.809518 89.74754 14.00446
-19.47528 61.78223 -10.20921
-3.109201 35.0801 -10.11512
2.413665 37.8592 -6.960037
-1.596907 39.17701 -7.662291
2.545522 43.86652 -17.61936
0.4907809 36.23729 -6.676604
1.807507 35.0089 -6.596647
23.25608 72.758 12.79846
22.16422 74.09649 13.34154
23.03331 73.90955 11.38244
20.27513 73.22971 3.96944
20.10696 76.67186 4.346965
20.67972 71.65573 7.751539
20.30776 77.55554 3.598926
19.7721 79.89393 6.60464
20.5146 78.7108 2.867842
21.30437 76.19145 9.161572
20.09505 81.08014 4.396085
20.05415 82.00455 -2.828003
20.57652 69.35934 -1.598958
20.21252 74.21393 -2.805884
20.60084 70.82996 -1.578699
20.04248 80.5848 -2.902822
20.79929 76.04711 1.249251
20.7393 75.77551 1.870144
-8.593246 81.65281 12.24599
-7.685992 82.51559 11.36023
-7.805748 87.5095 14.55832
-8.951981 88.9099 12.08592
10.64532 81.4444 12.72393
14.25585 83.53478 10.3402
11.90153 87.07119 10.25387
11.26877 87.7007 13.57093
9.941546 87.54394 14.27243
9.851317 85.86409 14.52273
8.799547 83.58195 12.23407
7.752084 84.87173 8.789618
8.523331 87.60338 9.367222
5.634313 84.58226 8.131997
8.861439 83.65546 12.69376
15.20571 63.09365 -9.369624
14.19359 62.03414 -9.271973
19.60321 53.88269 -12.51249
16.74656 55.11707 -13.33609
17.83387 52.17443 -13.35585
13.51114 54.04513 -12.50979
7.767967 54.82638 -13.44846
2.368153 41.50101 -7.1531
3.647015 27.5726 -16.41306
-3.333683 91.34291 10.89955
-1.24058 90.86699 11.06043
-8.284926 80.64101 15.9119
20.40513 68.51431 -4.125513
-6.85149 43.54751 -15.25533
-3.34721 45.09145 -18.80655
19.97078 93.4323 -4.452999
18.90583 97.82721 -1.991372
21.38282 91.87879 -2.541471
18.7263 94.58268 -3.646676
20.18059 90.39511 -3.056757
20.24154 91.04083 -2.232341
20.50611 87.1667 -3.982232
21.5838 89.78653 -4.525322
17.61116 96.78584 -2.282485
17.42503 86.24072 8.603405
18.40383 86.25517 8.572717
16.79818 83.83496 9.068477
18.67466 96.07632 1.963842
19.27007 95.08944 -0.4140876
18.04067 95.09698 -3.098888
20.48548 71.41688 -3.342203
20.58347 78.33802 -5.880318
20.4885 86.48376 -4.552996
3.724242 91.31091 -13.20475
-21.46641 78.99503 10.22515
-20.49583 79.71993 8.907907
-19.76948 81.86123 9.206312
-11.6183 84.57814 13.28922
-14.65355 85.72746 11.24033
-14.13742 89.84119 10.76624
-16.00138 94.66751 9.423257
-17.18366 87.23122 9.490667
-17.66373 85.81786 8.543586
-17.72084 90.76912 7.440398
-15.40893 88.94025 11.06382
-19.02013 87.91689 8.027365
-18.58913 89.04872 7.56149
-18.72154 91.30614 9.474318
-11.25141 72.75882 15.45627
-19.94825 92.45385 -6.218897
-19.27013 92.24242 -5.974174
-19.72522 92.03829 -6.326384
-19.08101 85.86072 -6.060757
-18.84254 87.48046 -5.878424
-17.34242 87.47836 -6.411722
-20.91364 86.63355 -7.061481
-18.7594 90.18005 -4.354927
-18.46959 91.92441 -3.612756
-20.22116 87.50917 -3.113818
-20.22131 86.90996 -4.980148
-19.3131 85.85243 -4.669648
-21.14507 87.79185 -1.960847
-23.864 69.52757 -7.881087
-26.35604 69.9688 -6.641363
-24.60217 72.41812 -5.259949
-23.80787 74.43386 -5.121815
15.1086 95.96777 -7.530149
13.82837 88.87304 -10.02773
13.0994 62.72889 -9.08787
8.765023 63.11142 -9.64339
7.451378 61.65189 -10.29904
7.701518 61.73565 -10.15667
-17.43953 56.99575 -11.54615
-16.42205 56.17098 -16.35282
18.48874 83.44338 8.681265
14.35186 84.99545 10.41094
14.84115 81.0128 10.01649
22.23185 78.13518 10.73605
-20.74244 88.46523 10.13044
-20.38408 90.09267 9.915957
1.808816 36.69303 -21.47623
7.009233 41.81054 -17.57611
3.669002 34.77232 -16.08278
3.18891 42.73006 -16.51854
9.900731 56.98667 -12.76538
18.94576 79.39812 9.111456
-20.5338 61.74771 -11.09512
-19.0948 62.19225 -15.05246
-17.77619 58.24527 -16.04351
-20.00996 66.3033 -13.56173
-19.42088 65.19526 -10.36074
-18.9719 66.49599 -14.55071
1.403997 40.76687 -6.972621
5.210395 40.71152 -9.120814
5.628813 42.59064 -10.80011
5.192249 41.68682 -9.152094
22.88832 75.60227 12.02513
19.7561 76.24124 11.14939
21.21459 73.75066 8.863256
12.19769 89.8715 10.09658
10.9485 90.20619 10.0817
11.36317 91.80981 12.45217
9.300658 92.67714 12.26801
11.33823 90.42706 12.30433
9.275526 93.33722 10.7697
5.575415 90.02815 8.949049
6.2779 90.5013 8.529658
6.890706 91.89763 8.763777
14.32036 87.33823 10.49547
20.90319 70.39597 -9.417159
19.48088 57.79752 -11.76041
18.31227 60.49033 -13.03312
17.86284 47.00342 -13.27855
17.91204 45.35492 -13.24262
13.26546 48.73601 -12.26597
10.56557 53.37633 -12.83744
8.601625 56.42775 -13.653
11.12599 57.47995 -12.64502
15.55076 56.03062 -13.15319
4.805376 36.5219 -8.200559
-21.97289 71.3907 -5.91853
-22.15189 75.09695 -5.555953
-22.01606 73.98449 -5.704638
-3.691479 42.00767 -19.26144
-2.173765 35.86099 -15.72986
-7.019074 40.29992 -16.6649
-4.921839 43.00464 -19.61069
-3.16522 43.226 -18.88528
-6.722583 43.49337 -18.2437
-4.660506 92.43985 -14.43852
-5.064895 91.91649 -14.67597
20.01499 91.66458 -2.726077
18.33262 93.54469 -2.186381
19.47 92.94611 -0.984111
22.67726 84.88625 -3.692866
21.2491 90.41898 -4.411473
19.56252 94.75471 -6.310667
22.35176 77.39518 10.68827
19.98496 84.68016 11.14649
19.97366 90.89097 0.4350417
18.30444 92.26333 5.328788
19.92488 88.04507 8.072332
24.02374 74.11217 -6.220076
24.65619 68.48404 -2.271958
25.06322 67.98026 -3.308049
24.08032 75.31745 -4.918417
23.48357 79.14214 -4.632198
23.84252 76.9956 -3.957032
24.34282 73.82206 -4.448949
23.86159 69.48594 -7.853537
23.32325 74.40501 -7.603734
19.32867 71.81329 -8.927714
22.83527 83.60274 -4.095536
20.12391 83.22335 -7.690369
21.65469 87.43293 -6.425866
18.78164 85.64745 -6.543089
20.00054 85.11615 -2.548184
20.29636 85.4656 2.255553
4.072702 88.13985 -12.84002
-21.98387 79.71216 11.56681
-19.75051 81.27057 9.010835
-19.91055 84.22939 11.7736
-20.72669 84.91702 11.71258
-20.99254 84.95835 11.63269
-19.22663 86.62826 7.165499
-19.41081 84.95914 11.12292
-19.38285 85.17049 10.09853
-22.41076 81.04983 -5.149291
-19.92023 84.07621 -6.62937
-20.73264 90.18344 -1.824252
-20.72504 84.71692 -2.653444
-18.97407 66.85081 -6.593799
14.4988 96.6247 -8.982409
10.46052 72.14998 -12.3851
9.433835 63.0393 -9.403727
7.345905 61.07393 -12.24955
-15.72865 63.00309 -12.37619
-16.7854 61.28415 -9.491894
-14.88593 56.89475 -11.41285
-14.90417 60.13752 -10.47613
-13.90665 53.83978 -14.45521
-13.15744 52.55827 -15.39963
-12.60757 58.45827 -15.02852
-13.44799 56.96588 -14.62589
18.56783 82.66096 8.703664
3.072896 35.35806 -16.82941
2.689077 35.1018 -17.37532
2.066711 36.29148 -18.47394
3.72935 38.41576 -15.89037
6.147618 47.07175 -20.79902
4.243022 36.89529 -15.29871
-14.56208 59.92044 -14.08437
-15.21681 60.33167 -15.28691
-16.39462 61.8477 -7.315085
-17.94741 65.53706 -9.568084
-19.47435 72.50822 -12.88924
-16.46217 66.91815 -15.24449
-14.8204 63.98583 -13.23486
5.736941 41.56839 -11.72681
22.38183 75.6742 10.46885
5.820574 88.48027 8.496033
19.16211 67.51122 -9.517191
18.63129 68.59963 -9.235161
14.69462 67.49739 -8.708129
15.83074 44.75842 -12.76373
16.44955 44.95792 -12.94507
15.18504 58.71062 -13.12417
-22.84632 77.35453 -5.115566
-24.62685 76.58618 -5.988742
-19.62425 78.96252 -5.17807
-20.21264 76.18258 -3.175141
-23.5661 76.56226 -7.582386
-23.54431 80.08808 -5.278377
-21.3902 80.14075 -7.364429
-19.86034 81.46059 -6.83392
-18.38809 84.38303 -6.178672
-20.12144 78.89577 -7.046863
-21.40347 86.14866 -4.825327
-23.34163 80.7039 -7.169073
-22.13267 82.95183 -7.128869
4.330055 47.93922 -8.697101
-2.167234 40.28167 -17.53821
-2.866859 45.70353 -18.25971
-6.882021 45.11829 -17.2347
-6.33308 48.39643 -18.30437
-1.238883 42.43278 -7.672338
-6.974518 88.60764 -14.05622
-7.711203 89.13422 -12.59814
22.62142 84.9906 -3.11117
19.83881 90.51545 -7.128415
21.98375 80.2247 11.44428
21.27431 84.28219 10.0711
21.03231 77.88295 8.910076
19.18796 88.98232 4.737998
23.06268 81.3576 -2.769477
22.93157 83.04645 -3.6882
22.87349 74.97498 -8.159414
22.83209 78.60775 -7.351482
23.15765 78.48691 -6.660238
17.07905 84.94717 -6.803875
19.69792 79.68148 -7.91781
17.2333 85.99593 -6.702106
16.5351 83.9622 -7.180881
16.29724 79.327 -7.38449
16.05343 81.54292 -7.43693
17.09297 88.5586 -6.64318
17.21018 77.3872 -7.40049
14.47979 89.94178 -9.526116
15.00718 84.40101 -8.388926
19.50212 85.01802 7.039131
11.28747 86.48512 -12.92468
-16.22219 87.36111 -7.749714
-20.09583 84.65029 -2.963597
-11.25259 56.63696 -15.12311
-10.36594 52.64394 -13.30743
-0.3731095 80.82094 -9.667638
-17.79818 65.74801 -6.656287
-16.39746 67.25568 -7.410508
-19.60155 68.95344 -13.55975
5.561005 41.70311 -10.13279
5.569024 39.77258 -12.85447
4.950583 44.97216 -13.9016
6.365625 89.9511 8.412766
14.40914 64.91521 -8.995905
13.27362 66.30774 -8.812126
11.93624 73.24298 -9.045316
13.94627 70.55387 -8.534512
12.31993 71.22846 -8.88133
17.78444 71.89211 -8.347827
15.13531 76.1879 -8.096575
16.62019 75.0128 -7.774591
12.19998 73.97121 -9.010867
11.26495 72.35283 -9.170922
12.4502 44.68895 -12.21268
11.90114 50.47663 -12.39818
11.56783 47.57706 -12.479
12.14758 48.91923 -12.36562
9.164574 50.12415 -13.37036
9.028636 49.06714 -13.42828
7.580318 46.08884 -15.08753
-21.23296 77.48006 -2.749279
-22.42522 76.17363 -2.372114
-19.90789 82.93533 -3.219084
-19.95902 80.01343 -3.249359
-18.35373 79.45523 -6.301271
-2.98687 40.69049 -10.16373
-6.825859 48.12151 -15.51767
20.04597 79.85338 4.582833
20.59627 82.28596 8.591178
18.95531 87.79158 6.158225
20.31608 88.45402 -0.5229189
19.33717 92.39138 2.074019
18.98443 90.02316 6.871936
20.13087 89.3615 0.5641705
13.45277 80.61867 -8.9338
10.94098 87.79808 -11.14539
12.5769 89.19331 -10.66749
12.05183 94.26257 -11.16916
11.32673 88.82299 -12.56537
12.98517 92.31198 -10.65448
3.394502 87.84437 -12.12883
3.760041 88.33623 -13.75988
-2.939212 88.78316 -13.5263
-2.722896 88.80492 -13.03138
0.6880582 86.55407 -10.97513
1.211867 84.67868 -10.937
-1.955741 89.06349 -11.40151
3.133461 91.15819 -12.40586
-1.842661 91.65136 -11.69488
4.169561 83.96001 -12.44152
13.33478 86.32425 -13.32696
8.95299 75.45296 -11.86302
8.030743 68.85824 -10.87686
-10.77636 49.48636 -14.49946
-10.71208 51.38755 -14.30475
-10.06673 54.06644 -10.85605
-9.179207 47.657 -9.137362
-10.21989 49.75235 -11.52691
-10.24784 51.39679 -12.47828
-6.776114 49.11666 -11.16664
4.28977 43.79076 -22.26439
-20.26471 67.75307 -11.26843
-15.7868 72.9172 -14.66206
3.755041 43.44149 -15.68378
4.726722 41.85086 -14.42018
4.448569 44.50916 -14.71807
4.659985 48.39631 -14.149
2.289397 43.43684 -7.261359
-0.8020847 44.00292 -7.516409
-2.1616 41.90548 -8.482893
-2.263862 44.47575 -17.13837
1.636893 45.43202 -7.26368
-2.132396 42.61386 -8.487137
-2.288077 45.45351 -8.914636
-2.306046 47.81246 -9.115764
-2.685109 52.6988 -13.79104
-2.534596 47.89979 -14.40597
-2.635283 43.64624 -13.82254
-2.905431 49.72963 -11.59173
-2.919505 43.68989 -12.41636
-2.615546 42.1815 -13.90345
-2.879296 51.38116 -12.15893
-3.309325 50.03041 -18.47154
-6.144766 53.96178 -18.01549
-5.961628 86.67475 -15.35675
-6.754745 54.38073 -14.92288
-5.999675 57.88522 -17.76671
-6.039916 54.68976 -18.13211
-2.871613 53.1587 -12.43194
9.77008 76.44666 -10.16902
12.3622 77.73026 -9.150505
8.322847 52.45344 -13.94914
13.13214 61.5805 -12.6671
-2.174145 42.58492 -16.17148
13.15716 81.22369 -9.156158
10.4632 83.47969 -10.70227
10.57885 86.29362 -12.42295
10.70881 83.67948 -12.44127
14.63206 87.73827 -12.87562
13.17015 81.96698 -11.37223
13.76855 86.48781 -11.24162
8.899035 76.9429 -11.02121
9.504297 79.15186 -11.9286
12.63935 79.28915 -11.60143
11.70378 79.57108 -11.99719
13.88261 82.42463 -11.11432
14.61638 76.18236 -10.8394
11.15747 80.16135 -12.17451
11.1677 73.52318 -12.16814
15.35 75.99342 -10.80828
4.225881 82.26988 -12.61849
0.9320319 92.75291 -12.39241
8.624402 87.43768 -13.77814
-16.40916 84.13258 -7.348311
-16.96397 87.25502 -12.02979
-11.31003 88.57671 -13.64146
-17.85883 85.06156 -12.00612
-17.28504 85.19817 -12.46868
-6.851689 54.62637 -11.25525
-9.169197 52.47058 -9.445145
-9.496268 54.11473 -9.754403
-6.595645 52.37376 -12.82801
-7.079715 57.87166 -10.8787
-6.625423 54.76718 -13.6859
-6.76743 47.37968 -11.20387
-14.02115 61.65268 -12.69797
-14.83327 62.37804 -10.357
-17.08164 61.1885 -9.558781
-11.6852 64.09887 -15.00851
-11.58809 66.94434 -14.78978
-16.20358 66.9969 -7.992921
-17.12812 67.19685 -9.34884
-16.79631 70.39835 -7.193669
-19.80393 72.58272 -11.05256
-17.79636 68.46802 -6.62359
-18.90102 76.40656 -10.30128
-19.39439 75.79702 -10.8297
-16.26682 71.139 -8.67761
-17.62863 73.67146 -9.811787
-16.4406 77.00791 -7.55177
-17.43059 80.73489 -6.60868
-16.48446 71.0406 -14.86506
-17.87481 74.83038 -13.94782
-14.59001 68.14619 -13.31488
-17.43368 64.52644 -10.37291
-14.19825 63.86379 -11.46529
-17.37459 62.64462 -11.14954
-13.35139 67.91936 -13.06876
-13.14817 66.27335 -13.83949
-13.75783 67.40703 -12.16822
-10.23531 66.5836 -12.91592
-11.37249 64.92535 -14.99068
-6.701659 61.60042 -14.13788
-10.41815 69.08395 -13.58085
4.947462 49.08693 -9.761602
4.132613 45.88018 -21.95103
2.702793 47.85379 -17.27878
2.553222 48.59241 -20.0364
5.289521 50.43163 -12.28364
7.058573 51.58636 -17.11006
4.388602 48.45619 -14.59675
6.296273 47.23373 -20.41859
6.841067 50.63763 -18.4811
7.012905 49.96292 -17.25929
7.001386 49.10434 -17.27336
2.057579 50.99218 -7.725606
4.223421 50.37268 -8.819285
-2.348972 51.64645 -9.524149
3.820059 52.4428 -8.626617
-2.759951 58.17219 -11.49109
-0.7145652 50.10669 -7.923641
-2.496677 54.20216 -10.20111
-2.864542 55.09537 -12.04291
2.559554 53.3528 -8.044071
5.270942 51.35006 -11.20065
4.232444 51.02665 -14.70358
3.941878 50.28089 -15.16375
-4.344079 60.14299 -18.32051
-0.3495159 63.42025 -8.630543
5.140449 55.58059 -11.97234
-6.742332 58.20268 -14.68415
4.695727 57.79619 -13.32605
2.784308 53.881 -17.44088
2.764306 49.05881 -17.1653
2.600971 51.60978 -18.11966
3.144302 57.2394 -19.47201
5.006249 58.43071 -11.35385
5.16807 52.26609 -21.05958
4.341189 54.27304 -20.93727
7.535463 56.42125 -14.94138
7.287035 56.56153 -16.029
6.45098 51.02735 -19.81264
7.00811 55.774 -18.04262
-0.8258203 56.78482 -8.33996
4.435121 54.48753 -9.434145
5.162107 57.31662 -20.50582
0.1821624 54.93413 -7.959163
-1.863301 60.53516 -9.379081
-1.40803 61.22721 -9.016788
0.8801779 59.19471 -8.156676
6.275861 56.74692 -19.64739
3.363573 58.99321 -16.04532
-2.202784 63.80667 -10.08759
2.787566 59.7731 -8.62324
7.343053 59.20832 -15.62161
-1.352107 62.2673 -9.058466
3.414641 63.9919 -18.37363
7.26666 62.28455 -16.33
4.399245 59.78069 -10.08325
6.900321 59.1537 -18.11669
3.378989 61.08969 -15.99831
12.06645 59.98936 -12.47691
12.86131 79.21702 -9.066302
-17.90484 76.3324 -6.513453
-23.35466 74.79049 -7.722945
-21.68317 70.76322 -7.515544
10.97718 79.95953 -9.916193
14.29183 81.32188 -10.99147
13.41412 82.31582 -13.46113
13.3613 83.52943 -11.283
2.183466 80.94028 -10.59638
2.117718 81.7437 -10.72475
-1.905704 83.41204 -10.87165
-4.778621 87.31316 -15.4748
8.533338 84.91294 -13.81242
7.690455 85.73926 -15.63219
7.045987 82.41445 -16.60711
4.966918 82.00922 -17.00424
6.64633 80.29393 -17.17272
-16.75966 83.73006 -7.044073
-8.637967 50.57172 -9.211112
-9.076948 61.87553 -10.18347
-5.71106 58.89146 -18.07709
-7.090013 59.72412 -10.855
-6.708408 63.90567 -13.36176
-4.322145 58.73215 -18.38148
-6.820255 48.34365 -15.43849
-10.56616 62.94551 -13.97921
-10.19509 59.59371 -12.09858
-9.793262 64.1074 -10.93149
-9.0819 65.11078 -10.5233
-7.364416 63.3693 -10.74391
-10.26401 57.22932 -12.40272
-8.07666 67.50705 -10.59375
-6.870749 65.75216 -11.87466
-16.93712 81.2748 -13.44853
-15.21156 71.59852 -14.57742
-14.44985 70.56627 -13.89847
-15.90094 70.17056 -11.76731
-12.81218 68.98394 -13.84969
5.413403 48.87247 -11.93873
-2.870023 61.14725 -16.23412
4.011725 60.23774 -14.67664
3.516818 63.21436 -15.72223
3.071715 60.07421 -18.66828
1.424996 63.7015 -8.534163
3.026198 64.20301 -9.099503
1.750253 65.95177 -8.772652
7.677819 67.49706 -14.74855
-6.853641 50.10037 -16.66609
-19.66387 73.71803 -6.78979
-21.8425 73.93579 -7.596568
16.27963 78.40495 -12.31848
15.35826 77.93047 -13.47364
13.34817 81.37168 -13.42547
9.860273 83.18102 -12.59885
8.82944 81.00222 -12.72137
7.927197 68.5592 -11.38403
9.351362 70.45485 -12.55131
10.26338 72.4341 -12.41763
12.02027 65.0597 -11.8333
0.01029175 82.60976 -9.804548
-2.010596 81.42918 -10.84653
3.584384 81.56133 -15.4023
4.312015 78.77274 -12.90657
3.789747 79.48171 -11.37774
4.040605 74.73957 -14.53921
4.14633 76.37923 -14.20361
4.218497 77.16256 -12.10503
7.427608 78.4782 -16.4388
6.595253 75.269 -17.8224
7.610592 75.10054 -15.99638
8.586582 80.22726 -13.29806
-14.52166 76.63479 -13.32081
-6.721897 60.28049 -15.332
-4.232617 61.45448 -18.14735
-4.963864 64.84399 -17.86853
-6.562604 63.26047 -16.22646
-6.564582 69.45576 -15.59316
-5.896691 67.55061 -17.04902
-6.621993 68.25243 -15.38777
-6.126963 70.97261 -16.54751
-7.041677 74.22186 -12.66328
-6.286188 72.40221 -16.13195
-3.801383 64.00749 -17.57478
-6.140246 76.7869 -15.8491
-6.543299 56.80727 -16.91934
-19.53352 76.84018 -11.55547
-16.98187 76.58023 -14.17295
-18.49767 82.38173 -11.86761
-16.27128 83.35877 -7.401093
-16.3609 80.53122 -8.87466
-16.37905 77.64745 -8.921066
-14.65063 73.89092 -14.05393
-14.97136 78.60013 -12.07317
-16.15989 72.94539 -11.1058
-15.9067 74.53044 -11.13571
-16.17035 72.45593 -9.315025
-2.696588 61.62165 -14.4686
3.33838 68.26056 -16.89629
3.525477 68.54825 -9.869349
16.39593 73.53534 -10.9437
15.38204 74.71266 -13.47109
16.94111 74.39283 -12.01658
14.26041 62.26151 -12.9979
10.39072 73.62431 -12.38012
13.33087 74.12595 -11.24603
16.83588 73.1621 -12.76177
14.63773 70.04926 -10.74253
17.4458 69.82187 -11.38521
13.95745 67.59743 -10.92111
17.85593 68.88195 -11.81482
16.69869 71.83364 -13.05302
12.59061 74.78902 -13.03776
-3.825262 82.28783 -15.51529
-3.004076 82.18234 -14.02203
-3.73339 84.59319 -15.06879
3.804337 75.22695 -10.98064
-1.105891 79.13903 -9.951269
5.692094 76.01247 -18.07759
6.766031 74.5656 -17.74299
10.0724 76.14105 -12.691
-14.96761 81.03933 -11.87059
-11.33218 73.06982 -14.66439
-9.940659 70.36601 -12.31759
-11.72619 72.85854 -14.5095
-5.959578 74.56091 -16.25255
-18.96624 77.49197 -12.43682
-15.67278 80.83045 -10.18237
-13.89168 80.88538 -9.970174
-13.24584 79.74015 -11.22712
-3.405777 65.17057 -16.96136
3.303537 66.57693 -17.30194
10.3396 80.03307 -12.7014
16.17376 61.59398 -13.37531
16.88429 63.04228 -13.3864
14.59307 65.25548 -10.69562
17.82886 67.94218 -12.46251
15.04865 63.21794 -10.56448
18.40294 64.05022 -11.48622
18.48705 59.55335 -10.89526
17.59582 62.90239 -10.65183
13.60565 66.6149 -13.0181
18.09678 65.56409 -12.50655
12.69294 63.92366 -12.68984
11.39528 70.67555 -12.71564
8.448537 76.34785 -13.37217
10.46133 76.38359 -12.69219
14.03246 72.78892 -13.35484
9.714937 74.82933 -12.33122
-8.250941 87.09143 -11.87753
-6.628576 86.14648 -14.56425
-6.115291 83.98398 -15.43223
-6.895114 82.79603 -13.84277
-5.149953 83.41685 -16.02737
-6.163033 79.26201 -15.71402
-6.464551 80.27187 -15.10851
-7.143175 77.65704 -12.36431
-9.096552 80.08541 -11.56648
4.123569 73.12308 -14.33644
-2.774529 76.82279 -12.8362
3.96811 73.56221 -17.86703
4.236423 73.68137 -11.62373
-11.19253 74.65199 -14.45155
-12.91329 73.66228 -13.27505
-6.853579 74.93088 -13.73084
-8.752202 78.86951 -11.33939
-15.87591 79.40444 -10.55807
-15.81138 75.03244 -9.410235
-14.82208 75.78883 -9.475771
-15.17547 77.72195 -9.471342
-14.00751 74.94973 -10.35631
-3.585452 62.92172 -17.42568
-2.76608 65.22751 -12.34879
4.507688 69.53605 -12.25104
4.534038 68.78635 -13.15862
3.3889 66.90732 -16.32817
15.13618 67.75591 -13.42931
7.706328 67.64228 -14.63088
7.778163 74.87301 -15.09979
-4.651731 78.18392 -16.48914
-3.543317 76.80392 -15.81852
-2.653139 78.51302 -12.18384
-4.143166 73.62873 -16.70645
-8.839671 80.09159 -11.43676
3.184983 69.30662 -9.639225
0.318171 68.19236 -8.826699
3.443187 67.83474 -9.72344
4.498666 70.06228 -11.95518
-1.594277 65.41722 -9.435743
-0.1355295 68.35432 -8.881923
-2.778548 66.54993 -14.0276
-2.931391 73.60835 -14.52
-3.935696 71.09356 -16.93828
-1.428512 72.3736 -9.759683
-1.672 75.20503 -10.09235
-2.984648 69.54051 -15.13069
-3.291389 71.53754 -15.96134
-1.763461 73.98638 -10.11135
-2.052625 72.10711 -10.21986
-2.657734 73.93537 -11.8524
3.519879 72.79849 -16.41346
5.063278 69.34151 -18.94363
3.741487 70.26455 -15.36543
-15.50546 74.11254 -9.277998
4.929424 68.47113 -19.07584
5.816856 61.82599 -19.68906
7.474888 67.29763 -15.88145
8.391878 68.1591 -13.49206
6.485788 63.66728 -18.80292
6.568073 69.48031 -18.35906
-9.979488 74.92276 -12.96632
8.254586 66.69537 -13.70219
6.662507 64.1328 -18.46637
-7.992784 91.41187 -12.48213
-9.825089 91.29559 -12.26286
12.20971 94.0435 -11.94625
-12.67424 81.39034 -12.64748
-12.84285 82.10136 -11.95236
-11.95961 77.00044 -14.13683
-13.36661 83.68366 -10.40359
-11.65277 84.50247 -13.74468
-12.1585 85.77493 -12.8851
-12.37291 88.74798 -11.49981
-14.41759 88.57835 -12.68556
-11.12256 87.68504 -13.87758
-14.88794 88.05286 -10.97757
-15.23199 84.51015 -10.04581
-15.11906 85.9802 -10.6368
-11.04179 93.61561 -13.03172
-15.19005 86.33812 -10.05884
-14.3904 91.48341 -11.10527
-14.23721 93.31083 -11.32296
-13.95856 94.43431 -10.45442
-14.75492 91.37881 -12.13946
-14.85399 91.36691 -10.71835
-14.60671 94.76773 -10.80512
16.34712 103.8497 3.022532
8.911225 132.8411 -10.32672
4.706811 104.7468 -9.317836
15.04092 103.1942 -4.129907
11.61248 104.3583 -7.235975
9.203462 120.4585 -3.748633
8.531697 113.5074 -4.553565
14.76904 134.5104 -1.942201
12.4589 105.4609 -5.885903
6.858843 132.3692 -10.75508
13.89827 129.057 1.964566
16.42631 103.4379 0.9026913
6.042028 150.1787 -10.31417
0.471731 103.1311 -10.23444
4.038474 103.3265 -10.13029
8.193789 114.9532 -4.720804
7.549925 123.2678 -6.0862
2.053633 102.3223 -10.6881
3.509278 105.2327 -9.027078
1.201794 125.3339 -8.179427
0.7589244 101.93 -10.72476
0.9700354 148.2936 -11.10365
6.24383 154.2741 -4.910064
1.890382 154.2581 -8.926183
13.15552 132.5064 -7.052737
-0.2720597 151.797 -9.888142
1.483548 146.9328 -11.50922
1.209705 105.4215 -8.927379
15.40173 138.4055 -4.689034
12.44782 131.3942 -7.143016
5.775219 117.8138 -5.947023
9.393358 132.7628 -10.0858
15.02456 136.0516 -2.291976
13.78457 128.1124 2.02276
5.787269 117.3936 -6.091986
15.48198 138.2898 -6.395632
9.387346 129.9104 -8.700397
14.01489 130.1529 0.4515185
3.078978 118.7527 -6.233807
5.84601 116.8681 -6.235624
15.40638 138.4595 -7.317129
10.13746 107.8474 -6.265433
12.82444 107.647 -4.334347
13.08137 121.3603 1.897291
1.837467 130.7092 -10.29634
4.75792 107.0335 -7.918808
14.71577 134.1629 -2.669282
12.61556 132.4951 -7.722596
12.91538 130.9845 -6.135234
13.4708 129.6373 -2.87917
13.37651 126.4793 0.6839556
5.396804 125.0183 -7.687693
5.101073 125.7859 -8.074725
14.84517 135.6364 -6.653951
14.02864 135.7536 -8.351873
12.92808 136.0005 -9.530659
6.541414 146.1194 -12.00635
13.1603 140.1045 -10.8413
15.4247 107.3418 3.042944
15.61894 104.9682 -0.9089906
4.44425 111.1518 -6.927784
12.7458 123.6177 1.079613
14.36352 110.6418 0.9658608
0.6288445 127.8476 -9.106435
2.198097 132.3298 -10.93249
1.063392 105.2156 -9.042231
11.23419 122.2926 -1.838591
10.78976 133.43 -9.685566
5.866687 114.0485 -5.914081
4.871202 123.4042 -7.165523
6.155271 129.4795 -9.625093
5.240351 133.9595 -11.49466
2.019524 142.3599 -12.3758
11.31469 139.5377 -11.62408
8.329133 148.7957 -10.75306
8.550311 105.8862 -8.0342
8.141997 108.5547 -6.608966
10.32208 117.9265 -2.38562
14.13702 113.2115 3.299122
2.691421 113.4761 -6.597559
0.8820854 137.669 -12.27444
12.45778 124.8966 -1.138463
5.100469 152.4252 -9.074659
7.608405 133.4042 -10.97053
1.256303 139.0398 -12.43007
2.665038 149.3243 -10.89563
6.837647 144.0743 -12.35034
9.045624 106.1045 -7.720062
12.58035 121.1094 0.8252303
5.079012 114.7389 -6.725133
3.11544 110.9028 -7.483712
3.768991 135.6999 -11.95459
10.73455 117.9061 -1.885171
13.30387 112.2424 -1.223374
4.620495 147.6972 -11.56798
5.119566 107.9456 -7.421321
3.623052 113.1325 -7.006032
2.670595 111.2245 -7.363506
4.632112 142.1496 -12.50989
12.94179 114.7892 -1.143783
3.798211 150.2934 -10.54572
14.79332 107.5684 -0.9299003
6.735642 109.74 -6.467926
2.5969 141.063 -12.50118
4.651908 132.9646 -11.20201
9.123997 112.2882 -5.123703
5.262252 147.0011 -11.80118
9.09059 107.3312 -6.96981
4.871096 140.1292 -12.62955
10.41385 111.4545 -4.686079
1.658548 145.4043 -11.87253
13.61044 109.517 -2.109645
7.431515 137.5432 -12.38722
9.830832 103.0248 -9.31554
13.72342 134.9255 -8.139784
3.898644 149.8534 -10.75197
6.902674 150.3038 -10.04464
4.610272 151.8141 -9.588459
6.631718 148.6843 -11.09804
8.129051 138.2968 -12.40902
8.72335 111.9926 -5.465534
6.359132 148.8919 -11.01944
-8.066507 113.1839 -5.000455
-12.37688 122.2223 0.214699
-0.6821537 123.9276 -7.654909
-15.96811 105.4462 3.223471
-8.665835 152.4431 -5.861053
-6.828283 122.4356 -6.086211
-0.8079212 129.7865 -9.906634
-8.83922 133.4388 -10.6096
-1.723092 144.3626 -12.08224
-0.8381138 147.104 -11.4509
-10.77018 130.433 -8.133941
-10.17212 115.5865 -3.370619
-12.69805 104.3338 -6.259858
-15.81882 104.312 -0.8850176
-9.006536 115.0501 -4.17976
-6.698665 113.6644 -6.361873
-16.81611 101.7429 3.365996
-7.845759 104.349 -9.200377
-9.068925 125.2799 -6.259412
-9.560435 103.8695 -8.800008
-10.97753 128.161 -6.572707
-9.818954 151.0444 -8.409667
-1.428906 116.8523 -6.425727
-12.3273 125.1852 -1.731291
-0.2679302 108.5046 -7.54772
-10.31144 132.5267 -9.52552
-7.862944 120.4008 -5.203067
-7.463507 132.0581 -10.47659
-10.55405 127.8031 -6.688813
-13.10827 120.3615 1.716531
-8.269464 119.2798 -5.019549
-9.355646 132.8732 -10.15825
-14.70899 134.1037 -0.6674455
-13.19637 126.7265 -0.4320074
-10.36557 125.9438 -5.639321
-15.74049 105.8121 0.5293514
-1.257709 147.0123 -11.48843
-2.62877 103.4075 -10.1001
-1.946471 104.2509 -9.59341
-14.11902 104.9299 -4.163435
-1.397331 121.2896 -6.736656
-7.43724 152.7266 -7.038072
-8.905079 115.5632 -4.258382
-6.441614 153.6492 -6.551624
-6.740948 127.8584 -8.655925
-12.85925 123.5118 1.448067
-15.44688 137.6857 -5.995623
-13.65845 129.0616 -1.017885
-4.267564 146.4993 -11.83867
-3.140136 154.2233 -8.62597
-3.084853 106.7723 -8.188091
-13.447 108.2793 -3.190274
-13.68516 102.8593 -6.132423
-2.303218 123.6078 -7.539597
-1.529539 118.534 -6.419671
-3.182949 128.54 -9.372532
-14.11035 114.0332 2.203624
-10.93317 118.959 -2.09537
-6.711092 113.8877 -6.348772
-9.927676 107.4731 -6.599345
-3.347578 105.6367 -8.812016
-7.484458 107.129 -7.494874
-6.477516 116.9487 -6.080106
-6.890493 123.7085 -6.608955
-2.710296 124.7986 -7.965912
-11.13934 123.0876 -2.508991
-13.38234 125.4184 2.88536
-11.79359 125.2412 -2.99677
-12.08526 128.7807 -5.65054
-13.87179 110.4921 -1.266777
-15.13906 108.2128 1.607219
-4.095635 148.894 -11.14595
-3.96653 153.6009 -8.634281
-11.22377 106.1858 -6.536039
-14.74005 103.4964 -4.070579
-0.373821 116.7333 -6.49535
-1.613047 132.9207 -11.1252
-10.44526 118.9511 -2.455242
-2.01251 106.911 -8.143344
-6.07251 105.7733 -8.630973
-5.817042 120.5778 -5.831482
-2.737322 118.1575 -6.186668
-3.448215 114.0914 -6.472358
-11.7758 121.9011 -0.8919919
-13.50238 130.8933 -4.635752
-14.2779 112.4548 1.398378
-13.858 111.6389 -0.7635311
-6.467443 140.2955 -12.71913
-4.474323 142.5532 -12.46184
-3.91268 154.7805 -7.943065
-3.968086 151.4621 -9.907278
-12.80429 110.8111 -2.871507
-3.159279 111.2252 -6.941
-6.365723 126.9007 -8.285791
-13.70617 116.2925 3.560002
-15.10913 137.3407 -7.646053
-2.827632 130.6838 -10.28993
-12.71972 120.0113 0.1813933
-14.37366 111.0811 3.584955
-13.30305 111.3383 -1.922266
-13.40831 116.8378 0.6449782
-11.73211 141.9228 -11.62892
-1.006115 138.1892 -12.34944
-9.913007 149.2761 -10.10003
-7.708158 148.8551 -10.83803
-1.967467 110.9782 -6.858009
-6.984632 132.4086 -10.75203
-13.59486 112.3204 -1.013519
-9.829779 135.1061 -10.88744
-6.598533 146.7115 -11.86321
-3.89741 137.0444 -12.25269
-4.484322 138.7945 -12.52501
-5.202578 144.7366 -12.21206
-4.333177 140.9167 -12.58591
-3.818703 143.4371 -12.31087
-6.498223 147.4733 -11.64702
-3.523981 103.5231 -10.0193
-14.52434 133.2181 -1.557579
-10.93243 137.2034 -11.23734
-6.992569 103.3526 -9.955825
-9.118918 140.8645 -12.35682
-8.792788 140.4419 -12.42754
-4.949236 155.6341 -1.551217
-5.57887 154.945 -4.043964
-4.42067 154.0429 -0.2356577
-2.543695 156.8239 -7.962265
5.179439 156.2113 -4.962616
5.310116 155.4211 -5.489034
5.349196 155.9482 -3.80183
1.106287 157.0005 -8.287339
-16.79334 101.5352 4.182849
-8.380426 152.2614 -3.031984
-13.13529 119.7064 3.755819
-2.683631 101.5996 11.34953
-1.426705 129.327 12.81489
-10.43309 99.35245 9.813139
-2.617343 140.6736 8.398518
-14.6395 132.4437 4.462258
-14.92261 136.2784 0.2292011
-15.01666 139.1086 -0.4069738
-13.8524 129.5316 5.315242
-2.274202 120.0048 11.98829
-7.739029 152.7538 -3.22209
-2.16899 144.9765 5.460739
-3.659994 112.2301 12.02936
-2.487664 114.9727 12.06434
-4.005948 125.8603 12.08315
-1.800697 99.99052 11.00716
-1.59142 112.607 12.13914
-14.12672 137.5204 5.086976
-1.478604 123.6207 12.10202
-4.464714 137.7034 11.19381
-1.571358 142.0102 7.3886
-2.254019 150.7224 2.532401
-14.92875 137.8893 0.3446738
-1.448405 140.5356 8.550782
-2.290627 113.2885 12.10782
-1.921358 118.5377 12.02906
-1.45246 146.2979 4.677369
-2.708375 146.2358 4.662355
-16.6248 102.345 3.471362
-10.95314 133.2021 12.92436
-6.67201 153.1274 -2.121855
-14.09763 130.2647 6.31293
-3.080191 115.4428 12.01794
-15.21436 138.2663 -2.639998
-5.061014 136.2053 12.44019
-14.95289 106.458 5.809917
-10.4277 148.2737 1.033515
-14.70974 133.4166 3.304547
-13.3242 113.5756 5.103133
-4.730836 117.5752 11.73125
-14.67098 136.9989 3.047677
-12.65709 143.306 2.791797
-3.82947 103.4857 11.61879
-14.97291 103.8315 6.681751
-10.34736 147.4898 1.48876
-12.64445 121.1838 5.533129
-14.1176 110.4965 4.95048
-4.327263 111.2073 11.93663
-5.789151 118.2561 11.49787
-5.930767 125.8372 11.59072
-3.492495 138.435 10.48991
-7.373674 98.72097 10.6954
-6.391036 101.6477 10.52651
-9.919869 148.9333 0.8024405
-6.862585 146.2928 3.463974
-9.129907 147.119 2.100049
-9.099383 150.4713 -0.4942955
-12.46404 136.8488 9.376218
-14.2093 110.3519 4.278763
-3.526792 111.4467 12.0619
-6.451022 116.1879 11.32192
-4.983556 119.7013 11.65758
-4.948264 139.9796 8.956822
-5.653069 138.8084 10.174
-5.444368 134.0162 13.45292
-13.7484 108.2702 6.839894
-7.798573 144.0194 4.733569
-12.41476 115.2409 5.64919
-5.147276 114.0548 11.69679
-8.951447 112.0702 10.32437
-5.600145 118.4119 11.5427
-6.111333 120.5359 11.45338
-5.909208 130.1354 13.15539
-13.88663 139.0575 4.266257
-6.199177 138.7422 10.26465
-5.455197 137.8537 11.13155
-6.78872 129.8253 13.06187
-3.43037 130.3554 13.15002
-4.978166 143.4441 6.107808
-12.1839 124.6162 7.508163
-10.80249 122.2571 9.023264
-12.40938 114.5861 5.857662
-8.453342 123.7325 10.78735
-9.243777 127.1231 10.6052
-11.35526 125.38 8.506729
-7.595086 140.1227 8.484916
-8.389433 141.9187 6.246574
-11.53257 120.0186 7.892653
-10.25138 119.8801 9.319296
-8.994838 125.0458 10.32135
-8.876048 144.4541 3.886026
-12.09417 139.5058 6.309943
-11.71099 142.544 3.879785
-12.74788 135.1292 10.74554
-10.9224 134.1095 12.76341
-9.678299 128.664 11.93311
-7.120933 118.7435 11.11606
-12.9669 133.743 11.11518
-11.60825 131.2397 12.36306
-11.42046 135.287 11.95241
-11.23449 136.4243 11.25731
-10.62914 138.1515 9.691078
-9.717524 139.7713 8.022963
-12.47657 140.9447 4.582086
-15.42053 101.826 6.400074
-14.01096 107.4248 6.862968
-12.29029 105.7923 8.862599
-14.44315 106.4144 6.762423
-10.83138 107.1982 9.553581
-12.69667 110.3154 7.204818
-12.88313 109.7711 7.237638
-5.856022 123.9745 11.83626
-7.553096 109.3414 10.86903
-11.57926 110.6465 8.736989
-11.95626 108.0098 8.838565
-11.14163 128.9828 11.40709
-7.826352 106.9005 10.72077
-8.462935 107.6068 10.49553
6.293286 152.8689 -2.017595
-0.6364722 114.9837 12.114
0.313195 123.5818 12.09903
0.04876188 101.4964 11.5036
0.848088 108.435 12.20281
0.366759 113.4521 12.13207
1.619142 120.0879 12.00821
-0.2497803 131.5141 13.38227
0.2475665 136.1974 12.23762
8.340837 149.9023 -0.2413087
0.9123639 131.2369 13.32842
0.7691886 139.1947 9.744711
3.1482 143.8548 6.133599
13.96853 129.8515 6.099778
13.54513 126.6035 3.527319
9.906235 101.2321 9.510916
13.79692 100.8945 8.205022
8.743333 100.9879 9.822371
15.32689 103.4154 6.292603
13.2683 125.1657 4.664132
13.88262 101.7791 7.941173
2.540761 152.8069 1.377049
11.40584 147.6321 0.6538898
8.830468 152.3026 -4.672711
14.60349 101.272 7.549922
7.930868 149.0906 0.7492578
15.54336 101.6687 6.691415
0.1471224 103.5697 11.96876
-0.2522084 117.0003 12.08614
0.1296213 134.0411 13.22848
-0.8321726 138.3485 10.52047
-0.4472615 142.4871 7.067345
0.4094301 129.5745 12.90126
14.80682 135.2995 1.429992
1.634664 99.76512 10.99832
4.178692 148.0127 3.273956
14.74817 134.3787 2.214798
6.615163 152.3444 -1.763936
13.35253 125.3243 4.052003
14.98272 138.6936 -0.1151813
6.929384 107.8375 11.09957
14.65526 107.5822 5.572947
9.267848 100.9876 9.686196
13.08698 105.2435 8.428888
8.236421 106.4589 10.53574
4.018986 142.208 7.10571
14.74713 133.1833 4.663283
1.41863 116.747 12.06472
2.798753 139.9368 9.031343
14.67274 138.494 2.109743
10.45365 143.2585 4.075905
10.26106 140.0451 7.363991
5.916173 136.4128 12.37636
