# .PCD v0.7 - Point Cloud Data file format
VERSION 0.7
FIELDS x y z
SIZE 4 4 4
TYPE F F F
COUNT 1 1 1
WIDTH 1657
HEIGHT 1
VIEWPOINT 0 0 0 1 0 0 0
POINTS 1657
DATA ascii
11.96305 120.8806 7.450129
10.21382 126.5366 10.36733
14.08866 129.5854 2.684634
13.14551 124.1081 5.155563
1.921515 64.69184 8.413516
19.58761 67.80116 3.039101
19.38549 70.92119 4.590225
19.71523 76.1097 4.96809
20.00237 73.69102 3.56824
4.893394 68.25909 8.625037
1.956424 76.57932 9.760031
19.37685 88.22758 4.685779
18.96446 91.63395 2.945553
18.66453 92.51811 3.293809
19.90548 87.30995 3.116628
20.10681 75.95973 3.845152
20.01575 79.66724 4.685412
19.47077 90.28657 0.764783
0.2325894 82.07939 10.18161
3.915296 83.75884 10.21354
4.01938 79.1617 10.01789
3.572984 86.95737 10.16263
2.947804 91.70604 10.02236
7.611941 99.49245 10.32609
7.082524 136.8026 12.32084
14.39165 108.1093 5.92014
17.46189 96.55106 3.946247
13.38236 106.0331 8.170313
12.75393 53.3517 7.644517
18.65754 65.15311 4.591299
19.04974 61.19764 3.646096
18.15666 59.96831 4.989233
17.69689 58.86457 5.366252
19.70901 74.03548 4.606213
19.45711 71.80062 4.680591
2.781144 71.55049 9.067555
3.131316 75.62848 9.641088
18.33522 91.62015 5.371045
18.93365 81.86472 6.903381
17.27977 84.43794 8.72347
6.378895 85.24258 10.21134
2.984373 81.65112 10.16872
3.814096 78.94188 10.0013
8.102523 82.08684 10.18965
6.850359 81.84463 10.17962
4.708254 88.39028 10.10412
17.97541 92.73181 5.447085
6.726563 136.6455 12.39957
11.89935 57.61089 7.86206
11.88745 108.6901 8.819524
11.68765 107.9705 9.129249
13.96324 105.0303 7.84718
13.77452 103.5117 8.087329
15.17209 105.3316 6.154488
17.4188 61.31294 5.802613
16.33303 60.91294 6.506602
19.07501 73.01897 5.615072
16.98166 72.14698 7.980722
18.29052 70.33144 6.342982
5.437196 78.18433 9.932198
17.72779 89.73254 7.358032
15.15738 91.22177 9.183673
15.91199 92.86395 8.2733
17.59204 89.15208 7.736956
17.37275 86.48547 8.456743
17.76839 91.9099 6.339014
6.1507 136.0044 12.75808
7.556632 135.4251 13.20365
14.19379 106.7255 7.14676
12.89497 57.24778 7.644244
17.72961 75.84312 7.925764
18.52831 76.92128 7.153082
5.932364 79.27749 10.02993
18.69462 83.0654 7.240362
16.22068 77.54475 9.190482
11.10609 132.4072 12.96585
5.53213 76.43886 9.742247
10.61582 99.03067 9.603006
12.58195 80.37106 10.13635
12.86769 56.06049 7.644735
14.18766 60.13133 7.346084
8.593966 69.07298 8.667919
8.930573 78.66857 9.982621
10.48414 79.65432 10.07197
13.67367 78.63584 9.980477
11.4782 97.89311 9.35213
11.81328 128.1172 10.19908
15.5013 63.48836 7.04574
11.97491 80.54389 10.14055
5.999631 98.52938 10.46135
8.541023 97.06354 9.942359
17.65116 78.43683 8.304564
10.93454 131.624 12.96196
12.86336 79.2084 10.05292
10.20611 82.18672 10.19757
13.18699 90.47657 9.833582
10.65844 83.91374 10.22758
8.603925 85.72362 10.21349
10.30234 84.49267 10.23611
7.712227 98.45 10.19818
18.04609 77.85342 7.874773
16.15292 78.81172 9.349407
13.93364 77.70565 9.877106
16.8918 81.15086 9.045152
6.077012 91.22641 9.979057
9.464835 93.4155 9.764832
11.27552 92.59595 9.69499
14.59365 98.97472 7.74205
14.17166 80.09481 10.0488
13.16586 77.12506 9.825511
17.89202 69.52575 6.585306
8.112236 72.52534 9.194169
14.4868 77.35014 9.761528
6.474385 95.60731 10.0717
13.4314 95.6632 8.943148
11.32735 99.14066 9.386269
14.7119 98.19527 7.83472
11.44763 72.12797 9.116996
11.61823 74.64009 9.49191
9.792388 70.56433 8.87835
3.538242 93.74625 10.09203
13.82177 74.91973 9.533001
8.461767 73.11532 9.28021
4.190573 92.35592 10.00917
9.794407 76.68505 9.770206
10.5245 73.85584 9.381053
14.81115 132.187 6.095189
14.93876 133.374 5.751271
14.28319 130.4735 7.17271
13.14686 127.9161 7.406749
13.56749 129.2174 8.310656
13.26267 128.3829 7.812241
12.21232 130.8076 11.85516
13.65511 132.0676 10.55382
12.83412 132.0327 11.55266
8.703952 139.4869 9.574141
3.171648 116.5456 11.80883
8.165562 140.485 8.825081
9.717367 138.6779 9.93654
8.948572 138.1545 10.8009
10.61413 137.379 10.8501
9.344563 135.2426 13.12972
5.697803 138.6528 10.63118
13.00051 134.1134 11.14614
12.83669 134.9342 10.91548
17.85571 58.33808 5.167839
4.565996 57.56792 8.195469
4.411634 55.86176 8.156891
7.602787 57.35077 8.326345
7.186281 96.90383 10.11487
3.151968 129.4566 12.93155
2.698672 64.4938 8.40084
5.284692 67.00969 8.497107
3.32891 64.93016 8.409985
4.493574 67.74773 8.579979
4.85369 68.33694 8.633782
5.23352 70.39972 8.896276
6.21425 99.43538 10.54082
12.20899 126.0976 8.014449
11.85424 125.2542 8.134674
13.02605 61.53641 7.665987
17.51774 64.71195 5.930974
14.41939 64.57141 7.460167
16.84173 63.53769 6.322966
10.84999 62.40567 8.020914
16.5058 62.53888 6.464757
17.12403 88.88422 8.283213
8.571096 84.83675 10.2237
9.217081 86.53494 10.19634
8.339433 89.41468 10.03964
12.18955 88.79136 10.08636
8.013415 88.64845 10.08743
11.46971 88.28035 10.12341
11.44334 89.33929 10.02607
8.72238 92.05276 9.866473
12.99005 89.08556 10.03826
14.70152 86.13143 10.00766
9.953545 89.92856 9.982581
13.15878 91.0131 9.767683
7.691138 132.9926 13.86289
5.940787 132.2365 13.72835
8.270937 131.4928 13.7564
6.617395 132.6445 13.82148
9.046072 129.7961 12.96986
4.93927 71.9245 9.116765
18.16987 84.47608 7.820292
16.82988 81.86635 9.096066
17.46891 80.44344 8.580709
15.80945 81.36256 9.662099
7.845836 80.98023 10.14522
17.14856 73.34578 8.038043
13.83982 72.79359 9.202891
17.75964 70.77538 6.973541
16.80195 66.38583 6.740692
14.06795 65.2665 7.620214
4.327047 98.01772 10.58515
14.26944 94.87587 8.791268
16.17053 96.389 6.828388
16.96997 95.67447 5.859873
6.44498 76.80361 9.78536
6.695757 140.8157 8.856724
12.78427 136.1702 9.935616
13.26533 128.9224 8.711683
4.077598 57.19116 8.216318
8.906938 61.27853 8.20433
10.97823 60.8214 8.001848
5.721279 65.97823 8.416176
5.938806 60.88718 8.272562
10.44293 66.62156 8.279655
7.586439 66.55995 8.404038
6.814026 63.05549 8.277542
5.20448 62.88407 8.319766
8.28529 67.27019 8.447075
9.529174 66.67756 8.334874
12.42976 70.90041 8.903548
9.644807 70.08176 8.801843
7.527002 73.01466 9.268903
6.643256 73.21706 9.301044
7.507303 91.27167 9.944283
12.19887 94.69631 9.388976
11.03472 93.18026 9.656662
7.996402 93.46696 9.859689
11.55749 92.21474 9.721207
13.26997 91.80735 9.665041
5.757057 74.61935 9.504078
11.68361 82.43733 10.20676
13.62654 83.53875 10.21953
15.96385 69.62176 8.008738
16.42049 67.56116 7.274628
15.65229 68.55775 7.914585
11.54193 66.30183 8.153452
10.99622 63.42117 8.016429
9.970075 63.90133 8.126173
14.4554 70.71164 8.752493
10.92419 70.24652 8.810041
12.4642 68.42342 8.425706
7.574646 60.53124 8.257604
5.665467 56.57343 8.149035
9.120759 69.17213 8.670022
-19.83914 57.02049 0.4931494
-19.84692 54.32986 0.5663862
-9.875864 135.3516 12.93514
-19.88545 52.91362 -0.1249668
-20.5382 77.18536 1.671749
-18.57584 87.7135 6.733842
-20.32076 85.66091 0.6011622
-17.2792 58.67124 5.621361
-19.13817 52.04181 2.910015
-10.00657 52.14085 8.255018
-8.024939 118.5382 10.47922
-6.767463 121.7396 11.50962
-18.27493 93.97305 3.180622
-9.095372 103.6721 10.14289
-19.7484 58.48237 -0.02158923
-7.718397 51.68938 8.446693
-14.71103 132.9774 2.245109
-17.9276 95.93693 1.964778
-12.42631 118.3357 4.535254
-14.80756 133.1879 3.614008
-14.89505 133.877 4.659238
-10.03152 123.3464 9.8711
-12.7724 121.6283 2.841568
-12.31047 117.7562 2.662207
-12.646 120.8578 2.902845
-14.91709 134.0487 5.034688
-10.36036 111.4322 9.063534
-9.303522 116.7806 9.462619
-4.75899 54.51731 8.0708
-14.87375 133.9686 4.166729
-0.2828058 117.8217 11.86567
-9.755833 107.9057 10.04929
-3.566931 122.2611 12.04049
-1.534436 52.59526 8.513155
-0.2018992 57.13162 8.552067
-1.917823 57.11893 8.401631
-7.246883 105.4703 10.92982
-1.092583 82.43637 10.19056
-0.6014437 105.9479 12.26571
-1.839875 61.18697 8.370206
-1.733386 67.41026 8.567047
-10.46037 116.1118 8.507445
-7.794352 67.37041 8.461334
-0.8313671 77.31635 9.846343
-8.761551 111.6622 9.991433
-2.431464 145.7089 5.355562
-9.080659 126.9275 11.34738
-5.764884 114.1732 11.19645
-14.86266 134.1037 3.184276
-4.754645 114.4389 11.54574
-8.711486 143.5576 5.587204
-7.180824 113.5428 10.59969
-13.12339 112.2108 5.105692
-4.057582 147.7708 3.618077
-6.669327 146.8582 3.628001
-7.817731 104.9546 10.68015
-1.016523 114.9749 11.8603
-8.606384 125.7376 11.15537
-12.35373 120.2942 6.418218
-16.6067 97.67027 5.584141
-19.86264 53.13429 0.2964476
-2.777654 141.301 8.489518
-12.92183 122.6075 2.657096
-5.250983 104.7849 11.55781
-2.287661 146.5183 4.780465
-9.271397 141.3186 7.462317
-19.74252 61.56961 0.5368404
-19.7823 56.50266 1.115363
-19.41294 53.82609 2.415727
-20.41045 74.82204 1.688482
-5.451908 75.81049 9.661469
-1.447753 91.76035 10.04385
-20.43783 77.7374 2.82333
-19.17242 91.45856 0.9219271
-11.03491 100.4386 9.462876
-10.82525 109.5126 9.310678
-11.13079 115.7188 7.655599
-10.43836 118.3095 8.88453
-10.04931 111.6565 9.208499
-12.57084 120.9423 5.983615
-11.14028 119.6026 8.37806
-10.24498 122.6401 9.651569
-11.01935 126.6406 9.812471
-14.31281 130.6564 3.1123
-14.45308 135.3278 7.239997
-4.081005 132.3953 13.39385
-8.678786 54.08894 8.455179
-0.4394023 57.79917 8.516137
-0.510911 57.78458 8.512857
-4.124145 52.27533 8.089531
-7.84492 106.0824 10.73759
-1.660061 103.5714 12.02444
-7.37455 105.4175 10.87539
-2.612021 107.6144 12.30237
-6.626329 112.9829 10.87975
-2.200651 111.071 12.01679
-5.595381 126.0459 12.11203
-1.159905 130.1307 12.97778
-5.593395 117.1124 11.22628
-0.4676281 116.3449 11.85676
-7.368207 120.3917 11.09352
-3.733388 120.1767 11.84143
-8.029303 142.8685 6.629076
-3.442858 142.872 7.384209
-20.02627 68.45905 0.7622954
-19.70093 66.60314 2.028894
-15.91836 52.63611 6.110334
-19.84508 57.67357 0.08539052
-19.65515 54.82322 1.763392
-19.59995 55.67932 1.993806
-20.44428 76.17999 2.191267
-3.783454 60.8323 8.307879
-3.024815 73.23878 9.310509
-2.439637 85.09798 10.20556
-19.2986 90.42675 2.715284
-17.5074 98.42664 1.003438
-18.00323 95.71416 0.4193989
-9.605337 105.1056 10.03793
-16.03832 105.7286 2.103224
-13.9731 111.3009 2.758002
-8.679235 119.2197 10.2842
-12.38375 117.0746 4.015335
-9.875571 110.5816 9.562806
-11.24647 118.9707 8.086197
-11.38467 117.8438 7.675658
-11.90949 123.0412 7.943815
-12.83012 121.7278 3.118445
-13.96701 129.0473 4.764338
-13.66299 135.9462 8.670805
-14.92969 133.8574 6.15688
-11.92464 138.208 8.511326
-6.589294 56.08931 8.267492
-0.2291826 63.07697 8.392046
-7.40505 104.7352 10.80145
-0.8766081 104.1277 12.15166
-6.50742 102.0497 10.78106
-7.079092 110.8414 10.86668
-1.218726 110.0844 12.10907
-0.8122958 96.61311 10.54099
-4.980696 108.6144 11.92213
-2.625203 113.4983 11.84712
-2.917746 115.7697 11.84172
-6.306447 115.2693 10.93962
-5.738864 122.8302 11.90389
-8.322203 128.2686 12.26888
-1.385396 121.8823 12.0454
-1.253952 131.2731 13.0794
-0.4315198 124.9055 12.31715
-4.081029 119.2061 11.73595
-2.527901 119.4978 11.88546
-3.856719 121.7373 11.97863
-8.149508 141.9605 7.422807
-9.068186 140.8951 8.00879
-2.610632 143.2832 7.078171
-2.34881 140.6742 8.904857
-19.72887 66.28359 1.689598
-19.05821 59.54771 3.442179
-17.07707 57.46907 5.699721
-19.83061 56.88482 0.6747312
-19.44451 59.55702 2.580135
-19.65913 61.23278 1.811214
-19.12639 63.21209 3.491014
-20.44095 74.95614 1.133373
-20.48127 78.49859 2.679878
-2.293957 69.41577 8.773594
-0.8743958 75.77668 9.661795
-1.58714 79.15705 10.01568
-1.692258 80.80792 10.12713
-1.892532 86.13863 10.18373
-1.996258 87.44299 10.13923
-20.08043 86.81841 2.409016
-20.49265 83.18462 2.309412
-16.95212 101.6703 1.860805
-18.98298 91.12224 3.63429
-13.06253 105.341 8.515062
-10.57007 102.7525 9.596581
-16.12513 105.0755 3.523792
-14.61409 109.736 3.228878
-9.047503 107.6563 10.31282
-14.11278 110.137 4.69025
-13.09987 113.3891 3.539136
-12.63265 115.0397 3.024052
-8.087905 111.6042 10.34256
-11.85665 116.5514 6.476544
-11.0313 118.075 8.201508
-9.232918 124.0904 10.46923
-13.56026 127.3175 4.845112
-11.76136 128.0114 10.04733
-11.70713 128.1214 10.28284
-14.88585 132.7788 5.702644
-14.91633 133.1682 6.509065
-3.155689 134.8342 12.84956
-7.993055 52.6932 8.476994
-2.362754 55.75776 8.360991
-2.159068 54.11208 8.396382
-2.623236 60.3119 8.346427
-2.423227 96.25165 10.431
-1.743506 97.20586 10.61711
-4.416084 106.0003 12.01435
-4.87197 104.6206 11.65918
-4.818426 107.4248 12.00269
-2.943457 110.9272 12.01464
-1.770427 95.21304 10.29981
-3.775116 94.84607 10.18427
-3.83348 93.50475 10.07172
-2.154863 90.99358 10.02832
-6.153289 110.7701 11.28567
-6.219746 124.2149 11.82686
-3.528296 126.4638 12.40167
-9.887683 136.3658 12.21887
-5.060918 131.0647 13.38504
-4.256087 127.4883 12.52344
-6.38885 127.8116 12.40133
-4.157712 131.1697 13.30699
-5.461877 116.5394 11.28187
-0.608688 133.67 12.94742
-4.482403 144.9952 5.712065
-6.788244 137.063 12.07693
-19.31086 65.93085 3.278676
-20.04894 72.65158 3.068042
-19.00464 56.28888 3.410512
-18.07306 58.05162 4.792289
-16.98608 61.4464 6.027953
-16.80648 59.10018 6.007504
-19.21402 69.0648 4.539612
-20.29319 72.88913 1.598354
-19.85411 72.17538 3.667204
-20.08282 70.52099 1.896646
-20.03109 77.01128 4.317117
-1.109263 67.24619 8.554951
-1.503403 75.0063 9.561167
-2.378169 76.25661 9.720723
-2.632497 69.95578 8.843228
-1.002228 78.37975 9.948107
-1.279831 83.99548 10.21049
-19.50759 88.62859 3.862096
-19.98946 87.47807 2.247988
-20.33971 85.39214 1.677217
-20.175 81.28091 4.211017
-19.79813 83.15336 5.167169
-20.0614 85.36716 3.735625
-19.53409 82.65184 5.77457
-19.23431 86.61575 5.765312
-19.02098 81.19717 6.767063
-19.64628 79.39883 5.549406
-16.71269 102.6488 2.824903
-16.22538 104.8068 3.145603
-15.29066 107.8119 3.566237
-11.08745 111.7449 8.392645
-12.52021 122.4675 6.709029
-10.85634 126.5888 9.949525
-11.38194 137.2436 10.37393
-10.43157 136.9112 11.47435
-14.83572 132.7253 7.249588
-9.50378 53.73282 8.344141
-5.86606 57.44783 8.198156
-2.183928 61.71281 8.365339
-4.682177 58.32457 8.194024
-1.564338 98.08105 10.79003
-6.30154 105.6921 11.31481
-4.069535 109.5541 12.07594
-4.035847 108.6132 12.18613
-5.152877 97.34515 10.40917
-4.973741 90.38687 10.01433
-5.893443 123.4675 11.90025
-9.091524 129.4516 12.76693
-12.12267 131.6423 12.16904
-4.225973 127.1854 12.46347
-3.06533 128.3154 12.71835
-4.493184 139.7309 9.719852
-19.87304 69.30014 2.569434
-20.59674 78.00779 1.107791
-2.760902 77.29333 9.843136
-5.135871 82.39352 10.19211
-3.090421 76.41014 9.738582
-5.034543 78.77951 9.983597
-8.63536 78.31567 9.944151
-3.222461 87.1852 10.15009
-5.149164 83.88341 10.21644
-18.09336 92.6735 5.240997
-17.30673 86.46227 8.54843
-19.00541 86.76988 6.211622
-13.41626 79.17226 10.04796
-16.75784 101.9939 3.388806
-16.20309 104.3081 3.940613
-13.42638 110.8971 5.663304
-12.81475 122.7707 5.962647
-11.74148 121.2134 7.836652
-10.00788 125.0148 10.01371
-11.05306 135.4854 12.22363
-9.000908 133.7142 13.65572
-9.954505 57.27433 8.146072
-6.15525 103.0223 10.99662
-4.120317 98.84078 10.74987
-4.883322 93.12618 10.01865
-7.43883 90.82582 9.96429
-7.748796 90.31348 9.98313
-5.350876 131.5624 13.53223
-3.363957 129.6529 12.97401
-5.106054 68.20413 8.608669
-10.50001 80.19676 10.10171
-6.612095 85.82777 10.19937
-18.74462 91.11641 4.562564
-17.46165 97.19656 3.375563
-19.02965 85.23943 6.480295
-11.12221 99.48206 9.45273
-11.61142 112.7249 7.528082
-13.37994 106.9736 7.906399
-12.89024 128.0297 8.231874
-7.576333 57.23038 8.35469
-6.369248 98.47086 10.41553
-8.278457 97.96663 10.07036
-5.932009 135.3987 13.0644
-8.407377 132.8138 13.85282
-7.373434 79.52121 10.04594
-4.504513 83.36558 10.21053
-17.08359 94.58997 6.213634
-18.72076 83.71436 7.159
-19.58612 76.3197 5.315813
-9.161626 98.98499 10.03446
-10.78062 97.56483 9.544353
-12.1857 113.7455 6.343527
-10.68255 113.8935 8.253843
-10.74865 108.7168 9.502902
-5.800233 99.16988 10.58704
-6.049817 133.4098 13.70671
-10.27187 132.522 13.37441
-9.190401 80.49824 10.11404
-10.43889 75.84172 9.660579
-11.79196 94.20914 9.48597
-19.70424 78.78388 5.3802
-18.7513 75.28002 6.655859
-15.70995 78.799 9.571473
-12.64369 101.1213 8.727857
-13.07074 89.54607 9.957649
-11.92326 113.6269 6.840541
-11.92834 115.8773 6.261844
-3.249929 64.28591 8.382521
-7.361888 100.678 10.48862
-5.898592 133.1454 13.72095
-8.433093 134.5466 13.56969
-9.472927 135.3996 13.035
-2.892908 69.2522 8.750577
-7.481797 69.04106 8.670028
-3.733218 69.83446 8.821
-19.12486 87.93639 5.500371
-14.41325 77.26721 9.757106
-11.42963 99.94882 9.331227
-6.952374 95.53433 10.03199
-10.74684 94.4757 9.605225
-10.64032 56.4626 8.019745
-3.975481 135.1726 12.79707
-10.01235 78.46416 9.962717
-8.490294 77.07178 9.814593
-18.77533 75.89348 6.70252
-18.446 73.57328 6.770244
-18.7027 69.11268 5.45273
-13.92721 96.40981 8.656125
-13.28741 95.13716 9.112988
-7.215111 57.10334 8.33763
-6.194725 61.52517 8.265638
-6.646558 67.16837 8.474244
-5.875241 66.46637 8.435769
-7.332377 137.2675 11.9212
-12.09172 78.03246 9.930137
-16.60253 86.52695 9.054163
-14.70938 89.90485 9.589199
-14.65448 75.47124 9.492945
-5.748545 62.0987 8.279867
-9.587392 58.64923 8.172292
-7.07826 68.55111 8.617311
-6.088962 64.08459 8.308484
-15.62002 77.29086 9.442605
-10.64497 74.71177 9.507069
-7.41954 93.09488 9.897913
-7.603505 60.62626 8.252041
-15.54563 75.78528 9.300043
-9.77612 73.4687 9.32815
-12.59515 77.52422 9.880398
-14.1178 90.12537 9.756584
-6.391893 57.4602 8.249908
-6.964161 61.18339 8.256381
-14.41186 76.68273 9.681789
-8.599332 73.76376 9.374668
-7.520148 72.10282 9.128431
-11.24789 74.91913 9.535548
-12.84902 88.48534 10.10671
-11.14481 72.74178 9.208638
-5.446349 85.72799 10.1984
-8.131849 91.80404 9.905674
-9.587459 70.09763 8.790924
-10.72794 90.10969 9.951594
-10.53883 89.88787 9.973147
-8.3634 87.10007 10.16817
-9.634627 89.93938 9.980281
-17.0538 96.25471 5.365293
-17.44643 96.3246 4.198651
-16.24889 96.89119 6.517201
-17.04771 94.95818 6.063906
-7.870883 140.5001 8.850302
-8.574904 139.9529 9.14995
-4.14692 140.3221 9.265022
-12.802 103.7003 8.740345
-12.19521 125.896 7.953791
-5.425684 125.3967 12.05188
-13.87135 56.51966 7.220919
-12.21285 57.93506 7.688735
-13.56983 58.10619 7.353176
-10.99478 59.92794 7.928096
-17.70626 69.51819 6.760826
-16.46946 101.0266 4.824024
-16.12458 100.2058 5.720294
-9.377522 137.9083 10.9062
-7.602784 139.4814 9.842512
-4.407963 66.23869 8.449154
-4.856586 81.27097 10.15119
-5.751101 80.80954 10.13097
-12.83156 134.7334 11.03041
-13.97032 133.5297 9.8806
-14.0534 130.7265 9.129991
-13.78941 130.3464 9.477975
-13.23485 127.9739 7.273536
-4.111485 88.82713 10.08199
-6.000349 87.20018 10.15402
-11.1525 80.22675 10.10656
-15.46122 103.4147 6.231192
-13.18373 107.9058 7.901563
-12.48973 107.821 8.535791
-16.54991 102.6627 3.886436
-14.72053 105.5046 6.78554
-14.28131 108.0865 6.160285
-10.46324 83.00513 10.22813
-7.565956 83.3287 10.21839
-9.639649 83.35025 10.22737
-7.178436 82.97381 10.20966
-8.606827 82.09593 10.19076
-10.24503 86.19994 10.20634
-8.630726 84.63748 10.22768
-12.80458 83.3292 10.25912
-12.75912 81.20774 10.17325
-16.75927 83.76926 9.124523
-14.72366 81.3743 10.0312
-17.38453 84.02496 8.639354
-16.41912 84.0319 9.329286
-13.33848 86.52967 10.19264
-15.80147 87.932 9.413742
-17.5563 88.79427 7.872796
-14.2588 84.40066 10.16384
-15.59212 94.66286 7.971236
-16.67572 91.27841 8.070062
-13.8991 94.11748 9.111847
-16.0049 95.54581 7.315958
-12.41213 102.6307 8.859446
-15.48592 100.9387 6.588411
-8.754987 92.00171 9.875991
-5.118056 137.3607 11.55534
-7.015553 61.46861 8.254135
-9.366609 62.4552 8.123508
-10.11861 63.40648 8.066369
-13.26278 74.6672 9.495541
-18.84216 69.56842 5.379304
-18.77837 69.39025 5.42374
-14.71257 68.84934 8.27996
-16.53004 67.69618 7.247074
-14.60293 70.22332 8.625201
-13.21016 71.98241 9.077205
-13.28563 72.77507 9.213304
-17.2513 72.55639 7.854487
-10.16174 68.1451 8.472866
-4.539643 85.87735 10.19273
-15.41303 98.39129 7.134981
-16.66291 56.08673 5.892799
-13.03993 125.6342 6.126584
-13.0454 53.63389 7.387488
-16.15433 66.88647 7.250035
-14.76971 62.83227 7.166288
-11.36994 61.72518 7.87458
-11.95038 130.7691 12.07393
-13.00881 85.51971 10.20986
-15.34311 100.604 6.799274
-16.25314 100.4676 5.392067
-8.907379 93.71068 9.809961
-12.2192 67.24929 8.198856
-13.55619 68.69324 8.405412
-13.11175 68.73156 8.440836
-13.94515 66.1944 7.775815
-18.21316 65.1393 5.173684
-17.22041 62.59934 5.95312
-13.00922 64.77983 7.755457
-14.80959 65.98698 7.510498
-15.36183 60.63733 6.847259
-18.35294 61.37505 4.675441
-15.86958 63.95065 6.822351
-17.7882 60.77394 5.331961
-12.87016 62.07566 7.616714
-13.79178 72.69807 9.185273
-11.44867 71.82673 9.060405
-13.83771 86.78483 10.1548
-6.021605 145.6388 4.88544
-6.114814 146.5336 4.094692
-8.414233 137.5845 11.52291
19.69739 58.52959 -1.004239
19.81273 63.90818 -0.7719925
19.75039 59.03859 -1.039739
7.343137 103.1635 -10.09158
20.5146 77.08444 -0.02751486
18.82842 80.48688 -4.932888
10.4143 115.5811 -2.682941
19.95239 87.96354 0.5246214
18.5715 74.51616 -5.309716
16.85848 53.3261 -7.143843
20.35791 79.35686 -1.463979
0.6270142 152.0576 -9.846341
17.29822 99.66392 0.7265491
11.59939 106.3618 -6.275803
0.4121636 75.99382 -8.775107
10.65755 103.9314 -8.265065
11.4259 130.5852 -7.830984
9.577006 121.6714 -3.96347
18.66318 91.56937 -2.67241
12.35035 120.4532 1.797906
14.08487 129.674 1.899845
14.87688 134.8676 2.138426
14.83457 134.3445 0.6667204
14.90604 134.6147 -2.518969
5.077753 152.6315 -8.938133
2.349933 118.5409 -6.139569
14.79828 134.097 -0.309032
4.279688 151.3259 -10.05453
14.47287 131.884 1.440968
13.01607 135.9608 -9.539046
9.46849 120.0523 -3.4766
19.92543 52.74569 -0.6919169
3.604452 86.9828 -11.01456
7.607654 53.04314 -8.358593
2.063726 53.90705 -8.473486
0.4255401 57.25177 -8.641238
3.707736 54.62031 -8.262402
7.867833 110.9024 -5.760972
0.441896 69.88808 -8.683136
0.9252872 84.92059 -10.08811
0.8792605 142.972 -11.84105
6.777717 109.3531 -6.583424
9.539167 106.7885 -7.249774
1.706384 93.92148 -12.73948
6.608715 77.00166 -8.759047
0.3215642 98.62964 -11.99173
1.614697 102.1545 -10.64485
9.437039 106.5056 -7.453219
0.7129216 112.7222 -5.936994
10.15105 96.72509 -11.48206
8.841511 141.9472 -12.46811
8.995598 114.6971 -3.965789
19.49505 55.15879 -2.945318
0.5259106 114.2343 -5.735572
6.714076 147.6436 -11.64756
2.875432 152.7315 -9.484542
5.727535 152.5356 -8.757787
7.019093 145.6518 -12.16875
0.5377665 118.4637 -6.119199
2.677921 112.5694 -5.944133
11.27317 125.7169 -4.485242
14.41608 132.4543 -2.481017
12.46422 119.6959 2.852931
12.41097 121.4657 1.297787
1.389797 150.4724 -10.40989
11.63898 123.8029 -2.301229
13.11277 130.3854 -5.365349
1.031645 146.5893 -11.38347
19.25487 63.65581 -3.069836
19.75937 58.85056 -1.978955
19.44496 54.7035 -2.913056
18.23074 54.22672 -5.698008
19.36742 65.40022 -2.681585
1.391031 77.15987 -8.775634
1.578038 88.95594 -11.84499
15.26986 99.42654 -5.605765
3.367076 101.4371 -11.01861
9.558177 92.94646 -12.18151
13.17908 107.2428 -4.274706
11.52955 113.0915 -2.58926
12.46752 114.8952 0.9812835
13.02609 113.7349 2.553125
12.93786 110.1021 -2.936474
12.14826 113.7041 -1.247578
9.753865 118.2407 -2.895938
12.76849 123.887 0.5397444
10.7184 122.5582 -2.959732
10.50685 126.5099 -6.034065
12.45844 120.2741 2.364257
10.40611 119.7279 -2.315848
14.10306 130.065 0.9130107
14.15509 131.2839 -1.857257
14.34387 132.5978 -4.035882
13.03399 134.2555 -8.604192
13.6058 133.7822 -7.600877
13.88147 131.0076 -3.621229
12.48146 137.034 -10.42765
9.171703 126.6088 -7.088195
2.790439 58.64939 -8.409067
1.088471 53.6774 -8.691638
2.869134 55.17494 -8.359005
1.975841 109.5467 -6.90357
10.02125 105.7467 -7.620773
8.977589 109.0091 -6.27659
7.255649 121.666 -5.634415
9.143013 124.7288 -6.017577
3.22231 138.9901 -12.34601
11.18342 138.8167 -11.64092
7.546853 118.8441 -4.630799
0.2614656 117.1964 -5.890838
2.559257 117.6032 -5.936205
8.399422 120.1818 -4.382514
7.006913 118.5118 -4.837843
2.144797 141.5205 -12.09897
7.498625 147.0779 -11.75071
5.967668 145.7191 -12.19376
5.621325 149.9825 -10.62252
19.60302 63.95522 -2.022086
16.75274 54.18663 -6.989461
19.63475 57.18503 -0.7187301
19.11727 53.21656 -4.600132
20.00999 73.50174 -2.039698
1.203088 77.3714 -8.77678
0.8800063 83.52093 -9.579277
0.1969464 90.75452 -12.39444
18.73231 92.06987 -1.823056
12.91684 102.8883 -6.911504
16.50259 101.6091 -1.43257
1.030268 102.1893 -10.62017
8.743065 100.2482 -10.99477
2.546715 96.11955 -12.56895
12.4426 111.886 -2.260861
11.3112 114.7857 -1.927077
13.12136 108.4836 -3.689964
11.57832 123.527 -2.213142
11.31261 122.3888 -1.932055
13.10652 126.3264 -0.778181
12.53655 126.6703 -2.840611
11.27446 127.6805 -6.02095
11.76551 118.3429 0.5131384
11.22919 117.5791 -0.895762
14.38334 131.8025 0.08691175
13.50004 136.1762 -9.300761
12.00353 133.8973 -9.268764
9.661802 135.5602 -11.23208
12.57642 133.6129 -8.630652
9.237955 132.9796 -10.34762
3.744095 135.9587 -12.02417
0.7956775 128.0686 -9.304222
4.86521 54.43252 -8.320207
0.9798927 64.06278 -8.483784
0.7711629 58.61036 -8.557152
0.2171296 110.7444 -6.483554
9.623262 110.1303 -5.550839
6.194303 103.0669 -10.31601
2.861977 105.7952 -8.81301
9.685461 127.3066 -7.195872
3.360615 140.1487 -12.38608
7.724553 141.1181 -12.67663
6.469249 111.2472 -5.896121
3.177817 114.8229 -5.718553
4.358004 115.956 -5.547305
7.927065 121.5408 -5.20072
1.086371 144.1318 -11.73242
19.83775 67.11028 -0.8961238
19.75156 61.03374 -0.665011
12.77788 53.56864 -8.067625
17.96324 55.59559 -5.584044
19.68586 59.02751 -2.672443
19.18631 60.74466 -3.506774
18.2173 63.04539 -5.071675
19.14872 57.46949 -4.005167
20.48571 79.3119 -0.8205729
20.5978 78.91519 0.3217645
0.7532067 70.40337 -8.701066
0.2824897 76.57127 -8.77458
1.815477 80.93268 -8.998321
1.414363 85.35362 -10.2699
3.040316 91.98993 -12.63031
18.90152 92.30669 -0.2928585
19.69882 88.85551 -0.5905209
11.15097 104.7844 -7.452932
15.94367 104.8389 -0.1773134
16.53594 99.28939 -3.095088
16.63945 102.7937 0.6396242
16.78502 99.28573 -2.403446
16.15929 99.35326 -3.946265
16.72363 97.64892 -3.766128
4.442571 102.3154 -10.6702
5.549653 100.5993 -11.4635
1.644828 91.87263 -12.59822
3.949756 97.05804 -12.44391
12.21121 106.1056 -5.886351
14.88439 109.1031 1.315903
10.56173 116.3475 -2.258555
12.29032 114.6108 -0.07803012
12.38093 108.747 -4.361815
13.67792 126.647 2.482005
12.31024 127.5779 -4.344426
12.15904 118.7291 1.876594
1.040641 135.5474 -11.7289
6.572552 134.0357 -11.50407
8.378167 128.2818 -8.439954
1.846541 128.4483 -9.448511
2.041149 126.9252 -8.848639
6.948465 53.54463 -8.389196
9.604769 55.03807 -8.227672
5.12353 62.10116 -8.422903
3.166115 57.0091 -8.354565
0.4479003 109.5577 -6.93003
4.952017 108.3421 -7.277038
7.837116 106.4739 -7.954483
0.7914791 105.1126 -9.159865
1.751945 122.7647 -7.317423
2.013082 140.4597 -12.13626
8.334984 137.3661 -12.27899
9.753448 140.9803 -12.3034
5.935298 111.8035 -5.81488
1.790347 113.7878 -5.764788
3.512931 120.9054 -6.624175
2.985596 122.8584 -7.33669
5.857424 124.1872 -7.302066
5.447343 118.5263 -5.51311
7.89326 125.2934 -7.033627
7.268003 116.1618 -4.603259
6.960318 117.9493 -4.803172
6.807625 115.5354 -4.831568
6.134692 115.2873 -5.048231
6.864169 123.2646 -6.534326
2.421603 148.2017 -11.31056
3.061964 146.4434 -11.77278
3.350262 142.4451 -12.26428
20.03836 70.09205 -0.9364705
19.57841 61.50703 -2.579072
18.90347 64.49693 -3.887339
19.58884 67.20946 -2.315761
14.71125 54.57574 -7.908918
17.58787 56.88308 -5.746332
17.98049 57.77602 -5.192567
10.63129 56.51259 -8.205397
20.32211 73.22314 0.07156731
19.41867 72.99779 -3.683399
19.27559 71.84909 -3.936141
18.9842 71.63587 -4.532583
15.57965 75.7168 -7.893794
20.43799 77.21634 -0.6859931
20.20883 79.03406 -2.048505
18.36617 78.86233 -5.528504
20.07254 81.12424 -2.520351
18.22867 81.28011 -5.694485
4.81196 71.89527 -8.748712
1.330262 66.00272 -8.53487
4.13311 77.02751 -8.768717
5.206248 79.22227 -8.798038
5.894422 76.02734 -8.774673
4.595201 81.05042 -8.971813
2.58004 74.35732 -8.775163
2.479701 83.2736 -9.476983
8.217299 95.05317 -12.47167
3.159807 87.98783 -11.46772
19.45625 88.52518 -2.151133
19.14443 90.91029 -1.263471
18.97377 89.86708 -2.889398
16.96111 96.49043 -3.988043
19.8089 87.66578 -1.29564
18.10178 95.10455 -0.4155056
15.64572 103.6566 -2.248282
15.06134 105.107 -2.517235
14.91562 104.8246 -3.041135
15.67882 100.5807 -4.198026
3.606763 106.1372 -8.623773
2.88956 94.80611 -12.72487
5.726912 95.67196 -12.70891
12.71141 112.2185 -1.517061
13.76167 130.2271 -2.821103
5.50988 136.3222 -12.24226
1.842496 131.5246 -10.64873
11.88932 131.9347 -8.156297
9.092208 132.4345 -10.1549
7.445369 55.33337 -8.352537
5.44332 57.29555 -8.394282
6.862756 60.7202 -8.377006
6.860977 57.94672 -8.372641
3.996832 61.84537 -8.433987
10.31398 56.28841 -8.212149
8.57055 58.44962 -8.305176
2.689213 61.48193 -8.44483
5.683939 59.42552 -8.392439
2.702128 110.9794 -6.350661
3.595355 107.0149 -8.130317
9.587409 125.8178 -6.352209
5.115876 108.9299 -6.968025
6.660231 111.8292 -5.674942
5.388908 126.932 -8.618402
2.506043 144.0281 -11.94895
19.57804 69.12578 -2.754361
20.20905 71.52786 -0.2436698
14.71173 55.23168 -7.895916
18.78983 73.22726 -4.934628
17.65407 75.79243 -6.417181
14.72173 86.75601 -8.621662
2.984305 69.06951 -8.651471
6.283228 67.99249 -8.600686
5.224239 77.59534 -8.764712
6.29564 77.79053 -8.757237
6.779817 81.59923 -8.974565
3.989848 83.66092 -9.575133
1.095287 80.08129 -8.910306
0.7950977 74.05563 -8.774138
1.667519 83.72998 -9.638113
18.99988 90.86306 -2.083033
19.6222 86.47099 -2.682924
15.84991 105.3705 0.03683406
14.43071 108.817 -1.091653
2.364561 104.3938 -9.540044
6.18623 101.0027 -11.29952
5.159052 96.26689 -12.64147
8.328398 101.4824 -10.63774
13.1548 109.4334 -3.092287
12.66799 105.5398 -5.780991
13.33659 106.5279 -4.476182
6.138759 132.9041 -11.1649
5.758288 139.211 -12.73786
4.126671 58.72433 -8.384353
9.46357 56.69968 -8.251249
2.749411 59.6543 -8.427751
7.166708 103.9721 -9.674463
8.425895 102.3957 -10.16431
4.742689 108.3723 -7.279789
5.719699 127.7551 -8.951648
4.424288 142.2961 -12.5007
14.82179 59.30272 -7.523371
18.18441 68.82858 -5.573306
18.15697 76.43834 -5.840355
20.03618 85.29092 -1.763983
4.204021 70.12682 -8.693368
5.692214 67.83627 -8.59444
6.706677 70.50998 -8.709414
6.803549 86.05757 -10.50397
0.6886184 80.55574 -8.957554
18.08985 86.02639 -5.608405
15.96937 88.4402 -7.817013
18.65007 85.78643 -4.834132
18.12626 88.92641 -5.06978
16.35196 90.20541 -7.390639
4.317062 100.4122 -11.48836
5.843673 94.90525 -12.79197
14.3086 105.2114 -3.865183
12.94967 104.5388 -5.999269
6.498497 134.713 -11.72975
5.809955 136.5421 -12.28278
6.918314 137.6532 -12.54099
7.09471 131.4649 -10.43788
11.66945 57.16604 -8.220282
5.895166 103.8681 -9.896792
6.549454 127.3311 -8.551497
7.854111 128.0198 -8.515696
6.16593 143.7935 -12.4874
17.59816 71.95986 -6.493405
16.7268 73.12148 -7.26673
18.8779 69.02332 -4.493083
17.01063 76.71586 -6.938399
17.80191 76.96733 -6.208873
16.77987 82.00195 -6.945982
5.385856 72.88487 -8.7693
8.676552 78.68133 -8.727722
7.592326 78.0717 -8.743363
6.627567 81.38531 -8.949852
19.96675 84.37206 -2.318228
14.94019 102.6656 -4.4055
6.703681 133.2023 -11.2026
6.920719 100.393 -11.42885
8.225736 129.2069 -8.967068
17.60554 67.61424 -6.123368
14.5744 72.45271 -8.338634
18.15829 67.2023 -5.394126
17.16685 74.55258 -6.874361
17.14064 78.8779 -6.752424
17.75078 82.79375 -6.114436
8.460318 80.85495 -8.817327
7.154416 85.89071 -10.40865
8.305968 81.15683 -8.852777
15.75551 90.27225 -8.053324
9.269788 99.39438 -11.08455
4.34058 129.9059 -10.02133
5.531085 132.4657 -11.08736
6.577847 130.0428 -9.910707
9.186935 69.49609 -8.666119
18.65602 84.66743 -4.943224
9.919898 76.90689 -8.7478
11.45261 80.28108 -8.644337
4.468336 86.60232 -10.82167
5.375056 82.47253 -9.184758
9.571241 100.4243 -10.54657
7.021501 132.3027 -10.79085
8.588881 67.34914 -8.558289
8.657247 68.35473 -8.61093
7.444057 64.95755 -8.452469
9.042285 66.42139 -8.500048
14.82443 76.72341 -8.172208
9.847285 76.00259 -8.7746
3.210778 87.53667 -11.26966
3.059183 90.57864 -12.37978
8.77676 98.52204 -11.5592
5.031985 63.11839 -8.43979
13.77517 70.08724 -8.537869
11.13228 66.02724 -8.428304
8.6945 64.62191 -8.409701
9.545863 63.91185 -8.358064
12.63087 67.28841 -8.521833
11.86665 73.42197 -8.799942
15.53608 78.42291 -7.771193
13.05371 81.23007 -8.491168
13.90079 81.85792 -8.341
10.45064 72.22907 -8.775631
8.735207 72.19105 -8.766549
10.05872 72.90121 -8.787165
10.51814 70.47729 -8.711686
7.060585 62.07278 -8.385411
10.5977 61.90868 -8.281812
13.68933 76.22641 -8.567798
10.72883 77.54707 -8.710146
14.13389 70.4784 -8.457519
13.96773 72.4165 -8.549861
14.67486 70.11308 -8.274417
11.20971 68.85939 -8.630473
12.86585 67.49542 -8.529602
13.4405 77.30754 -8.537708
13.25439 69.40971 -8.57655
16.97811 67.13445 -6.705752
14.69448 67.04284 -8.096856
16.4137 68.38501 -7.316737
13.71852 133.1025 -6.868775
13.39332 129.1579 -2.940584
12.86989 128.1935 -3.616891
12.45356 132.3824 -7.840158
7.683056 141.1652 -12.68019
17.40635 96.46602 -2.683133
17.83921 93.0208 -4.064384
16.40449 97.32204 -4.694326
15.53464 94.85519 -7.332638
15.86349 94.94164 -6.86887
2.641582 145.8045 -11.78518
17.44601 61.13626 -6.048099
17.97982 62.38773 -5.363964
14.01772 110.0362 -0.9104091
3.7214 66.2503 -8.53553
15.45041 104.448 -2.125036
14.71874 107.9886 -1.049783
5.648577 65.22739 -8.485444
8.394921 59.82002 -8.326534
5.116457 137.3112 -12.42834
15.32128 64.83414 -7.611547
16.426 63.9805 -6.799343
17.45153 66.44517 -6.157646
14.07057 63.8558 -7.941089
17.6517 87.13564 -6.042709
17.62258 83.18547 -6.250196
14.70871 84.73149 -8.33727
14.71742 86.43466 -8.591821
14.2307 85.11066 -8.642536
13.80779 87.84238 -9.44472
12.25181 91.95643 -10.90997
15.78766 92.30154 -7.76753
12.45008 84.41758 -9.072326
9.728706 84.76759 -9.613525
13.12234 87.22925 -9.735107
13.43361 89.51241 -9.990144
9.208051 82.74183 -9.031709
13.20706 89.21625 -10.1027
12.00688 88.87571 -10.71054
7.730782 86.38252 -10.67249
13.33523 88.42407 -9.891751
10.32213 87.04906 -10.72924
13.21343 101.7438 -7.183736
9.716996 100.1262 -10.59385
13.40268 82.52407 -8.538248
14.48355 79.35209 -8.135604
6.705113 139.3802 -12.7828
10.06945 94.88723 -11.86152
13.6588 58.88513 -7.980361
12.7157 61.84864 -8.124924
10.568 59.67846 -8.266567
6.249621 89.6364 -12.19289
11.29241 90.26968 -11.29513
15.15531 99.65978 -5.676947
13.14367 102.7549 -6.747984
11.87439 98.13692 -9.953424
9.773516 97.0226 -11.56985
11.46492 98.04366 -10.3019
12.46852 97.04959 -9.843544
12.59602 98.52301 -9.224405
13.236 98.39374 -8.651263
13.46761 98.12851 -8.52243
14.73907 97.65089 -7.273248
15.76741 94.92658 -7.001729
10.4431 61.7922 -8.287295
13.85711 62.99067 -7.918831
13.82354 93.29946 -9.623303
12.2803 93.02943 -10.83731
12.46364 94.05541 -10.59865
7.649688 88.8315 -11.8582
12.40375 96.15073 -10.18077
8.218713 92.75277 -12.55261
3.379299 90.17641 -12.27439
5.988122 93.51254 -12.83724
7.896304 90.26636 -12.2073
8.226612 96.24438 -12.25191
7.372959 91.69979 -12.57614
4.601757 90.37521 -12.34893
12.91528 57.01412 -8.197009
-0.2675537 56.4694 -8.629953
-0.6541347 59.55465 -8.487069
-2.320648 69.83662 -8.681534
-0.7411719 70.89931 -8.716717
-0.5252061 140.5618 -12.00531
-0.4265682 81.94915 -9.187083
-0.4634976 86.45907 -10.76882
-3.727915 75.18666 -8.778913
-0.4142129 94.43414 -12.71797
-1.11768 112.9073 -5.893145
-3.334679 64.53046 -8.485099
-1.995282 87.85645 -11.40406
-9.575775 106.4328 -7.417614
-9.445339 110.302 -5.536806
-6.386446 108.8926 -6.862804
-16.17182 100.65 -3.048899
-6.179584 114.5472 -5.129157
-1.315511 118.2011 -6.069197
-0.1890399 125.6115 -8.375474
-11.82353 114.2563 -1.430658
-0.06894456 133.434 -11.23527
-0.1181166 135.3266 -11.66156
-12.54953 129.7972 -5.923664
-2.830529 144.3388 -11.97186
-11.22535 123.8425 -3.074613
-9.392665 123.0513 -4.834133
-0.2448144 146.5033 -11.30743
-8.229856 126.2544 -7.389177
-9.082431 118.2153 -3.540941
-2.571394 149.861 -10.76166
-2.129038 150.0945 -10.60945
-0.6545861 66.41454 -8.548622
-1.187688 103.0845 -10.19528
-0.7034132 111.6166 -6.204144
-14.43643 52.82263 -7.977635
-7.331186 144.2326 -12.40083
-17.42884 98.35579 -0.3515034
-12.22014 106.3091 -5.78123
-0.3772144 53.37365 -8.734828
-2.70134 101.0211 -11.17999
-4.298693 104.6031 -9.467304
-8.477104 108.4934 -6.666553
-20.09767 69.62939 -0.0725131
-19.64586 56.65858 -0.871913
-6.71026 149.7082 -10.57142
-19.40828 86.44447 -3.217862
-19.09086 91.69025 0.005997461
-19.86701 87.7435 -0.8242873
-20.53053 83.6268 0.5292066
-1.285417 151.9402 -9.888526
-1.896829 99.69174 -11.66383
-10.41677 110.9927 -4.766341
-10.16874 122.4282 -3.687327
-0.08371402 55.97408 -8.683598
-10.0045 141.2577 -12.24088
-19.59692 54.62324 -1.381152
-14.62756 134.5914 -6.180137
-14.87833 134.6557 -0.06501015
-12.25527 117.4894 2.351904
-12.74688 121.7146 2.558496
-17.76888 85.77635 -5.987329
-14.62324 132.9478 0.169076
-14.67388 133.4396 -0.7229044
-13.66463 134.9387 -8.297452
-19.20218 57.07887 -4.046615
-14.13754 130.2997 0.6171764
-9.202617 53.51102 -8.239351
-11.8947 118.685 0.8716692
-6.825792 146.3333 -12.03213
-3.882666 148.7206 -11.30368
-4.600772 69.31618 -8.660645
-4.906929 54.17841 -8.385505
-18.37895 68.55301 -5.228833
-1.532112 75.82666 -8.775608
-19.18133 81.4394 -4.381234
-4.874291 91.72495 -12.64757
-10.33406 104.583 -8.110768
-3.76965 97.1771 -12.40963
-4.301877 106.0752 -8.62665
-0.5262341 110.3994 -6.600563
-8.223675 114.3141 -4.448053
-6.515965 116.3736 -4.900203
-0.4300055 120.1751 -6.500432
0.09623972 120.5854 -6.610752
-1.812293 124.2826 -7.87818
-8.950117 127.9672 -7.996313
-4.062142 135.337 -11.92136
-2.638828 137.4985 -12.1274
-0.04511647 141.1316 -11.95838
-7.752431 144.8389 -12.26108
-19.33815 56.30986 -3.769072
-19.73166 52.65145 -1.943709
-19.53374 57.39082 -1.868699
-19.277 57.82814 -3.8413
-15.70063 106.6147 1.212349
-12.57921 104.9715 -6.173751
-12.83259 113.7913 0.9926965
-14.57639 109.8701 1.533057
-10.39251 114.0764 -3.235279
-11.27415 109.8224 -4.766632
-12.45736 115.5807 2.030318
-10.95802 116.9638 -1.499526
-10.58519 114.827 -2.770806
-12.30991 114.478 -0.1926775
-10.50135 116.3084 -2.335117
-10.5405 123.5446 -3.901817
-12.22323 120.9412 1.037653
-12.7538 123.6308 0.6910638
-12.02746 137.3902 -10.84314
-12.13241 127.0492 -4.205089
-14.20815 130.4536 1.44186
-14.44183 134.4465 -6.632284
-14.62179 132.6892 1.327982
-3.636734 150.7788 -10.40131
0.07647336 62.45231 -8.466784
-0.4104116 67.25108 -8.579848
0.0971984 54.96504 -8.765032
-2.433345 56.62041 -8.34601
-19.92617 68.48958 -0.9417366
-20.24157 75.81726 -1.450524
-0.13892 68.60355 -8.633479
-20.21567 79.01044 -2.036379
-18.6868 89.86894 -3.642818
-3.996881 87.88221 -11.43014
-1.397132 90.44331 -12.31463
-1.512436 94.68755 -12.72856
-9.725446 103.3373 -9.109026
-0.6301075 97.20937 -12.35805
-2.220045 106.8398 -8.273122
-1.312645 116.3841 -5.79489
-1.079862 114.1602 -5.742997
0.08000377 121.9521 -7.04235
-9.702977 125.5857 -6.10784
-6.946962 130.7475 -10.14246
-0.1372405 132.0681 -10.81909
-9.033115 141.0338 -12.4691
-1.860183 141.6951 -12.06299
-2.637969 141.1038 -12.22812
-3.092993 144.8735 -11.96105
-2.356103 145.2819 -11.79545
-9.072633 55.27476 -8.249942
-19.42913 58.93662 -3.486271
-19.65684 59.41557 -1.516047
-15.49245 107.1911 0.9962225
-10.97945 106.8078 -6.471379
-12.09782 103.1256 -7.602295
-17.86346 96.09783 -0.4007121
-12.63699 110.95 -2.747475
-10.74333 117.4778 -1.753816
-12.0117 114.778 -0.693341
-12.18445 123.4727 -0.8287209
-13.05885 123.7677 1.994476
-12.20236 120.4296 1.266749
-11.56367 127.2535 -5.340586
-11.67029 128.8953 -6.46818
-14.28577 134.8006 -7.323846
-13.29106 129.5653 -3.92537
-6.775813 145.8966 -12.13322
-4.319412 142.4451 -12.46467
-0.9137924 69.95525 -8.685839
-2.230111 55.73618 -8.331652
-5.698575 53.51661 -8.413141
-8.250073 54.35807 -8.288612
-19.7393 66.50461 -1.285465
-20.02054 72.32407 -1.749763
-20.28782 79.50044 -1.793069
-1.528332 78.51376 -8.805065
-1.580083 69.54418 -8.669962
-20.43517 80.66142 -1.102934
-20.05717 83.31709 -2.249018
-19.55147 88.951 -1.355507
0.08721673 82.21645 -9.238148
-1.280442 91.97184 -12.61358
-18.09218 95.16952 -0.3401642
-6.99612 106.2635 -8.260233
-1.01267 96.86238 -12.42894
-3.693067 99.57262 -11.7594
-6.93108 100.7396 -11.30639
-2.748441 102.3577 -10.58332
-9.171728 107.9482 -6.740686
-5.472467 110.295 -6.338757
-6.428562 106.6884 -8.08918
-6.468644 112.2407 -5.58221
-6.662484 108.0806 -7.241409
-6.541732 105.3686 -8.946259
-4.856546 107.3137 -7.862287
-2.163315 108.8528 -7.197491
-4.05529 106.6168 -8.330828
-3.433653 106.1885 -8.595796
-7.382337 103.597 -9.842406
-8.311425 116.7155 -4.062335
-6.300771 117.0629 -5.002183
-7.142718 120.9624 -5.426775
-8.113128 118.7701 -4.279269
-1.851859 127.7069 -9.162211
-7.443617 126.1082 -7.651303
-1.40933 130.9846 -10.45006
-8.68773 127.7867 -8.036048
-3.346277 132.6347 -11.09911
-8.672953 141.2922 -12.53209
-3.266589 140.0867 -12.37286
-4.519032 147.5747 -11.69493
-13.96329 54.03167 -8.000012
-11.72417 53.86684 -8.125397
-19.2475 57.44051 -3.917336
-18.97278 61.45957 -3.921966
-17.60217 52.78641 -6.670619
-15.02619 106.7301 -1.292168
-13.15466 104.2605 -5.9539
-15.8139 101.6791 -3.265945
-18.05409 95.00309 -1.245377
-11.7618 112.8882 -2.411638
-13.35844 111.7039 -0.5520463
-10.89413 125.4577 -4.829593
-12.89355 126.8977 -2.106031
-13.20864 127.2703 -1.426091
-13.28792 128.925 -3.076691
-13.40358 129.3665 -3.231783
-13.67902 131.2714 -4.88101
-14.69554 133.7303 -3.069238
-14.19133 132.2559 -4.197448
-14.45897 132.9937 -4.229633
-10.25537 120.3089 -2.616732
-8.03095 138.394 -12.55656
-1.801593 60.8058 -8.444906
-10.0886 55.67345 -8.211596
-3.079168 56.01366 -8.313824
-19.64697 68.16951 -2.323785
-19.75242 63.77218 -1.144852
-19.68882 71.51672 -2.819495
-20.23317 73.86456 -1.07091
-0.3767813 77.3252 -8.778958
-0.8431749 79.7501 -8.879539
-2.574858 68.03382 -8.609344
-2.384632 70.86153 -8.716578
-20.58872 81.00437 -0.1975155
-19.96789 81.75846 -2.684143
-20.19604 86.00522 -0.423712
-18.68517 86.58727 -4.655395
-20.00219 86.90487 -0.8374379
-18.51391 85.35448 -5.092245
-18.03912 91.78951 -4.255664
-2.991089 83.91061 -9.677634
-7.206246 92.28665 -12.67383
-6.292313 88.91463 -11.91579
-18.0364 94.70706 -1.847733
-10.40138 100.6961 -9.980993
-6.783779 99.80044 -11.65687
-7.156728 105.5607 -8.703946
-1.499553 104.8377 -9.301569
-6.550437 103.5146 -10.0496
-6.576898 104.3242 -9.583281
-4.519881 115.3192 -5.497774
-5.180633 114.6505 -5.369205
-2.607898 128.3629 -9.409641
-7.645597 129.1278 -9.157674
-2.039005 133.5711 -11.32325
-3.083922 133.5118 -11.36191
-2.201826 135.8845 -11.86016
-15.76096 54.89834 -7.440248
-12.61162 55.97578 -8.149476
-19.70885 61.29315 -2.169168
-18.89945 59.10282 -4.407605
-16.05439 104.6688 0.06655188
-8.575609 98.89475 -11.51337
-12.98279 103.5088 -6.55807
-13.42445 109.3209 -2.746181
-13.13227 108.9862 -3.350345
-14.4924 106.4762 -2.723578
-14.08572 106.4238 -3.466501
-13.63062 105.581 -4.631649
-16.81434 98.92479 -2.562305
-13.9027 110.7014 -0.379596
-10.1722 120.5089 -2.809826
-3.297547 57.74732 -8.378488
-19.88846 72.05267 -2.235908
-18.89864 71.7989 -4.72719
-2.760733 74.9479 -8.778412
-3.67493 77.92197 -8.781786
-2.273571 80.11417 -8.898849
-4.300141 83.95667 -9.673606
-3.790112 80.56241 -8.92641
-4.875395 66.60458 -8.543308
-3.06435 67.59257 -8.590346
-19.27333 75.56702 -4.143947
-18.97507 75.63797 -4.716363
-8.640574 79.65414 -8.741543
-19.72435 78.89513 -3.373904
-19.62184 85.00899 -3.152951
-16.6911 86.12958 -7.070725
-17.18716 96.62749 -3.273241
-0.3612255 83.54951 -9.588848
-2.852124 89.5407 -12.06571
-18.0863 94.49926 -1.877722
-2.954951 114.3481 -5.740002
-7.27773 117.5229 -4.596241
-2.121187 128.8411 -9.603215
-6.7557 127.2935 -8.486584
-6.349712 128.0697 -8.979396
-9.320827 57.46716 -8.259997
-10.97996 56.61843 -8.200225
-10.34601 57.07113 -8.225175
-18.17433 62.16029 -4.735655
-11.88908 100.1381 -9.168539
-12.37709 101.9675 -7.915623
-13.62627 107.7266 -3.417651
-10.84207 119.2371 -1.468181
-18.27214 73.60114 -5.733892
-3.546346 74.58687 -8.779025
-20.1164 74.74101 -1.787052
-18.21892 92.59555 -3.289306
-17.44713 91.64584 -5.509811
-4.64348 117.0887 -5.579207
-2.125874 120.8026 -6.678525
-2.854669 116.9592 -5.854652
-5.18049 127.689 -8.999591
-7.476331 124.4886 -6.817328
-16.02938 66.46648 -7.375713
-17.85904 62.59546 -5.265864
-11.57159 61.66992 -8.227518
-6.63323 59.33809 -8.368993
-4.361707 72.01002 -8.749157
-18.06484 89.97223 -4.919716
-19.10796 86.52274 -3.874697
-7.02575 118.5649 -4.843871
-7.376781 69.74594 -8.680385
-17.45066 88.37515 -6.169678
-1.416464 121.1069 -6.769077
-4.855883 120.3753 -6.13922
-5.473177 121.2121 -6.254574
-5.721202 131.9361 -10.86341
-6.127292 72.18129 -8.757869
-9.499806 131.1066 -9.358232
-10.73308 132.2259 -9.229259
-12.28885 132.9466 -8.43913
-5.5823 132.5033 -11.07995
-7.036005 129.8756 -9.720641
-2.223002 149.1056 -10.99222
-10.81176 136.5172 -11.1391
-9.199092 136.2728 -11.68849
-8.676953 135.8195 -11.64767
-6.593307 137.2963 -12.46209
-6.217525 134.3211 -11.64189
-6.782078 134.6423 -11.65364
-6.571908 136.5667 -12.28766
-4.489243 136.4915 -12.23447
-4.016918 131.5201 -10.73493
-3.313841 61.41111 -8.434851
-5.59736 141.5483 -12.72003
-7.831801 95.63724 -12.47302
-3.718129 95.59605 -12.67843
-4.517339 98.23132 -12.18243
-8.384036 98.49151 -11.70362
-5.494267 89.77042 -12.19835
-5.719482 112.6069 -5.623509
-15.92267 99.04466 -4.62823
-13.14382 128.1248 -2.530652
-17.37605 64.55229 -5.984607
-20.26471 81.20583 -1.912409
-5.403839 85.16428 -10.11328
-6.544815 128.5396 -9.174321
-8.306357 99.46713 -11.40619
-8.029728 99.98969 -11.31869
-10.90243 95.85292 -11.27112
-8.775416 97.55679 -11.83009
-9.522034 96.92377 -11.69527
-15.38007 103.3029 -3.133987
-15.67243 100.6905 -4.152289
-19.50701 65.38532 -2.228257
-19.11478 69.35344 -4.044558
-6.760588 63.70872 -8.42562
-3.824939 63.06683 -8.451276
-5.779721 64.639 -8.465231
-14.08739 79.83797 -8.24108
-1.820563 114.3218 -5.732989
-3.177225 123.0379 -7.399043
-8.742828 55.95605 -8.268683
-6.637307 60.42563 -8.376644
-8.979452 61.69367 -8.331375
-6.94384 58.41994 -8.358037
-10.46571 63.24301 -8.308279
-7.016968 60.74123 -8.370379
-8.14936 66.35986 -8.504959
-9.273747 63.60779 -8.362761
-10.69156 59.04466 -8.254112
-6.288279 67.66893 -8.584615
-10.18044 59.69836 -8.2739
-9.597537 65.37114 -8.428816
-12.2461 64.51228 -8.257863
-6.599474 66.66272 -8.535854
-11.4163 59.2178 -8.247161
-14.66964 59.66833 -7.763328
-7.585011 68.49448 -8.621172
-7.254797 69.04886 -8.648787
-9.285293 68.40681 -8.61275
-3.85862 126.4801 -8.65503
-16.69518 59.94446 -6.414838
-12.00201 60.82399 -8.2069
-14.59862 60.57973 -7.714725
-14.17793 55.64058 -8.056952
-14.82754 57.76658 -7.787731
-17.51948 83.40696 -6.352757
-6.958035 121.458 -5.708713
-11.37455 132.6604 -9.035497
-8.800859 72.87816 -8.780141
-7.02996 76.05671 -8.776665
