# .PCD v0.7 - Point Cloud Data file format
VERSION 0.7
FIELDS x y z
SIZE 4 4 4
TYPE F F F
COUNT 1 1 1
WIDTH 1656
HEIGHT 1
VIEWPOINT 0 0 0 1 0 0 0
POINTS 1656
DATA ascii
-7.13057 98.76701 9.788286
-14.79766 147.0968 1.071099
-14.8661 135.3371 1.60577
-14.14049 151.1907 -2.441641
-14.82252 136.1676 3.285197
-8.066535 51.39385 4.366567
-6.156243 102.6613 10.83197
-7.21654 93.87608 9.411403
-14.86683 135.431 1.534932
-20.08153 87.16161 1.793031
-7.150239 100.3621 10.06814
-9.445048 57.74995 5.724871
-15.20554 51.12886 4.166961
-9.898866 52.98368 4.782104
-10.67896 78.67387 9.990394
-11.04235 148.2633 0.598427
-19.85456 66.56028 -0.3693817
-17.80515 96.78977 0.7095068
-5.453778 117.1954 11.75527
-14.82423 136.879 2.492871
-10.17833 141.3631 6.794441
-9.909599 145.8365 3.106205
-5.640914 112.511 11.36671
-18.30994 55.80742 1.652627
-9.53462 88.34885 10.14854
-11.10769 131.8705 12.92469
-14.88754 135.3967 0.7976634
-11.64986 136.7477 10.68174
-13.68029 115.2469 1.798642
-19.67292 64.65088 0.861236
-8.698272 70.26799 8.743752
-20.62014 78.55639 1.302943
-9.319262 72.52684 9.1591
-18.6141 53.49784 0.7091126
-19.25928 59.16825 -0.3946953
-16.21426 95.65384 7.005357
-9.609876 93.39724 9.48593
-17.23706 99.56947 2.704736
-16.07394 105.2985 0.9897388
-5.490289 118.6101 11.45546
-8.882893 109.009 10.34682
-7.524091 116.9473 11.07804
-14.92473 133.6803 6.414326
-10.08918 134.8097 13.0622
-9.014143 140.1448 8.249232
-12.93425 137.9926 7.317652
-14.30352 135.0071 8.151991
-14.44435 135.0295 7.665073
-13.45721 133.6834 10.73733
-11.18582 145.8827 3.257309
-13.129 145.9414 2.632037
-11.02174 147.1575 1.882086
-9.631128 142.4293 6.206262
-14.69191 140.706 3.29311
-14.9445 140.866 3.021726
-13.58652 51.3989 4.311274
-7.209754 56.96759 5.589427
-9.633067 54.70295 5.158357
-20.13781 70.8018 1.683392
-8.82937 63.96019 7.266213
-8.650124 64.286 7.346191
-7.632157 66.53156 7.898713
-8.728765 68.69292 8.41133
-19.40023 62.40334 -1.744115
-20.49884 76.95967 -0.3402764
-20.60637 80.20326 -0.2338092
-11.27639 73.61214 9.342745
-7.551526 77.45845 9.859462
-9.580472 79.22813 10.03885
-18.48253 58.26637 1.846992
-11.67992 83.13123 10.26201
-9.091944 84.80635 10.27282
-9.561726 90.51358 9.909923
-18.93131 92.11713 2.237161
-6.496427 97.35024 9.668892
-16.65198 103.1393 2.143259
-18.81592 92.84529 0.8852598
-15.73492 106.2661 0.5987039
-16.5202 103.2178 3.561917
-6.839418 104.5109 10.99209
-5.723648 118.0302 11.42048
-13.24265 117.7791 3.109199
-13.50048 115.4479 3.118526
-7.046332 112.1471 10.73269
-13.20741 123.7943 3.99762
-7.215012 123.035 11.49839
-13.79363 127.556 1.619121
-8.750013 127.6162 11.42935
-10.28443 134.3202 13.17332
-10.22351 136.5163 11.97968
-14.15533 130.3545 0.7071211
-14.80234 133.5443 2.158821
-12.15424 145.2299 3.533237
-14.3442 143.98 3.023373
-9.584177 139.9499 8.23171
-13.01095 139.4627 5.793561
-12.12182 138.7059 7.594652
-13.56765 138.4937 5.521868
-17.21926 52.80424 3.500397
-19.8699 66.75558 -0.364201
-19.59779 63.50105 -0.7934465
-20.40679 74.68236 1.874168
-8.105869 62.65663 6.950707
-20.46858 75.35783 0.4880766
-20.00699 82.23244 4.741215
-20.59067 82.81165 1.481194
-7.967573 81.20399 10.18267
-17.75535 51.77123 2.623208
-18.70395 56.00121 0.5132068
-17.33387 55.02436 3.536339
-18.74351 57.99535 1.063842
-8.724557 82.51295 10.24158
-8.769362 93.17411 9.491703
-19.30655 88.40784 4.847786
-7.303666 98.23114 9.696195
-9.224426 100.0932 9.568242
-17.35681 99.14584 0.1787059
-18.67655 91.62817 4.420407
-16.00797 105.6822 1.291057
-13.89758 111.4934 2.816482
-7.176263 105.6392 10.98101
-7.370913 110.498 10.71636
-8.255799 118.1805 10.34224
-8.830414 118.0403 10.16645
-6.037446 114.6066 11.14863
-9.26279 116.875 10.08257
-7.957057 115.5374 10.33239
-12.5534 118.0739 2.244353
-13.34605 115.4002 2.415825
-13.54533 113.5527 2.168486
-11.70162 113.0369 7.360972
-13.27304 124.128 4.232392
-13.16227 124.3712 1.697474
-7.571766 126.1609 11.18969
-11.57572 120.5921 8.016991
-13.31748 127.3233 5.683483
-13.94882 130.0971 8.634239
-11.56308 130.6982 12.37398
-9.253766 132.3836 13.70529
-11.82552 131.8017 12.45192
-12.87014 137.2149 8.413294
-14.69694 132.6505 2.787146
-12.23564 147.2091 2.001935
-13.7165 139.0388 4.76584
-14.12224 137.1023 5.996603
-20.05087 68.83223 0.8146312
-18.16839 59.34047 2.901099
-10.47968 58.80342 5.962855
-14.35907 55.79791 5.18698
-9.261486 55.34954 5.273117
-12.87943 53.43822 4.93059
-20.56632 79.52886 2.532274
-20.22254 81.16816 4.118635
-20.34592 84.23009 2.899974
-11.49096 72.48099 9.159856
-12.15874 70.80988 8.871781
-10.23899 74.03117 9.405009
-10.37068 74.32574 9.449197
-16.35551 51.46531 3.87401
-12.08824 55.68083 5.273811
-15.79382 58.77421 5.327109
-19.22688 56.72222 -1.639619
-16.62723 56.58494 4.376904
-20.2441 85.84929 2.378994
-19.28596 91.02434 0.2504832
-19.0249 90.5342 4.106199
-10.87736 96.65255 9.239843
-9.791094 98.1846 9.324311
-9.919155 102.3245 9.632347
-17.49012 98.40553 2.013403
-16.925 101.7557 1.02415
-16.50996 101.473 4.582726
-16.3427 104.4846 2.893995
-13.68776 111.8115 3.655099
-15.92683 106.15 2.957778
-7.581886 106.4956 10.93365
-8.013305 118.4957 10.51185
-12.38397 115.4461 4.805417
-12.67095 120.1832 4.281065
-11.2708 116.2096 8.339448
-8.316324 111.5954 10.05942
-13.08404 123.6792 2.178772
-9.839593 128.6284 11.99985
-13.33106 128.2472 6.745134
-10.67111 137.1152 11.09775
-11.40531 136.075 11.49635
-19.96332 67.61284 0.8814247
-19.97624 70.81081 2.751023
-19.77793 70.1948 3.305091
-20.39494 74.67964 1.967995
-17.67635 61.61509 4.537684
-16.94679 57.60283 4.228498
-17.95171 89.64332 7.134235
-13.11864 94.55141 9.233567
-19.21929 90.7184 2.913674
-11.10849 100.3335 9.177371
-17.57991 97.13384 2.916278
-16.68183 102.302 3.5454
-16.09099 104.144 4.649168
-18.05562 93.90781 4.322974
-16.48539 103.8023 2.703036
-8.339101 109.0272 10.57184
-8.050371 105.63 10.64455
-8.093098 102.7649 10.24182
-13.21713 114.0868 5.151458
-13.25274 114.6355 6.424915
-11.97563 116.4661 6.253975
-11.63358 116.6619 7.024618
-13.66103 129.5997 8.644699
-14.43322 130.9843 7.980116
-14.62962 131.5836 7.817598
-13.60727 127.5162 4.742285
-19.94711 67.93579 1.35103
-19.34522 60.31768 -0.4038218
-18.58423 61.1007 2.816919
-13.7548 98.0619 8.464774
-16.12601 101.1427 5.539283
-17.88796 94.52938 4.30734
-15.41226 106.2614 5.080098
-10.89685 108.5527 9.496025
-8.749342 109.5783 10.34132
-11.0902 102.4891 9.316972
-13.01027 112.7053 5.100211
-9.594941 113.2751 9.319035
-12.46733 118.2673 6.247073
-10.49573 118.71 9.352243
-14.41315 133.6744 8.741527
-18.69495 65.11794 4.330114
-17.69878 74.9838 7.878142
-15.45685 57.5316 5.223391
-17.54499 59.90011 4.122379
-16.18994 95.24201 7.149977
-16.5078 95.74187 6.541546
-13.66489 108.7951 6.774484
-10.02843 101.3885 9.508616
-12.6559 111.3719 6.762911
-19.23525 73.12784 5.447791
-18.27935 71.17196 6.530131
-14.08856 75.17758 9.550326
-18.81704 60.43598 1.961413
-11.7119 59.2412 6.068855
-15.33185 102.466 6.567227
-13.14765 104.2929 8.551911
-12.44057 103.58 8.911437
-12.50524 108.6405 8.293889
-16.82805 99.07516 4.567636
-14.00788 105.1203 7.820498
-10.68521 107.6892 9.699252
-16.15289 73.71432 8.756364
-16.73152 72.41065 8.217259
-14.68209 72.51279 9.033998
-15.20472 74.06743 9.164041
-19.73429 75.04064 4.744777
-18.29027 73.02914 6.891824
-15.11665 59.83348 5.824093
-15.40272 98.29243 7.201399
-17.81946 76.88142 8.016672
-12.07904 149.6763 -0.7371114
-12.9323 143.632 4.101776
-11.66045 144.831 3.960976
-10.80862 68.32196 8.333431
-16.25067 67.10504 7.258368
-12.34662 78.25968 9.960583
-10.54701 76.27964 9.719527
-12.82835 78.61388 9.992528
-11.35439 79.33966 10.05308
-10.44461 82.68613 10.2446
-13.07774 81.21758 10.1696
-15.20012 78.1982 9.712849
-10.53372 81.7781 10.21127
-17.14704 82.58907 8.871507
-19.55808 79.00277 5.761982
-20.0227 76.58627 4.242775
-19.23464 76.41641 6.06625
-19.64066 76.4245 5.242776
-11.58938 87.45816 10.19634
-12.95559 87.1003 10.20053
-12.77245 89.30907 10.05041
-15.88933 86.96234 9.466562
-17.43552 87.08246 8.309547
-11.97125 85.42722 10.26927
-10.26884 83.22388 10.26017
-11.42823 85.06011 10.26993
-13.22495 90.92343 9.775042
-11.7619 92.21563 9.671775
-15.3129 91.34409 9.073323
-15.77089 81.65785 9.661342
-13.23188 91.72234 9.675108
-19.63087 87.13529 4.512766
-13.2633 84.08037 10.21996
-15.38335 92.66832 8.7257
-18.32257 90.37752 6.125542
-16.61727 92.78809 7.646446
-14.85676 89.18815 9.683722
-14.22744 130.0833 4.297095
-14.3655 130.5413 5.13696
-20.54597 77.61163 2.13672
-12.30228 122.5568 7.216243
-12.78094 122.7619 6.152993
-20.50136 82.32095 2.753472
-12.69323 95.46365 9.181213
-15.39906 95.73198 7.897207
-16.56567 93.24733 7.534897
-18.05603 66.0901 5.588961
-16.86416 65.26841 6.416951
-18.44625 68.88223 5.79005
-16.21724 66.34394 7.056652
-13.73068 68.99852 8.466145
-14.61868 65.37753 7.439594
-15.58534 68.65468 7.980527
-13.24325 70.63172 8.847587
-17.70848 62.47088 4.801511
-9.358181 110.5313 9.780944
-12.27134 121.3145 6.984999
-15.92253 96.16453 7.233728
-13.08762 56.3998 5.352018
-13.25665 61.10723 6.558096
-13.86082 59.77499 6.16565
-13.99081 63.02087 6.952917
-11.27254 63.90121 7.2424
-16.10966 60.84225 5.686132
-18.81404 62.48205 2.899886
-18.97855 64.39539 3.436308
-12.70659 80.87305 10.16836
-16.52608 84.37782 9.280194
-19.15246 86.2215 6.094282
-18.33507 86.19427 7.453731
-19.72925 83.19686 5.378231
-18.15369 83.64312 7.907763
-17.34622 82.16897 8.699672
-17.6197 88.6329 7.866418
-8.565067 63.18795 7.079554
-11.19557 64.23659 7.322409
-12.65719 123.9105 6.808408
-13.80389 128.8779 5.898127
-13.09185 123.8457 5.410815
-18.02085 68.01785 6.131728
-11.94897 57.88625 5.695072
-18.98651 84.00466 6.762819
-18.23246 81.87786 7.813079
-14.19809 81.59375 10.13328
-13.23237 128.2784 7.108306
-9.407075 126.6186 10.38254
-11.00271 125.1866 8.969434
-15.57583 83.39888 9.8016
-1.177293 84.46982 -9.423737
-0.1774752 73.01902 -8.860484
-19.19339 59.96139 -2.303296
-1.886296 85.3932 -9.966878
-3.194499 94.40191 -12.88094
-3.433352 99.85896 -11.84315
-0.02514387 70.43227 -8.902112
-1.734338 58.8605 -7.669684
-6.879242 54.7473 -7.79927
-2.427661 117.6824 -7.004584
-1.839132 94.87902 -12.89754
-0.8874514 60.63914 -7.762365
-18.08212 94.81863 -1.452686
-5.366557 123.5592 -7.22846
-0.9863242 108.6657 -7.244288
-6.623711 153.3043 -7.16881
-0.9044799 131.4116 -10.76308
-0.06410918 152.993 -11.03841
-7.580806 152.0549 -8.248192
-2.116452 140.8967 -12.69377
-5.915122 151.5754 -9.464615
-9.727925 152.0216 -7.204635
-1.517263 120.9623 -6.674499
-6.168835 151.175 -9.678926
-2.899354 133.7516 -11.57153
-6.241164 153.0867 -7.877236
-14.15921 150.2268 -8.822858
-14.31273 55.03709 -7.677833
-17.91658 54.44587 -5.834364
-6.929595 102.8211 -10.36833
-16.73136 101.5304 -0.6314994
-6.479645 55.65786 -7.729205
-17.34477 98.72551 -0.5333901
-15.99849 105.1335 0.3095458
-19.85713 70.80317 -2.108521
-18.5927 74.16389 -5.329928
-17.98883 67.22076 -5.671712
-19.4847 82.85316 -3.793853
0.06011062 82.34446 -8.606692
-12.71098 97.37941 -9.548626
-19.06199 54.29145 -3.991165
-14.36723 138.3896 -9.576571
-13.66166 128.6076 -0.9993495
-9.546492 54.78882 -7.786339
-11.48668 151.5541 -6.978151
-13.60805 149.3037 -9.623407
-13.69632 144.332 -11.08182
-8.943597 110.6365 -5.592405
-15.60221 56.30597 -7.130889
-14.92774 107.3222 -1.151407
-2.177792 149.3512 -11.0906
-4.015562 150.0069 -10.78737
-15.20998 135.8238 -5.362535
-9.521199 99.36806 -11.01031
-1.98295 144.4961 -12.28603
-7.047037 152.224 -8.329579
-2.994979 150.0539 -10.74441
-6.353845 147.5304 -11.75433
-7.637498 91.11639 -12.46884
-19.54921 88.40492 -1.970728
-8.456875 88.49699 -11.66456
-5.19523 74.02511 -8.525364
-19.41427 67.82475 -3.092629
-1.643819 61.02558 -7.79048
-2.651644 58.61914 -7.657659
-7.745956 53.74637 -7.898328
-7.798724 55.77937 -7.711935
-8.384202 112.6064 -6.300439
-3.733892 100.9684 -11.35735
-3.312298 143.2736 -12.49259
-14.39911 137.0976 -8.90577
-10.55719 118.0312 -2.024734
-1.009652 110.4849 -7.688517
-12.74438 127.3385 -3.044166
-12.40643 122.1684 0.7569687
-16.2068 57.09658 -6.621504
-1.328428 145.8259 -12.02382
-11.77479 151.0581 -8.063314
-9.87207 149.4801 -10.06033
-14.04163 145.0908 -10.91213
-11.684 143.4727 -11.6883
-4.325801 149.4116 -11.04924
-0.3544785 80.7221 -8.419617
-3.808079 76.5713 -8.967881
-20.22276 81.55249 -2.063165
-17.54398 97.84865 -0.3239232
-0.4153181 98.75102 -12.13294
-2.202103 99.20912 -12.0461
-0.9499622 65.98655 -8.437129
-19.81773 72.82234 -2.629793
0.06949877 63.04956 -8.0117
-1.752911 58.56476 -7.664567
-1.769815 54.69017 -7.811472
-12.26688 53.51431 -7.921082
-14.48336 109.9228 0.6845391
-15.56407 105.6686 -0.7825015
-4.356085 104.5235 -9.604937
-13.20312 140.2355 -10.98315
-13.26491 140.7753 -11.06824
-0.1902594 138.2051 -12.59144
-0.6128809 136.5015 -12.30394
-1.014614 129.1752 -9.710638
-13.37497 132.8438 -7.22299
-13.00615 114.3493 0.03279283
-1.896436 115.3637 -6.172302
-1.61052 117.1485 -6.010008
-1.52231 112.7218 -5.80676
-0.4334444 124.1137 -7.838664
-12.58133 124.1321 -0.3639823
-12.85998 126.4219 -1.76914
-13.9739 129.9311 -0.702386
-12.11501 116.3175 -0.3264171
-19.16327 61.71644 -2.655896
-18.92452 59.00055 -3.237175
-5.577968 144.0596 -12.45536
-10.20849 148.1217 -10.81274
0.08143334 83.35873 -8.896155
-2.457237 80.6228 -8.445704
-0.1366199 74.1609 -8.43564
-1.346881 89.57925 -12.27497
-19.83983 75.99769 -2.933002
-20.43935 80.27039 -1.157441
-18.2645 94.51642 -0.5642208
-17.79815 96.51155 -0.3995419
-15.43844 105.6249 -1.192079
-0.100537 98.01962 -12.1653
-0.04430183 91.3842 -12.71704
-3.046584 91.31077 -12.67234
-1.199297 69.77485 -8.662885
-18.91276 66.48331 -4.092449
-3.693331 62.64173 -7.953804
-3.703934 55.53584 -7.749641
-5.704524 57.21208 -7.637891
-17.25297 54.98897 -6.331229
-13.49304 55.45662 -7.693729
-15.70132 57.46559 -6.890016
-13.84509 110.7197 -0.5672851
-14.03745 141.0565 -10.79742
-0.5212251 135.3504 -12.01928
-0.7098209 132.6626 -11.23374
-2.903014 130.3061 -10.28994
-14.66402 133.564 -4.066382
-14.04603 114.2584 0.2916465
-2.815866 110.6522 -7.748686
-3.790671 126.8933 -8.823666
-11.94792 119.8511 0.02825223
-12.14622 121.3968 0.4772856
-0.4250827 119.7365 -6.794097
-2.86276 124.1045 -7.832367
-17.75512 60.85749 -5.100275
-17.94713 62.53614 -5.025657
-18.5553 59.94236 -3.994018
-5.795489 145.962 -12.14633
-7.107101 145.8854 -12.10922
-1.770673 82.46296 -8.649863
-1.102594 81.77699 -8.492577
-0.7242337 88.06807 -11.67312
-19.94164 79.00647 -2.897032
-19.13301 76.54506 -4.483726
-20.01865 75.53001 -2.362858
-20.07915 83.77777 -2.164634
-19.32875 80.28009 -4.173613
-19.57572 88.69884 -1.573957
-17.92731 94.55809 -2.642456
-17.10807 97.45499 -2.875158
-2.020724 98.60559 -12.15688
-6.453112 99.49735 -11.82441
-3.013692 102.1981 -10.84994
-0.6474431 95.35432 -12.90945
-2.811507 91.99663 -12.77126
-3.801117 70.61233 -8.935159
-0.8391083 69.72417 -8.6493
-18.83353 67.9258 -4.384467
-18.4351 66.63158 -4.94348
-19.23385 62.88132 -2.61805
-2.014952 61.63507 -7.84449
-15.58927 70.26048 -7.921201
-5.255839 65.01147 -8.291882
-7.457635 56.00799 -7.697427
-9.963713 55.94769 -7.680687
-13.38272 113.0722 0.2451239
-0.2270803 108.2991 -7.455773
-3.276345 105.2886 -9.088256
-1.922977 134.9572 -11.91351
-3.028442 128.6483 -9.512965
-4.507817 127.7738 -9.121674
-5.684274 132.3079 -11.03819
-14.66065 133.4561 -3.212692
-12.45229 115.3999 -0.5506925
-0.7524151 117.1964 -6.082669
-4.446216 122.5981 -7.061863
-6.655109 127.0394 -8.384892
-6.478276 129.7086 -9.774774
-5.508173 130.2786 -10.20373
-11.93959 121.6231 -0.1763358
-11.60962 117.6231 -0.01707564
-5.643208 124.5141 -7.539672
-4.874166 124.4339 -7.705938
-4.551122 125.9108 -8.339721
-1.671379 144.0389 -12.35899
-10.47644 140.0546 -12.0772
-10.08931 146.2739 -11.53668
-2.869164 142.0997 -12.6181
-6.700632 141.0383 -12.77868
-10.36084 146.3012 -11.47686
-1.772186 83.78223 -9.086479
-3.189522 86.99474 -11.05117
-18.72878 76.98665 -5.076673
-19.57147 74.14993 -3.495198
-19.18069 81.66058 -4.41854
-18.95177 91.65818 -1.393734
-18.03147 94.78405 -1.882126
-18.36546 92.44758 -2.995134
-0.6672603 103.2187 -10.46336
-6.364075 102.5304 -10.5552
-4.788893 87.60815 -11.38042
-19.20317 63.69805 -2.886378
-1.046697 68.74974 -8.468397
-6.109146 66.59676 -8.490219
-5.340466 65.74397 -8.399712
-3.947411 66.25374 -8.462173
-12.67207 112.8363 -1.835889
-1.329567 137.8279 -12.54938
-3.934196 135.5632 -12.07148
-14.00089 132.4386 -5.552159
-12.99871 130.3535 -5.644302
-14.06973 132.7875 -5.787324
-12.40359 130.646 -6.790219
-10.77483 130.2335 -8.173111
-3.398715 118.0061 -7.126273
-5.038627 138.7631 -12.71058
-5.719724 135.3913 -12.00122
-7.941822 148.0815 -11.31271
-0.195859 87.70406 -11.505
-4.203056 85.69786 -10.1804
-18.59039 77.46436 -5.293164
-18.65285 73.45074 -5.243472
-15.98899 87.69215 -7.774537
-2.487581 97.94003 -12.27263
-6.425081 101.3485 -11.11952
-6.251399 91.60664 -12.6686
-6.768063 88.96097 -11.95577
-1.427653 67.00589 -8.505216
-6.337337 59.52163 -7.659154
-13.0405 58.93398 -7.557709
-12.19006 58.14694 -7.544668
-12.02501 55.89676 -7.666632
-7.23039 131.5837 -10.47511
-14.76123 134.7558 -6.238508
-12.16343 137.89 -10.95813
-11.07177 139.7797 -11.86555
-10.80148 136.8877 -11.29712
-11.18157 130.9502 -8.245714
-12.32207 128.8445 -5.506249
-6.105652 117.9339 -6.353788
-4.556818 81.18513 -8.49596
-5.020442 86.52509 -10.7367
-5.391193 75.95972 -8.800414
-16.93701 73.97448 -7.104132
-19.2001 73.59789 -4.261249
-8.214897 88.60757 -11.743
-5.438458 61.48077 -7.819885
-5.474785 68.95039 -8.509195
-10.36349 129.1958 -7.855712
-7.12593 134.0125 -11.40051
-12.77134 127.7368 -3.389779
-11.03592 124.1873 -3.624802
-12.27578 126.1251 -3.028772
-7.988687 124.7431 -6.721634
-3.334605 81.12662 -8.471639
-4.951308 84.81968 -9.614423
-16.35884 70.82354 -7.50171
-6.884753 57.60045 -7.620502
-5.499822 61.70758 -7.841433
-8.036081 64.74315 -8.237126
-6.738266 69.36375 -8.541265
-3.791224 71.23642 -9.114971
-10.63014 131.6848 -9.048795
-8.191458 134.0971 -11.19621
-7.541559 133.2999 -11.07018
-9.491849 136.8999 -11.83798
-9.833539 127.2138 -7.04421
-6.624331 80.77113 -8.510019
-18.76017 70.86874 -4.919588
-9.724026 60.24557 -7.667199
-12.11554 64.99636 -8.249275
-7.56388 68.61799 -8.5318
-9.659243 126.7549 -6.890946
-17.21747 72.06102 -6.864062
-17.41033 73.71596 -6.709522
-9.691703 61.79786 -7.818398
-9.495829 66.44342 -8.467292
-7.595613 69.98932 -8.644032
-15.45511 73.35899 -8.006757
-10.78732 60.84844 -7.701606
-11.68135 63.03531 -7.96354
-16.42513 75.45203 -7.408144
-10.90266 64.05057 -8.111442
-13.12698 71.41256 -8.701731
-13.06459 62.1406 -7.839751
-16.48687 62.05392 -6.491856
-14.84108 66.33208 -7.976029
-16.90134 63.44954 -6.333486
-17.50802 64.3418 -5.819223
-17.40761 69.97092 -6.582376
-16.23814 69.01276 -7.493679
-15.93217 67.27248 -7.530485
-14.30464 108.9063 -1.368682
-13.26218 110.2605 -2.382237
-13.9781 105.7226 -4.09349
-2.498842 114.9334 -6.517286
-2.470691 113.0013 -5.888024
-3.360611 110.5164 -7.452141
-4.761378 110.8558 -7.22978
-9.246366 106.966 -7.271616
-5.91094 110.0026 -6.582777
-5.653159 114.6329 -5.802174
-9.083573 116.2489 -4.333794
-5.683695 108.9859 -6.846069
-2.227067 108.3217 -7.467051
-5.243021 111.2516 -7.39227
-5.380473 108.5815 -7.064826
-7.397839 112.267 -6.788163
-7.930488 111.7079 -6.543783
-9.548088 111.6979 -5.14416
-9.697052 108.6481 -6.198487
-9.921721 108.2031 -6.333632
-9.158714 108.9469 -6.253154
-6.66221 107.5633 -7.479657
-3.320233 103.9311 -9.991488
-6.881696 106.3089 -8.272626
-5.280996 105.7073 -8.845361
-12.60061 113.2858 -2.097682
-11.62617 110.1205 -4.373449
-7.396928 141.8552 -12.67853
-5.439031 140.9461 -12.76926
-6.728292 141.9704 -12.7226
-9.280813 142.9829 -12.33361
-2.52958 78.5266 -8.851809
-16.62195 97.46651 -4.190323
-14.50035 59.61251 -7.37774
-3.673986 94.73856 -12.86573
-3.542578 97.80868 -12.30083
-5.995844 72.95083 -8.850342
-7.129834 73.4448 -8.693328
-9.314134 75.90231 -8.792538
-8.398617 73.62125 -8.694565
-12.00493 72.6789 -8.807254
-8.658878 70.87143 -8.913327
-9.241252 72.89251 -8.847805
-10.06388 74.29793 -8.720464
-9.945363 75.92068 -8.801044
-11.57015 68.87243 -8.599015
-7.004848 78.37283 -8.845517
-8.323857 78.7696 -8.698813
-3.623821 80.88219 -8.462774
-2.55264 75.38893 -8.639869
-4.443253 78.21044 -8.942644
-9.843781 77.6381 -8.915844
-10.2839 69.20193 -8.572504
-8.380737 79.47953 -8.567043
-10.66046 80.43206 -8.628417
-10.15268 78.31355 -8.776339
-9.82917 84.17755 -9.245813
-11.57157 122.8382 -1.778043
-12.37387 124.9173 -1.639979
-11.15261 122.3295 -2.229124
-11.15891 117.2846 -1.174435
-9.787996 123.9377 -4.99752
-6.885932 119.9354 -5.249979
-8.482095 122.3779 -5.22895
-7.009221 124.4525 -7.032105
-9.56807 121.8851 -4.040417
-9.657377 122.3749 -4.220962
-7.339444 120.3654 -5.144237
-9.640257 119.8868 -3.263572
-10.55441 120.9207 -2.464592
-9.965184 118.4519 -3.370456
-4.635592 119.7725 -6.074802
-8.002157 117.5225 -4.333334
-7.480337 116.813 -4.87969
-8.796361 117.629 -3.747571
-8.673368 115.1362 -4.585561
-8.243556 116.8369 -4.470351
-11.06796 114.1148 -2.516138
-11.10096 113.0349 -3.511656
-8.369536 146.455 -11.81384
-12.70172 81.20096 -8.576345
-13.18207 81.01231 -8.47297
-15.4466 79.71331 -7.755655
-14.66913 78.83829 -8.110842
-17.07166 84.59948 -6.731687
-16.55945 77.97189 -7.214638
-6.075781 98.11884 -12.22757
-13.02111 111.0049 -2.186974
-6.733635 138.9505 -12.7822
-11.70986 98.54804 -9.970185
-7.586304 102.8684 -10.22633
-5.748343 105.9644 -8.647985
-11.90751 86.52709 -10.0732
-10.09447 86.95592 -10.75682
-12.15275 84.6284 -9.232175
-11.07135 84.89774 -9.454812
-15.15862 88.42252 -8.553149
-13.48737 85.53553 -9.07775
-8.313834 90.0705 -12.14708
-12.87926 90.78101 -10.50272
-16.00112 89.74139 -7.822149
-10.87018 89.17289 -11.27927
-9.38216 88.3609 -11.46919
-13.03473 83.35542 -8.739419
-14.16378 81.2198 -8.232881
-14.45257 86.05225 -8.668945
-17.54311 86.03865 -6.267601
-18.60696 85.34424 -5.000696
-18.22915 89.51427 -4.7842
-14.71746 86.54585 -8.628176
-17.23531 86.17923 -6.588886
-16.8047 84.7251 -6.962244
-15.8097 83.16962 -7.630439
-6.420495 84.56535 -9.475436
-6.988763 82.08951 -8.654261
-10.83891 82.62695 -8.808674
-8.557714 63.79121 -8.089437
-13.22115 68.98646 -8.586044
-16.95344 68.75253 -6.936136
-13.94862 67.44264 -8.361084
-11.72078 68.54968 -8.589718
-10.97616 141.8008 -11.98314
-13.42547 107.7475 -3.708899
-12.27736 110.1411 -3.7639
-12.56763 107.6866 -4.734369
-14.50705 106.8087 -2.492081
-15.26595 102.3522 -4.026432
-14.77916 101.2851 -5.441334
-2.605272 111.5081 -8.133905
-7.601007 104.9614 -9.0172
-12.27078 112.7832 -2.600751
-9.716655 136.8891 -11.74904
-5.98316 96.66711 -12.58097
-7.548456 94.06492 -12.69955
-3.987194 97.48985 -12.38671
-12.94727 75.54942 -8.718586
-14.37994 74.71959 -8.453731
-4.782761 117.6531 -6.81935
-12.11841 115.1329 -1.468477
-8.437098 97.7715 -11.89374
-5.355837 117.5933 -6.675791
-4.875557 104.5559 -9.573171
-13.08465 87.72208 -9.898574
-12.85934 90.27918 -10.46845
-8.762444 92.60177 -12.42407
-10.65944 95.56955 -11.48323
-11.47684 92.82506 -11.36883
-11.04991 94.25492 -11.48856
-13.25948 93.60418 -10.07354
-8.575969 95.01891 -12.39077
-11.79302 97.42017 -10.27597
-13.72969 94.30167 -9.535991
-10.05259 98.23837 -11.11942
-10.82414 97.76022 -10.82739
-13.00112 102.4769 -7.073857
-13.78 92.4959 -9.797935
-16.84685 94.28548 -5.56732
-9.894319 102.2953 -9.559707
-15.33652 90.76069 -8.49112
-15.28866 92.68291 -8.280674
-17.39333 94.55721 -4.243741
-16.42939 91.98322 -7.037366
-9.806172 106.1516 -7.517216
-11.60548 101.8541 -8.62866
-13.52128 101.2337 -7.12677
-13.91124 99.8881 -7.316187
-12.45742 106.2937 -5.58606
-14.31965 103.6281 -4.85834
-14.68313 104.1969 -3.919509
-9.495019 138.8235 -12.27168
-16.26041 97.56281 -4.873086
-15.55016 97.09615 -6.390545
-16.64007 97.62509 -4.036196
-15.02374 98.45592 -6.530843
-13.05309 98.82058 -8.684268
-14.84041 95.2736 -8.116659
-13.67211 105.917 -4.41139
-18.27006 91.4416 -3.917705
7.980876 150.0907 -10.03725
8.014001 151.9552 -8.182355
16.33543 86.53643 -7.398711
5.472402 65.26332 -8.342827
20.62016 81.63416 -0.03963315
9.424774 58.66241 -7.58393
1.534454 130.3816 -10.32428
3.739831 124.3706 -7.865814
13.73637 147.4118 -10.49265
2.658095 150.431 -10.54982
17.6299 97.01894 -0.9732109
0.3052376 140.9597 -12.67754
14.29905 150.8919 -8.019958
1.190801 138.2341 -12.6094
13.87683 113.8266 -0.3228238
14.61212 134.1996 -5.806444
3.158582 152.1703 -9.74738
13.32436 126.9155 -0.6438082
10.25973 149.5924 -9.936457
2.679869 151.821 -9.99032
10.84742 150.369 -9.164824
1.978032 59.21324 -7.682695
13.33769 151.0967 -7.890243
2.354276 151.0397 -10.30713
13.33981 116.6869 1.47006
8.477215 130.2392 -9.421972
4.615844 119.0902 -6.983857
1.066313 59.94217 -7.71824
10.83407 121.4926 -2.293141
0.2663746 68.71906 -8.416743
3.935841 103.5965 -10.16955
12.37914 114.9868 0.4080485
8.420138 104.5648 -9.022861
19.11781 91.34164 -0.6282197
0.4918994 81.1048 -8.429301
1.794088 57.03984 -7.674102
0.8476278 94.79417 -12.90197
4.521115 86.02153 -10.41701
0.9642188 97.30798 -12.42462
5.11915 151.6077 -9.696397
13.10079 148.4813 -10.17755
0.6409376 126.6101 -8.762569
10.10932 151.7481 -7.167253
9.8367 58.69977 -7.580013
2.249479 153.1119 -9.445973
1.706392 149.0776 -11.0922
2.219142 140.1329 -12.70426
6.338485 153.0249 -7.854255
2.759002 136.4398 -12.28678
14.3 53.72759 -7.867351
0.554092 151.0177 -11.04519
1.31627 152.9285 -10.03708
5.896831 54.07459 -7.869428
0.9109216 146.9993 -11.76308
5.176355 150.612 -10.32983
16.44079 75.11116 -7.466188
0.5666828 77.91312 -9.095314
16.24848 94.50504 -6.447194
19.67826 81.75771 -3.456296
18.88793 59.20793 -3.373091
16.18252 55.13446 -7.021021
4.366453 99.84097 -11.82685
18.2087 94.58743 -1.032105
12.58072 114.081 -1.156098
1.346486 118.8189 -7.17782
13.44369 128.0708 -1.391464
6.599472 130.9914 -10.37196
13.63378 129.4762 -2.366546
14.43989 137.9628 -9.265858
0.6113401 143.4542 -12.43875
7.48481 147.414 -11.65783
9.863283 54.40184 -7.821012
7.868567 54.3676 -7.832789
0.9884149 148.0614 -11.52108
0.3365818 145.4753 -12.08448
2.627704 145.5216 -12.09526
19.115 70.42903 -4.186871
2.197949 69.78201 -8.648428
1.762763 77.06628 -9.201988
0.2045354 85.72901 -10.18094
19.15782 90.28607 -1.71927
20.30302 82.73029 -1.613671
19.68058 68.0744 -2.242329
1.547693 62.24119 -7.909613
18.44406 58.60585 -4.175081
18.75376 54.39469 -4.57181
9.590252 53.86441 -7.885852
3.429295 96.40358 -12.68491
0.4027334 105.0119 -9.282907
16.73229 100.667 -1.481982
0.1800618 110.356 -7.872363
13.20197 112.3414 -0.8130963
13.12723 111.8986 -1.139711
1.801763 114.5565 -6.739962
10.80551 118.067 -1.614027
14.24432 131.4701 -1.422382
13.54285 127.0345 0.2250371
3.97749 130.9666 -10.49484
12.24589 134.8152 -9.589206
12.38212 123.048 0.007501386
2.408979 119.0346 -7.383805
1.903386 121.1847 -6.778269
2.054479 124.5758 -8.010134
0.7559685 136.4861 -12.29524
0.6464183 141.831 -12.62418
10.85445 146.9024 -11.1754
11.52267 146.0244 -11.31143
8.059303 145.4995 -12.10168
13.23092 145.3486 -11.05404
0.6504054 59.8418 -7.710131
1.819408 55.83439 -7.730669
4.051286 147.5496 -11.67981
4.584221 147.3484 -11.77248
5.820507 147.1633 -11.89764
19.77002 76.28022 -3.141731
20.19801 73.11221 -1.084905
19.74492 66.1105 -1.203117
20.42698 76.67836 -0.6523962
0.4158954 73.53484 -8.605589
0.6913717 76.52518 -9.069951
2.24192 84.28153 -9.323254
1.100217 87.10411 -11.14438
1.750786 89.55403 -12.26955
20.15668 86.42242 -0.2260504
17.91133 94.91699 -2.210866
19.95477 86.94847 -1.156277
18.45367 56.30829 -4.598526
16.81383 59.54573 -5.967224
18.69228 55.00666 -4.533276
13.47077 56.53795 -7.524665
2.437309 94.93314 -12.88376
0.2216784 101.1654 -11.2507
16.23997 101.3115 -2.425818
17.75395 96.79566 -0.199322
1.942758 113.9613 -6.22255
13.45219 114.5071 0.5341023
12.36672 120.4662 -0.2966681
13.15758 117.0087 0.4716234
13.74827 129.3423 -1.487043
14.66638 133.8652 -4.980964
12.55491 126.3493 -2.481397
4.792549 130.098 -10.16336
14.93783 134.7992 -5.344474
12.76148 121.2392 0.861014
0.452912 120.5009 -6.528103
1.583515 122.4731 -7.209475
11.06719 142.3163 -11.9414
1.568247 133.0557 -11.36265
2.602722 139.0439 -12.6735
7.384319 145.3182 -12.22262
13.531 145.7789 -10.9286
1.439602 57.98708 -7.657125
6.098087 55.68378 -7.716621
20.05993 74.91785 -2.10333
19.47407 75.07129 -3.699845
19.97049 78.70634 -2.749132
1.511584 72.59724 -9.015759
3.639011 69.22945 -8.521349
2.610965 74.65053 -8.430928
1.940726 78.7028 -8.758362
4.785334 84.65675 -9.529753
2.362864 86.24226 -10.54823
2.611224 87.85621 -11.54298
3.115597 89.1797 -12.11359
16.6261 86.32163 -7.139169
18.88624 88.96296 -3.617656
18.00184 95.48174 -0.657602
19.96035 83.35267 -2.633347
19.03572 86.95515 -3.966448
17.38505 58.34292 -5.519403
1.602878 93.4028 -12.88085
0.2747144 96.60857 -12.65626
1.94712 98.33403 -12.15154
16.20571 98.72818 -4.281663
13.80482 101.8042 -6.504971
15.63343 102.4731 -3.147202
1.290353 106.0255 -8.71902
4.321476 110.809 -7.548371
14.08051 109.5774 -1.283045
11.27847 118.8228 -0.6743498
12.18336 114.9575 -0.1396273
12.34485 116.0644 0.4451141
12.87887 117.6509 0.3655789
13.10641 129.3999 -4.353265
14.54634 133.1561 -4.073715
9.862409 124.09 -5.040995
1.716895 132.3539 -11.10655
3.159861 127.2927 -8.99619
3.161476 127.712 -9.136158
11.8906 119.8655 -0.8955227
10.49823 122.0413 -3.05649
11.33226 124.2532 -3.255523
6.571569 118.8596 -5.841609
7.760089 116.7093 -5.489957
10.62488 144.0255 -11.90739
2.853927 135.2899 -11.99349
8.647749 138.2461 -12.41492
14.34942 146.5005 -10.63744
4.110726 61.02887 -7.78584
13.69565 67.4306 -8.438374
19.92625 77.88141 -2.857012
20.09501 81.67725 -2.463708
0.5038592 65.27322 -8.350223
4.129894 80.7168 -8.454445
5.444408 94.0525 -12.86604
5.670421 88.83186 -11.93778
15.85051 87.50895 -7.876709
18.0226 92.30318 -4.053644
15.61039 56.38367 -7.124253
17.63683 58.50802 -5.255134
2.843844 102.4407 -10.75471
15.18914 104.7907 -2.52107
0.4591877 104.3801 -9.740126
3.677852 101.0489 -11.29527
2.699632 101.3241 -11.1607
3.528421 101.7404 -10.99491
7.312572 100.5256 -11.32118
6.787241 101.8068 -10.89195
8.720533 100.4777 -10.92864
3.328795 110.5231 -7.557011
4.623228 113.4349 -5.653769
4.055943 113.5595 -5.788925
4.20067 112.8496 -5.827135
13.322 112.6799 -1.398962
11.57353 116.8464 -2.711366
13.82624 133.1105 -6.704644
12.72449 127.506 -3.297292
6.886116 126.9708 -8.300261
3.016812 134.5245 -11.77073
3.77513 61.53051 -7.83167
18.83719 76.32642 -4.943391
2.403444 67.14356 -8.492393
5.556438 63.46117 -8.066055
8.986813 61.69038 -7.815901
7.415137 63.57169 -8.075505
6.34284 59.90897 -7.689322
6.256189 89.5748 -12.17778
18.29184 90.12795 -4.455455
17.71544 93.9484 -3.792373
16.52239 95.98652 -5.272625
17.07082 97.60319 -2.857807
14.67638 101.7726 -5.343093
12.32652 102.735 -7.601385
13.44948 102.4111 -6.628151
10.48188 104.0562 -8.319417
4.085573 114.2038 -6.344826
13.34346 111.4641 -1.152131
11.599 112.1687 -4.949783
11.35348 110.3668 -4.473354
10.1524 115.9327 -3.133866
10.63295 119.5799 -2.072556
11.5454 125.1205 -3.611609
12.83946 141.1011 -11.28815
8.642101 64.32098 -8.192157
16.10323 90.22785 -7.695186
16.72503 94.35489 -5.755099
17.27134 93.13995 -5.258672
13.43567 92.70139 -10.05723
8.44078 102.8584 -9.956395
16.19237 94.98415 -6.361548
11.54067 99.74432 -9.626993
13.92765 97.31414 -8.412625
11.15695 98.78284 -10.27151
5.659852 97.13802 -12.48442
12.04784 106.6846 -5.748596
11.46187 103.5738 -7.922245
12.30396 108.8046 -4.440819
10.18872 119.545 -2.815782
10.68894 125.0693 -4.805018
8.100727 127.7806 -8.281728
9.819416 127.0871 -6.979608
9.030461 127.9396 -7.961429
5.233955 130.2646 -10.2111
10.71066 123.2876 -3.538838
7.276078 123.7663 -6.591292
11.44916 141.1371 -11.81998
8.713504 63.84633 -8.113805
7.622643 64.11163 -8.159352
9.072459 65.23981 -8.322001
15.42443 89.13184 -8.386122
11.55763 102.717 -8.261955
14.28928 101.4379 -6.075827
10.18263 111.4249 -5.91879
8.9397 128.5365 -8.320096
12.42365 128.3997 -4.916076
7.251764 130.0792 -9.780638
6.421758 124.1717 -7.139863
12.08267 134.1155 -9.338925
5.293685 65.19428 -8.334759
10.44289 62.71537 -7.921411
15.27606 95.86431 -7.326586
16.56015 97.31408 -4.40619
12.8676 105.527 -5.575764
11.30433 107.674 -5.818107
10.85623 111.3155 -5.292629
8.948388 119.004 -3.943405
13.17946 129.6846 -4.502552
11.58259 130.2081 -7.480919
12.97282 131.8853 -6.993746
11.24356 132.6401 -9.151898
13.26492 134.1786 -8.347311
10.52536 134.1955 -10.29931
5.167965 131.3817 -10.61008
4.84833 121.0232 -6.40174
1.403713 119.1312 -7.510064
10.42418 140.0501 -12.10203
8.97676 142.5176 -12.42772
8.226439 68.80099 -8.522166
12.80931 93.93555 -10.38674
13.04371 107.6777 -4.209595
9.720145 116.4398 -4.612073
9.576714 133.8213 -10.59173
9.352988 122.5948 -4.614894
8.906227 123.9682 -5.746365
6.491264 121.2881 -5.891183
9.096987 120.9606 -4.088125
2.391887 123.3627 -7.556384
3.748049 71.81295 -9.226731
8.95428 120.3701 -4.337759
6.056599 118.561 -5.48035
9.203063 117.457 -3.462922
11.52064 134.9628 -10.13808
13.45661 135.6302 -9.046984
11.88815 125.966 -3.695465
10.28314 126.0125 -5.895548
8.737153 71.30475 -8.945687
4.422896 70.26497 -8.80022
11.67778 74.22092 -8.770468
8.869637 116.3528 -5.083957
10.72486 135.2079 -10.65174
9.072765 66.12388 -8.444177
7.920349 67.28025 -8.533162
7.965637 116.4778 -5.586697
12.81155 138.4849 -10.78176
14.91148 65.70628 -7.899081
12.27428 65.98273 -8.409346
10.45142 70.17435 -8.725058
16.27528 67.59009 -7.356215
16.54408 65.37878 -6.91476
17.64675 65.08334 -5.788025
13.38642 63.31823 -7.980585
10.83277 112.8489 -4.913274
10.4084 114.6374 -3.026987
8.679245 112.7229 -5.673341
6.397162 115.3614 -6.219784
11.65482 64.18661 -8.147848
14.33028 62.83626 -7.748342
9.189884 71.43685 -8.94578
10.3681 72.65317 -8.934493
15.25304 69.00903 -7.99721
5.202705 115.7604 -6.024167
14.3787 64.62621 -7.984114
5.618144 78.58375 -8.76607
8.666472 73.72879 -8.657925
13.44532 75.67082 -8.654931
15.70415 69.6077 -7.817325
4.991292 139.9317 -12.77157
2.414333 143.6291 -12.41662
3.052885 142.6351 -12.5543
7.527279 142.2217 -12.64674
18.25946 60.8302 -4.47478
3.900712 105.9861 -8.720167
3.228194 106.8215 -8.273656
5.482377 107.9765 -7.395319
8.209223 108.1086 -6.917641
7.447838 108.0965 -7.054864
17.53941 68.93067 -6.400229
15.178 71.96552 -8.146448
17.91996 71.58755 -6.153728
18.57497 73.82112 -5.330052
16.92592 72.16685 -7.15082
19.15525 69.6971 -4.039938
17.46447 77.99457 -6.529388
14.06028 73.90022 -8.541747
5.045372 98.47816 -12.17753
6.014096 96.51093 -12.59518
5.751932 95.65109 -12.7365
3.923045 94.93521 -12.85355
8.898919 95.67629 -12.21324
8.32333 95.86787 -12.33989
9.374658 93.28093 -12.27102
7.733041 92.65881 -12.64386
8.709288 92.45731 -12.41056
4.329572 91.95689 -12.75204
10.46095 94.60268 -11.76087
13.60786 93.85611 -9.74916
12.99786 91.97002 -10.38895
13.27543 92.06821 -10.19748
9.955375 91.75443 -12.00042
13.88176 106.1683 -3.95767
10.58087 143.475 -11.98974
8.574512 144.3439 -12.27814
4.7615 81.46074 -8.528383
7.55456 73.34482 -8.728485
2.072623 83.61877 -9.009473
4.065681 110.4207 -7.426856
2.490149 109.4735 -7.017791
9.531488 110.5311 -5.595645
6.800334 111.2231 -7.136519
6.258024 109.7418 -6.55448
9.227175 138.502 -12.31665
19.08723 73.15668 -4.466457
12.71286 87.33115 -9.989124
17.40933 88.33988 -6.246504
15.13117 86.60123 -8.329719
18.2407 85.74252 -5.45522
15.95145 101.1365 -3.337808
5.230171 59.70568 -7.686147
7.481635 86.36898 -10.65853
9.884857 89.31273 -11.62983
11.12413 91.06548 -11.46162
8.607849 88.36108 -11.60222
13.47798 89.51142 -9.955215
11.69387 90.56583 -11.1614
10.48597 101.1853 -9.755044
15.86237 98.23187 -5.200533
7.628048 105.1618 -8.895648
7.117597 104.9751 -9.11876
7.480097 106.239 -8.219003
7.192582 106.7594 -7.911719
7.69759 61.34547 -7.789894
10.65495 56.23614 -7.609704
6.26391 58.25133 -7.613986
13.46653 57.02452 -7.505728
7.370321 56.05613 -7.675393
11.17306 56.68853 -7.576256
15.40151 97.53113 -6.411829
8.695356 110.8689 -6.252695
9.331206 110.861 -5.892866
8.149878 131.5685 -10.1694
4.260408 133.8324 -11.5638
6.729907 140.8196 -12.79178
13.85137 95.09982 -9.227626
6.0872 117.7399 -5.18457
10.72367 124.3802 -4.237314
15.76167 61.9141 -6.993054
7.951861 141.4811 -12.65036
11.99122 78.31194 -8.685153
7.599164 90.29456 -12.30271
5.790009 79.25415 -8.564964
14.48649 84.19408 -8.398953
6.485766 81.90639 -8.60009
9.356972 81.84679 -8.663143
9.309814 82.23214 -8.714872
11.08241 83.36525 -8.981154
6.669596 74.47021 -8.52978
4.905777 74.14679 -8.486563
5.736116 84.04613 -9.242444
5.058291 83.63 -9.046858
6.844011 85.14682 -9.828685
7.757364 135.4356 -11.75573
7.130756 135.3108 -11.83979
18.95666 75.21179 -4.740785
17.60356 83.80904 -6.278475
16.84491 82.53391 -6.937247
15.94533 82.25016 -7.523897
14.69199 79.77855 -8.022306
15.94276 80.67371 -7.501539
16.6006 77.05305 -7.255985
16.19272 77.83737 -7.4654
15.20036 81.48473 -7.875384
18.15274 81.19255 -5.807559
12.13006 86.47072 -9.945021
10.39212 86.58683 -10.527
8.913161 83.61403 -9.028879
12.60656 57.00714 -7.539403
15.41392 58.37748 -7.004001
16.56477 60.48643 -6.225597
18.35953 61.82764 -4.228583
14.83428 60.15509 -7.277277
7.043262 75.66489 -8.872444
10.68791 75.86901 -8.848751
12.41647 75.89512 -8.749297
8.824575 73.51665 -8.708937
17.67156 76.15176 -6.411875
11.34286 76.68887 -8.813679
8.928893 80.57754 -8.575264
12.81115 80.60261 -8.530456
10.16383 81.96813 -8.696413
12.06144 85.0607 -9.394402
12.92151 61.24342 -7.733861
13.99185 76.47983 -8.485658
13.14678 56.20554 -7.568152
13.33796 74.87726 -8.685518
5.925274 122.9235 11.88385
0.05694484 83.12917 10.27484
1.396636 61.40622 6.645642
-0.08984733 84.86732 10.28018
4.538648 87.21843 10.24045
1.486341 97.9211 10.41243
0.06280073 55.32325 5.273197
1.629663 70.51127 8.777479
4.201265 57.54523 5.727746
1.882867 89.15881 10.13273
2.039527 91.25093 9.776414
1.541287 53.59864 4.90754
0.1692674 139.2037 10.0331
1.85229 105.7427 12.31792
2.45143 135.1253 13.31354
0.03902695 152.011 2.63907
5.053347 80.05704 10.10838
1.257872 141.1977 8.284341
0.5940254 115.3668 11.85215
3.281292 82.55614 10.2559
6.697682 152.3211 -2.605453
0.3313272 119.9948 11.93529
1.114588 123.4207 12.17317
0.6719102 150.6066 3.003728
1.522589 126.4414 12.26613
4.155163 76.38403 9.726886
8.328714 139.7014 8.992476
6.126472 129.0983 12.82747
1.191616 61.31394 6.622983
3.877477 104.7801 11.98179
4.392202 100.7298 10.80167
0.01766384 144.5675 5.981626
5.597058 125.1967 11.8923
5.306275 51.18994 4.334979
6.069532 87.86617 10.20503
5.354785 80.40475 10.13614
0.644018 112.226 11.925
5.228208 116.8388 11.63887
4.571531 54.57794 5.122514
6.455574 79.489 10.06011
0.4676995 93.66895 9.349587
5.50435 96.01286 9.548827
8.587543 134.8818 13.44884
7.525373 153.1414 -5.294712
6.669744 138.8885 10.28852
2.086728 123.6108 12.19644
0.3205321 143.7031 6.501059
5.7198 52.89787 4.749338
8.525845 152.4907 -5.014623
3.591834 57.78634 5.783706
4.078605 51.97029 4.532275
6.169524 88.52924 10.1617
2.080012 52.75086 4.718684
8.15458 141.7424 7.006096
7.726213 133.5053 13.84521
8.086877 132.9849 13.89656
1.324278 150.04 2.744347
8.938681 145.5231 3.401757
4.25665 119.6519 11.75072
2.335937 106.269 12.33063
0.03455424 119.0978 11.89853
1.963265 124.7253 12.24451
9.663034 150.9682 -1.905056
1.373759 54.88123 5.181678
6.628266 152.966 -3.250689
5.412352 85.88293 10.26419
3.70393 94.42184 9.365935
4.116074 88.56169 10.16821
6.149918 80.01907 10.10478
4.22305 78.5583 9.973224
3.550958 79.61034 10.07217
6.659148 82.98649 10.26044
3.285708 102.0812 11.494
3.024868 108.3831 12.27916
2.693784 102.6283 11.73072
3.188093 93.21604 9.401823
3.710142 99.73833 10.65342
3.828363 59.35881 6.141757
0.4506104 59.77 6.246816
3.84694 62.46566 6.907647
2.784141 72.48445 9.144586
5.323305 71.87029 9.034475
3.393604 74.00454 9.390401
2.383591 66.77805 7.959565
0.2171785 76.14497 9.699325
3.888999 78.16203 9.935568
2.953155 139.2787 9.945143
5.711944 135.7944 12.97847
1.916125 135.8813 12.89036
8.844974 135.4076 13.18407
6.232405 132.1889 13.87971
1.725784 131.2344 13.71696
8.608593 132.128 13.81577
1.911436 149.5413 2.818028
8.961872 146.745 2.214154
1.150245 141.1243 8.341139
8.462244 142.7625 6.116576
8.148668 143.5563 5.434515
4.692305 117.7319 11.61475
4.583748 108.0137 12.08463
3.784131 112.5483 11.82373
0.6850334 123.3067 12.16599
2.349638 125.4652 12.26746
5.128321 152.1791 -0.4327123
6.05754 153.1706 -2.573164
0.8433055 85.6291 10.27059
0.6011894 91.94143 9.61975
4.503408 94.16922 9.37169
0.7135186 89.37542 10.11364
4.504869 80.86928 10.17214
1.680781 102.6975 11.86211
1.629379 107.1131 12.34774
0.283686 103.334 12.04485
2.760567 98.86504 10.55838
4.199971 97.76403 10.01956
3.495612 57.08803 5.633801
1.722775 59.23143 6.117416
2.159864 63.54463 7.173979
5.021322 71.28848 8.929689
0.1060889 72.83007 9.203176
5.674994 70.66288 8.8088
6.046394 76.4597 9.73462
2.315042 62.85676 7.004333
3.083889 67.11131 8.039121
3.269346 76.27119 9.712539
3.511056 137.3818 11.73275
5.183115 139.5863 9.58446
7.899417 138.9681 10.06292
0.3633502 134.1936 13.70929
1.782807 133.4131 13.9054
3.152267 132.76 13.93686
5.831961 137.8199 11.37667
6.115466 137.8297 11.37394
7.152503 132.6214 13.88378
2.647061 127.6434 12.37123
5.252952 129.821 13.18607
1.263916 151.7386 2.311615
9.069571 146.5389 2.388462
1.445273 140.48 8.884664
3.430332 117.4725 11.80459
0.7072033 111.8574 11.95183
3.924945 113.4364 11.75214
3.9552 112.9378 11.78054
2.113006 118.5193 11.87804
3.601298 122.2538 12.05837
4.05798 123.6732 12.18575
5.906974 126.4882 11.79025
7.683731 148.9414 1.083227
0.4440364 87.22938 10.2473
5.215366 103.0765 11.22527
3.659881 106.6568 12.25693
3.892546 54.48849 5.101991
4.327566 67.74275 8.186429
0.1879342 72.36181 9.12433
3.105054 140.5471 8.765528
3.345807 142.8174 6.939711
1.299424 147.1733 4.330002
3.046266 148.4536 3.462671
3.035667 146.0391 4.876193
4.219426 145.2459 5.183754
4.35568 148.4661 3.083958
6.218642 148.737 2.122664
4.823403 119.0059 11.5668
3.783677 147.642 3.756228
3.424332 143.5511 6.430811
4.731425 142.9751 6.634133
3.717706 142.2503 7.323075
6.485209 153.9897 -4.866337
9.346125 151.5169 -3.504393
5.132844 151.027 0.3596013
5.386034 150.9879 0.1230931
2.232237 56.8744 5.593453
13.6635 126.4352 2.466473
7.658985 106.0908 10.85594
8.870107 97.45601 9.413906
7.478931 78.0911 9.922603
12.35136 66.8685 7.988379
17.82248 82.77588 8.295166
8.347428 81.99987 10.22672
8.513061 56.73158 5.512338
6.293752 54.96639 5.205418
9.436261 90.32359 9.936898
6.728428 94.64945 9.395806
6.804921 98.36919 9.776506
14.66097 151.6705 -5.58709
10.32585 131.1252 13.13144
8.086392 107.031 10.80989
9.174981 135.8935 12.78654
9.317294 139.088 9.401848
13.35174 136.164 9.040051
14.19748 130.4733 1.058969
6.328055 106.8746 11.46217
7.912575 123.2115 11.19594
10.53451 142.8878 5.565505
11.17421 149.8366 -0.998449
13.26018 115.2493 4.654684
5.901639 109.4961 11.54207
17.93715 52.89563 2.408635
14.80808 136.9218 2.454627
19.32723 53.12268 -1.897923
16.78721 102.3618 0.9418885
18.12916 95.27447 1.206914
18.74856 92.9435 1.844209
19.64709 64.06738 -0.3125021
11.96249 54.9459 5.185974
20.24243 71.29786 0.8537107
20.52072 83.89458 1.473158
13.01672 151.6084 -3.576823
20.51674 76.51593 0.3080094
14.8314 135.6207 2.722193
6.672895 62.73924 6.975725
14.90057 134.9683 -0.8933258
17.7432 87.49277 7.95919
18.2415 88.06722 7.197367
13.72761 150.7697 -1.865597
14.48439 145.5289 2.112099
13.23511 112.4372 4.673651
6.176836 119.8926 11.40721
13.81456 134.33 9.796453
14.49202 132.2905 -0.1529526
12.69995 120.1691 4.270555
19.20739 55.78415 -1.716114
15.26121 107.9025 0.8514704
9.416101 51.07547 4.260125
12.75766 51.4875 4.343925
11.82122 51.45139 4.342782
12.39003 61.58718 6.69382
7.45903 73.61524 9.3308
20.28374 72.21748 1.047324
7.671556 78.9249 10.00521
9.898582 88.21167 10.15191
11.08549 87.24787 10.2087
16.38813 103.8535 0.5535684
7.389148 102.3713 10.3703
10.30446 130.4914 12.91827
13.65558 127.1609 0.957068
11.04058 132.4345 12.99176
10.0672 139.1824 8.836558
9.14418 133.2589 13.68956
10.6419 145.5537 3.617723
10.577 140.9413 6.787577
14.37543 140.3053 3.685667
8.909553 120.0268 10.68785
13.12911 123.431 2.930779
12.11072 145.3669 3.292886
11.11814 149.0135 -0.2239967
18.85595 56.9974 0.2830887
14.56363 132.4017 0.7311107
14.79498 136.3533 3.216985
14.849 134.3154 2.519415
7.6887 59.40928 6.133597
7.416884 52.26659 4.595067
8.28941 52.99447 4.775129
20.18373 70.67862 -0.1076776
6.967657 66.74029 7.952906
8.232276 67.97483 8.245841
7.382555 66.50551 7.896799
6.885213 72.24629 9.102452
7.222049 79.89819 10.09563
19.93077 71.33743 3.168876
20.33959 77.80319 3.297872
10.05656 81.83453 10.22108
20.67442 79.84689 1.091202
9.961131 87.88585 10.17246
10.12218 94.2989 9.397972
8.451116 89.08361 10.09884
19.13505 90.99552 3.060148
16.00212 105.6536 1.319919
7.446872 104.327 10.77066
8.207458 97.85606 9.529324
7.668852 126.9049 11.45547
13.14428 123.6126 2.827719
13.53269 126.0285 1.691561
14.22472 130.2122 3.820786
14.95371 108.876 0.976452
14.54055 110.0559 2.539051
7.590537 108.2561 10.95118
10.41092 140.3998 7.256167
11.17905 138.1567 9.349594
9.605042 135.1919 13.07357
11.73265 131.8069 12.52024
13.48687 143.2438 3.912313
9.448284 142.7063 6.021948
9.355161 139.8096 8.435808
13.70789 115.3726 3.817225
8.559122 115.854 10.64214
12.72105 116.7407 4.281112
6.179568 120.4734 11.47903
12.70627 147.0855 1.85284
19.28432 54.42316 -2.125871
19.20533 58.98338 -0.1523444
6.62259 58.19513 5.849588
9.325129 59.29237 6.088855
15.23332 57.0038 5.180923
19.58104 63.2193 0.10318
8.341048 72.9263 9.218769
10.47595 76.00735 9.681221
20.35823 73.18642 0.7918127
20.06318 68.79523 0.3190718
10.99745 78.88086 10.00238
20.52919 83.89635 0.9459888
20.66464 79.56731 1.402407
20.058 86.27952 3.133177
7.73301 93.2732 9.440516
18.0384 95.63055 0.4574721
18.73024 87.79644 6.464887
17.62096 97.1066 2.588197
8.519042 104.3883 10.40101
7.156089 94.82462 9.400265
9.820194 128.0202 11.47106
13.32199 125.3614 1.220499
13.09753 122.275 3.567886
12.50817 129.7278 10.91553
14.29622 130.3862 5.038037
10.11146 128.3257 11.59035
15.03483 108.5007 3.65474
15.21988 108.3493 1.982536
14.19181 110.8785 1.837277
7.392986 105.7433 10.89561
12.05731 138.3362 8.124793
14.3714 132.5149 9.112782
11.86039 135.9859 11.23143
13.44898 116.7636 2.886979
12.8126 115.7437 6.74571
10.09953 110.7834 9.365173
9.111407 113.7482 9.437233
12.55917 120.3165 2.314523
12.47575 118.531 3.971143
6.765246 122.5431 11.64823
18.57899 54.87761 0.7423975
19.21844 57.61049 -0.9951178
19.09828 58.92365 0.2533126
13.09699 62.42383 6.886316
15.79917 54.84354 4.77993
10.26507 73.07217 9.24883
12.60284 71.36326 8.957845
13.233 75.20586 9.584302
20.27938 76.82092 3.410435
19.84964 75.544 4.61809
19.29149 73.81013 5.486446
19.6882 71.02044 3.916647
20.27225 78.13029 3.753819
